uniorb/output/strategy_4/Drop/Drop_KinoSat_111901.txt

KinoSat_111901
-------------------------
    Access    *     Start Time (UTCG)     *     Stop Time (UTCG)  *   Duration (s)        *       Station  *  Data (Mbytes)
         1   01 Jun 2027 03:41:21.888   01 Jun 2027 03:41:23.210             1.322              Murmansk2            41.313
         2   01 Jun 2027 03:41:25.341   01 Jun 2027 03:42:05.808            40.467                Irkutsk          1264.594
         3   01 Jun 2027 03:42:12.838   01 Jun 2027 03:42:23.669            10.831              Murmansk1           338.469
         4   01 Jun 2027 03:42:23.669   01 Jun 2027 03:43:26.955            63.286              Murmansk2          1977.688
         5   01 Jun 2027 03:43:28.368   01 Jun 2027 03:44:20.138            51.770                Novosib          1617.812
         6   01 Jun 2027 03:44:28.877   01 Jun 2027 03:46:26.709           117.832                Irkutsk          3682.250
         7   01 Jun 2027 03:46:36.906   01 Jun 2027 03:49:08.230           151.324                  Delhi          4728.875
         8   01 Jun 2027 05:20:09.635   01 Jun 2027 05:21:03.729            54.094              Murmansk2          1690.437
         9   01 Jun 2027 05:21:32.171   01 Jun 2027 05:23:18.417           106.246                Norilsk          3320.188
        10   01 Jun 2027 05:23:33.957   01 Jun 2027 05:25:07.053            93.096                Novosib          2909.250
        11   01 Jun 2027 05:25:11.094   01 Jun 2027 05:29:05.790           234.696                 Moscow          7334.250
        12   01 Jun 2027 05:41:14.720   01 Jun 2027 05:43:21.981           127.261               CapeTown          3976.906
        13   01 Jun 2027 05:44:28.950   01 Jun 2027 05:44:29.407             0.457               CapeTown            14.281
        14   01 Jun 2027 05:47:05.538   01 Jun 2027 05:48:11.967            66.429               CapeTown          2075.906
        15   01 Jun 2027 06:56:21.743   01 Jun 2027 06:57:42.069            80.326              Murmansk1          2510.188
        16   01 Jun 2027 06:58:09.929   01 Jun 2027 06:59:55.964           106.035              Murmansk1          3313.594
        17   01 Jun 2027 07:00:29.869   01 Jun 2027 07:00:39.106             9.237                 Moscow           288.656
        18   01 Jun 2027 07:01:30.647   01 Jun 2027 07:02:49.238            78.591                 Moscow          2455.969
        19   01 Jun 2027 07:17:06.035   01 Jun 2027 07:22:17.527           311.492               CapeTown          9734.125
        20   01 Jun 2027 08:20:19.849   01 Jun 2027 08:22:11.783           111.934                Anadyr1          3497.937
        21   01 Jun 2027 09:55:34.944   01 Jun 2027 09:57:13.107            98.163                Anadyr1          3067.594
        22   01 Jun 2027 09:57:55.340   01 Jun 2027 09:58:06.094            10.754                Anadyr1           336.062
        23   01 Jun 2027 09:58:33.787   01 Jun 2027 10:01:36.113           182.326                Anadyr2          5697.688
        24   01 Jun 2027 11:27:50.883   01 Jun 2027 11:30:30.509           159.626               Magadan2          4988.313
        25   01 Jun 2027 11:30:37.819   01 Jun 2027 11:33:46.023           188.204               Magadan1          5881.375
        26   01 Jun 2027 11:36:08.816   01 Jun 2027 11:36:51.858            43.042               Magadan2          1345.063
        27   01 Jun 2027 13:56:32.441   01 Jun 2027 13:59:50.983           198.542            RioGallegos          6204.438
        28   01 Jun 2027 14:29:24.423   01 Jun 2027 14:33:08.628           224.205                Sumatra          7006.406
        29   01 Jun 2027 14:40:37.976   01 Jun 2027 14:44:46.450           248.474                Irkutsk          7764.812
        30   01 Jun 2027 16:10:32.600   01 Jun 2027 16:17:00.174           387.574                  Delhi         12111.688
        31   01 Jun 2027 16:18:59.767   01 Jun 2027 16:22:56.072           236.305                Novosib          7384.531
        32   01 Jun 2027 19:33:41.814   01 Jun 2027 19:37:32.855           231.041                 Moscow          7220.031
        33   01 Jun 2027 19:37:49.280   01 Jun 2027 19:39:59.665           130.385              Murmansk1          4074.531
        34   01 Jun 2027 20:42:39.220   01 Jun 2027 20:45:53.585           194.365               CapeTown          6073.906
        35   01 Jun 2027 20:47:30.798   01 Jun 2027 20:50:21.752           170.954               CapeTown          5342.313
        36   01 Jun 2027 23:51:50.423   01 Jun 2027 23:54:03.975           133.552            RioGallegos          4173.500
        37   01 Jun 2027 23:55:21.633   01 Jun 2027 23:55:59.081            37.448            RioGallegos          1170.250
        38   01 Jun 2027 23:57:55.421   01 Jun 2027 23:59:00.220            64.799            RioGallegos          2024.969
        39   02 Jun 2027 00:33:05.999   02 Jun 2027 00:33:38.606            32.607                Anadyr1          1018.969
        40   02 Jun 2027 00:35:08.298   02 Jun 2027 00:35:24.234            15.936                Anadyr1           498.000
        41   02 Jun 2027 00:35:24.591   02 Jun 2027 00:37:11.324           106.733                Norilsk          3335.406
        42   02 Jun 2027 00:37:38.080   02 Jun 2027 00:38:11.577            33.497               Magadan1          1046.781
        43   02 Jun 2027 00:38:55.844   02 Jun 2027 00:39:10.554            14.710                Norilsk           459.687
        44   02 Jun 2027 00:39:20.984   02 Jun 2027 00:39:39.422            18.438               Magadan1           576.188
        45   02 Jun 2027 00:40:32.767   02 Jun 2027 00:41:03.442            30.675                Irkutsk           958.594
        46   02 Jun 2027 00:41:04.062   02 Jun 2027 00:43:14.389           130.327                Novosib          4072.719
        47   02 Jun 2027 00:49:43.180   02 Jun 2027 00:50:10.606            27.426                Irkutsk           857.062
        48   02 Jun 2027 00:53:11.168   02 Jun 2027 00:53:57.903            46.735                Sumatra          1460.469
        49   02 Jun 2027 00:56:49.038   02 Jun 2027 00:58:36.637           107.599                Sumatra          3362.469
        50   02 Jun 2027 01:31:54.300   02 Jun 2027 01:32:26.986            32.686            RioGallegos          1021.438
        51   02 Jun 2027 01:37:19.899   02 Jun 2027 01:37:44.267            24.368            RioGallegos           761.500
        52   02 Jun 2027 01:39:07.433   02 Jun 2027 01:39:51.969            44.536            RioGallegos          1391.750
        53   02 Jun 2027 02:08:28.420   02 Jun 2027 02:09:32.601            64.181                Anadyr2          2005.656
        54   02 Jun 2027 02:11:18.086   02 Jun 2027 02:12:20.555            62.469                Norilsk          1952.156
        55   02 Jun 2027 02:12:29.687   02 Jun 2027 02:12:37.034             7.347               Magadan2           229.594
        56   02 Jun 2027 02:13:48.871   02 Jun 2027 02:13:58.500             9.629               Magadan2           300.906
        57   02 Jun 2027 02:15:11.753   02 Jun 2027 02:18:08.840           177.087                Irkutsk          5533.969
        58   02 Jun 2027 02:22:56.260   02 Jun 2027 02:23:22.576            26.316                  Delhi           822.375
        59   02 Jun 2027 02:26:23.030   02 Jun 2027 02:27:11.882            48.852                  Delhi          1526.625
        60   02 Jun 2027 02:31:22.057   02 Jun 2027 02:35:40.014           257.957                Sumatra          8061.156
        61   02 Jun 2027 03:06:51.640   02 Jun 2027 03:07:13.222            21.582            RioGallegos           674.438
        62   02 Jun 2027 03:07:56.474   02 Jun 2027 03:08:03.549             7.075            RioGallegos           221.094
        63   02 Jun 2027 03:12:13.696   02 Jun 2027 03:12:41.525            27.829            RioGallegos           869.656
        64   02 Jun 2027 03:53:53.627   02 Jun 2027 03:54:25.274            31.647              Murmansk1           988.969
        65   02 Jun 2027 03:54:47.205   02 Jun 2027 03:55:48.822            61.617              Murmansk1          1925.531
        66   02 Jun 2027 03:56:09.469   02 Jun 2027 03:57:40.125            90.656              Murmansk1          2833.000
        67   02 Jun 2027 03:57:40.125   02 Jun 2027 03:58:13.634            33.509              Murmansk2          1047.156
        68   02 Jun 2027 03:58:51.219   02 Jun 2027 04:00:49.656           118.437                  Delhi          3701.156
        69   02 Jun 2027 04:00:59.668   02 Jun 2027 04:01:44.973            45.305                Novosib          1415.781
        70   02 Jun 2027 04:02:57.929   02 Jun 2027 04:03:35.448            37.519                Novosib          1172.469
        71   02 Jun 2027 04:08:45.743   02 Jun 2027 04:09:56.719            70.976                  Delhi          2218.000
        72   02 Jun 2027 05:34:14.367   02 Jun 2027 05:36:37.124           142.757                Novosib          4461.156
        73   02 Jun 2027 05:38:11.884   02 Jun 2027 05:38:54.012            42.128                 Moscow          1316.500
        74   02 Jun 2027 05:39:38.743   02 Jun 2027 05:41:19.046           100.303                 Moscow          3134.469
        75   02 Jun 2027 05:52:57.628   02 Jun 2027 05:56:25.211           207.583               CapeTown          6486.969
        76   02 Jun 2027 05:59:15.096   02 Jun 2027 06:00:20.024            64.928               CapeTown          2029.000
        77   02 Jun 2027 06:00:53.139   02 Jun 2027 06:02:22.179            89.040               CapeTown          2782.500
        78   02 Jun 2027 06:52:02.160   02 Jun 2027 06:52:29.250            27.090               Magadan1           846.562
        79   02 Jun 2027 06:56:28.788   02 Jun 2027 06:59:29.446           180.658                Anadyr2          5645.563
        80   02 Jun 2027 06:59:33.341   02 Jun 2027 06:59:52.417            19.076               Magadan2           596.125
        81   02 Jun 2027 07:01:38.016   02 Jun 2027 07:01:41.713             3.697               Magadan1           115.531
        82   02 Jun 2027 07:08:43.520   02 Jun 2027 07:08:53.311             9.791                Norilsk           305.969
        83   02 Jun 2027 07:16:20.538   02 Jun 2027 07:16:57.645            37.107                 Moscow          1159.594
        84   02 Jun 2027 07:37:07.792   02 Jun 2027 07:40:23.579           195.787               CapeTown          6118.344
        85   02 Jun 2027 08:32:19.807   02 Jun 2027 08:33:30.207            70.400                Anadyr2          2200.000
        86   02 Jun 2027 08:33:50.414   02 Jun 2027 08:34:41.354            50.940               Magadan2          1591.875
        87   02 Jun 2027 08:34:48.619   02 Jun 2027 08:36:35.888           107.269               Magadan1          3352.156
        88   02 Jun 2027 08:36:37.621   02 Jun 2027 08:38:06.761            89.140                Anadyr2          2785.625
        89   02 Jun 2027 10:06:38.226   02 Jun 2027 10:06:51.575            13.349               Magadan1           417.156
        90   02 Jun 2027 10:07:52.505   02 Jun 2027 10:09:50.172           117.667               Magadan2          3677.094
        91   02 Jun 2027 10:09:52.541   02 Jun 2027 10:10:55.006            62.465                Anadyr2          1952.031
        92   02 Jun 2027 10:11:11.782   02 Jun 2027 10:11:28.451            16.669               Magadan2           520.906
        93   02 Jun 2027 10:16:04.511   02 Jun 2027 10:16:14.642            10.131                Norilsk           316.594
        94   02 Jun 2027 10:49:17.090   02 Jun 2027 10:50:02.435            45.345            RioGallegos          1417.031
        95   02 Jun 2027 10:51:05.077   02 Jun 2027 10:51:13.058             7.981            RioGallegos           249.406
        96   02 Jun 2027 10:53:20.430   02 Jun 2027 10:53:47.657            27.227            RioGallegos           850.844
        97   02 Jun 2027 11:40:35.704   02 Jun 2027 11:48:25.879           470.175               Magadan1         14692.969
        98   02 Jun 2027 11:49:12.205   02 Jun 2027 11:49:38.127            25.922                Norilsk           810.063
        99   02 Jun 2027 12:24:13.077   02 Jun 2027 12:25:11.094            58.017            RioGallegos          1813.031
       100   02 Jun 2027 12:28:07.899   02 Jun 2027 12:28:30.089            22.190            RioGallegos           693.437
       101   02 Jun 2027 12:33:06.647   02 Jun 2027 12:33:08.215             1.568            RioGallegos            49.000
       102   02 Jun 2027 12:59:07.665   02 Jun 2027 13:02:09.499           181.834                Sumatra          5682.312
       103   02 Jun 2027 13:12:59.460   02 Jun 2027 13:15:46.301           166.841                Irkutsk          5213.781
       104   02 Jun 2027 14:03:19.049   02 Jun 2027 14:07:27.575           248.526            RioGallegos          7766.437
       105   02 Jun 2027 14:38:01.778   02 Jun 2027 14:41:58.580           236.802                Sumatra          7400.063
       106   02 Jun 2027 14:53:56.957   02 Jun 2027 14:58:42.813           285.856                Irkutsk          8933.000
       107   02 Jun 2027 16:24:45.353   02 Jun 2027 16:27:02.782           137.429                  Delhi          4294.656
       108   02 Jun 2027 16:32:37.639   02 Jun 2027 16:35:43.973           186.334                Novosib          5822.937
       109   02 Jun 2027 16:39:38.938   02 Jun 2027 16:39:55.276            16.338                Norilsk           510.562
       110   02 Jun 2027 18:04:33.863   02 Jun 2027 18:04:45.102            11.239                 Moscow           351.219
       111   02 Jun 2027 18:09:53.005   02 Jun 2027 18:10:56.110            63.105              Murmansk1          1972.031
       112   02 Jun 2027 18:12:12.748   02 Jun 2027 18:12:23.999            11.251              Murmansk1           351.594
       113   02 Jun 2027 18:13:25.451   02 Jun 2027 18:14:27.244            61.793                 Moscow          1931.031
       114   02 Jun 2027 18:24:16.560   02 Jun 2027 18:24:32.477            15.917                Anadyr2           497.406
       115   02 Jun 2027 18:25:52.372   02 Jun 2027 18:26:00.538             8.166                Anadyr2           255.188
       116   02 Jun 2027 18:26:33.485   02 Jun 2027 18:26:51.773            18.288                Anadyr2           571.500
       117   02 Jun 2027 18:29:32.299   02 Jun 2027 18:29:42.231             9.932                Anadyr1           310.375
       118   02 Jun 2027 18:30:07.537   02 Jun 2027 18:30:11.777             4.240                Anadyr1           132.500
       119   02 Jun 2027 19:17:05.768   02 Jun 2027 19:19:49.036           163.268               CapeTown          5102.125
       120   02 Jun 2027 19:46:48.010   02 Jun 2027 19:47:39.646            51.636              Murmansk2          1613.625
       121   02 Jun 2027 19:49:29.058   02 Jun 2027 19:52:11.965           162.907              Murmansk2          5090.844
       122   02 Jun 2027 19:53:24.179   02 Jun 2027 19:54:16.526            52.347              Murmansk1          1635.844
       123   02 Jun 2027 20:01:32.416   02 Jun 2027 20:02:02.304            29.888               Magadan2           934.000
       124   02 Jun 2027 20:06:25.431   02 Jun 2027 20:06:43.158            17.727               Magadan2           553.969
       125   02 Jun 2027 20:55:27.111   02 Jun 2027 21:01:11.580           344.469               CapeTown         10764.656
       126   02 Jun 2027 21:36:01.783   02 Jun 2027 21:37:11.131            69.348               Magadan2          2167.125
       127   02 Jun 2027 21:37:43.143   02 Jun 2027 21:38:20.185            37.042               Magadan2          1157.563
       128   02 Jun 2027 21:42:15.733   02 Jun 2027 21:42:45.931            30.198               Magadan2           943.688
       129   02 Jun 2027 21:47:53.316   02 Jun 2027 21:48:00.283             6.967               Magadan1           217.719
       130   02 Jun 2027 21:48:05.403   02 Jun 2027 21:48:06.785             1.382               Magadan1            43.188
       131   02 Jun 2027 23:09:31.752   02 Jun 2027 23:14:49.157           317.405                Anadyr1          9918.906
       132   02 Jun 2027 23:14:49.157   02 Jun 2027 23:15:02.689            13.532                Anadyr2           422.875
       133   02 Jun 2027 23:15:05.920   02 Jun 2027 23:16:06.515            60.595               Magadan1          1893.594
       134   02 Jun 2027 23:16:07.607   02 Jun 2027 23:16:28.620            21.013                Norilsk           656.656
       135   02 Jun 2027 23:16:52.887   02 Jun 2027 23:17:26.266            33.379               Magadan2          1043.094
       136   02 Jun 2027 23:18:13.987   02 Jun 2027 23:18:47.872            33.885                Irkutsk          1058.906
       137   02 Jun 2027 23:18:56.477   02 Jun 2027 23:19:12.196            15.719                Irkutsk           491.219
       138   02 Jun 2027 23:19:26.051   02 Jun 2027 23:19:38.019            11.968                Irkutsk           374.000
       139   02 Jun 2027 23:20:17.558   02 Jun 2027 23:20:49.141            31.583                Irkutsk           986.969
       140   02 Jun 2027 23:22:37.986   02 Jun 2027 23:23:09.308            31.322                Irkutsk           978.813
       141   03 Jun 2027 00:03:42.326   03 Jun 2027 00:05:26.130           103.804            RioGallegos          3243.875
       142   03 Jun 2027 00:06:04.530   03 Jun 2027 00:07:05.899            61.369            RioGallegos          1917.781
       143   03 Jun 2027 00:10:59.956   03 Jun 2027 00:11:10.274            10.318            RioGallegos           322.438
       144   03 Jun 2027 00:12:01.369   03 Jun 2027 00:12:48.507            47.138            RioGallegos          1473.062
       145   03 Jun 2027 00:45:02.019   03 Jun 2027 00:45:47.469            45.450                Anadyr2          1420.312
       146   03 Jun 2027 00:46:32.355   03 Jun 2027 00:47:19.917            47.562                Anadyr1          1486.312
       147   03 Jun 2027 00:47:20.642   03 Jun 2027 00:47:43.009            22.367                Norilsk           698.969
       148   03 Jun 2027 00:47:55.974   03 Jun 2027 00:48:49.125            53.151               Magadan1          1660.969
       149   03 Jun 2027 00:48:49.125   03 Jun 2027 00:49:11.250            22.125               Magadan2           691.406
       150   03 Jun 2027 00:49:20.058   03 Jun 2027 00:49:42.049            21.991               Magadan2           687.219
       151   03 Jun 2027 00:50:49.537   03 Jun 2027 00:51:11.561            22.024               Magadan1           688.250
       152   03 Jun 2027 00:51:24.056   03 Jun 2027 00:53:21.198           117.142                Irkutsk          3660.688
       153   03 Jun 2027 00:54:12.951   03 Jun 2027 00:55:01.424            48.473                Novosib          1514.781
       154   03 Jun 2027 01:05:05.617   03 Jun 2027 01:05:41.454            35.837                Sumatra          1119.906
       155   03 Jun 2027 01:08:11.382   03 Jun 2027 01:08:47.492            36.110                Sumatra          1128.438
       156   03 Jun 2027 01:13:36.380   03 Jun 2027 01:14:39.520            63.140                Sumatra          1973.125
       157   03 Jun 2027 01:42:34.278   03 Jun 2027 01:42:35.089             0.811            RioGallegos            25.344
       158   03 Jun 2027 01:43:14.538   03 Jun 2027 01:44:02.034            47.496            RioGallegos          1484.250
       159   03 Jun 2027 01:51:47.263   03 Jun 2027 01:51:58.422            11.159            RioGallegos           348.719
       160   03 Jun 2027 02:19:31.950   03 Jun 2027 02:20:27.339            55.389                Anadyr2          1730.906
       161   03 Jun 2027 02:20:45.638   03 Jun 2027 02:21:41.577            55.939                Anadyr2          1748.094
       162   03 Jun 2027 02:23:20.550   03 Jun 2027 02:23:30.132             9.582                Norilsk           299.438
       163   03 Jun 2027 02:23:40.195   03 Jun 2027 02:24:14.604            34.409                Norilsk          1075.281
       164   03 Jun 2027 02:24:24.775   03 Jun 2027 02:24:27.922             3.147                Norilsk            98.344
       165   03 Jun 2027 02:26:21.967   03 Jun 2027 02:26:47.703            25.736                Norilsk           804.250
       166   03 Jun 2027 02:27:14.031   03 Jun 2027 02:28:26.194            72.163                Novosib          2255.094
       167   03 Jun 2027 02:28:32.068   03 Jun 2027 02:29:12.230            40.162                Novosib          1255.062
       168   03 Jun 2027 02:29:39.855   03 Jun 2027 02:30:00.193            20.338                Irkutsk           635.563
       169   03 Jun 2027 02:32:39.707   03 Jun 2027 02:32:49.992            10.285                Irkutsk           321.406
       170   03 Jun 2027 02:34:44.913   03 Jun 2027 02:35:41.793            56.880                  Delhi          1777.500
       171   03 Jun 2027 02:42:19.317   03 Jun 2027 02:43:23.519            64.202                  Delhi          2006.312
       172   03 Jun 2027 02:45:00.403   03 Jun 2027 02:48:20.830           200.427                Sumatra          6263.344
       173   03 Jun 2027 03:19:32.837   03 Jun 2027 03:19:45.150            12.313            RioGallegos           384.781
       174   03 Jun 2027 04:06:21.374   03 Jun 2027 04:06:25.406             4.032              Murmansk1           126.000
       175   03 Jun 2027 04:06:54.199   03 Jun 2027 04:07:26.522            32.323                Norilsk          1010.094
       176   03 Jun 2027 04:08:00.793   03 Jun 2027 04:09:09.947            69.154              Murmansk1          2161.062
       177   03 Jun 2027 04:09:09.947   03 Jun 2027 04:09:54.923            44.976              Murmansk2          1405.500
       178   03 Jun 2027 04:10:08.935   03 Jun 2027 04:11:55.125           106.190                Irkutsk          3318.437
       179   03 Jun 2027 04:12:09.603   03 Jun 2027 04:13:16.809            67.206                Novosib          2100.187
       180   03 Jun 2027 04:14:32.336   03 Jun 2027 04:16:20.149           107.813                  Delhi          3369.156
       181   03 Jun 2027 05:44:55.985   03 Jun 2027 05:45:17.498            21.513                Norilsk           672.281
       182   03 Jun 2027 05:46:09.660   03 Jun 2027 05:48:04.166           114.506                Novosib          3578.312
       183   03 Jun 2027 05:48:21.829   03 Jun 2027 05:48:35.835            14.006                 Moscow           437.687
       184   03 Jun 2027 05:48:47.588   03 Jun 2027 05:50:16.188            88.600                 Moscow          2768.750
       185   03 Jun 2027 06:04:45.943   03 Jun 2027 06:05:07.446            21.503               CapeTown           671.969
       186   03 Jun 2027 06:05:45.716   03 Jun 2027 06:07:15.262            89.546               CapeTown          2798.313
       187   03 Jun 2027 07:07:30.433   03 Jun 2027 07:07:51.733            21.300                Anadyr2           665.625
       188   03 Jun 2027 07:07:51.733   03 Jun 2027 07:08:02.117            10.384                Anadyr1           324.500
       189   03 Jun 2027 07:08:03.691   03 Jun 2027 07:08:18.423            14.732                Anadyr1           460.375
       190   03 Jun 2027 07:08:30.561   03 Jun 2027 07:09:15.220            44.659                Anadyr2          1395.594
       191   03 Jun 2027 07:09:20.315   03 Jun 2027 07:09:26.307             5.992               Magadan2           187.250
       192   03 Jun 2027 07:09:34.813   03 Jun 2027 07:09:45.296            10.483               Magadan2           327.594
       193   03 Jun 2027 07:10:09.446   03 Jun 2027 07:10:53.757            44.311                Anadyr1          1384.719
       194   03 Jun 2027 07:11:33.115   03 Jun 2027 07:11:55.454            22.339               Magadan2           698.094
       195   03 Jun 2027 07:20:55.194   03 Jun 2027 07:21:15.026            19.832                Norilsk           619.750
       196   03 Jun 2027 07:23:46.198   03 Jun 2027 07:24:41.682            55.484                 Moscow          1733.875
       197   03 Jun 2027 07:28:24.704   03 Jun 2027 07:28:43.201            18.497                 Moscow           578.031
       198   03 Jun 2027 07:42:10.208   03 Jun 2027 07:46:54.857           284.649               CapeTown          8895.281
       199   03 Jun 2027 08:42:03.935   03 Jun 2027 08:42:47.716            43.781               Magadan1          1368.156
       200   03 Jun 2027 08:43:01.606   03 Jun 2027 08:43:16.620            15.014               Magadan1           469.188
       201   03 Jun 2027 08:43:24.762   03 Jun 2027 08:44:19.203            54.441                Anadyr2          1701.281
       202   03 Jun 2027 08:44:41.787   03 Jun 2027 08:45:53.439            71.652               Magadan2          2239.125
       203   03 Jun 2027 08:46:14.520   03 Jun 2027 08:47:42.031            87.511                Anadyr1          2734.719
       204   03 Jun 2027 10:17:16.481   03 Jun 2027 10:18:04.775            48.294               Magadan1          1509.187
       205   03 Jun 2027 10:18:09.326   03 Jun 2027 10:18:47.533            38.207               Magadan1          1193.969
       206   03 Jun 2027 10:19:28.864   03 Jun 2027 10:22:21.677           172.813                Anadyr2          5400.406
       207   03 Jun 2027 10:22:59.820   03 Jun 2027 10:23:15.813            15.993               Magadan1           499.781
       208   03 Jun 2027 10:23:22.580   03 Jun 2027 10:24:01.414            38.834               Magadan2          1213.562
       209   03 Jun 2027 10:28:15.599   03 Jun 2027 10:28:17.018             1.419                Norilsk            44.344
       210   03 Jun 2027 11:00:59.900   03 Jun 2027 11:02:06.255            66.355            RioGallegos          2073.594
       211   03 Jun 2027 11:05:21.329   03 Jun 2027 11:05:27.498             6.169            RioGallegos           192.781
       212   03 Jun 2027 11:09:33.681   03 Jun 2027 11:10:22.878            49.197            RioGallegos          1537.406
       213   03 Jun 2027 11:40:12.027   03 Jun 2027 11:40:21.966             9.939                Sumatra           310.594
       214   03 Jun 2027 11:40:42.289   03 Jun 2027 11:40:44.106             1.817                Sumatra            56.781
       215   03 Jun 2027 11:53:29.257   03 Jun 2027 12:00:18.009           408.752               Magadan2         12773.500
       216   03 Jun 2027 13:34:29.301   03 Jun 2027 13:35:07.537            38.236                Irkutsk          1194.875
       217   03 Jun 2027 14:16:19.570   03 Jun 2027 14:20:24.537           244.967            RioGallegos          7655.219
       218   03 Jun 2027 15:08:16.391   03 Jun 2027 15:09:39.590            83.199                Novosib          2599.969
       219   03 Jun 2027 15:16:31.637   03 Jun 2027 15:17:15.058            43.421                Norilsk          1356.906
       220   03 Jun 2027 16:39:41.627   03 Jun 2027 16:40:59.875            78.248                 Moscow          2445.250
       221   03 Jun 2027 16:41:58.570   03 Jun 2027 16:42:59.288            60.718                 Moscow          1897.438
       222   03 Jun 2027 16:43:07.370   03 Jun 2027 16:44:06.539            59.169              Murmansk2          1849.031
       223   03 Jun 2027 16:46:59.954   03 Jun 2027 16:49:53.335           173.381                Norilsk          5418.156
       224   03 Jun 2027 16:51:07.687   03 Jun 2027 16:52:48.619           100.932                Norilsk          3154.125
       225   03 Jun 2027 18:01:04.205   03 Jun 2027 18:01:42.755            38.550               CapeTown          1204.687
       226   03 Jun 2027 18:16:58.545   03 Jun 2027 18:18:12.207            73.662                 Moscow          2301.937
       227   03 Jun 2027 18:20:08.764   03 Jun 2027 18:20:22.450            13.686              Murmansk1           427.687
       228   03 Jun 2027 18:21:47.796   03 Jun 2027 18:22:27.878            40.082              Murmansk2          1252.563
       229   03 Jun 2027 18:23:41.396   03 Jun 2027 18:24:27.925            46.529              Murmansk2          1454.031
       230   03 Jun 2027 18:25:04.000   03 Jun 2027 18:26:25.181            81.181                 Moscow          2536.906
       231   03 Jun 2027 18:38:01.221   03 Jun 2027 18:38:29.919            28.698                Anadyr1           896.812
       232   03 Jun 2027 19:29:10.517   03 Jun 2027 19:30:32.341            81.824               CapeTown          2557.000
       233   03 Jun 2027 19:32:13.049   03 Jun 2027 19:32:55.542            42.493               CapeTown          1327.906
       234   03 Jun 2027 19:38:03.077   03 Jun 2027 19:38:50.543            47.466               CapeTown          1483.313
       235   03 Jun 2027 19:59:24.462   03 Jun 2027 20:00:37.526            73.064              Murmansk2          2283.250
       236   03 Jun 2027 20:01:30.123   03 Jun 2027 20:04:58.440           208.317              Murmansk2          6509.906
       237   03 Jun 2027 20:05:08.867   03 Jun 2027 20:07:47.555           158.688              Murmansk1          4959.000
       238   03 Jun 2027 21:09:08.261   03 Jun 2027 21:11:04.959           116.698               CapeTown          3646.813
       239   03 Jun 2027 21:45:39.842   03 Jun 2027 21:46:26.041            46.199                Anadyr2          1443.719
       240   03 Jun 2027 21:46:27.831   03 Jun 2027 21:46:29.093             1.262                Anadyr2            39.438
       241   03 Jun 2027 21:46:31.833   03 Jun 2027 21:47:18.483            46.650                Anadyr2          1457.813
       242   03 Jun 2027 21:48:00.600   03 Jun 2027 21:49:11.746            71.146               Magadan2          2223.313
       243   03 Jun 2027 21:49:38.030   03 Jun 2027 21:50:12.395            34.365               Magadan2          1073.906
       244   03 Jun 2027 21:50:21.260   03 Jun 2027 21:50:29.026             7.766               Magadan2           242.688
       245   03 Jun 2027 21:50:38.176   03 Jun 2027 21:51:30.195            52.019               Magadan2          1625.594
       246   03 Jun 2027 21:56:44.154   03 Jun 2027 21:56:53.150             8.996               Magadan1           281.125
       247   03 Jun 2027 21:59:54.779   03 Jun 2027 21:59:55.072             0.293               Magadan1             9.156
       248   03 Jun 2027 23:21:32.132   03 Jun 2027 23:25:18.104           225.972                Anadyr2          7061.625
       249   03 Jun 2027 23:25:21.082   03 Jun 2027 23:26:28.177            67.095                Anadyr1          2096.719
       250   03 Jun 2027 23:26:28.440   03 Jun 2027 23:27:36.808            68.368               Magadan1          2136.500
       251   03 Jun 2027 23:28:09.168   03 Jun 2027 23:29:31.565            82.397               Magadan2          2574.906
       252   03 Jun 2027 23:30:16.948   03 Jun 2027 23:30:49.933            32.985                Irkutsk          1030.781
       253   03 Jun 2027 23:31:24.206   03 Jun 2027 23:31:45.076            20.870                Irkutsk           652.188
       254   03 Jun 2027 23:31:59.145   03 Jun 2027 23:32:01.658             2.513                Irkutsk            78.531
       255   03 Jun 2027 23:32:50.216   03 Jun 2027 23:32:55.641             5.425               Magadan2           169.531
       256   03 Jun 2027 23:32:58.133   03 Jun 2027 23:34:04.757            66.624                Irkutsk          2082.000
       257   03 Jun 2027 23:45:06.621   03 Jun 2027 23:46:26.306            79.685                Sumatra          2490.156
       258   03 Jun 2027 23:47:58.563   03 Jun 2027 23:49:12.438            73.875                Sumatra          2308.594
       259   04 Jun 2027 00:19:13.639   04 Jun 2027 00:19:16.421             2.782            RioGallegos            86.937
       260   04 Jun 2027 00:20:38.496   04 Jun 2027 00:21:00.877            22.381            RioGallegos           699.406
       261   04 Jun 2027 00:26:48.238   04 Jun 2027 00:27:02.107            13.869            RioGallegos           433.406
       262   04 Jun 2027 00:56:57.053   04 Jun 2027 00:57:03.989             6.936                Anadyr2           216.750
       263   04 Jun 2027 00:57:05.711   04 Jun 2027 00:57:34.440            28.729                Anadyr1           897.781
       264   04 Jun 2027 00:58:00.369   04 Jun 2027 00:59:13.977            73.608                Anadyr1          2300.250
       265   04 Jun 2027 00:59:22.368   04 Jun 2027 00:59:39.321            16.953                Norilsk           529.781
       266   04 Jun 2027 00:59:59.336   04 Jun 2027 01:01:38.766            99.430               Magadan2          3107.187
       267   04 Jun 2027 01:02:17.460   04 Jun 2027 01:03:49.127            91.667               Magadan2          2864.594
       268   04 Jun 2027 01:04:16.904   04 Jun 2027 01:04:55.252            38.348                Novosib          1198.375
       269   04 Jun 2027 01:05:02.630   04 Jun 2027 01:06:13.457            70.827                Irkutsk          2213.344
       270   04 Jun 2027 01:17:05.794   04 Jun 2027 01:19:18.015           132.221                Sumatra          4131.906
       271   04 Jun 2027 01:54:22.732   04 Jun 2027 01:54:59.694            36.962            RioGallegos          1155.062
       272   04 Jun 2027 01:57:42.000   04 Jun 2027 01:57:58.025            16.025            RioGallegos           500.781
       273   04 Jun 2027 01:59:51.460   04 Jun 2027 02:00:13.803            22.343            RioGallegos           698.219
       274   04 Jun 2027 02:32:26.760   04 Jun 2027 02:33:42.765            76.005                Anadyr2          2375.156
       275   04 Jun 2027 02:35:22.981   04 Jun 2027 02:36:09.309            46.328                Norilsk          1447.750
       276   04 Jun 2027 02:36:14.706   04 Jun 2027 02:36:37.293            22.587                Norilsk           705.844
       277   04 Jun 2027 02:37:37.452   04 Jun 2027 02:38:09.137            31.685                Norilsk           990.156
       278   04 Jun 2027 02:38:42.233   04 Jun 2027 02:38:59.403            17.170              Murmansk1           536.563
       279   04 Jun 2027 02:38:59.403   04 Jun 2027 02:39:09.067             9.664              Murmansk2           302.000
       280   04 Jun 2027 02:39:13.426   04 Jun 2027 02:40:31.263            77.837                Novosib          2432.406
       281   04 Jun 2027 02:41:07.069   04 Jun 2027 02:41:08.781             1.712                Irkutsk            53.500
       282   04 Jun 2027 02:41:49.164   04 Jun 2027 02:41:57.110             7.946                Irkutsk           248.313
       283   04 Jun 2027 02:43:14.759   04 Jun 2027 02:43:23.731             8.972                Irkutsk           280.375
       284   04 Jun 2027 02:46:37.852   04 Jun 2027 02:47:33.839            55.987                  Delhi          1749.594
       285   04 Jun 2027 02:53:34.107   04 Jun 2027 02:53:39.844             5.737                  Delhi           179.281
       286   04 Jun 2027 02:53:59.511   04 Jun 2027 02:54:24.851            25.340                  Delhi           791.875
       287   04 Jun 2027 02:58:47.177   04 Jun 2027 02:59:16.911            29.734                  Delhi           929.187
       288   04 Jun 2027 03:29:08.626   04 Jun 2027 03:30:39.695            91.069            RioGallegos          2845.906
       289   04 Jun 2027 03:35:21.961   04 Jun 2027 03:36:15.677            53.716            RioGallegos          1678.625
       290   04 Jun 2027 04:18:11.914   04 Jun 2027 04:18:53.028            41.114                Norilsk          1284.812
       291   04 Jun 2027 04:19:31.452   04 Jun 2027 04:20:43.793            72.341                Novosib          2260.656
       292   04 Jun 2027 04:20:49.560   04 Jun 2027 04:20:55.805             6.245                Norilsk           195.156
       293   04 Jun 2027 04:21:02.206   04 Jun 2027 04:23:11.214           129.008                Irkutsk          4031.500
       294   04 Jun 2027 04:23:49.326   04 Jun 2027 04:24:52.604            63.278                Novosib          1977.438
       295   04 Jun 2027 04:26:54.742   04 Jun 2027 04:26:58.313             3.571                Novosib           111.594
       296   04 Jun 2027 05:57:58.072   04 Jun 2027 05:59:27.949            89.877                Novosib          2808.656
       297   04 Jun 2027 05:59:52.833   04 Jun 2027 06:00:24.844            32.011                 Moscow          1000.344
       298   04 Jun 2027 06:00:31.814   04 Jun 2027 06:01:21.063            49.249                 Moscow          1539.031
       299   04 Jun 2027 06:03:58.484   04 Jun 2027 06:05:35.608            97.124                 Moscow          3035.125
       300   04 Jun 2027 06:20:32.044   04 Jun 2027 06:22:37.724           125.680               CapeTown          3927.500
       301   04 Jun 2027 07:19:47.796   04 Jun 2027 07:20:04.559            16.763                Anadyr1           523.844
       302   04 Jun 2027 07:20:04.559   04 Jun 2027 07:20:23.409            18.850                Anadyr2           589.063
       303   04 Jun 2027 07:20:32.220   04 Jun 2027 07:21:20.010            47.790                Anadyr1          1493.437
       304   04 Jun 2027 07:22:09.043   04 Jun 2027 07:22:20.655            11.612                Anadyr2           362.875
       305   04 Jun 2027 07:54:59.089   04 Jun 2027 07:59:24.351           265.262               CapeTown          8289.438
       306   04 Jun 2027 08:53:52.334   04 Jun 2027 08:55:15.285            82.951                Anadyr1          2592.219
       307   04 Jun 2027 08:55:24.433   04 Jun 2027 08:55:39.570            15.137               Magadan1           473.031
       308   04 Jun 2027 08:56:09.576   04 Jun 2027 08:56:50.226            40.650               Magadan2          1270.312
       309   04 Jun 2027 08:57:03.940   04 Jun 2027 08:59:54.497           170.557                Anadyr2          5329.906
       310   04 Jun 2027 10:30:31.295   04 Jun 2027 10:30:58.082            26.787               Magadan2           837.094
       311   04 Jun 2027 10:30:59.711   04 Jun 2027 10:31:46.346            46.635               Magadan2          1457.344
       312   04 Jun 2027 10:31:46.618   04 Jun 2027 10:33:51.043           124.425               Magadan1          3888.281
       313   04 Jun 2027 10:34:18.100   04 Jun 2027 10:34:26.133             8.033                Anadyr2           251.031
       314   04 Jun 2027 10:35:14.612   04 Jun 2027 10:35:36.100            21.488               Magadan1           671.500
       315   04 Jun 2027 10:35:37.743   04 Jun 2027 10:37:33.904           116.161               Magadan2          3630.031
       316   04 Jun 2027 11:50:22.697   04 Jun 2027 11:52:07.516           104.819                Sumatra          3275.594
       317   04 Jun 2027 12:06:36.555   04 Jun 2027 12:11:47.286           310.731               Magadan2          9710.344
       318   04 Jun 2027 13:28:49.777   04 Jun 2027 13:28:55.018             5.241                Sumatra           163.781
       319   04 Jun 2027 13:31:54.402   04 Jun 2027 13:32:37.037            42.635                Sumatra          1332.344
       320   04 Jun 2027 13:38:02.878   04 Jun 2027 13:39:20.029            77.151                Irkutsk          2410.969
       321   04 Jun 2027 13:45:29.070   04 Jun 2027 13:46:08.104            39.034                Irkutsk          1219.812
       322   04 Jun 2027 13:47:55.635   04 Jun 2027 13:48:23.633            27.998                Irkutsk           874.937
       323   04 Jun 2027 14:29:44.688   04 Jun 2027 14:33:14.683           209.995            RioGallegos          6562.344
       324   04 Jun 2027 15:15:33.863   04 Jun 2027 15:16:18.029            44.166                Novosib          1380.187
       325   04 Jun 2027 15:19:33.780   04 Jun 2027 15:19:50.412            16.632                Norilsk           519.750
       326   04 Jun 2027 15:20:28.697   04 Jun 2027 15:21:30.791            62.094                Novosib          1940.438
       327   04 Jun 2027 15:22:54.272   04 Jun 2027 15:25:31.825           157.553                Novosib          4923.531
       328   04 Jun 2027 16:53:45.296   04 Jun 2027 16:54:42.021            56.725                 Moscow          1772.656
       329   04 Jun 2027 16:58:15.403   04 Jun 2027 16:58:30.625            15.222              Murmansk2           475.688
       330   04 Jun 2027 16:59:45.002   04 Jun 2027 17:05:52.114           367.112                Norilsk         11472.250
       331   04 Jun 2027 18:29:27.989   04 Jun 2027 18:30:41.068            73.079                 Moscow          2283.719
       332   04 Jun 2027 18:33:29.362   04 Jun 2027 18:33:39.889            10.527              Murmansk2           328.969
       333   04 Jun 2027 18:33:46.199   04 Jun 2027 18:34:54.123            67.924                 Moscow          2122.625
       334   04 Jun 2027 18:36:35.645   04 Jun 2027 18:37:39.067            63.422              Murmansk2          1981.937
       335   04 Jun 2027 18:53:31.691   04 Jun 2027 18:53:54.601            22.910                Anadyr2           715.938
       336   04 Jun 2027 18:54:30.572   04 Jun 2027 18:55:07.957            37.385                Anadyr2          1168.281
       337   04 Jun 2027 19:41:18.154   04 Jun 2027 19:41:58.148            39.994               CapeTown          1249.813
       338   04 Jun 2027 19:43:59.313   04 Jun 2027 19:45:38.348            99.035               CapeTown          3094.844
       339   04 Jun 2027 20:12:04.463   04 Jun 2027 20:18:16.733           372.270              Murmansk2         11633.437
       340   04 Jun 2027 21:57:41.682   04 Jun 2027 21:59:27.845           106.163                Anadyr1          3317.594
       341   04 Jun 2027 21:59:31.118   04 Jun 2027 22:00:47.618            76.500                Anadyr2          2390.625
       342   04 Jun 2027 22:01:20.551   04 Jun 2027 22:04:31.758           191.207               Magadan1          5975.219
       343   04 Jun 2027 22:08:23.596   04 Jun 2027 22:08:54.247            30.651               Magadan1           957.844
       344   04 Jun 2027 22:54:05.438   04 Jun 2027 22:56:29.578           144.140            RioGallegos          4504.375
       345   04 Jun 2027 22:58:46.191   04 Jun 2027 22:59:09.746            23.555            RioGallegos           736.094
       346   04 Jun 2027 23:33:32.103   04 Jun 2027 23:34:55.192            83.089                Anadyr2          2596.531
       347   04 Jun 2027 23:35:09.343   04 Jun 2027 23:35:29.084            19.741                Anadyr1           616.906
       348   04 Jun 2027 23:35:36.769   04 Jun 2027 23:35:46.695             9.926                Anadyr1           310.187
       349   04 Jun 2027 23:35:55.119   04 Jun 2027 23:37:36.998           101.879               Magadan1          3183.719
       350   04 Jun 2027 23:37:37.930   04 Jun 2027 23:38:22.609            44.679               Magadan2          1396.219
       351   04 Jun 2027 23:38:56.980   04 Jun 2027 23:39:00.307             3.327                Norilsk           103.969
       352   04 Jun 2027 23:39:06.998   04 Jun 2027 23:40:00.952            53.954               Magadan1          1686.063
       353   04 Jun 2027 23:42:22.652   04 Jun 2027 23:42:52.792            30.140                Irkutsk           941.875
       354   04 Jun 2027 23:44:37.607   04 Jun 2027 23:44:47.203             9.596                Irkutsk           299.875
       355   04 Jun 2027 23:46:00.164   04 Jun 2027 23:47:16.997            76.833                Irkutsk          2401.031
       356   04 Jun 2027 23:55:48.799   04 Jun 2027 23:57:12.822            84.023                Sumatra          2625.719
       357   05 Jun 2027 00:03:30.645   05 Jun 2027 00:03:52.890            22.245                Sumatra           695.156
       358   05 Jun 2027 00:31:22.624   05 Jun 2027 00:32:13.998            51.374            RioGallegos          1605.437
       359   05 Jun 2027 01:08:51.016   05 Jun 2027 01:09:36.676            45.660                Anadyr1          1426.875
       360   05 Jun 2027 01:09:54.446   05 Jun 2027 01:10:30.089            35.643                Anadyr1          1113.844
       361   05 Jun 2027 01:11:05.815   05 Jun 2027 01:11:31.643            25.828                Anadyr2           807.125
       362   05 Jun 2027 01:11:52.876   05 Jun 2027 01:13:18.227            85.351                Norilsk          2667.219
       363   05 Jun 2027 01:13:28.454   05 Jun 2027 01:15:22.782           114.328               Magadan1          3572.750
       364   05 Jun 2027 01:16:03.027   05 Jun 2027 01:16:56.275            53.248                Novosib          1664.000
       365   05 Jun 2027 01:18:18.436   05 Jun 2027 01:18:47.628            29.192                Novosib           912.250
       366   05 Jun 2027 01:24:08.804   05 Jun 2027 01:24:35.376            26.572                Novosib           830.375
       367   05 Jun 2027 01:26:26.090   05 Jun 2027 01:27:24.588            58.498                  Delhi          1828.062
       368   05 Jun 2027 01:29:53.612   05 Jun 2027 01:32:11.323           137.711                Sumatra          4303.469
       369   05 Jun 2027 02:12:10.644   05 Jun 2027 02:12:14.649             4.005            RioGallegos           125.156
       370   05 Jun 2027 02:13:03.554   05 Jun 2027 02:14:42.380            98.826            RioGallegos          3088.313
       371   05 Jun 2027 02:47:25.364   05 Jun 2027 02:48:34.472            69.108                Norilsk          2159.625
       372   05 Jun 2027 02:50:21.996   05 Jun 2027 02:51:31.559            69.563              Murmansk2          2173.844
       373   05 Jun 2027 02:51:43.324   05 Jun 2027 02:53:19.351            96.027                Irkutsk          3000.844
       374   05 Jun 2027 02:58:34.542   05 Jun 2027 02:59:20.291            45.749                  Delhi          1429.656
       375   05 Jun 2027 03:40:25.976   05 Jun 2027 03:41:47.217            81.241            RioGallegos          2538.781
       376   05 Jun 2027 04:30:51.838   05 Jun 2027 04:31:20.277            28.439                Novosib           888.719
       377   05 Jun 2027 04:32:06.634   05 Jun 2027 04:32:20.082            13.448                Norilsk           420.250
       378   05 Jun 2027 04:32:22.607   05 Jun 2027 04:35:17.534           174.927                Novosib          5466.469
       379   05 Jun 2027 04:36:11.653   05 Jun 2027 04:42:00.894           349.241                  Delhi         10913.781
       380   05 Jun 2027 06:11:51.519   05 Jun 2027 06:12:13.368            21.849                 Moscow           682.781
       381   05 Jun 2027 06:12:21.221   05 Jun 2027 06:12:48.283            27.062                 Moscow           845.688
       382   05 Jun 2027 06:28:37.907   05 Jun 2027 06:31:51.690           193.783               CapeTown          6055.719
       383   05 Jun 2027 07:31:42.298   05 Jun 2027 07:32:33.741            51.443                Anadyr1          1607.594
       384   05 Jun 2027 07:32:33.741   05 Jun 2027 07:32:43.056             9.315                Anadyr2           291.094
       385   05 Jun 2027 07:32:47.638   05 Jun 2027 07:33:40.600            52.962                Anadyr2          1655.062
       386   05 Jun 2027 07:36:20.406   05 Jun 2027 07:37:34.819            74.413                Anadyr2          2325.406
       387   05 Jun 2027 08:08:08.019   05 Jun 2027 08:12:03.433           235.414               CapeTown          7356.687
       388   05 Jun 2027 09:07:45.039   05 Jun 2027 09:07:56.621            11.582                Anadyr1           361.937
       389   05 Jun 2027 09:08:07.354   05 Jun 2027 09:08:10.926             3.572               Magadan2           111.625
       390   05 Jun 2027 09:08:15.700   05 Jun 2027 09:08:17.216             1.516                Anadyr1            47.375
       391   05 Jun 2027 09:08:22.079   05 Jun 2027 09:08:39.492            17.413                Anadyr1           544.156
       392   05 Jun 2027 09:09:01.480   05 Jun 2027 09:09:38.152            36.672               Magadan1          1146.000
       393   05 Jun 2027 09:09:38.152   05 Jun 2027 09:09:56.498            18.346               Magadan2           573.312
       394   05 Jun 2027 09:10:16.098   05 Jun 2027 09:11:48.963            92.865                Anadyr2          2902.031
       395   05 Jun 2027 10:41:29.143   05 Jun 2027 10:42:39.225            70.082               Magadan2          2190.063
       396   05 Jun 2027 10:43:02.113   05 Jun 2027 10:43:14.913            12.800               Magadan2           400.000
       397   05 Jun 2027 10:43:41.216   05 Jun 2027 10:43:57.546            16.330               Magadan1           510.313
       398   05 Jun 2027 10:43:57.546   05 Jun 2027 10:44:03.728             6.182               Magadan2           193.187
       399   05 Jun 2027 10:44:55.519   05 Jun 2027 10:45:07.283            11.764                Irkutsk           367.625
       400   05 Jun 2027 10:45:34.192   05 Jun 2027 10:48:11.573           157.381                Anadyr1          4918.156
       401   05 Jun 2027 10:48:22.123   05 Jun 2027 10:49:36.258            74.135               Magadan1          2316.719
       402   05 Jun 2027 11:24:35.378   05 Jun 2027 11:25:34.340            58.962            RioGallegos          1842.562
       403   05 Jun 2027 12:01:21.259   05 Jun 2027 12:03:18.827           117.568                Sumatra          3674.000
       404   05 Jun 2027 12:14:49.206   05 Jun 2027 12:15:23.055            33.849                Irkutsk          1057.781
       405   05 Jun 2027 12:20:18.939   05 Jun 2027 12:22:44.480           145.541               Magadan2          4548.156
       406   05 Jun 2027 13:03:29.486   05 Jun 2027 13:05:42.371           132.885            RioGallegos          4152.656
       407   05 Jun 2027 13:38:07.357   05 Jun 2027 13:39:55.649           108.292                Sumatra          3384.125
       408   05 Jun 2027 13:43:58.131   05 Jun 2027 13:45:02.656            64.525                Sumatra          2016.406
       409   05 Jun 2027 14:06:16.898   05 Jun 2027 14:06:34.270            17.372                Norilsk           542.875
       410   05 Jun 2027 15:19:54.161   05 Jun 2027 15:21:00.762            66.601                  Delhi          2081.281
       411   05 Jun 2027 15:22:09.823   05 Jun 2027 15:25:05.157           175.334                  Delhi          5479.188
       412   05 Jun 2027 15:28:04.416   05 Jun 2027 15:29:26.958            82.542                Novosib          2579.437
       413   05 Jun 2027 15:32:04.429   05 Jun 2027 15:32:56.949            52.520                Novosib          1641.250
       414   05 Jun 2027 15:35:28.469   05 Jun 2027 15:35:51.080            22.611                Norilsk           706.594
       415   05 Jun 2027 15:37:15.309   05 Jun 2027 15:38:06.835            51.526                Novosib          1610.187
       416   05 Jun 2027 17:03:45.954   05 Jun 2027 17:04:56.488            70.534                 Moscow          2204.187
       417   05 Jun 2027 17:05:27.160   05 Jun 2027 17:07:02.624            95.464                 Moscow          2983.250
       418   05 Jun 2027 17:12:35.189   05 Jun 2027 17:16:52.924           257.735                Norilsk          8054.219
       419   05 Jun 2027 18:29:15.820   05 Jun 2027 18:29:33.278            17.458               CapeTown           545.562
       420   05 Jun 2027 18:42:02.974   05 Jun 2027 18:44:16.117           133.143                 Moscow          4160.719
       421   05 Jun 2027 18:44:48.137   05 Jun 2027 18:46:31.401           103.264              Murmansk1          3227.000
       422   05 Jun 2027 19:00:53.470   05 Jun 2027 19:01:21.586            28.116                Anadyr2           878.625
       423   05 Jun 2027 19:06:58.514   05 Jun 2027 19:07:09.539            11.025                Anadyr1           344.531
       424   05 Jun 2027 19:53:28.925   05 Jun 2027 19:55:48.341           139.416               CapeTown          4356.750
       425   05 Jun 2027 19:57:47.047   05 Jun 2027 19:57:59.547            12.500               CapeTown           390.625
       426   05 Jun 2027 20:24:48.652   05 Jun 2027 20:31:38.119           409.467              Murmansk1         12795.844
       427   05 Jun 2027 22:09:43.436   05 Jun 2027 22:13:13.772           210.336                Anadyr1          6573.000
       428   05 Jun 2027 22:13:21.454   05 Jun 2027 22:15:04.783           103.329               Magadan2          3229.031
       429   05 Jun 2027 22:15:04.783   05 Jun 2027 22:15:36.071            31.288               Magadan1           977.750
       430   05 Jun 2027 22:16:12.235   05 Jun 2027 22:16:19.260             7.025               Magadan2           219.531
       431   05 Jun 2027 22:16:56.142   05 Jun 2027 22:17:39.924            43.782               Magadan1          1368.188
       432   05 Jun 2027 22:21:04.511   05 Jun 2027 22:21:17.028            12.517               Magadan2           391.156
       433   05 Jun 2027 22:22:54.727   05 Jun 2027 22:23:19.056            24.329               Magadan2           760.281
       434   05 Jun 2027 23:05:20.544   05 Jun 2027 23:07:56.459           155.915            RioGallegos          4872.344
       435   05 Jun 2027 23:45:31.601   05 Jun 2027 23:47:15.661           104.060                Anadyr2          3251.875
       436   05 Jun 2027 23:47:36.401   05 Jun 2027 23:49:12.726            96.325                Norilsk          3010.156
       437   05 Jun 2027 23:49:26.734   05 Jun 2027 23:49:34.826             8.092               Magadan2           252.875
       438   05 Jun 2027 23:50:24.278   05 Jun 2027 23:50:42.335            18.057                Norilsk           564.281
       439   05 Jun 2027 23:50:45.766   05 Jun 2027 23:51:37.199            51.433               Magadan1          1607.281
       440   05 Jun 2027 23:52:21.134   05 Jun 2027 23:54:23.658           122.524                Irkutsk          3828.875
       441   06 Jun 2027 00:08:46.517   06 Jun 2027 00:10:09.991            83.474                Sumatra          2608.563
       442   06 Jun 2027 00:11:46.618   06 Jun 2027 00:12:07.539            20.921                Sumatra           653.781
       443   06 Jun 2027 00:39:29.982   06 Jun 2027 00:40:45.115            75.133            RioGallegos          2347.906
       444   06 Jun 2027 00:50:20.373   06 Jun 2027 00:50:56.657            36.284            RioGallegos          1133.875
       445   06 Jun 2027 01:20:43.807   06 Jun 2027 01:21:04.703            20.896                Anadyr1           653.000
       446   06 Jun 2027 01:21:50.196   06 Jun 2027 01:22:54.447            64.251                Anadyr2          2007.844
       447   06 Jun 2027 01:23:14.960   06 Jun 2027 01:23:30.557            15.597                Anadyr1           487.406
       448   06 Jun 2027 01:23:42.840   06 Jun 2027 01:25:20.483            97.643                Norilsk          3051.344
       449   06 Jun 2027 01:25:49.846   06 Jun 2027 01:26:54.938            65.092               Magadan2          2034.125
       450   06 Jun 2027 01:27:20.737   06 Jun 2027 01:29:32.546           131.809                Irkutsk          4119.031
       451   06 Jun 2027 01:37:17.136   06 Jun 2027 01:38:46.116            88.980                  Delhi          2780.625
       452   06 Jun 2027 01:41:23.696   06 Jun 2027 01:41:46.946            23.250                Sumatra           726.563
       453   06 Jun 2027 01:44:01.873   06 Jun 2027 01:46:13.019           131.146                Sumatra          4098.313
       454   06 Jun 2027 02:26:03.034   06 Jun 2027 02:26:55.054            52.020            RioGallegos          1625.625
       455   06 Jun 2027 02:58:28.314   06 Jun 2027 02:58:39.454            11.140                Anadyr1           348.125
       456   06 Jun 2027 02:59:27.670   06 Jun 2027 03:00:00.606            32.936                Norilsk          1029.250
       457   06 Jun 2027 03:03:28.968   06 Jun 2027 03:03:42.877            13.909               Magadan1           434.656
       458   06 Jun 2027 03:03:47.218   06 Jun 2027 03:04:59.785            72.567               Magadan1          2267.719
       459   06 Jun 2027 03:05:24.775   06 Jun 2027 03:06:03.747            38.972                Novosib          1217.875
       460   06 Jun 2027 03:06:23.640   06 Jun 2027 03:07:07.866            44.226              Murmansk2          1382.062
       461   06 Jun 2027 03:07:14.407   06 Jun 2027 03:07:25.469            11.062              Murmansk2           345.687
       462   06 Jun 2027 03:07:34.391   06 Jun 2027 03:08:25.541            51.150              Murmansk2          1598.437
       463   06 Jun 2027 03:08:31.742   06 Jun 2027 03:08:56.656            24.914                Novosib           778.562
       464   06 Jun 2027 03:09:05.356   06 Jun 2027 03:09:21.247            15.891                Novosib           496.594
       465   06 Jun 2027 03:09:32.334   06 Jun 2027 03:10:02.429            30.095                Norilsk           940.469
       466   06 Jun 2027 03:10:08.115   06 Jun 2027 03:10:20.329            12.214                Novosib           381.687
       467   06 Jun 2027 03:10:34.343   06 Jun 2027 03:10:58.609            24.266                Novosib           758.313
       468   06 Jun 2027 03:11:00.760   06 Jun 2027 03:14:36.490           215.730                  Delhi          6741.563
       469   06 Jun 2027 03:52:47.067   06 Jun 2027 03:57:56.484           309.417            RioGallegos          9669.281
       470   06 Jun 2027 04:41:15.902   06 Jun 2027 04:42:43.886            87.984                Irkutsk          2749.500
       471   06 Jun 2027 04:44:22.814   06 Jun 2027 04:44:59.894            37.080                Irkutsk          1158.750
       472   06 Jun 2027 04:46:19.558   06 Jun 2027 04:47:58.195            98.637                Novosib          3082.406
       473   06 Jun 2027 04:49:04.872   06 Jun 2027 04:53:05.795           240.923                  Delhi          7528.844
       474   06 Jun 2027 04:53:26.030   06 Jun 2027 04:53:26.850             0.820                  Delhi            25.625
       475   06 Jun 2027 06:23:20.651   06 Jun 2027 06:23:34.114            13.463              Murmansk1           420.719
       476   06 Jun 2027 06:23:47.383   06 Jun 2027 06:23:52.225             4.842                 Moscow           151.312
       477   06 Jun 2027 06:23:55.086   06 Jun 2027 06:24:32.387            37.301                 Moscow          1165.656
       478   06 Jun 2027 06:40:41.508   06 Jun 2027 06:42:22.328           100.820               CapeTown          3150.625
       479   06 Jun 2027 06:43:51.913   06 Jun 2027 06:44:42.161            50.248               CapeTown          1570.250
       480   06 Jun 2027 07:43:34.679   06 Jun 2027 07:44:35.063            60.384                Anadyr1          1887.000
       481   06 Jun 2027 07:44:54.889   06 Jun 2027 07:45:03.805             8.916               Magadan2           278.625
       482   06 Jun 2027 07:45:15.026   06 Jun 2027 07:45:56.955            41.929                Anadyr2          1310.281
