uniorb/output/strategy_4/Drop/Drop_KinoSat_110610.txt

KinoSat_110610
-------------------------
    Access    *     Start Time (UTCG)     *     Stop Time (UTCG)  *   Duration (s)        *       Station  *  Data (Mbytes)
         1   01 Jun 2027 04:31:16.190   01 Jun 2027 04:31:38.672            22.482               Magadan2           702.562
         2   01 Jun 2027 04:31:38.672   01 Jun 2027 04:32:50.922            72.250               Magadan1          2257.813
         3   01 Jun 2027 04:32:50.922   01 Jun 2027 04:33:07.653            16.731               Magadan2           522.844
         4   01 Jun 2027 04:33:19.062   01 Jun 2027 04:36:10.886           171.824               Magadan1          5369.500
         5   01 Jun 2027 04:36:29.467   01 Jun 2027 04:38:02.266            92.799               Magadan2          2899.969
         6   01 Jun 2027 04:38:02.266   01 Jun 2027 04:38:13.295            11.029               Magadan1           344.656
         7   01 Jun 2027 04:38:33.429   01 Jun 2027 04:38:40.415             6.986              Murmansk1           218.312
         8   01 Jun 2027 04:39:45.345   01 Jun 2027 04:40:37.606            52.261              Murmansk2          1633.156
         9   01 Jun 2027 05:13:30.619   01 Jun 2027 05:14:39.694            69.075            RioGallegos          2158.594
        10   01 Jun 2027 05:14:44.410   01 Jun 2027 05:15:27.207            42.797            RioGallegos          1337.406
        11   01 Jun 2027 05:15:38.411   01 Jun 2027 05:15:56.964            18.553            RioGallegos           579.781
        12   01 Jun 2027 05:16:25.014   01 Jun 2027 05:16:50.681            25.667            RioGallegos           802.094
        13   01 Jun 2027 05:17:19.004   01 Jun 2027 05:17:23.185             4.181            RioGallegos           130.656
        14   01 Jun 2027 05:18:07.711   01 Jun 2027 05:19:34.986            87.275            RioGallegos          2727.344
        15   01 Jun 2027 05:52:16.150   01 Jun 2027 05:53:18.144            61.994                Sumatra          1937.312
        16   01 Jun 2027 05:54:44.528   01 Jun 2027 05:56:45.102           120.574                Sumatra          3767.938
        17   01 Jun 2027 06:08:50.458   01 Jun 2027 06:09:20.041            29.583               Magadan1           924.469
        18   01 Jun 2027 06:09:31.489   01 Jun 2027 06:13:22.027           230.538                Norilsk          7204.312
        19   01 Jun 2027 06:13:22.381   01 Jun 2027 06:13:43.715            21.334                Irkutsk           666.688
        20   01 Jun 2027 06:13:50.802   01 Jun 2027 06:14:10.815            20.013                Norilsk           625.406
        21   01 Jun 2027 06:48:59.467   01 Jun 2027 06:50:00.947            61.480            RioGallegos          1921.250
        22   01 Jun 2027 07:23:39.603   01 Jun 2027 07:25:31.118           111.515                Sumatra          3484.844
        23   01 Jun 2027 07:33:00.758   01 Jun 2027 07:33:16.538            15.780                Sumatra           493.125
        24   01 Jun 2027 07:33:49.752   01 Jun 2027 07:36:23.429           153.677                  Delhi          4802.406
        25   01 Jun 2027 07:46:20.216   01 Jun 2027 07:49:36.503           196.287              Murmansk1          6133.969
        26   01 Jun 2027 07:49:54.103   01 Jun 2027 07:50:28.840            34.737                Norilsk          1085.531
        27   01 Jun 2027 07:50:30.397   01 Jun 2027 07:51:37.967            67.570                Novosib          2111.562
        28   01 Jun 2027 07:51:46.616   01 Jun 2027 07:53:13.320            86.704              Murmansk2          2709.500
        29   01 Jun 2027 07:53:13.320   01 Jun 2027 07:53:29.021            15.701              Murmansk1           490.656
        30   01 Jun 2027 07:54:57.863   01 Jun 2027 07:55:03.663             5.800                Norilsk           181.250
        31   01 Jun 2027 07:55:16.702   01 Jun 2027 07:55:55.622            38.920              Murmansk2          1216.250
        32   01 Jun 2027 08:29:12.417   01 Jun 2027 08:29:59.946            47.529            RioGallegos          1485.281
        33   01 Jun 2027 08:30:36.347   01 Jun 2027 08:30:58.762            22.415            RioGallegos           700.469
        34   01 Jun 2027 08:31:40.508   01 Jun 2027 08:32:22.906            42.398            RioGallegos          1324.938
        35   01 Jun 2027 09:07:58.816   01 Jun 2027 09:10:50.963           172.147                  Delhi          5379.594
        36   01 Jun 2027 09:24:34.323   01 Jun 2027 09:25:20.941            46.618                Novosib          1456.812
        37   01 Jun 2027 09:25:37.370   01 Jun 2027 09:28:59.212           201.842                 Moscow          6307.563
        38   01 Jun 2027 09:30:10.759   01 Jun 2027 09:30:53.981            43.222              Murmansk2          1350.688
        39   01 Jun 2027 10:57:36.188   01 Jun 2027 10:58:57.455            81.267              Murmansk1          2539.594
        40   01 Jun 2027 10:58:57.455   01 Jun 2027 11:00:10.903            73.448              Murmansk2          2295.250
        41   01 Jun 2027 11:00:17.100   01 Jun 2027 11:01:00.274            43.174              Murmansk2          1349.188
        42   01 Jun 2027 11:01:00.274   01 Jun 2027 11:01:48.688            48.414              Murmansk1          1512.938
        43   01 Jun 2027 11:02:11.152   01 Jun 2027 11:03:03.916            52.764                Norilsk          1648.875
        44   01 Jun 2027 11:03:33.812   01 Jun 2027 11:04:03.504            29.692                 Moscow           927.875
        45   01 Jun 2027 11:06:31.606   01 Jun 2027 11:07:33.928            62.322              Murmansk2          1947.562
        46   01 Jun 2027 12:06:51.419   01 Jun 2027 12:13:37.941           406.522               CapeTown         12703.813
        47   01 Jun 2027 12:32:47.742   01 Jun 2027 12:34:15.911            88.169              Murmansk2          2755.281
        48   01 Jun 2027 12:46:47.409   01 Jun 2027 12:49:29.428           162.019                Anadyr2          5063.094
        49   01 Jun 2027 12:49:53.226   01 Jun 2027 12:52:27.148           153.922                Anadyr1          4810.063
        50   01 Jun 2027 12:52:57.538   01 Jun 2027 12:56:17.274           199.736                Anadyr2          6241.750
        51   01 Jun 2027 14:22:19.716   01 Jun 2027 14:24:59.406           159.690                Anadyr1          4990.313
        52   01 Jun 2027 14:25:45.068   01 Jun 2027 14:32:19.738           394.670               Magadan1         12333.437
        53   01 Jun 2027 14:33:18.348   01 Jun 2027 14:33:31.657            13.309               Magadan2           415.906
        54   01 Jun 2027 16:00:35.873   01 Jun 2027 16:03:09.677           153.804               Magadan1          4806.375
        55   01 Jun 2027 16:03:09.677   01 Jun 2027 16:04:31.303            81.626               Magadan2          2550.812
        56   01 Jun 2027 16:56:17.629   01 Jun 2027 16:57:40.578            82.949            RioGallegos          2592.156
        57   01 Jun 2027 17:34:04.753   01 Jun 2027 17:34:52.685            47.932                Anadyr1          1497.875
        58   01 Jun 2027 17:34:58.723   01 Jun 2027 17:35:16.437            17.714                Anadyr2           553.563
        59   01 Jun 2027 17:35:46.348   01 Jun 2027 17:36:10.576            24.228                Anadyr1           757.125
        60   01 Jun 2027 17:36:20.790   01 Jun 2027 17:39:40.673           199.883                Norilsk          6246.344
        61   01 Jun 2027 17:41:38.262   01 Jun 2027 17:49:04.622           446.360                Irkutsk         13948.750
        62   01 Jun 2027 17:57:22.595   01 Jun 2027 18:03:40.843           378.248                Sumatra         11820.250
        63   01 Jun 2027 19:17:56.262   01 Jun 2027 19:23:09.551           313.289                Novosib          9790.281
        64   01 Jun 2027 20:51:22.227   01 Jun 2027 20:55:06.022           223.795              Murmansk1          6993.594
        65   01 Jun 2027 22:26:11.472   01 Jun 2027 22:27:40.875            89.403              Murmansk2          2793.844
        66   01 Jun 2027 22:27:55.510   01 Jun 2027 22:32:13.990           258.480              Murmansk1          8077.500
        67   01 Jun 2027 22:33:08.673   01 Jun 2027 22:38:08.888           300.215                 Moscow          9381.719
        68   01 Jun 2027 22:57:04.928   01 Jun 2027 23:04:12.543           427.615               CapeTown         13362.969
        69   02 Jun 2027 01:41:22.640   02 Jun 2027 01:41:56.803            34.163                 Moscow          1067.594
        70   02 Jun 2027 01:43:56.871   02 Jun 2027 01:45:37.894           101.023                 Moscow          3156.969
        71   02 Jun 2027 03:01:35.754   02 Jun 2027 03:03:21.191           105.437               Magadan2          3294.906
        72   02 Jun 2027 03:05:53.667   02 Jun 2027 03:06:36.128            42.461                Anadyr2          1326.906
        73   02 Jun 2027 03:06:36.128   02 Jun 2027 03:06:48.507            12.379                Anadyr1           386.844
        74   02 Jun 2027 03:06:51.331   02 Jun 2027 03:07:19.124            27.793               Magadan1           868.531
        75   02 Jun 2027 03:07:32.391   02 Jun 2027 03:07:56.348            23.957               Magadan2           748.656
        76   02 Jun 2027 03:08:04.749   02 Jun 2027 03:10:19.278           134.529                Anadyr1          4204.031
        77   02 Jun 2027 03:10:19.278   02 Jun 2027 03:11:45.296            86.018                Anadyr2          2688.063
        78   02 Jun 2027 03:12:13.297   02 Jun 2027 03:12:20.795             7.498               Magadan2           234.312
        79   02 Jun 2027 04:44:20.242   02 Jun 2027 04:45:35.612            75.370                Anadyr2          2355.312
        80   02 Jun 2027 04:45:53.586   02 Jun 2027 04:49:25.299           211.713                Anadyr2          6616.031
        81   02 Jun 2027 04:49:25.299   02 Jun 2027 04:49:27.548             2.249                Anadyr1            70.281
        82   02 Jun 2027 04:49:51.558   02 Jun 2027 04:50:11.043            19.485               Magadan2           608.906
        83   02 Jun 2027 06:20:10.195   02 Jun 2027 06:20:58.424            48.229                Novosib          1507.156
        84   02 Jun 2027 06:21:46.724   02 Jun 2027 06:22:39.749            53.025                Irkutsk          1657.031
        85   02 Jun 2027 06:22:52.693   02 Jun 2027 06:23:21.995            29.302                Irkutsk           915.687
        86   02 Jun 2027 06:23:49.124   02 Jun 2027 06:24:10.066            20.942                Novosib           654.438
        87   02 Jun 2027 06:25:02.988   02 Jun 2027 06:26:10.411            67.423                Irkutsk          2106.969
        88   02 Jun 2027 06:26:52.693   02 Jun 2027 06:27:15.305            22.612                Norilsk           706.625
        89   02 Jun 2027 07:59:19.873   02 Jun 2027 08:00:07.767            47.894                Novosib          1496.688
        90   02 Jun 2027 08:00:13.418   02 Jun 2027 08:00:38.240            24.822                Irkutsk           775.687
        91   02 Jun 2027 08:01:44.465   02 Jun 2027 08:03:39.211           114.746                Novosib          3585.812
        92   02 Jun 2027 08:03:49.442   02 Jun 2027 08:04:35.534            46.092              Murmansk1          1440.375
        93   02 Jun 2027 08:08:13.305   02 Jun 2027 08:09:02.619            49.314              Murmansk1          1541.062
        94   02 Jun 2027 08:42:49.640   02 Jun 2027 08:45:01.370           131.730            RioGallegos          4116.562
        95   02 Jun 2027 09:33:18.202   02 Jun 2027 09:33:18.548             0.346                Novosib            10.812
        96   02 Jun 2027 09:38:14.392   02 Jun 2027 09:38:31.947            17.555                Novosib           548.594
        97   02 Jun 2027 11:17:43.140   02 Jun 2027 11:17:57.193            14.053                Norilsk           439.156
        98   02 Jun 2027 12:42:09.616   02 Jun 2027 12:42:54.412            44.796                 Moscow          1399.875
        99   02 Jun 2027 12:44:04.650   02 Jun 2027 12:44:34.602            29.952                 Moscow           936.000
       100   02 Jun 2027 12:45:06.354   02 Jun 2027 12:46:58.289           111.935              Murmansk1          3497.969
       101   02 Jun 2027 12:48:43.514   02 Jun 2027 12:49:38.348            54.834              Murmansk2          1713.562
       102   02 Jun 2027 12:53:25.602   02 Jun 2027 12:53:37.230            11.628              Murmansk2           363.375
       103   02 Jun 2027 12:53:38.274   02 Jun 2027 12:53:44.693             6.419              Murmansk2           200.594
       104   02 Jun 2027 12:54:03.612   02 Jun 2027 12:54:18.042            14.430              Murmansk2           450.937
       105   02 Jun 2027 12:54:39.822   02 Jun 2027 12:54:46.877             7.055              Murmansk1           220.469
       106   02 Jun 2027 12:58:42.669   02 Jun 2027 13:04:40.153           357.484                Anadyr2         11171.375
       107   02 Jun 2027 13:06:13.682   02 Jun 2027 13:08:14.383           120.701                Anadyr2          3771.906
       108   02 Jun 2027 14:34:20.377   02 Jun 2027 14:35:34.655            74.278                Anadyr1          2321.187
       109   02 Jun 2027 14:36:10.840   02 Jun 2027 14:36:58.759            47.919                Anadyr2          1497.469
       110   02 Jun 2027 14:37:29.475   02 Jun 2027 14:45:19.832           470.357               Magadan1         14698.656
       111   02 Jun 2027 14:45:19.832   02 Jun 2027 14:46:17.312            57.480               Magadan2          1796.250
       112   02 Jun 2027 16:12:34.954   02 Jun 2027 16:13:40.842            65.888               Magadan1          2059.000
       113   02 Jun 2027 16:15:07.933   02 Jun 2027 16:16:33.659            85.726               Magadan2          2678.937
       114   02 Jun 2027 17:06:35.270   02 Jun 2027 17:11:55.741           320.471            RioGallegos         10014.719
       115   02 Jun 2027 17:49:21.603   02 Jun 2027 17:50:00.753            39.150                Norilsk          1223.438
       116   02 Jun 2027 17:53:12.965   02 Jun 2027 17:59:54.626           401.661                Irkutsk         12551.906
       117   02 Jun 2027 18:08:12.438   02 Jun 2027 18:16:44.744           512.306                Sumatra         16009.563
       118   02 Jun 2027 19:31:52.169   02 Jun 2027 19:35:09.238           197.069                Novosib          6158.406
       119   02 Jun 2027 19:38:45.127   02 Jun 2027 19:43:57.799           312.672                  Delhi          9771.000
       120   02 Jun 2027 21:03:00.913   02 Jun 2027 21:08:09.647           308.734              Murmansk2          9647.938
       121   02 Jun 2027 22:41:01.458   02 Jun 2027 22:44:07.464           186.006              Murmansk1          5812.687
       122   02 Jun 2027 22:48:47.053   02 Jun 2027 22:50:12.203            85.150                 Moscow          2660.937
       123   02 Jun 2027 23:08:08.126   02 Jun 2027 23:16:21.809           493.683               CapeTown         15427.594
       124   03 Jun 2027 03:20:30.609   03 Jun 2027 03:21:25.847            55.238               Magadan1          1726.188
       125   03 Jun 2027 03:21:28.535   03 Jun 2027 03:23:45.662           137.127                Anadyr2          4285.219
       126   03 Jun 2027 03:23:45.662   03 Jun 2027 03:24:38.342            52.680                Anadyr1          1646.250
       127   03 Jun 2027 03:24:40.245   03 Jun 2027 03:25:24.798            44.553               Magadan2          1392.281
       128   03 Jun 2027 03:25:41.255   03 Jun 2027 03:26:29.581            48.326               Magadan2          1510.187
       129   03 Jun 2027 04:09:48.573   03 Jun 2027 04:10:04.173            15.600            RioGallegos           487.500
       130   03 Jun 2027 04:54:51.908   03 Jun 2027 04:55:05.395            13.487                Irkutsk           421.469
       131   03 Jun 2027 04:55:33.395   03 Jun 2027 04:58:24.431           171.036                Irkutsk          5344.875
       132   03 Jun 2027 05:00:23.513   03 Jun 2027 05:01:59.873            96.360               Magadan1          3011.250
       133   03 Jun 2027 06:37:25.740   03 Jun 2027 06:38:20.581            54.841                Novosib          1713.781
       134   03 Jun 2027 08:10:57.767   03 Jun 2027 08:11:26.355            28.588              Murmansk1           893.375
       135   03 Jun 2027 08:11:34.264   03 Jun 2027 08:11:44.746            10.482              Murmansk1           327.562
       136   03 Jun 2027 08:12:07.384   03 Jun 2027 08:12:43.588            36.204                Irkutsk          1131.375
       137   03 Jun 2027 08:14:37.898   03 Jun 2027 08:15:12.870            34.972                Novosib          1092.875
       138   03 Jun 2027 09:37:40.664   03 Jun 2027 09:39:07.273            86.609                  Delhi          2706.531
       139   03 Jun 2027 09:50:12.234   03 Jun 2027 09:50:17.685             5.451                Novosib           170.344
       140   03 Jun 2027 12:54:45.404   03 Jun 2027 12:56:00.602            75.198                 Moscow          2349.937
       141   03 Jun 2027 12:56:33.153   03 Jun 2027 12:57:15.977            42.824                 Moscow          1338.250
       142   03 Jun 2027 12:57:45.283   03 Jun 2027 12:59:03.363            78.080              Murmansk2          2440.000
       143   03 Jun 2027 12:59:24.519   03 Jun 2027 12:59:45.038            20.519              Murmansk2           641.219
       144   03 Jun 2027 13:00:38.876   03 Jun 2027 13:01:39.897            61.021              Murmansk2          1906.906
       145   03 Jun 2027 13:12:36.209   03 Jun 2027 13:12:53.358            17.149                Anadyr1           535.906
       146   03 Jun 2027 13:14:24.214   03 Jun 2027 13:16:10.134           105.920                Anadyr1          3310.000
       147   03 Jun 2027 14:06:03.698   03 Jun 2027 14:06:54.567            50.869               CapeTown          1589.656
       148   03 Jun 2027 14:37:35.706   03 Jun 2027 14:39:22.153           106.447              Murmansk2          3326.469
       149   03 Jun 2027 14:39:22.153   03 Jun 2027 14:39:27.774             5.621              Murmansk1           175.656
       150   03 Jun 2027 14:39:51.131   03 Jun 2027 14:40:14.888            23.757              Murmansk1           742.406
       151   03 Jun 2027 14:40:20.189   03 Jun 2027 14:41:29.127            68.938              Murmansk2          2154.313
       152   03 Jun 2027 14:46:21.264   03 Jun 2027 14:47:33.589            72.325                Anadyr2          2260.156
       153   03 Jun 2027 14:47:39.580   03 Jun 2027 14:48:50.954            71.374                Anadyr1          2230.437
       154   03 Jun 2027 14:49:18.029   03 Jun 2027 14:58:56.133           578.104               Magadan1         18065.750
       155   03 Jun 2027 16:24:34.645   03 Jun 2027 16:25:22.939            48.294               Magadan1          1509.188
       156   03 Jun 2027 16:25:51.014   03 Jun 2027 16:27:03.866            72.852               Magadan1          2276.625
       157   03 Jun 2027 17:17:52.693   03 Jun 2027 17:25:07.909           435.216            RioGallegos         13600.500
       158   03 Jun 2027 18:02:13.774   03 Jun 2027 18:03:08.741            54.967                Norilsk          1717.719
       159   03 Jun 2027 18:04:54.796   03 Jun 2027 18:06:07.632            72.836                Irkutsk          2276.125
       160   03 Jun 2027 18:06:09.983   03 Jun 2027 18:08:37.844           147.861                Norilsk          4620.656
       161   03 Jun 2027 18:09:55.370   03 Jun 2027 18:12:48.191           172.821                Irkutsk          5400.656
       162   03 Jun 2027 18:19:25.224   03 Jun 2027 18:27:15.401           470.177                Sumatra         14693.031
       163   03 Jun 2027 19:49:35.283   03 Jun 2027 19:57:20.530           465.247                  Delhi         14538.969
       164   03 Jun 2027 21:14:48.256   03 Jun 2027 21:15:03.275            15.019              Murmansk2           469.344
       165   03 Jun 2027 21:15:58.460   03 Jun 2027 21:21:02.565           304.105              Murmansk1          9503.281
       166   03 Jun 2027 22:53:55.248   03 Jun 2027 22:54:11.541            16.293              Murmansk2           509.156
       167   03 Jun 2027 23:19:24.056   03 Jun 2027 23:20:19.109            55.053               CapeTown          1720.406
       168   03 Jun 2027 23:21:34.239   03 Jun 2027 23:26:48.074           313.835               CapeTown          9807.344
       169   04 Jun 2027 01:50:44.423   04 Jun 2027 01:51:29.041            44.618               Magadan1          1394.313
       170   04 Jun 2027 01:52:53.646   04 Jun 2027 01:53:41.199            47.553               Magadan2          1486.031
       171   04 Jun 2027 02:02:03.696   04 Jun 2027 02:03:42.102            98.406              Murmansk2          3075.187
       172   04 Jun 2027 02:05:32.280   04 Jun 2027 02:06:16.511            44.231                 Moscow          1382.219
       173   04 Jun 2027 02:12:27.720   04 Jun 2027 02:12:38.818            11.098                 Moscow           346.812
       174   04 Jun 2027 03:26:56.996   04 Jun 2027 03:27:49.477            52.481               Magadan2          1640.031
       175   04 Jun 2027 03:27:55.026   04 Jun 2027 03:29:02.624            67.598                Anadyr2          2112.438
       176   04 Jun 2027 03:29:55.446   04 Jun 2027 03:30:05.504            10.058                Anadyr2           314.313
       177   04 Jun 2027 03:30:19.180   04 Jun 2027 03:30:34.693            15.513                Anadyr2           484.781
       178   04 Jun 2027 03:32:04.159   04 Jun 2027 03:32:22.150            17.991                Anadyr2           562.219
       179   04 Jun 2027 03:32:40.594   04 Jun 2027 03:34:02.697            82.103                Anadyr2          2565.719
       180   04 Jun 2027 03:34:12.826   04 Jun 2027 03:37:20.835           188.009               Magadan1          5875.281
       181   04 Jun 2027 03:37:33.025   04 Jun 2027 03:38:35.211            62.186                Anadyr1          1943.313
       182   04 Jun 2027 04:20:25.238   04 Jun 2027 04:21:16.016            50.778            RioGallegos          1586.813
       183   04 Jun 2027 04:21:59.410   04 Jun 2027 04:22:26.544            27.134            RioGallegos           847.937
       184   04 Jun 2027 05:07:40.815   04 Jun 2027 05:08:39.581            58.766                Irkutsk          1836.438
       185   04 Jun 2027 05:08:57.681   04 Jun 2027 05:10:22.116            84.435                Irkutsk          2638.594
       186   04 Jun 2027 05:10:58.283   04 Jun 2027 05:10:58.878             0.595                Irkutsk            18.594
       187   04 Jun 2027 05:12:17.546   04 Jun 2027 05:13:10.432            52.886                Irkutsk          1652.688
       188   04 Jun 2027 06:50:34.645   04 Jun 2027 06:51:06.637            31.992                Novosib           999.750
       189   04 Jun 2027 08:04:59.330   04 Jun 2027 08:05:02.363             3.033                Sumatra            94.781
       190   04 Jun 2027 08:22:21.622   04 Jun 2027 08:22:36.658            15.036                Novosib           469.875
       191   04 Jun 2027 08:23:16.298   04 Jun 2027 08:23:31.679            15.381              Murmansk1           480.656
       192   04 Jun 2027 08:25:07.123   04 Jun 2027 08:25:17.344            10.221                Irkutsk           319.406
       193   04 Jun 2027 08:25:28.242   04 Jun 2027 08:25:41.656            13.414                Novosib           419.188
       194   04 Jun 2027 09:48:59.029   04 Jun 2027 09:50:51.798           112.769                  Delhi          3524.031
       195   04 Jun 2027 09:52:14.842   04 Jun 2027 09:52:36.117            21.275                  Delhi           664.844
       196   04 Jun 2027 09:58:32.086   04 Jun 2027 09:58:33.739             1.653              Murmansk1            51.656
       197   04 Jun 2027 10:01:55.411   04 Jun 2027 10:02:28.830            33.419                Norilsk          1044.344
       198   04 Jun 2027 13:09:50.219   04 Jun 2027 13:10:09.346            19.127              Murmansk2           597.719
       199   04 Jun 2027 13:10:09.346   04 Jun 2027 13:11:15.301            65.955              Murmansk1          2061.094
       200   04 Jun 2027 13:11:45.641   04 Jun 2027 13:12:34.937            49.296              Murmansk2          1540.500
       201   04 Jun 2027 13:14:06.723   04 Jun 2027 13:14:37.559            30.836              Murmansk2           963.625
       202   04 Jun 2027 13:26:25.474   04 Jun 2027 13:26:54.229            28.755                Anadyr2           898.594
       203   04 Jun 2027 14:18:17.870   04 Jun 2027 14:18:52.920            35.050               CapeTown          1095.312
       204   04 Jun 2027 14:19:57.163   04 Jun 2027 14:21:07.507            70.344               CapeTown          2198.250
       205   04 Jun 2027 14:22:06.033   04 Jun 2027 14:22:26.350            20.317               CapeTown           634.906
       206   04 Jun 2027 14:23:11.366   04 Jun 2027 14:24:06.905            55.539               CapeTown          1735.594
       207   04 Jun 2027 14:50:26.778   04 Jun 2027 14:52:39.622           132.844              Murmansk2          4151.375
       208   04 Jun 2027 14:53:30.943   04 Jun 2027 14:53:57.937            26.994              Murmansk1           843.563
       209   04 Jun 2027 14:58:22.329   04 Jun 2027 14:59:25.779            63.450                Anadyr2          1982.813
       210   04 Jun 2027 14:59:25.779   04 Jun 2027 14:59:33.084             7.305                Anadyr1           228.281
       211   04 Jun 2027 15:00:14.302   04 Jun 2027 15:00:52.112            37.810                Anadyr2          1181.562
       212   04 Jun 2027 15:01:09.448   04 Jun 2027 15:04:10.156           180.708               Magadan2          5647.125
       213   04 Jun 2027 15:04:37.291   04 Jun 2027 15:06:54.808           137.517               Magadan1          4297.406
       214   04 Jun 2027 15:08:14.813   04 Jun 2027 15:10:38.681           143.868               Magadan2          4495.875
       215   04 Jun 2027 16:35:10.181   04 Jun 2027 16:35:11.633             1.452                Anadyr2            45.375
       216   04 Jun 2027 16:36:34.852   04 Jun 2027 16:38:43.902           129.050               Magadan1          4032.813
       217   04 Jun 2027 16:39:45.247   04 Jun 2027 16:39:47.909             2.662               Magadan1            83.188
       218   04 Jun 2027 16:40:58.614   04 Jun 2027 16:41:56.103            57.489               Magadan1          1796.531
       219   04 Jun 2027 16:44:23.976   04 Jun 2027 16:44:45.717            21.741               Magadan2           679.406
       220   04 Jun 2027 16:46:20.556   04 Jun 2027 16:46:20.650             0.094               Magadan1             2.937
       221   04 Jun 2027 17:29:25.128   04 Jun 2027 17:36:16.134           411.006            RioGallegos         12843.937
       222   04 Jun 2027 18:13:08.519   04 Jun 2027 18:15:00.005           111.486                Norilsk          3483.938
       223   04 Jun 2027 18:16:41.274   04 Jun 2027 18:19:58.911           197.637                Irkutsk          6176.156
       224   04 Jun 2027 18:20:44.000   04 Jun 2027 18:23:00.920           136.920                Irkutsk          4278.750
       225   04 Jun 2027 18:34:17.667   04 Jun 2027 18:37:52.543           214.876                Sumatra          6714.875
       226   04 Jun 2027 19:52:19.174   04 Jun 2027 19:54:29.377           130.203                Novosib          4068.844
       227   04 Jun 2027 20:00:51.931   04 Jun 2027 20:08:42.096           470.165                  Delhi         14692.656
       228   04 Jun 2027 21:26:39.995   04 Jun 2027 21:28:09.832            89.837              Murmansk1          2807.406
       229   04 Jun 2027 21:28:12.113   04 Jun 2027 21:32:27.209           255.096              Murmansk2          7971.750
       230   04 Jun 2027 21:33:34.010   04 Jun 2027 21:33:49.016            15.006              Murmansk1           468.938
       231   04 Jun 2027 23:05:45.117   04 Jun 2027 23:07:08.142            83.025                 Moscow          2594.531
       232   04 Jun 2027 23:12:33.026   04 Jun 2027 23:14:20.275           107.249                 Moscow          3351.531
       233   04 Jun 2027 23:30:49.060   04 Jun 2027 23:31:53.095            64.035               CapeTown          2001.094
       234   04 Jun 2027 23:33:52.671   04 Jun 2027 23:37:45.658           232.987               CapeTown          7280.844
       235   05 Jun 2027 01:05:25.543   05 Jun 2027 01:06:47.230            81.687               CapeTown          2552.719
       236   05 Jun 2027 02:02:30.095   05 Jun 2027 02:05:17.245           167.150               Magadan2          5223.437
       237   05 Jun 2027 02:10:37.226   05 Jun 2027 02:11:24.018            46.792               Magadan1          1462.250
       238   05 Jun 2027 02:14:04.265   05 Jun 2027 02:15:12.748            68.483              Murmansk2          2140.094
       239   05 Jun 2027 02:17:37.913   05 Jun 2027 02:18:40.972            63.059                 Moscow          1970.594
       240   05 Jun 2027 02:22:21.606   05 Jun 2027 02:22:46.665            25.059                 Moscow           783.094
       241   05 Jun 2027 03:40:23.420   05 Jun 2027 03:41:51.868            88.448                Anadyr1          2764.000
       242   05 Jun 2027 03:42:01.110   05 Jun 2027 03:42:19.640            18.530                Anadyr1           579.062
       243   05 Jun 2027 03:44:43.395   05 Jun 2027 03:50:13.342           329.947                Anadyr2         10310.844
       244   05 Jun 2027 04:30:32.089   05 Jun 2027 04:32:03.807            91.718            RioGallegos          2866.187
       245   05 Jun 2027 05:21:36.491   05 Jun 2027 05:22:21.233            44.742                Irkutsk          1398.187
       246   05 Jun 2027 05:23:21.827   05 Jun 2027 05:23:58.465            36.638                Irkutsk          1144.938
       247   05 Jun 2027 05:24:37.758   05 Jun 2027 05:25:55.750            77.992               Magadan1          2437.250
       248   05 Jun 2027 06:58:15.514   05 Jun 2027 06:58:35.433            19.919                Novosib           622.469
       249   05 Jun 2027 07:02:28.184   05 Jun 2027 07:02:37.255             9.071                Novosib           283.469
       250   05 Jun 2027 07:03:07.292   05 Jun 2027 07:03:42.326            35.034                Novosib          1094.812
       251   05 Jun 2027 08:17:09.850   05 Jun 2027 08:18:55.723           105.873                Sumatra          3308.531
       252   05 Jun 2027 08:34:42.464   05 Jun 2027 08:34:58.725            16.261              Murmansk1           508.156
       253   05 Jun 2027 08:35:05.522   05 Jun 2027 08:35:19.122            13.600              Murmansk1           425.000
       254   05 Jun 2027 08:35:24.929   05 Jun 2027 08:35:25.514             0.585                Novosib            18.281
       255   05 Jun 2027 08:35:29.624   05 Jun 2027 08:35:42.184            12.560              Murmansk1           392.500
       256   05 Jun 2027 08:35:52.454   05 Jun 2027 08:36:34.942            42.488                Irkutsk          1327.750
       257   05 Jun 2027 08:38:04.818   05 Jun 2027 08:38:05.958             1.140                Norilsk            35.625
       258   05 Jun 2027 09:59:22.898   05 Jun 2027 10:01:45.994           143.096                  Delhi          4471.750
       259   05 Jun 2027 10:04:05.132   05 Jun 2027 10:04:23.615            18.483                  Delhi           577.594
       260   05 Jun 2027 10:11:12.858   05 Jun 2027 10:11:24.538            11.680              Murmansk1           365.000
       261   05 Jun 2027 10:15:10.369   05 Jun 2027 10:15:52.704            42.335                Norilsk          1322.969
       262   05 Jun 2027 12:02:21.265   05 Jun 2027 12:02:35.320            14.055                Anadyr1           439.219
       263   05 Jun 2027 13:20:20.467   05 Jun 2027 13:20:27.055             6.588                 Moscow           205.875
       264   05 Jun 2027 13:20:57.326   05 Jun 2027 13:21:17.054            19.728                 Moscow           616.500
       265   05 Jun 2027 13:22:01.042   05 Jun 2027 13:22:53.119            52.077                 Moscow          1627.406
       266   05 Jun 2027 13:24:13.206   05 Jun 2027 13:24:31.656            18.450              Murmansk1           576.562
       267   05 Jun 2027 13:29:37.742   05 Jun 2027 13:30:24.523            46.781              Murmansk2          1461.906
       268   05 Jun 2027 13:34:35.281   05 Jun 2027 13:36:13.485            98.204                Anadyr1          3068.875
       269   05 Jun 2027 13:36:48.216   05 Jun 2027 13:38:24.477            96.261                Anadyr1          3008.156
       270   05 Jun 2027 13:41:34.872   05 Jun 2027 13:42:06.654            31.782                Anadyr2           993.188
       271   05 Jun 2027 14:34:55.131   05 Jun 2027 14:36:28.061            92.930               CapeTown          2904.063
       272   05 Jun 2027 15:03:27.029   05 Jun 2027 15:05:06.849            99.820              Murmansk1          3119.375
       273   05 Jun 2027 15:05:11.762   05 Jun 2027 15:05:32.835            21.073              Murmansk2           658.531
       274   05 Jun 2027 15:07:22.202   05 Jun 2027 15:07:34.674            12.472              Murmansk1           389.750
       275   05 Jun 2027 15:10:23.515   05 Jun 2027 15:11:33.035            69.520                Anadyr2          2172.500
       276   05 Jun 2027 15:12:36.734   05 Jun 2027 15:13:15.714            38.980                Anadyr2          1218.125
       277   05 Jun 2027 15:13:42.473   05 Jun 2027 15:14:48.129            65.656                Anadyr1          2051.750
       278   05 Jun 2027 15:14:54.605   05 Jun 2027 15:18:58.920           244.315               Magadan1          7634.844
       279   05 Jun 2027 15:21:25.752   05 Jun 2027 15:23:58.174           152.422               Magadan1          4763.188
       280   05 Jun 2027 16:48:35.506   05 Jun 2027 16:48:41.481             5.975               Magadan2           186.719
       281   05 Jun 2027 16:48:41.531   05 Jun 2027 16:50:49.004           127.473               Magadan1          3983.531
       282   05 Jun 2027 16:52:51.086   05 Jun 2027 16:53:00.325             9.239               Magadan2           288.719
       283   05 Jun 2027 16:57:31.782   05 Jun 2027 16:57:57.548            25.766               Magadan1           805.188
       284   05 Jun 2027 17:41:05.495   05 Jun 2027 17:47:24.953           379.458            RioGallegos         11858.063
       285   05 Jun 2027 18:24:11.421   05 Jun 2027 18:28:33.178           261.757                Norilsk          8179.906
       286   05 Jun 2027 18:29:43.581   05 Jun 2027 18:31:45.092           121.511                Irkutsk          3797.219
       287   05 Jun 2027 18:42:26.818   05 Jun 2027 18:44:26.117           119.299                Sumatra          3728.094
       288   05 Jun 2027 18:46:14.497   05 Jun 2027 18:48:59.565           165.068                Sumatra          5158.375
       289   05 Jun 2027 20:04:13.256   05 Jun 2027 20:05:34.373            81.117                Novosib          2534.906
       290   05 Jun 2027 20:06:05.114   05 Jun 2027 20:06:34.067            28.953                Novosib           904.781
       291   05 Jun 2027 20:12:21.627   05 Jun 2027 20:19:14.423           412.796                  Delhi         12899.875
       292   05 Jun 2027 21:38:34.431   05 Jun 2027 21:46:30.690           476.259              Murmansk2         14883.094
       293   05 Jun 2027 21:48:21.840   05 Jun 2027 21:48:22.958             1.118                 Moscow            34.938
       294   05 Jun 2027 23:22:12.587   05 Jun 2027 23:23:14.747            62.160                 Moscow          1942.500
       295   05 Jun 2027 23:42:21.328   05 Jun 2027 23:45:51.342           210.014               CapeTown          6562.937
       296   05 Jun 2027 23:47:56.784   05 Jun 2027 23:48:10.279            13.495               CapeTown           421.719
       297   06 Jun 2027 00:50:11.019   06 Jun 2027 00:51:16.144            65.125              Murmansk2          2035.156
       298   06 Jun 2027 00:53:23.855   06 Jun 2027 00:54:31.854            67.999                 Moscow          2124.969
       299   06 Jun 2027 01:01:59.610   06 Jun 2027 01:02:22.999            23.389                 Moscow           730.906
       300   06 Jun 2027 01:17:40.618   06 Jun 2027 01:20:13.788           153.170               CapeTown          4786.563
       301   06 Jun 2027 02:14:17.823   06 Jun 2027 02:15:36.648            78.825               Magadan1          2463.281
       302   06 Jun 2027 02:15:59.092   06 Jun 2027 02:16:49.765            50.673               Magadan2          1583.531
       303   06 Jun 2027 02:21:26.129   06 Jun 2027 02:21:52.993            26.864               Magadan1           839.500
       304   06 Jun 2027 02:23:30.287   06 Jun 2027 02:23:57.389            27.102                Norilsk           846.938
       305   06 Jun 2027 02:26:04.566   06 Jun 2027 02:26:46.377            41.811              Murmansk2          1306.594
       306   06 Jun 2027 02:27:35.319   06 Jun 2027 02:28:29.678            54.359              Murmansk1          1698.719
       307   06 Jun 2027 02:29:44.156   06 Jun 2027 02:29:58.252            14.096                 Moscow           440.500
       308   06 Jun 2027 02:30:11.632   06 Jun 2027 02:31:13.364            61.732                 Moscow          1929.125
       309   06 Jun 2027 03:10:01.038   06 Jun 2027 03:10:15.273            14.235            RioGallegos           444.844
       310   06 Jun 2027 03:49:45.748   06 Jun 2027 03:50:16.734            30.986               Magadan1           968.312
       311   06 Jun 2027 03:50:35.698   06 Jun 2027 03:51:04.872            29.174               Magadan1           911.688
       312   06 Jun 2027 03:51:32.159   06 Jun 2027 03:51:59.735            27.576               Magadan1           861.750
       313   06 Jun 2027 03:53:58.002   06 Jun 2027 03:54:19.759            21.757                Anadyr1           679.906
       314   06 Jun 2027 03:56:41.008   06 Jun 2027 03:56:43.314             2.306               Magadan2            72.062
       315   06 Jun 2027 03:56:45.671   06 Jun 2027 04:01:35.972           290.301                Anadyr2          9071.906
       316   06 Jun 2027 04:01:35.972   06 Jun 2027 04:01:46.309            10.337                Anadyr1           323.031
       317   06 Jun 2027 04:41:25.353   06 Jun 2027 04:43:08.286           102.933            RioGallegos          3216.656
       318   06 Jun 2027 04:44:33.479   06 Jun 2027 04:44:46.781            13.302            RioGallegos           415.688
       319   06 Jun 2027 04:45:58.985   06 Jun 2027 04:46:33.169            34.184            RioGallegos          1068.250
       320   06 Jun 2027 05:35:14.404   06 Jun 2027 05:37:46.913           152.509               Magadan1          4765.906
       321   06 Jun 2027 05:39:04.387   06 Jun 2027 05:39:19.256            14.869                Novosib           464.656
       322   06 Jun 2027 05:42:37.586   06 Jun 2027 05:43:00.942            23.356                Norilsk           729.875
       323   06 Jun 2027 07:08:49.230   06 Jun 2027 07:09:45.861            56.631                Irkutsk          1769.719
       324   06 Jun 2027 07:10:14.909   06 Jun 2027 07:10:37.514            22.605                Novosib           706.406
       325   06 Jun 2027 07:10:45.940   06 Jun 2027 07:11:20.111            34.171                Novosib          1067.844
       326   06 Jun 2027 07:12:08.043   06 Jun 2027 07:12:13.776             5.733                Irkutsk           179.156
       327   06 Jun 2027 07:12:23.013   06 Jun 2027 07:12:45.718            22.705                Irkutsk           709.531
       328   06 Jun 2027 07:14:29.918   06 Jun 2027 07:14:31.060             1.142                Norilsk            35.687
       329   06 Jun 2027 07:16:14.950   06 Jun 2027 07:16:34.659            19.709              Murmansk2           615.906
       330   06 Jun 2027 07:54:38.899   06 Jun 2027 07:54:46.404             7.505            RioGallegos           234.531
       331   06 Jun 2027 07:55:29.757   06 Jun 2027 07:56:07.573            37.816            RioGallegos          1181.750
       332   06 Jun 2027 08:28:02.724   06 Jun 2027 08:28:17.706            14.982                Sumatra           468.187
       333   06 Jun 2027 08:32:19.800   06 Jun 2027 08:33:20.226            60.426                Sumatra          1888.312
       334   06 Jun 2027 08:45:54.180   06 Jun 2027 08:46:09.319            15.139                Novosib           473.094
       335   06 Jun 2027 08:46:13.427   06 Jun 2027 08:47:26.218            72.791                Novosib          2274.719
       336   06 Jun 2027 08:47:32.379   06 Jun 2027 08:47:55.543            23.164              Murmansk2           723.875
       337   06 Jun 2027 08:48:41.405   06 Jun 2027 08:48:43.282             1.877                Novosib            58.656
       338   06 Jun 2027 08:48:55.070   06 Jun 2027 08:49:08.537            13.467                Novosib           420.844
       339   06 Jun 2027 08:50:07.942   06 Jun 2027 08:50:11.966             4.024                Novosib           125.750
       340   06 Jun 2027 10:10:28.930   06 Jun 2027 10:13:32.971           184.041                  Delhi          5751.281
       341   06 Jun 2027 10:27:38.526   06 Jun 2027 10:28:13.749            35.223              Murmansk2          1100.719
       342   06 Jun 2027 12:04:28.413   06 Jun 2027 12:04:53.641            25.228              Murmansk1           788.375
       343   06 Jun 2027 12:05:58.321   06 Jun 2027 12:06:03.352             5.031              Murmansk1           157.219
       344   06 Jun 2027 12:07:27.807   06 Jun 2027 12:08:06.407            38.600              Murmansk1          1206.250
       345   06 Jun 2027 12:11:29.723   06 Jun 2027 12:14:35.179           185.456                Anadyr2          5795.500
       346   06 Jun 2027 12:14:59.850   06 Jun 2027 12:15:20.817            20.967                Anadyr1           655.219
       347   06 Jun 2027 12:17:04.619   06 Jun 2027 12:17:52.875            48.256                Anadyr2          1508.000
       348   06 Jun 2027 13:40:24.890   06 Jun 2027 13:40:34.926            10.036              Murmansk2           313.625
       349   06 Jun 2027 13:41:04.757   06 Jun 2027 13:41:38.513            33.756              Murmansk1          1054.875
       350   06 Jun 2027 13:43:21.493   06 Jun 2027 13:43:45.366            23.873              Murmansk1           746.031
       351   06 Jun 2027 13:44:29.014   06 Jun 2027 13:44:38.379             9.365              Murmansk2           292.656
       352   06 Jun 2027 13:46:34.354   06 Jun 2027 13:48:35.190           120.836                Anadyr1          3776.125
       353   06 Jun 2027 13:50:27.448   06 Jun 2027 13:50:54.820            27.372                Anadyr1           855.375
       354   06 Jun 2027 13:51:20.815   06 Jun 2027 13:51:58.445            37.630                Anadyr1          1175.937
       355   06 Jun 2027 13:52:22.127   06 Jun 2027 13:53:37.208            75.081               Magadan1          2346.281
       356   06 Jun 2027 15:16:49.482   06 Jun 2027 15:18:29.187            99.705              Murmansk2          3115.781
       357   06 Jun 2027 15:22:24.799   06 Jun 2027 15:24:38.760           133.961                Anadyr1          4186.281
       358   06 Jun 2027 15:24:58.164   06 Jun 2027 15:28:40.045           221.881               Magadan2          6933.781
       359   06 Jun 2027 15:28:47.882   06 Jun 2027 15:29:10.473            22.591               Magadan2           705.969
       360   06 Jun 2027 15:31:54.319   06 Jun 2027 15:33:28.097            93.778               Magadan1          2930.562
       361   06 Jun 2027 16:59:27.616   06 Jun 2027 16:59:53.485            25.869                Anadyr1           808.406
       362   06 Jun 2027 17:00:36.536   06 Jun 2027 17:02:22.498           105.962               Magadan2          3311.313
       363   06 Jun 2027 17:03:56.317   06 Jun 2027 17:04:05.826             9.509               Magadan2           297.156
       364   06 Jun 2027 17:04:13.395   06 Jun 2027 17:04:56.723            43.328                Norilsk          1354.000
       365   06 Jun 2027 17:09:06.573   06 Jun 2027 17:09:18.339            11.766               Magadan2           367.687
       366   06 Jun 2027 17:12:02.814   06 Jun 2027 17:12:28.898            26.084               Magadan2           815.125
       367   06 Jun 2027 17:52:50.945   06 Jun 2027 17:56:06.479           195.534            RioGallegos          6110.438
       368   06 Jun 2027 17:56:36.595   06 Jun 2027 17:58:53.767           137.172            RioGallegos          4286.625
       369   06 Jun 2027 18:40:11.519   06 Jun 2027 18:41:33.443            81.924                Norilsk          2560.125
       370   06 Jun 2027 18:42:12.592   06 Jun 2027 18:44:04.902           112.310                Irkutsk          3509.687
       371   06 Jun 2027 18:44:05.952   06 Jun 2027 18:47:12.611           186.659                Novosib          5833.094
       372   06 Jun 2027 18:54:09.841   06 Jun 2027 18:57:53.095           223.254                Sumatra          6976.687
       373   06 Jun 2027 20:16:46.007   06 Jun 2027 20:18:09.832            83.825                Novosib          2619.531
       374   06 Jun 2027 20:20:00.368   06 Jun 2027 20:20:23.037            22.669                Novosib           708.406
       375   06 Jun 2027 20:22:50.580   06 Jun 2027 20:23:32.183            41.603                Novosib          1300.094
       376   06 Jun 2027 20:23:59.728   06 Jun 2027 20:27:45.255           225.527                  Delhi          7047.719
       377   06 Jun 2027 20:28:59.103   06 Jun 2027 20:30:24.954            85.851                  Delhi          2682.844
       378   06 Jun 2027 21:50:30.697   06 Jun 2027 21:56:03.142           332.445              Murmansk2         10388.906
       379   06 Jun 2027 21:56:53.340   06 Jun 2027 21:59:08.476           135.136              Murmansk1          4223.000
       380   06 Jun 2027 22:00:33.024   06 Jun 2027 22:01:46.088            73.064                 Moscow          2283.250
       381   06 Jun 2027 23:29:37.186   06 Jun 2027 23:30:34.398            57.212                 Moscow          1787.875
       382   06 Jun 2027 23:32:05.920   06 Jun 2027 23:33:32.857            86.937                 Moscow          2716.781
       383   06 Jun 2027 23:53:59.811   06 Jun 2027 23:55:48.650           108.839               CapeTown          3401.219
       384   06 Jun 2027 23:56:16.241   06 Jun 2027 23:57:21.039            64.798               CapeTown          2024.938
       385   07 Jun 2027 01:00:05.793   07 Jun 2027 01:00:29.419            23.626               Magadan1           738.313
       386   07 Jun 2027 01:02:12.569   07 Jun 2027 01:03:17.753            65.184              Murmansk2          2037.000
       387   07 Jun 2027 01:04:39.505   07 Jun 2027 01:05:33.120            53.615              Murmansk1          1675.469
       388   07 Jun 2027 01:06:32.638   07 Jun 2027 01:08:28.565           115.927                 Moscow          3622.719
       389   07 Jun 2027 01:30:02.065   07 Jun 2027 01:30:27.821            25.756               CapeTown           804.875
       390   07 Jun 2027 01:35:08.720   07 Jun 2027 01:36:21.004            72.284               CapeTown          2258.875
       391   07 Jun 2027 02:26:07.658   07 Jun 2027 02:27:55.800           108.142               Magadan1          3379.438
       392   07 Jun 2027 02:28:23.628   07 Jun 2027 02:28:37.118            13.490               Magadan1           421.562
       393   07 Jun 2027 02:30:52.960   07 Jun 2027 02:31:18.300            25.340               Magadan1           791.875
       394   07 Jun 2027 02:34:33.067   07 Jun 2027 02:34:51.074            18.007                Norilsk           562.719
       395   07 Jun 2027 02:37:29.184   07 Jun 2027 02:37:43.154            13.970                Norilsk           436.563
       396   07 Jun 2027 02:37:54.324   07 Jun 2027 02:38:02.414             8.090                Norilsk           252.813
       397   07 Jun 2027 02:38:04.568   07 Jun 2027 02:38:47.719            43.151              Murmansk1          1348.469
       398   07 Jun 2027 02:39:13.475   07 Jun 2027 02:39:47.326            33.851              Murmansk1          1057.844
       399   07 Jun 2027 02:41:51.120   07 Jun 2027 02:43:06.675            75.555                 Moscow          2361.094
       400   07 Jun 2027 02:48:54.507   07 Jun 2027 02:49:42.636            48.129                 Moscow          1504.031
       401   07 Jun 2027 03:19:51.978   07 Jun 2027 03:20:31.365            39.387            RioGallegos          1230.844
       402   07 Jun 2027 03:21:18.231   07 Jun 2027 03:21:29.367            11.136            RioGallegos           348.000
       403   07 Jun 2027 03:21:54.767   07 Jun 2027 03:22:35.040            40.273            RioGallegos          1258.531
       404   07 Jun 2027 04:06:58.972   07 Jun 2027 04:07:28.430            29.458               Magadan2           920.563
       405   07 Jun 2027 04:08:18.596   07 Jun 2027 04:12:23.231           244.635               Magadan1          7644.844
       406   07 Jun 2027 04:12:31.542   07 Jun 2027 04:13:37.371            65.829                Anadyr2          2057.156
       407   07 Jun 2027 04:13:37.371   07 Jun 2027 04:13:58.059            20.688                Anadyr1           646.500
       408   07 Jun 2027 04:50:21.342   07 Jun 2027 04:53:00.012           158.670            RioGallegos          4958.438
       409   07 Jun 2027 05:45:44.612   07 Jun 2027 05:49:40.232           235.620                Irkutsk          7363.125
       410   07 Jun 2027 07:20:58.607   07 Jun 2027 07:21:37.815            39.208                Novosib          1225.250
       411   07 Jun 2027 07:22:39.050   07 Jun 2027 07:23:24.456            45.406                Novosib          1418.938
       412   07 Jun 2027 07:23:48.913   07 Jun 2027 07:24:02.147            13.234              Murmansk2           413.562
       413   07 Jun 2027 07:27:06.267   07 Jun 2027 07:27:07.386             1.119                Norilsk            34.969
       414   07 Jun 2027 07:27:27.258   07 Jun 2027 07:27:39.691            12.433              Murmansk1           388.531
       415   07 Jun 2027 07:28:11.371   07 Jun 2027 07:28:26.469            15.098              Murmansk2           471.813
       416   07 Jun 2027 08:05:52.761   07 Jun 2027 08:06:08.238            15.477            RioGallegos           483.656
       417   07 Jun 2027 08:07:24.861   07 Jun 2027 08:07:31.499             6.638            RioGallegos           207.438
       418   07 Jun 2027 08:10:04.317   07 Jun 2027 08:10:46.982            42.665            RioGallegos          1333.281
       419   07 Jun 2027 08:40:01.993   07 Jun 2027 08:40:50.452            48.459                Sumatra          1514.344
       420   07 Jun 2027 08:58:53.896   07 Jun 2027 08:58:58.224             4.328              Murmansk2           135.250
       421   07 Jun 2027 08:59:00.745   07 Jun 2027 08:59:23.286            22.541              Murmansk2           704.406
       422   07 Jun 2027 08:59:26.236   07 Jun 2027 08:59:31.172             4.936                Novosib           154.250
       423   07 Jun 2027 08:59:51.538   07 Jun 2027 09:00:21.995            30.457                Novosib           951.781
       424   07 Jun 2027 09:02:17.217   07 Jun 2027 09:03:34.259            77.042                Novosib          2407.563
       425   07 Jun 2027 10:23:45.323   07 Jun 2027 10:25:12.250            86.927                  Delhi          2716.469
       426   07 Jun 2027 10:25:43.308   07 Jun 2027 10:26:21.539            38.231                  Delhi          1194.719
       427   07 Jun 2027 10:35:15.039   07 Jun 2027 10:35:20.114             5.075              Murmansk1           158.594
       428   07 Jun 2027 10:39:40.091   07 Jun 2027 10:40:15.149            35.058              Murmansk1          1095.562
       429   07 Jun 2027 12:08:31.510   07 Jun 2027 12:08:59.015            27.505              Murmansk1           859.531
       430   07 Jun 2027 12:09:12.678   07 Jun 2027 12:09:29.642            16.964              Murmansk1           530.125
       431   07 Jun 2027 12:09:51.668   07 Jun 2027 12:10:31.914            40.246              Murmansk1          1257.687
       432   07 Jun 2027 12:15:37.592   07 Jun 2027 12:16:08.921            31.329              Murmansk1           979.031
       433   07 Jun 2027 12:17:48.591   07 Jun 2027 12:18:17.507            28.916              Murmansk2           903.625
       434   07 Jun 2027 12:23:17.325   07 Jun 2027 12:26:35.424           198.099                Anadyr1          6190.594
       435   07 Jun 2027 13:47:14.415   07 Jun 2027 13:48:26.907            72.492              Murmansk2          2265.375
       436   07 Jun 2027 13:49:03.754   07 Jun 2027 13:49:34.876            31.122              Murmansk1           972.563
       437   07 Jun 2027 13:49:56.676   07 Jun 2027 13:50:35.847            39.171              Murmansk2          1224.094
       438   07 Jun 2027 13:54:17.801   07 Jun 2027 13:55:03.684            45.883              Murmansk2          1433.844
       439   07 Jun 2027 13:58:33.961   07 Jun 2027 14:02:27.792           233.831                Anadyr2          7307.219
       440   07 Jun 2027 14:02:56.300   07 Jun 2027 14:07:41.662           285.362               Magadan1          8917.563
       441   07 Jun 2027 15:36:54.627   07 Jun 2027 15:39:20.609           145.982               Magadan2          4561.937
       442   07 Jun 2027 15:40:30.834   07 Jun 2027 15:41:09.738            38.904               Magadan2          1215.750
       443   07 Jun 2027 15:42:25.379   07 Jun 2027 15:42:25.785             0.406               Magadan1            12.688
       444   07 Jun 2027 15:43:12.242   07 Jun 2027 15:45:02.662           110.420               Magadan2          3450.625
       445   07 Jun 2027 17:10:44.677   07 Jun 2027 17:11:38.905            54.228                Anadyr2          1694.625
       446   07 Jun 2027 17:12:37.890   07 Jun 2027 17:13:48.961            71.071               Magadan2          2220.969
       447   07 Jun 2027 17:16:14.405   07 Jun 2027 17:16:50.486            36.081                Norilsk          1127.531
       448   07 Jun 2027 17:17:25.900   07 Jun 2027 17:17:49.717            23.817                Norilsk           744.281
       449   07 Jun 2027 17:19:46.105   07 Jun 2027 17:22:23.704           157.599                Irkutsk          4924.969
       450   07 Jun 2027 18:04:40.006   07 Jun 2027 18:06:44.498           124.492            RioGallegos          3890.375
       451   07 Jun 2027 18:15:07.570   07 Jun 2027 18:15:49.688            42.118            RioGallegos          1316.187
       452   07 Jun 2027 18:48:11.767   07 Jun 2027 18:49:31.106            79.339                Norilsk          2479.344
       453   07 Jun 2027 18:52:17.787   07 Jun 2027 18:53:00.394            42.607                Irkutsk          1331.469
       454   07 Jun 2027 18:53:51.577   07 Jun 2027 19:00:29.020           397.443                Novosib         12420.094
       455   07 Jun 2027 19:08:57.006   07 Jun 2027 19:09:43.079            46.073                Sumatra          1439.781
       456   07 Jun 2027 19:16:27.603   07 Jun 2027 19:17:43.397            75.794                Sumatra          2368.562
       457   07 Jun 2027 20:29:32.989   07 Jun 2027 20:29:54.758            21.769                Novosib           680.281
       458   07 Jun 2027 20:32:06.819   07 Jun 2027 20:32:23.022            16.203                Novosib           506.344
       459   07 Jun 2027 20:33:20.106   07 Jun 2027 20:34:41.703            81.597                Novosib          2549.906
       460   07 Jun 2027 20:35:43.960   07 Jun 2027 20:37:36.915           112.955                  Delhi          3529.844
       461   07 Jun 2027 20:37:53.526   07 Jun 2027 20:39:43.005           109.479                  Delhi          3421.219
       462   07 Jun 2027 22:02:28.266   07 Jun 2027 22:09:06.901           398.635              Murmansk2         12457.344
       463   07 Jun 2027 22:09:07.325   07 Jun 2027 22:11:42.894           155.569              Murmansk2          4861.531
       464   07 Jun 2027 22:12:22.976   07 Jun 2027 22:14:06.530           103.554                 Moscow          3236.062
       465   07 Jun 2027 23:41:35.019   07 Jun 2027 23:43:35.235           120.216                 Moscow          3756.750
       466   08 Jun 2027 00:05:43.879   08 Jun 2027 00:07:41.814           117.935               CapeTown          3685.469
       467   08 Jun 2027 00:08:26.680   08 Jun 2027 00:09:36.638            69.958               CapeTown          2186.188
       468   08 Jun 2027 01:14:14.024   08 Jun 2027 01:14:52.942            38.918              Murmansk2          1216.188
       469   08 Jun 2027 01:15:12.563   08 Jun 2027 01:16:33.910            81.347              Murmansk1          2542.094
       470   08 Jun 2027 01:17:29.636   08 Jun 2027 01:17:32.375             2.739                 Moscow            85.594
       471   08 Jun 2027 01:17:45.295   08 Jun 2027 01:18:04.571            19.276                 Moscow           602.375
       472   08 Jun 2027 01:22:14.749   08 Jun 2027 01:22:19.862             5.113                 Moscow           159.781
       473   08 Jun 2027 01:22:30.611   08 Jun 2027 01:22:46.740            16.129                 Moscow           504.031
       474   08 Jun 2027 01:26:44.060   08 Jun 2027 01:26:57.888            13.828                 Moscow           432.125
       475   08 Jun 2027 01:27:31.213   08 Jun 2027 01:28:01.123            29.910                 Moscow           934.687
       476   08 Jun 2027 01:42:31.018   08 Jun 2027 01:42:34.461             3.443               CapeTown           107.594
       477   08 Jun 2027 01:43:47.912   08 Jun 2027 01:44:58.489            70.577               CapeTown          2205.531
       478   08 Jun 2027 02:37:59.657   08 Jun 2027 02:40:53.288           173.631               Magadan2          5425.969
       479   08 Jun 2027 02:42:31.874   08 Jun 2027 02:43:29.087            57.213               Magadan2          1787.906
       480   08 Jun 2027 02:47:12.400   08 Jun 2027 02:47:46.798            34.398                Norilsk          1074.937
       481   08 Jun 2027 02:50:04.240   08 Jun 2027 02:51:01.337            57.097              Murmansk1          1784.281
       482   08 Jun 2027 02:53:58.951   08 Jun 2027 02:54:39.817            40.866                 Moscow          1277.062
