uniorb/output/strategy_4/Drop/Drop_KinoSat_110110.txt

KinoSat_110110
-------------------------
    Access    *     Start Time (UTCG)     *     Stop Time (UTCG)  *   Duration (s)        *       Station  *  Data (Mbytes)
         1   01 Jun 2027 03:20:25.642   01 Jun 2027 03:20:31.916             6.274                Irkutsk           784.250
         2   01 Jun 2027 03:20:42.606   01 Jun 2027 03:21:43.014            60.408                Novosib          7551.000
         3   01 Jun 2027 03:22:10.616   01 Jun 2027 03:23:25.049            74.433                Irkutsk          9304.125
         4   01 Jun 2027 03:23:37.882   01 Jun 2027 03:24:32.517            54.635                Irkutsk          6829.375
         5   01 Jun 2027 03:24:42.369   01 Jun 2027 03:25:31.094            48.725                Novosib          6090.625
         6   01 Jun 2027 04:00:47.598   01 Jun 2027 04:03:08.146           140.548            RioGallegos         17568.500
         7   01 Jun 2027 04:03:35.308   01 Jun 2027 04:04:54.228            78.920            RioGallegos          9865.000
         8   01 Jun 2027 04:35:09.596   01 Jun 2027 04:36:12.610            63.014                Sumatra          7876.750
         9   01 Jun 2027 04:57:58.093   01 Jun 2027 04:59:41.370           103.277                Novosib         12909.625
        10   01 Jun 2027 05:00:02.049   01 Jun 2027 05:00:20.519            18.470                Irkutsk          2308.750
        11   01 Jun 2027 05:00:28.213   01 Jun 2027 05:00:53.947            25.734              Murmansk2          3216.750
        12   01 Jun 2027 05:01:04.088   01 Jun 2027 05:01:08.715             4.627              Murmansk1           578.375
        13   01 Jun 2027 05:01:08.715   01 Jun 2027 05:01:31.169            22.454              Murmansk2          2806.750
        14   01 Jun 2027 05:01:43.948   01 Jun 2027 05:02:05.187            21.239                Norilsk          2654.875
        15   01 Jun 2027 06:19:49.393   01 Jun 2027 06:22:08.206           138.813                  Delhi         17351.625
        16   01 Jun 2027 06:23:55.999   01 Jun 2027 06:24:51.140            55.141                  Delhi          6892.625
        17   01 Jun 2027 06:34:32.207   01 Jun 2027 06:34:58.022            25.815                Norilsk          3226.875
        18   01 Jun 2027 06:35:18.984   01 Jun 2027 06:36:38.652            79.668                 Moscow          9958.500
        19   01 Jun 2027 06:39:24.387   01 Jun 2027 06:39:51.439            27.052                 Moscow          3381.500
        20   01 Jun 2027 09:17:32.358   01 Jun 2027 09:23:27.749           355.391               CapeTown         44423.875
        21   01 Jun 2027 13:11:51.385   01 Jun 2027 13:14:56.790           185.405               Magadan2         23175.625
        22   01 Jun 2027 13:15:44.038   01 Jun 2027 13:17:50.381           126.343               Magadan2         15792.875
        23   01 Jun 2027 15:06:53.760   01 Jun 2027 15:10:45.271           231.511                Sumatra         28938.875
        24   01 Jun 2027 15:15:07.499   01 Jun 2027 15:15:48.055            40.556                Sumatra          5069.500
        25   01 Jun 2027 16:38:28.061   01 Jun 2027 16:40:04.276            96.215                Irkutsk         12026.875
        26   01 Jun 2027 16:42:04.809   01 Jun 2027 16:44:38.512           153.703                  Delhi         19212.875
        27   01 Jun 2027 18:03:05.322   01 Jun 2027 18:03:28.520            23.198                Novosib          2899.750
        28   01 Jun 2027 18:04:53.253   01 Jun 2027 18:06:11.687            78.434                Novosib          9804.250
        29   01 Jun 2027 18:10:25.355   01 Jun 2027 18:11:57.347            91.992                  Delhi         11499.000
        30   01 Jun 2027 18:18:02.024   01 Jun 2027 18:20:02.397           120.373                  Delhi         15046.625
        31   01 Jun 2027 19:45:07.507   01 Jun 2027 19:46:32.114            84.607                 Moscow           321.000
        32   02 Jun 2027 03:37:28.790   02 Jun 2027 03:37:37.258             8.468                Norilsk          1058.500
        33   02 Jun 2027 04:16:13.791   02 Jun 2027 04:17:03.605            49.814            RioGallegos          6226.750
        34   02 Jun 2027 04:47:25.590   02 Jun 2027 04:47:45.019            19.429                Sumatra          2428.625
        35   02 Jun 2027 04:49:27.666   02 Jun 2027 04:51:44.727           137.061                Sumatra         17132.625
        36   02 Jun 2027 05:02:42.768   02 Jun 2027 05:03:19.422            36.654                  Delhi          4581.750
        37   02 Jun 2027 05:12:57.277   02 Jun 2027 05:19:34.608           397.331              Murmansk2         49666.375
        38   02 Jun 2027 05:19:41.143   02 Jun 2027 05:20:07.401            26.258              Murmansk2          3282.250
        39   02 Jun 2027 06:32:17.316   02 Jun 2027 06:37:17.123           299.807                  Delhi         37475.875
        40   02 Jun 2027 06:38:40.878   02 Jun 2027 06:40:52.199           131.321                  Delhi         16415.125
        41   02 Jun 2027 06:49:08.511   02 Jun 2027 06:49:50.276            41.765              Murmansk2          5220.625
        42   02 Jun 2027 06:49:54.231   02 Jun 2027 06:52:29.156           154.925                 Moscow         19365.625
        43   02 Jun 2027 06:52:48.421   02 Jun 2027 06:55:02.926           134.505              Murmansk2         16813.125
        44   02 Jun 2027 08:15:44.617   02 Jun 2027 08:20:21.066           276.449                 Moscow         34556.125
        45   02 Jun 2027 08:22:56.422   02 Jun 2027 08:25:12.569           136.147              Murmansk2         17018.375
        46   02 Jun 2027 08:25:44.593   02 Jun 2027 08:27:05.856            81.263                Norilsk         10157.875
        47   02 Jun 2027 08:27:08.210   02 Jun 2027 08:30:34.628           206.418              Murmansk2         25802.250
        48   02 Jun 2027 08:35:32.531   02 Jun 2027 08:38:06.761           154.230                Anadyr1         19278.750
        49   02 Jun 2027 10:16:51.760   02 Jun 2027 10:19:26.689           154.929                Anadyr2         19366.125
        50   02 Jun 2027 13:23:51.664   02 Jun 2027 13:24:12.502            20.838               Magadan1          2604.750
        51   02 Jun 2027 13:28:33.609   02 Jun 2027 13:29:36.356            62.747               Magadan2          7843.375
        52   02 Jun 2027 13:33:26.710   02 Jun 2027 13:33:43.236            16.526               Magadan1          2065.750
        53   02 Jun 2027 13:35:12.193   02 Jun 2027 13:36:43.988            91.795               Magadan2         11474.375
        54   02 Jun 2027 15:06:47.934   02 Jun 2027 15:07:56.471            68.537                Irkutsk          8567.125
        55   02 Jun 2027 15:20:14.786   02 Jun 2027 15:25:35.861           321.075                Sumatra         40134.375
        56   02 Jun 2027 16:43:47.280   02 Jun 2027 16:44:57.834            70.554                Novosib          8819.250
        57   02 Jun 2027 16:48:07.914   02 Jun 2027 16:48:57.559            49.645                  Delhi          6205.625
        58   02 Jun 2027 16:52:31.007   02 Jun 2027 16:57:17.661           286.654                  Delhi         35831.750
        59   02 Jun 2027 18:34:09.087   02 Jun 2027 18:35:02.129            53.042                  Delhi          6630.250
        60   02 Jun 2027 19:55:59.082   02 Jun 2027 19:57:54.595           115.513                 Moscow         14439.125
        61   02 Jun 2027 19:59:47.513   02 Jun 2027 20:01:00.918            73.405                 Moscow          9175.625
        62   02 Jun 2027 21:55:14.707   02 Jun 2027 21:55:37.682            22.975               CapeTown          2871.875
        63   02 Jun 2027 21:57:18.329   02 Jun 2027 21:59:09.730           111.401               CapeTown         13925.125
        64   03 Jun 2027 03:23:54.400   03 Jun 2027 03:25:30.962            96.562                Sumatra           936.375
        65   03 Jun 2027 05:01:20.131   03 Jun 2027 05:01:49.349            29.218                Sumatra          3652.250
        66   03 Jun 2027 05:13:23.206   03 Jun 2027 05:13:23.533             0.327                  Delhi            40.875
        67   03 Jun 2027 05:14:25.820   03 Jun 2027 05:16:59.542           153.722                  Delhi         19215.250
        68   03 Jun 2027 05:25:15.673   03 Jun 2027 05:28:05.085           169.412                 Moscow         21176.500
        69   03 Jun 2027 05:28:41.147   03 Jun 2027 05:30:20.644            99.497              Murmansk1         12437.125
        70   03 Jun 2027 05:30:23.666   03 Jun 2027 05:30:28.232             4.566                Norilsk           570.750
        71   03 Jun 2027 06:52:10.917   03 Jun 2027 06:53:27.521            76.604                 Moscow          9575.500
        72   03 Jun 2027 06:53:43.525   03 Jun 2027 06:54:58.862            75.337                Novosib          9417.125
        73   03 Jun 2027 06:55:44.871   03 Jun 2027 06:56:48.482            63.611                 Moscow          7951.375
        74   03 Jun 2027 07:01:23.780   03 Jun 2027 07:01:33.790            10.010                Norilsk          1251.250
        75   03 Jun 2027 07:01:37.292   03 Jun 2027 07:04:32.644           175.352                 Moscow         21919.000
        76   03 Jun 2027 07:04:46.242   03 Jun 2027 07:05:49.646            63.404              Murmansk1          7925.500
        77   03 Jun 2027 07:05:49.646   03 Jun 2027 07:06:57.308            67.662              Murmansk2          8457.750
        78   03 Jun 2027 08:30:52.619   03 Jun 2027 08:32:21.808            89.189                 Moscow         11148.625
        79   03 Jun 2027 08:32:58.895   03 Jun 2027 08:33:45.471            46.576              Murmansk2          5822.000
        80   03 Jun 2027 08:34:24.344   03 Jun 2027 08:36:39.922           135.578              Murmansk1         16947.250
        81   03 Jun 2027 08:37:22.140   03 Jun 2027 08:37:39.875            17.735                 Moscow          2216.875
        82   03 Jun 2027 08:39:22.751   03 Jun 2027 08:41:08.141           105.390              Murmansk2         13173.750
        83   03 Jun 2027 08:47:03.572   03 Jun 2027 08:52:51.614           348.042                Anadyr2         43505.250
        84   03 Jun 2027 10:21:51.941   03 Jun 2027 10:23:30.952            99.011                Anadyr2         12376.375
        85   03 Jun 2027 10:31:29.586   03 Jun 2027 10:32:02.724            33.138                Anadyr2          4142.250
        86   03 Jun 2027 12:00:16.479   03 Jun 2027 12:00:59.460            42.981                Anadyr2          5372.625
        87   03 Jun 2027 12:01:18.689   03 Jun 2027 12:03:08.101           109.412               Magadan1         13676.500
        88   03 Jun 2027 12:03:41.711   03 Jun 2027 12:04:23.358            41.647                Anadyr2          5205.875
        89   03 Jun 2027 12:05:17.429   03 Jun 2027 12:06:32.519            75.090               Magadan1          9386.250
        90   03 Jun 2027 12:06:32.519   03 Jun 2027 12:07:53.937            81.418               Magadan2         10177.250
        91   03 Jun 2027 13:35:52.389   03 Jun 2027 13:39:10.384           197.995               Magadan1         24749.375
        92   03 Jun 2027 15:19:41.991   03 Jun 2027 15:21:15.999            94.008                Irkutsk         11751.000
        93   03 Jun 2027 15:29:43.283   03 Jun 2027 15:36:22.623           399.340                Sumatra         49917.500
        94   03 Jun 2027 16:56:32.504   03 Jun 2027 16:58:35.662           123.158                Novosib         15394.750
        95   03 Jun 2027 16:59:37.855   03 Jun 2027 17:06:58.800           440.945                  Delhi         55118.125
        96   03 Jun 2027 20:13:05.881   03 Jun 2027 20:14:29.007            83.126                 Moscow         10390.750
        97   03 Jun 2027 21:48:41.757   03 Jun 2027 21:50:17.496            95.739                 Moscow         11967.375
        98   03 Jun 2027 22:07:28.210   03 Jun 2027 22:09:17.063           108.853               CapeTown          6604.500
        99   04 Jun 2027 05:12:22.962   04 Jun 2027 05:14:03.729           100.767                Sumatra         12595.875
       100   04 Jun 2027 05:24:03.607   04 Jun 2027 05:24:56.495            52.888                  Delhi          6611.000
       101   04 Jun 2027 05:26:45.652   04 Jun 2027 05:30:18.222           212.570                  Delhi         26571.250
       102   04 Jun 2027 05:36:55.196   04 Jun 2027 05:37:47.217            52.021              Murmansk2          6502.625
       103   04 Jun 2027 05:37:50.557   04 Jun 2027 05:37:58.068             7.511                Novosib           938.875
       104   04 Jun 2027 05:38:12.666   04 Jun 2027 05:38:46.984            34.318                Norilsk          4289.750
       105   04 Jun 2027 05:39:13.363   04 Jun 2027 05:40:12.624            59.261                 Moscow          7407.625
       106   04 Jun 2027 05:40:33.385   04 Jun 2027 05:42:16.946           103.561              Murmansk1         12945.125
       107   04 Jun 2027 07:06:58.788   04 Jun 2027 07:07:50.722            51.934                 Moscow          6491.750
       108   04 Jun 2027 07:13:54.461   04 Jun 2027 07:17:58.805           244.344              Murmansk1         30543.000
       109   04 Jun 2027 07:18:47.234   04 Jun 2027 07:19:42.954            55.720              Murmansk1          6965.000
       110   04 Jun 2027 08:20:32.927   04 Jun 2027 08:25:56.679           323.752               CapeTown         40469.000
       111   04 Jun 2027 08:40:08.399   04 Jun 2027 08:41:30.895            82.496                 Moscow         10312.000
       112   04 Jun 2027 08:43:03.817   04 Jun 2027 08:43:19.827            16.010                 Moscow          2001.250
       113   04 Jun 2027 08:43:35.979   04 Jun 2027 08:44:51.090            75.111              Murmansk2          9388.875
       114   04 Jun 2027 08:46:55.266   04 Jun 2027 08:49:32.292           157.026              Murmansk1         19628.250
       115   04 Jun 2027 08:51:23.395   04 Jun 2027 08:53:20.456           117.061              Murmansk2         14632.625
       116   04 Jun 2027 08:58:45.762   04 Jun 2027 09:05:40.871           415.109                Anadyr1         51888.625
       117   04 Jun 2027 12:09:53.972   04 Jun 2027 12:10:32.053            38.081                Anadyr1          4760.125
       118   04 Jun 2027 12:12:14.804   04 Jun 2027 12:14:00.327           105.523               Magadan2         13190.375
       119   04 Jun 2027 12:16:52.873   04 Jun 2027 12:17:23.923            31.050               Magadan2          3881.250
       120   04 Jun 2027 12:20:38.271   04 Jun 2027 12:21:46.469            68.198               Magadan2          8524.750
       121   04 Jun 2027 13:47:53.494   04 Jun 2027 13:48:04.527            11.033               Magadan1          1379.125
       122   04 Jun 2027 13:50:06.152   04 Jun 2027 13:51:13.294            67.142               Magadan1          8392.750
       123   04 Jun 2027 14:41:06.738   04 Jun 2027 14:43:38.280           151.542            RioGallegos         18942.750
       124   04 Jun 2027 15:29:30.123   04 Jun 2027 15:30:39.618            69.495                Irkutsk          8686.875
       125   04 Jun 2027 15:33:55.636   04 Jun 2027 15:37:10.003           194.367                Irkutsk         24295.875
       126   04 Jun 2027 15:44:02.182   04 Jun 2027 15:47:33.928           211.746                Sumatra         26468.250
       127   04 Jun 2027 17:09:10.169   04 Jun 2027 17:11:48.299           158.130                Novosib         19766.250
       128   04 Jun 2027 17:12:43.799   04 Jun 2027 17:17:45.035           301.236                  Delhi         37654.500
       129   04 Jun 2027 20:16:53.954   04 Jun 2027 20:18:07.207            73.253                 Moscow          9156.625
       130   04 Jun 2027 20:19:29.391   04 Jun 2027 20:21:57.145           147.754                 Moscow         14412.000
       131   05 Jun 2027 05:25:11.803   05 Jun 2027 05:26:11.854            60.051                Sumatra          7506.375
       132   05 Jun 2027 05:31:20.778   05 Jun 2027 05:32:52.180            91.402                  Delhi         11425.250
       133   05 Jun 2027 05:39:00.372   05 Jun 2027 05:42:51.195           230.823                  Delhi         28852.875
       134   05 Jun 2027 05:49:19.190   05 Jun 2027 05:50:00.878            41.688              Murmansk2          5211.000
       135   05 Jun 2027 05:50:02.550   05 Jun 2027 05:50:51.311            48.761                Novosib          6095.125
       136   05 Jun 2027 05:51:13.280   05 Jun 2027 05:52:19.362            66.082                 Moscow          8260.250
       137   05 Jun 2027 05:52:26.372   05 Jun 2027 05:53:47.333            80.961              Murmansk1         10120.125
       138   05 Jun 2027 05:54:27.124   05 Jun 2027 05:54:31.834             4.710                Norilsk           588.750
       139   05 Jun 2027 07:15:53.776   05 Jun 2027 07:16:40.823            47.047                 Moscow          5880.875
       140   05 Jun 2027 07:26:11.893   05 Jun 2027 07:32:07.629           355.736              Murmansk2         44467.000
       141   05 Jun 2027 08:31:29.744   05 Jun 2027 08:39:16.496           466.752               CapeTown         58344.000
       142   05 Jun 2027 08:52:25.578   05 Jun 2027 08:58:16.537           350.959                 Moscow         43869.875
       143   05 Jun 2027 08:58:44.840   05 Jun 2027 08:59:36.924            52.084                 Moscow          6510.500
       144   05 Jun 2027 08:59:50.493   05 Jun 2027 09:01:45.188           114.695              Murmansk1         14336.875
       145   05 Jun 2027 09:02:25.348   05 Jun 2027 09:02:40.402            15.054              Murmansk1          1881.750
       146   05 Jun 2027 09:02:58.735   05 Jun 2027 09:03:13.109            14.374              Murmansk1          1796.750
       147   05 Jun 2027 09:03:20.468   05 Jun 2027 09:04:41.902            81.434              Murmansk1         10179.250
       148   05 Jun 2027 09:04:41.902   05 Jun 2027 09:05:02.141            20.239              Murmansk2          2529.875
       149   05 Jun 2027 09:05:34.358   05 Jun 2027 09:06:08.997            34.639              Murmansk2          4329.875
       150   05 Jun 2027 09:08:02.621   05 Jun 2027 09:08:05.799             3.178              Murmansk1           397.250
       151   05 Jun 2027 09:10:33.580   05 Jun 2027 09:16:25.649           352.069                Anadyr1         44008.625
       152   05 Jun 2027 09:17:39.052   05 Jun 2027 09:18:33.388            54.336                Anadyr2          6792.000
       153   05 Jun 2027 10:34:48.529   05 Jun 2027 10:36:37.740           109.211              Murmansk1         13651.375
       154   05 Jun 2027 10:50:11.406   05 Jun 2027 10:53:03.403           171.997               Magadan1         21499.625
       155   05 Jun 2027 12:24:11.361   05 Jun 2027 12:25:28.139            76.778               Magadan2          9597.250
       156   05 Jun 2027 12:29:55.852   05 Jun 2027 12:33:55.332           239.480               Magadan1         29935.000
       157   05 Jun 2027 14:53:10.159   05 Jun 2027 14:57:04.128           233.969            RioGallegos         29246.125
       158   05 Jun 2027 15:47:33.604   05 Jun 2027 15:49:05.792            92.188                Irkutsk         11523.500
       159   05 Jun 2027 15:53:16.081   05 Jun 2027 15:56:14.154           178.073                Sumatra         22259.125
       160   05 Jun 2027 17:15:22.685   05 Jun 2027 17:18:02.008           159.323                Novosib         19915.375
       161   05 Jun 2027 17:23:00.554   05 Jun 2027 17:25:11.014           130.460                  Delhi         16307.500
       162   05 Jun 2027 17:27:58.529   05 Jun 2027 17:29:00.185            61.656                  Delhi          7707.000
       163   05 Jun 2027 19:00:50.871   05 Jun 2027 19:01:25.757            34.886                  Delhi          4360.750
       164   05 Jun 2027 19:06:23.190   05 Jun 2027 19:08:11.405           108.215                  Delhi         13526.875
       165   05 Jun 2027 20:31:44.216   05 Jun 2027 20:33:50.733           126.517                 Moscow         15814.625
       166   05 Jun 2027 22:09:32.807   05 Jun 2027 22:09:50.328            17.521                 Moscow          2190.125
       167   05 Jun 2027 22:14:18.312   05 Jun 2027 22:15:12.314            54.002                 Moscow          3259.499
       168   06 Jun 2027 05:40:23.287   06 Jun 2027 05:40:34.719            11.432                Sumatra          1429.000
       169   06 Jun 2027 05:42:53.437   06 Jun 2027 05:43:32.326            38.889                Sumatra          4861.125
       170   06 Jun 2027 05:45:26.243   06 Jun 2027 05:46:33.219            66.976                  Delhi          8372.000
       171   06 Jun 2027 05:47:46.830   06 Jun 2027 05:48:21.683            34.853                  Delhi          4356.625
       172   06 Jun 2027 06:01:11.345   06 Jun 2027 06:01:40.332            28.987                Norilsk          3623.375
       173   06 Jun 2027 06:01:42.013   06 Jun 2027 06:02:47.274            65.261                Novosib          8157.625
       174   06 Jun 2027 06:02:55.690   06 Jun 2027 06:03:34.959            39.269              Murmansk1          4908.625
       175   06 Jun 2027 06:04:00.351   06 Jun 2027 06:04:25.424            25.073                 Moscow          3134.125
       176   06 Jun 2027 06:04:45.690   06 Jun 2027 06:05:55.235            69.545              Murmansk2          8693.125
       177   06 Jun 2027 07:27:49.265   06 Jun 2027 07:29:34.674           105.409                 Moscow         13176.125
       178   06 Jun 2027 07:38:10.120   06 Jun 2027 07:42:17.036           246.916                Norilsk         30864.500
       179   06 Jun 2027 07:42:29.202   06 Jun 2027 07:44:09.125            99.923              Murmansk1         12490.375
       180   06 Jun 2027 08:42:49.977   06 Jun 2027 08:52:01.495           551.518               CapeTown         68939.750
       181   06 Jun 2027 09:04:46.672   06 Jun 2027 09:13:16.237           509.565                 Moscow         63695.625
       182   06 Jun 2027 09:13:19.675   06 Jun 2027 09:14:46.585            86.910              Murmansk2         10863.750
       183   06 Jun 2027 09:15:25.325   06 Jun 2027 09:16:09.646            44.321              Murmansk2          5540.125
       184   06 Jun 2027 09:18:35.930   06 Jun 2027 09:19:01.625            25.695              Murmansk2          3211.875
       185   06 Jun 2027 09:22:24.875   06 Jun 2027 09:31:14.295           529.420                Anadyr2         66177.500
       186   06 Jun 2027 11:01:37.362   06 Jun 2027 11:05:01.194           203.832               Magadan1         25479.000
       187   06 Jun 2027 12:36:08.958   06 Jun 2027 12:37:07.240            58.282               Magadan2          7285.250
       188   06 Jun 2027 12:38:30.492   06 Jun 2027 12:41:08.598           158.106               Magadan2         19763.250
       189   06 Jun 2027 14:11:56.637   06 Jun 2027 14:12:00.667             4.030               Magadan2           503.750
       190   06 Jun 2027 14:12:30.570   06 Jun 2027 14:13:03.146            32.576               Magadan2          4072.000
       191   06 Jun 2027 15:03:48.479   06 Jun 2027 15:05:38.009           109.530            RioGallegos         13691.250
       192   06 Jun 2027 15:07:12.000   06 Jun 2027 15:08:38.319            86.319            RioGallegos         10789.875
       193   06 Jun 2027 15:51:30.618   06 Jun 2027 15:52:58.670            88.052                Irkutsk         11006.500
       194   06 Jun 2027 15:57:47.777   06 Jun 2027 16:00:38.470           170.693                Irkutsk         21336.625
       195   06 Jun 2027 16:05:11.517   06 Jun 2027 16:08:20.102           188.585                Sumatra         23573.125
       196   06 Jun 2027 17:30:16.099   06 Jun 2027 17:32:18.862           122.763                Novosib         15345.375
       197   06 Jun 2027 17:34:49.802   06 Jun 2027 17:37:30.584           160.782                  Delhi         20097.750
       198   06 Jun 2027 19:18:14.969   06 Jun 2027 19:20:07.998           113.029                  Delhi         14128.625
       199   06 Jun 2027 20:40:50.756   06 Jun 2027 20:41:33.876            43.120                 Moscow          5390.000
       200   06 Jun 2027 20:43:48.293   06 Jun 2027 20:45:46.007           117.714                 Moscow         14519.875
       201   07 Jun 2027 04:11:11.330   07 Jun 2027 04:13:58.311           166.981                Sumatra         20872.625
       202   07 Jun 2027 04:36:56.029   07 Jun 2027 04:37:10.811            14.782                Norilsk          1847.750
       203   07 Jun 2027 04:37:44.870   07 Jun 2027 04:40:32.987           168.117              Murmansk1         21014.625
       204   07 Jun 2027 05:55:30.880   07 Jun 2027 05:57:51.007           140.127                  Delhi         17515.875
       205   07 Jun 2027 06:13:15.974   07 Jun 2027 06:14:41.707            85.733                Novosib         10716.625
       206   07 Jun 2027 06:14:42.767   07 Jun 2027 06:15:57.184            74.417              Murmansk1          9302.125
       207   07 Jun 2027 06:16:14.557   07 Jun 2027 06:17:45.346            90.789              Murmansk2         11348.625
       208   07 Jun 2027 07:39:47.531   07 Jun 2027 07:43:05.956           198.425                 Moscow         24803.125
       209   07 Jun 2027 07:49:35.872   07 Jun 2027 07:54:12.567           276.695                Norilsk         34586.875
       210   07 Jun 2027 07:54:21.296   07 Jun 2027 07:56:10.713           109.417              Murmansk1         13677.125
       211   07 Jun 2027 08:54:22.059   07 Jun 2027 09:03:39.885           557.826               CapeTown         69728.250
       212   07 Jun 2027 09:19:18.248   07 Jun 2027 09:19:47.549            29.301                 Moscow          3662.625
       213   07 Jun 2027 09:20:19.944   07 Jun 2027 09:20:43.383            23.439              Murmansk1          2929.875
       214   07 Jun 2027 09:20:59.387   07 Jun 2027 09:21:25.093            25.706              Murmansk2          3213.250
       215   07 Jun 2027 09:22:29.965   07 Jun 2027 09:25:36.192           186.227              Murmansk1         23278.375
       216   07 Jun 2027 09:27:47.938   07 Jun 2027 09:28:09.439            21.501              Murmansk2          2687.625
       217   07 Jun 2027 09:34:18.550   07 Jun 2027 09:43:49.266           570.716                Anadyr1         71339.500
       218   07 Jun 2027 11:04:23.449   07 Jun 2027 11:05:09.582            46.133              Murmansk2          5766.625
       219   07 Jun 2027 11:13:15.625   07 Jun 2027 11:16:49.034           213.409               Magadan1         26676.125
       220   07 Jun 2027 12:48:07.413   07 Jun 2027 12:48:52.413            45.000               Magadan1          5625.000
       221   07 Jun 2027 12:49:34.897   07 Jun 2027 12:50:49.541            74.644               Magadan2          9330.500
       222   07 Jun 2027 12:51:50.269   07 Jun 2027 12:53:03.686            73.417               Magadan2          9177.125
       223   07 Jun 2027 12:54:32.050   07 Jun 2027 12:57:48.725           196.675               Magadan1         24584.375
       224   07 Jun 2027 15:15:42.522   07 Jun 2027 15:17:52.021           129.499            RioGallegos         16187.375
       225   07 Jun 2027 16:03:28.080   07 Jun 2027 16:04:34.729            66.649                Irkutsk          8331.125
       226   07 Jun 2027 16:10:15.788   07 Jun 2027 16:11:22.804            67.016                Irkutsk          8377.000
       227   07 Jun 2027 16:17:12.547   07 Jun 2027 16:19:29.092           136.545                Sumatra         17068.125
       228   07 Jun 2027 17:39:19.879   07 Jun 2027 17:40:00.662            40.783                Novosib          5097.875
       229   07 Jun 2027 17:40:01.932   07 Jun 2027 17:42:26.796           144.864                Novosib         18108.000
       230   07 Jun 2027 17:46:43.123   07 Jun 2027 17:49:56.281           193.158                  Delhi         24144.750
       231   07 Jun 2027 17:55:38.715   07 Jun 2027 17:56:14.909            36.194                  Delhi          4524.250
       232   07 Jun 2027 19:23:47.304   07 Jun 2027 19:24:39.942            52.638                  Delhi          6579.750
       233   07 Jun 2027 20:52:50.463   07 Jun 2027 20:53:23.286            32.823                 Moscow          4102.875
       234   07 Jun 2027 20:54:01.844   07 Jun 2027 20:56:03.731           121.887                 Moscow         15235.875
       235   08 Jun 2027 02:50:33.613   08 Jun 2027 02:51:08.755            35.142                Sumatra          4392.750
       236   08 Jun 2027 03:13:37.430   08 Jun 2027 03:17:27.214           229.784              Murmansk2         28723.000
       237   08 Jun 2027 04:23:15.172   08 Jun 2027 04:25:04.808           109.636                Sumatra         13704.500
       238   08 Jun 2027 04:30:56.021   08 Jun 2027 04:32:56.895           120.874                Sumatra         15109.250
       239   08 Jun 2027 04:48:16.201   08 Jun 2027 04:48:28.260            12.059              Murmansk1          1507.375
       240   08 Jun 2027 04:49:35.127   08 Jun 2027 04:50:03.743            28.616              Murmansk2          3577.000
       241   08 Jun 2027 04:50:10.266   08 Jun 2027 04:54:34.157           263.891                Norilsk         32986.375
       242   08 Jun 2027 06:07:44.574   08 Jun 2027 06:12:09.187           264.613                  Delhi         33076.625
       243   08 Jun 2027 06:17:11.151   08 Jun 2027 06:17:40.161            29.010                 Moscow          3626.250
       244   08 Jun 2027 06:17:48.366   08 Jun 2027 06:19:27.592            99.226                Novosib         12403.250
       245   08 Jun 2027 06:19:33.583   08 Jun 2027 06:20:19.915            46.332                 Moscow          5791.500
       246   08 Jun 2027 06:25:28.735   08 Jun 2027 06:30:32.362           303.627              Murmansk1         37953.375
       247   08 Jun 2027 07:51:48.642   08 Jun 2027 07:55:21.621           212.979                 Moscow         26622.375
       248   08 Jun 2027 07:56:10.033   08 Jun 2027 07:57:37.343            87.310                 Moscow         10913.750
       249   08 Jun 2027 08:00:29.744   08 Jun 2027 08:04:42.332           252.588                 Moscow         31573.500
       250   08 Jun 2027 08:04:51.311   08 Jun 2027 08:08:12.381           201.070              Murmansk2         25133.750
       251   08 Jun 2027 09:06:01.783   08 Jun 2027 09:12:23.474           381.691               CapeTown         47711.375
       252   08 Jun 2027 09:32:38.673   08 Jun 2027 09:32:49.305            10.632              Murmansk1          1329.000
       253   08 Jun 2027 09:34:31.602   08 Jun 2027 09:35:43.053            71.451              Murmansk1          8931.375
       254   08 Jun 2027 09:35:43.053   08 Jun 2027 09:37:32.670           109.617              Murmansk2         13702.125
       255   08 Jun 2027 09:46:13.945   08 Jun 2027 09:48:38.304           144.359                Anadyr2         18044.875
       256   08 Jun 2027 09:49:05.013   08 Jun 2027 09:51:23.233           138.220                Anadyr1         17277.500
       257   08 Jun 2027 09:51:36.416   08 Jun 2027 09:55:45.728           249.312                Anadyr2         31164.000
       258   08 Jun 2027 11:21:52.066   08 Jun 2027 11:22:50.494            58.428                Anadyr1          7303.500
       259   08 Jun 2027 11:25:00.322   08 Jun 2027 11:28:32.073           211.751               Magadan2         26468.875
       260   08 Jun 2027 13:00:06.585   08 Jun 2027 13:00:41.490            34.905               Magadan2          4363.125
       261   08 Jun 2027 13:02:58.508   08 Jun 2027 13:05:00.092           121.584               Magadan1         15198.000
       262   08 Jun 2027 14:36:00.749   08 Jun 2027 14:36:47.622            46.873               Magadan1          5859.125
       263   08 Jun 2027 14:44:33.662   08 Jun 2027 14:45:34.375            60.713               Magadan1          7589.125
       264   08 Jun 2027 14:56:09.506   08 Jun 2027 14:57:39.125            89.619                Sumatra         11202.375
       265   08 Jun 2027 15:27:38.320   08 Jun 2027 15:29:12.666            94.346            RioGallegos         11793.250
       266   08 Jun 2027 15:36:42.192   08 Jun 2027 15:38:25.698           103.506            RioGallegos         12938.250
       267   08 Jun 2027 16:29:19.251   08 Jun 2027 16:32:15.107           175.856                Sumatra         21982.000
       268   08 Jun 2027 16:37:01.525   08 Jun 2027 16:39:03.439           121.914                Sumatra         15239.250
       269   08 Jun 2027 17:51:19.744   08 Jun 2027 17:51:50.669            30.925                Novosib          3865.625
       270   08 Jun 2027 17:54:34.275   08 Jun 2027 17:55:37.773            63.498                Novosib          7937.250
       271   08 Jun 2027 17:58:40.071   08 Jun 2027 18:00:52.412           132.341                  Delhi         16542.625
       272   08 Jun 2027 21:03:44.211   08 Jun 2027 21:03:46.525             2.314              Murmansk2           289.250
       273   08 Jun 2027 21:04:50.899   08 Jun 2027 21:08:08.781           197.882                 Moscow         24735.250
       274   08 Jun 2027 21:30:38.376   08 Jun 2027 21:30:43.221             4.845               CapeTown           605.625
       275   08 Jun 2027 21:31:57.443   08 Jun 2027 21:33:25.931            88.488               CapeTown         11061.000
       276   09 Jun 2027 03:01:40.405   09 Jun 2027 03:04:18.563           158.158                Sumatra         19769.750
       277   09 Jun 2027 03:10:12.450   09 Jun 2027 03:10:18.832             6.382                Sumatra           797.750
       278   09 Jun 2027 03:25:49.108   09 Jun 2027 03:26:28.031            38.923                Novosib          4865.375
       279   09 Jun 2027 04:35:24.846   09 Jun 2027 04:36:26.859            62.013                Sumatra          7751.625
       280   09 Jun 2027 04:38:15.090   09 Jun 2027 04:40:01.938           106.848                Sumatra         13356.000
       281   09 Jun 2027 05:00:04.365   09 Jun 2027 05:00:06.139             1.774              Murmansk2           221.750
       282   09 Jun 2027 05:01:20.024   09 Jun 2027 05:01:46.892            26.868              Murmansk2          3358.500
       283   09 Jun 2027 05:01:46.892   09 Jun 2027 05:03:24.748            97.856              Murmansk1         12232.000
       284   09 Jun 2027 05:03:27.647   09 Jun 2027 05:04:01.869            34.222                 Moscow          4277.750
       285   09 Jun 2027 05:05:13.417   09 Jun 2027 05:06:27.747            74.330              Murmansk2          9291.250
       286   09 Jun 2027 05:07:56.675   09 Jun 2027 05:08:30.184            33.509              Murmansk1          4188.625
       287   09 Jun 2027 06:20:04.876   09 Jun 2027 06:24:10.898           246.022                  Delhi         30752.750
       288   09 Jun 2027 06:28:53.354   09 Jun 2027 06:32:34.639           221.285                 Moscow         27660.625
       289   09 Jun 2027 06:37:15.402   09 Jun 2027 06:42:07.477           292.075                Norilsk         36509.375
       290   09 Jun 2027 06:42:24.282   09 Jun 2027 06:43:20.508            56.226              Murmansk2          7028.250
       291   09 Jun 2027 06:43:55.791   09 Jun 2027 06:44:18.217            22.426              Murmansk1          2803.250
       292   09 Jun 2027 08:03:52.686   09 Jun 2027 08:05:54.070           121.384                 Moscow         15173.000
       293   09 Jun 2027 08:06:58.615   09 Jun 2027 08:08:37.925            99.310                 Moscow         12413.750
       294   09 Jun 2027 08:11:52.194   09 Jun 2027 08:15:32.722           220.528                 Moscow         27566.000
       295   09 Jun 2027 08:15:35.024   09 Jun 2027 08:17:54.720           139.696                Norilsk         17462.000
       296   09 Jun 2027 08:20:12.369   09 Jun 2027 08:20:14.096             1.727              Murmansk1           215.875
       297   09 Jun 2027 08:25:01.944   09 Jun 2027 08:26:02.232            60.288                Anadyr2          7536.000
       298   09 Jun 2027 09:22:36.255   09 Jun 2027 09:23:41.977            65.722               CapeTown          8215.250
       299   09 Jun 2027 09:44:59.586   09 Jun 2027 09:45:07.090             7.504              Murmansk1           938.000
       300   09 Jun 2027 09:58:10.651   09 Jun 2027 09:59:36.442            85.791                Anadyr1         10723.875
       301   09 Jun 2027 10:01:51.201   09 Jun 2027 10:03:14.177            82.976                Anadyr2         10372.000
       302   09 Jun 2027 10:04:01.071   09 Jun 2027 10:08:50.987           289.916                Anadyr1         36239.500
       303   09 Jun 2027 11:33:53.024   09 Jun 2027 11:34:01.539             8.515                Anadyr1          1064.375
       304   09 Jun 2027 11:36:49.095   09 Jun 2027 11:46:16.703           567.608               Magadan2         70951.000
       305   09 Jun 2027 13:12:06.362   09 Jun 2027 13:12:59.073            52.711               Magadan1          6588.875
       306   09 Jun 2027 13:15:11.974   09 Jun 2027 13:19:16.782           244.808               Magadan1         30601.000
       307   09 Jun 2027 15:07:04.201   09 Jun 2027 15:11:16.432           252.231                Sumatra         31528.875
       308   09 Jun 2027 15:15:11.542   09 Jun 2027 15:16:02.397            50.855                Sumatra          6356.875
       309   09 Jun 2027 16:42:16.568   09 Jun 2027 16:44:54.842           158.274                  Delhi         19784.250
       310   09 Jun 2027 18:03:20.323   09 Jun 2027 18:03:43.126            22.803                Novosib          2850.375
       311   09 Jun 2027 18:05:08.361   09 Jun 2027 18:06:25.546            77.185                Novosib          9648.125
       312   09 Jun 2027 18:10:40.378   09 Jun 2027 18:12:11.568            91.190                  Delhi         11398.750
       313   09 Jun 2027 18:18:17.137   09 Jun 2027 18:20:17.476           120.339                  Delhi         15042.375
       314   09 Jun 2027 19:44:47.248   09 Jun 2027 19:46:46.625           119.377                 Moscow         14922.125
       315   09 Jun 2027 21:26:27.786   09 Jun 2027 21:26:40.199            12.413                 Moscow          1551.625
       316   09 Jun 2027 21:40:48.203   09 Jun 2027 21:42:09.422            81.219               CapeTown         10152.375
       317   09 Jun 2027 21:46:42.283   09 Jun 2027 21:48:38.824           116.541               CapeTown         14567.625
       318   10 Jun 2027 03:12:37.366   10 Jun 2027 03:20:45.975           488.609                Sumatra          9229.500
       319   10 Jun 2027 03:37:52.758   10 Jun 2027 03:38:15.586            22.828              Murmansk1          2853.500
       320   10 Jun 2027 04:47:40.988   10 Jun 2027 04:47:59.396            18.408                Sumatra          2301.000
       321   10 Jun 2027 04:49:42.741   10 Jun 2027 04:51:59.557           136.816                Sumatra         17102.000
       322   10 Jun 2027 05:02:43.627   10 Jun 2027 05:03:41.275            57.648                  Delhi          7206.000
       323   10 Jun 2027 05:13:11.763   10 Jun 2027 05:13:39.128            27.365              Murmansk2          3420.625
       324   10 Jun 2027 05:13:40.194   10 Jun 2027 05:16:11.694           151.500                 Moscow         18937.500
       325   10 Jun 2027 05:17:04.185   10 Jun 2027 05:17:49.888            45.703              Murmansk1          5712.875
       326   10 Jun 2027 05:17:58.656   10 Jun 2027 05:18:55.265            56.609              Murmansk2          7076.125
       327   10 Jun 2027 06:41:30.043   10 Jun 2027 06:43:17.726           107.683                Novosib         13460.375
       328   10 Jun 2027 06:43:57.099   10 Jun 2027 06:44:54.403            57.304                 Moscow          7163.000
       329   10 Jun 2027 06:49:24.082   10 Jun 2027 06:50:04.763            40.681              Murmansk2          5085.125
       330   10 Jun 2027 06:50:25.568   10 Jun 2027 06:52:36.244           130.676                Norilsk         16334.500
       331   10 Jun 2027 06:53:01.599   10 Jun 2027 06:54:21.718            80.119              Murmansk2         10014.875
       332   10 Jun 2027 06:54:36.519   10 Jun 2027 06:54:37.291             0.772                Norilsk            96.500
       333   10 Jun 2027 08:15:59.778   10 Jun 2027 08:20:35.879           276.101                 Moscow         34512.625
       334   10 Jun 2027 08:22:07.602   10 Jun 2027 08:22:26.441            18.839                 Moscow          2354.875
       335   10 Jun 2027 08:22:38.023   10 Jun 2027 08:25:27.833           169.810              Murmansk2         21226.250
       336   10 Jun 2027 08:27:23.062   10 Jun 2027 08:30:51.700           208.638              Murmansk1         26079.750
       337   10 Jun 2027 08:35:46.635   10 Jun 2027 08:39:59.707           253.072                Anadyr1         31634.000
       338   10 Jun 2027 10:10:08.365   10 Jun 2027 10:11:21.832            73.467                Anadyr1          9183.375
       339   10 Jun 2027 10:14:31.602   10 Jun 2027 10:15:07.589            35.987                Anadyr1          4498.375
       340   10 Jun 2027 10:17:07.323   10 Jun 2027 10:19:41.632           154.309                Anadyr2         19288.625
       341   10 Jun 2027 13:24:06.654   10 Jun 2027 13:24:27.128            20.474               Magadan1          2559.250
       342   10 Jun 2027 13:25:30.697   10 Jun 2027 13:26:45.588            74.891               Magadan1          9361.375
       343   10 Jun 2027 13:27:20.038   10 Jun 2027 13:28:48.818            88.780               Magadan2         11097.500
       344   10 Jun 2027 13:31:33.972   10 Jun 2027 13:33:41.713           127.741               Magadan1         15967.625
       345   10 Jun 2027 15:05:51.334   10 Jun 2027 15:08:20.706           149.372                Irkutsk         18671.500
       346   10 Jun 2027 15:19:31.809   10 Jun 2027 15:25:49.083           377.274                Sumatra         47159.250
       347   10 Jun 2027 16:44:33.708   10 Jun 2027 16:45:12.361            38.653                Novosib          4831.625
       348   10 Jun 2027 16:48:22.139   10 Jun 2027 16:49:32.715            70.576                  Delhi          8822.000
       349   10 Jun 2027 16:52:33.148   10 Jun 2027 16:57:32.062           298.914                  Delhi         37364.250
       350   10 Jun 2027 19:56:12.909   10 Jun 2027 19:58:10.157           117.248                 Moscow         14656.000
       351   10 Jun 2027 20:00:03.609   10 Jun 2027 20:01:29.994            86.385                 Moscow         10798.125
       352   10 Jun 2027 21:55:52.560   10 Jun 2027 21:57:33.091           100.531               CapeTown         12566.375
       353   11 Jun 2027 03:24:08.874   11 Jun 2027 03:25:46.503            97.629                Sumatra          5696.750
       354   11 Jun 2027 05:02:04.310   11 Jun 2027 05:04:02.766           118.456                Sumatra         14807.000
       355   11 Jun 2027 05:25:30.981   11 Jun 2027 05:28:20.212           169.231                 Moscow         21153.875
       356   11 Jun 2027 05:28:55.683   11 Jun 2027 05:30:39.722           104.039              Murmansk2         13004.875
       357   11 Jun 2027 06:53:40.845   11 Jun 2027 06:56:26.183           165.338                Novosib         20667.250
       358   11 Jun 2027 07:01:39.145   11 Jun 2027 07:06:00.654           261.509                Norilsk         32688.625
       359   11 Jun 2027 07:06:05.396   11 Jun 2027 07:08:20.061           134.665              Murmansk2         16833.125
       360   11 Jun 2027 08:31:07.370   11 Jun 2027 08:32:36.667            89.297                 Moscow         11162.125
       361   11 Jun 2027 08:32:51.629   11 Jun 2027 08:33:15.948            24.319              Murmansk2          3039.875
       362   11 Jun 2027 08:33:15.948   11 Jun 2027 08:33:49.866            33.918              Murmansk1          4239.750
       363   11 Jun 2027 08:34:39.070   11 Jun 2027 08:36:41.776           122.706              Murmansk1         15338.250
       364   11 Jun 2027 08:36:48.956   11 Jun 2027 08:37:55.161            66.205                 Moscow          8275.625
       365   11 Jun 2027 08:39:37.397   11 Jun 2027 08:41:23.362           105.965              Murmansk2         13245.625
       366   11 Jun 2027 08:47:18.051   11 Jun 2027 08:53:07.895           349.844                Anadyr2         43730.500
       367   11 Jun 2027 10:22:06.887   11 Jun 2027 10:23:46.427            99.540                Anadyr2         12442.500
       368   11 Jun 2027 10:31:45.810   11 Jun 2027 10:32:49.807            63.997                Anadyr2          7999.625
       369   11 Jun 2027 11:57:55.414   11 Jun 2027 11:57:59.260             3.846                Anadyr1           480.750
       370   11 Jun 2027 12:00:03.353   11 Jun 2027 12:00:31.940            28.587                Anadyr1          3573.375
       371   11 Jun 2027 12:00:34.385   11 Jun 2027 12:03:20.954           166.569               Magadan1         20821.125
       372   11 Jun 2027 12:04:19.326   11 Jun 2027 12:05:34.561            75.235               Magadan1          9404.375
       373   11 Jun 2027 12:06:49.184   11 Jun 2027 12:09:43.752           174.568               Magadan1         21821.000
       374   11 Jun 2027 13:36:07.390   11 Jun 2027 13:37:57.899           110.509               Magadan2         13813.625
       375   11 Jun 2027 15:19:57.798   11 Jun 2027 15:21:34.273            96.475                Irkutsk         12059.375
       376   11 Jun 2027 15:29:57.839   11 Jun 2027 15:36:36.458           398.619                Sumatra         49827.375
       377   11 Jun 2027 16:59:52.296   11 Jun 2027 17:07:11.855           439.559                  Delhi         54944.875
       378   11 Jun 2027 20:10:20.324   11 Jun 2027 20:10:49.112            28.788                 Moscow          3598.500
       379   11 Jun 2027 20:13:21.531   11 Jun 2027 20:14:43.923            82.392                 Moscow         10299.000
       380   11 Jun 2027 21:47:15.455   11 Jun 2027 21:47:44.801            29.346              Murmansk2          3668.250
       381   11 Jun 2027 21:48:56.648   11 Jun 2027 21:50:32.544            95.896                 Moscow         11987.000
       382   11 Jun 2027 22:05:13.227   11 Jun 2027 22:05:22.069             8.842               CapeTown          1105.250
       383   11 Jun 2027 22:07:43.082   11 Jun 2027 22:09:31.909           108.827               CapeTown          9284.000
       384   12 Jun 2027 05:12:38.792   12 Jun 2027 05:14:18.596            99.804                Sumatra         12475.500
       385   12 Jun 2027 05:24:11.856   12 Jun 2027 05:25:10.921            59.065                  Delhi          7383.125
       386   12 Jun 2027 05:37:10.960   12 Jun 2027 05:38:02.137            51.177              Murmansk2          6397.125
       387   12 Jun 2027 05:38:04.906   12 Jun 2027 05:39:09.039            64.133                Novosib          8016.625
       388   12 Jun 2027 05:39:30.183   12 Jun 2027 05:40:27.738            57.555                 Moscow          7194.375
       389   12 Jun 2027 05:40:47.931   12 Jun 2027 05:42:31.452           103.521              Murmansk2         12940.125
       390   12 Jun 2027 07:06:36.002   12 Jun 2027 07:07:19.114            43.112                Novosib          5389.000
       391   12 Jun 2027 07:07:46.046   12 Jun 2027 07:08:08.317            22.271                 Moscow          2783.875
       392   12 Jun 2027 07:14:11.680   12 Jun 2027 07:20:21.279           369.599              Murmansk1         46199.875
       393   12 Jun 2027 08:20:46.113   12 Jun 2027 08:26:13.817           327.704               CapeTown         40963.000
       394   12 Jun 2027 08:40:23.700   12 Jun 2027 08:43:34.739           191.039                 Moscow         23879.875
       395   12 Jun 2027 08:43:51.204   12 Jun 2027 08:45:08.055            76.851              Murmansk1          9606.375
       396   12 Jun 2027 08:47:09.882   12 Jun 2027 08:48:05.538            55.656              Murmansk1          6957.000
       397   12 Jun 2027 08:51:38.044   12 Jun 2027 08:53:35.712           117.668              Murmansk1         14708.500
       398   12 Jun 2027 08:59:00.408   12 Jun 2027 09:06:02.618           422.210                Anadyr2         52776.250
       399   12 Jun 2027 10:39:42.528   12 Jun 2027 10:41:22.084            99.556               Magadan1         12444.500
       400   12 Jun 2027 12:12:29.691   12 Jun 2027 12:14:14.430           104.739               Magadan2         13092.375
       401   12 Jun 2027 12:17:08.410   12 Jun 2027 12:17:38.567            30.157               Magadan2          3769.625
       402   12 Jun 2027 12:20:48.387   12 Jun 2027 12:22:01.377            72.990               Magadan1          9123.750
       403   12 Jun 2027 13:48:08.504   12 Jun 2027 13:49:45.561            97.057               Magadan1         12132.125
       404   12 Jun 2027 13:55:59.178   12 Jun 2027 13:57:25.350            86.172               Magadan2         10771.500
       405   12 Jun 2027 14:42:52.576   12 Jun 2027 14:44:02.858            70.282            RioGallegos          8785.250
       406   12 Jun 2027 14:50:29.020   12 Jun 2027 14:50:53.988            24.968            RioGallegos          3121.000
       407   12 Jun 2027 15:28:20.733   12 Jun 2027 15:29:45.632            84.899                Irkutsk         10612.375
       408   12 Jun 2027 15:37:24.873   12 Jun 2027 15:39:32.219           127.346                Irkutsk         15918.250
       409   12 Jun 2027 15:41:41.177   12 Jun 2027 15:44:17.479           156.302                Sumatra         19537.750
       410   12 Jun 2027 15:47:36.600   12 Jun 2027 15:47:48.053            11.453                Sumatra          1431.625
       411   12 Jun 2027 17:04:57.876   12 Jun 2027 17:05:11.606            13.730                Novosib          1716.250
       412   12 Jun 2027 17:08:47.601   12 Jun 2027 17:12:03.897           196.296                Novosib         24537.000
       413   12 Jun 2027 17:12:59.443   12 Jun 2027 17:17:58.914           299.471                  Delhi         37433.875
       414   12 Jun 2027 20:17:08.876   12 Jun 2027 20:18:21.587            72.711                 Moscow          9088.875
       415   12 Jun 2027 21:52:58.640   12 Jun 2027 21:54:10.757            72.117                 Moscow          9014.625
       416   12 Jun 2027 22:02:33.421   12 Jun 2027 22:03:35.945            62.524                 Moscow          7815.500
       417   12 Jun 2027 22:17:48.590   12 Jun 2027 22:19:34.636           106.046               CapeTown           866.125
       418   13 Jun 2027 05:31:35.753   13 Jun 2027 05:34:05.223           149.470                  Delhi         18683.750
       419   13 Jun 2027 05:39:15.406   13 Jun 2027 05:41:11.745           116.339                  Delhi         14542.375
       420   13 Jun 2027 05:49:37.350   13 Jun 2027 05:50:18.198            40.848              Murmansk1          5106.000
       421   13 Jun 2027 05:50:21.190   13 Jun 2027 05:54:46.864           265.674                Norilsk         33209.250
       422   13 Jun 2027 07:16:08.640   13 Jun 2027 07:18:30.123           141.483                 Moscow         17685.375
       423   13 Jun 2027 07:26:27.883   13 Jun 2027 07:32:22.643           354.760              Murmansk1         44345.000
       424   13 Jun 2027 08:31:43.702   13 Jun 2027 08:39:32.815           469.113               CapeTown         58639.125
       425   13 Jun 2027 08:52:40.962   13 Jun 2027 08:55:05.554           144.592                 Moscow         18074.000
       426   13 Jun 2027 08:56:03.938   13 Jun 2027 08:57:24.962            81.024              Murmansk1         10128.000
       427   13 Jun 2027 08:57:50.557   13 Jun 2027 09:01:30.095           219.538                 Moscow         27442.250
       428   13 Jun 2027 09:02:31.101   13 Jun 2027 09:02:32.025             0.924                 Moscow           115.500
       429   13 Jun 2027 09:02:41.190   13 Jun 2027 09:03:13.765            32.575              Murmansk2          4071.875
       430   13 Jun 2027 09:03:38.909   13 Jun 2027 09:05:18.670            99.761              Murmansk2         12470.125
       431   13 Jun 2027 09:05:49.148   13 Jun 2027 09:06:02.347            13.199              Murmansk2          1649.875
       432   13 Jun 2027 09:08:17.353   13 Jun 2027 09:08:20.823             3.470              Murmansk1           433.750
       433   13 Jun 2027 09:10:48.323   13 Jun 2027 09:18:49.304           480.981                Anadyr1         60122.625
       434   13 Jun 2027 10:35:03.163   13 Jun 2027 10:36:37.385            94.222              Murmansk2         11777.750
       435   13 Jun 2027 10:47:55.265   13 Jun 2027 10:48:26.931            31.666                Anadyr2          3958.250
       436   13 Jun 2027 10:48:55.248   13 Jun 2027 10:50:56.919           121.671                Anadyr2         15208.875
       437   13 Jun 2027 12:24:26.275   13 Jun 2027 12:25:42.480            76.205               Magadan2          9525.625
       438   13 Jun 2027 12:30:11.166   13 Jun 2027 12:33:58.803           227.637               Magadan1         28454.625
       439   13 Jun 2027 14:56:01.538   13 Jun 2027 14:57:32.754            91.216            RioGallegos         11402.000
       440   13 Jun 2027 15:39:49.400   13 Jun 2027 15:41:48.231           118.831                Irkutsk         14853.875
       441   13 Jun 2027 15:47:49.393   13 Jun 2027 15:49:20.697            91.304                Irkutsk         11413.000
       442   13 Jun 2027 15:53:30.909   13 Jun 2027 15:58:51.831           320.922                Sumatra         40115.250
       443   13 Jun 2027 17:15:37.613   13 Jun 2027 17:18:17.325           159.712                Novosib         19964.000
       444   13 Jun 2027 17:23:15.260   13 Jun 2027 17:29:14.376           359.116                  Delhi         44889.500
       445   13 Jun 2027 22:05:01.867   13 Jun 2027 22:05:59.364            57.497                 Moscow          5386.875
