uniorb/output/strategy_4/Drop/Drop_KinoSat_110504.txt

KinoSat_110504
-------------------------
    Access    *     Start Time (UTCG)     *     Stop Time (UTCG)  *   Duration (s)        *       Station  *  Data (Mbytes)
         1   01 Jun 2027 03:56:38.112   01 Jun 2027 03:56:52.465            14.353               Magadan1          1794.125
         2   01 Jun 2027 03:56:59.315   01 Jun 2027 03:57:52.722            53.407               Magadan1          6675.875
         3   01 Jun 2027 03:58:34.989   01 Jun 2027 04:01:05.015           150.026               Magadan2         18753.250
         4   01 Jun 2027 04:01:06.645   01 Jun 2027 04:01:58.770            52.125               Magadan1          6515.625
         5   01 Jun 2027 04:02:56.660   01 Jun 2027 04:03:46.191            49.531                Anadyr1          6191.375
         6   01 Jun 2027 04:03:47.717   01 Jun 2027 04:04:15.603            27.886               Magadan2          3485.750
         7   01 Jun 2027 04:39:31.510   01 Jun 2027 04:40:35.600            64.090            RioGallegos          8011.250
         8   01 Jun 2027 05:18:07.514   01 Jun 2027 05:19:19.709            72.195                Sumatra          9024.375
         9   01 Jun 2027 05:35:07.403   01 Jun 2027 05:35:37.023            29.620                Irkutsk          3702.500
        10   01 Jun 2027 05:35:37.692   01 Jun 2027 05:36:33.405            55.713               Magadan1          6964.125
        11   01 Jun 2027 05:36:40.137   01 Jun 2027 05:37:05.967            25.830               Magadan1          3228.750
        12   01 Jun 2027 05:37:17.567   01 Jun 2027 05:38:08.425            50.858               Magadan2          6357.250
        13   01 Jun 2027 05:38:28.502   01 Jun 2027 05:38:41.224            12.722               Magadan2          1590.250
        14   01 Jun 2027 05:38:59.162   01 Jun 2027 05:39:26.831            27.669                Norilsk          3458.625
        15   01 Jun 2027 05:39:36.777   01 Jun 2027 05:40:10.397            33.620                Irkutsk          4202.500
        16   01 Jun 2027 05:40:50.870   01 Jun 2027 05:41:11.655            20.785                Novosib          2598.125
        17   01 Jun 2027 06:15:02.630   01 Jun 2027 06:15:42.887            40.257            RioGallegos          5032.125
        18   01 Jun 2027 06:49:41.854   01 Jun 2027 06:51:43.359           121.505                Sumatra         15188.125
        19   01 Jun 2027 07:10:33.658   01 Jun 2027 07:11:12.544            38.886                Novosib          4860.750
        20   01 Jun 2027 07:12:41.298   01 Jun 2027 07:13:32.171            50.873                 Moscow          6359.125
        21   01 Jun 2027 07:13:51.693   01 Jun 2027 07:14:00.952             9.259                Irkutsk          1157.375
        22   01 Jun 2027 07:14:06.761   01 Jun 2027 07:14:34.245            27.484                 Moscow          3435.500
        23   01 Jun 2027 07:14:47.150   01 Jun 2027 07:15:02.269            15.119                Novosib          1889.875
        24   01 Jun 2027 07:15:04.808   01 Jun 2027 07:15:38.775            33.967                Norilsk          4245.875
        25   01 Jun 2027 07:15:41.321   01 Jun 2027 07:16:11.737            30.416              Murmansk1          3802.000
        26   01 Jun 2027 07:17:37.843   01 Jun 2027 07:17:45.893             8.050                 Moscow          1006.250
        27   01 Jun 2027 08:34:01.885   01 Jun 2027 08:35:27.239            85.354                  Delhi         10669.250
        28   01 Jun 2027 08:50:36.111   01 Jun 2027 08:55:01.824           265.713                 Moscow         33214.125
        29   01 Jun 2027 08:55:09.159   01 Jun 2027 08:57:05.113           115.954                Norilsk         14494.250
        30   01 Jun 2027 08:58:19.551   01 Jun 2027 08:58:47.899            28.348              Murmansk1          3543.500
        31   01 Jun 2027 10:24:52.848   01 Jun 2027 10:25:05.445            12.597              Murmansk1          1574.625
        32   01 Jun 2027 10:25:05.445   01 Jun 2027 10:25:47.226            41.781              Murmansk2          5222.625
        33   01 Jun 2027 10:25:59.849   01 Jun 2027 10:26:32.931            33.082              Murmansk2          4135.250
        34   01 Jun 2027 10:26:45.366   01 Jun 2027 10:27:37.421            52.055                 Moscow          6506.875
        35   01 Jun 2027 10:27:51.597   01 Jun 2027 10:34:41.210           409.613              Murmansk1         51201.625
        36   01 Jun 2027 11:32:51.566   01 Jun 2027 11:39:37.858           406.292               CapeTown         50786.500
        37   01 Jun 2027 12:12:49.120   01 Jun 2027 12:18:31.478           342.358                Anadyr1         42794.750
        38   01 Jun 2027 12:19:54.500   01 Jun 2027 12:21:35.639           101.139                Anadyr1         12642.375
        39   01 Jun 2027 13:51:45.719   01 Jun 2027 13:54:57.906           192.187               Magadan1         24023.375
        40   01 Jun 2027 13:56:15.659   01 Jun 2027 13:58:04.089           108.430               Magadan1         13553.750
        41   01 Jun 2027 16:22:00.733   01 Jun 2027 16:23:43.209           102.476            RioGallegos         12809.500
        42   01 Jun 2027 17:07:37.907   01 Jun 2027 17:11:59.383           261.476                Irkutsk         32684.500
        43   01 Jun 2027 17:13:33.629   01 Jun 2027 17:15:11.274            97.645                Irkutsk         12205.625
        44   01 Jun 2027 17:23:17.315   01 Jun 2027 17:25:06.560           109.245                Sumatra         13655.625
        45   01 Jun 2027 17:28:57.325   01 Jun 2027 17:29:49.882            52.557                Sumatra          6569.625
        46   01 Jun 2027 18:44:19.299   01 Jun 2027 18:46:11.888           112.589                Novosib         14073.625
        47   01 Jun 2027 18:49:30.385   01 Jun 2027 18:51:05.940            95.555                Novosib         11944.375
        48   01 Jun 2027 20:18:48.551   01 Jun 2027 20:19:01.810            13.259              Murmansk1          1657.375
        49   01 Jun 2027 21:53:08.269   01 Jun 2027 21:53:31.947            23.678              Murmansk1           721.124
        50   02 Jun 2027 04:14:19.653   02 Jun 2027 04:15:07.579            47.926               Magadan2          5990.750
        51   02 Jun 2027 04:15:21.825   02 Jun 2027 04:15:27.750             5.925                Anadyr1           740.625
        52   02 Jun 2027 04:15:32.087   02 Jun 2027 04:16:12.923            40.836               Magadan2          5104.500
        53   02 Jun 2027 04:51:18.439   02 Jun 2027 04:51:57.856            39.417            RioGallegos          4927.125
        54   02 Jun 2027 05:28:39.888   02 Jun 2027 05:30:33.800           113.912                Sumatra         14239.000
        55   02 Jun 2027 05:47:41.882   02 Jun 2027 05:48:38.770            56.888                Irkutsk          7111.000
        56   02 Jun 2027 05:48:56.459   02 Jun 2027 05:49:16.293            19.834                Irkutsk          2479.250
        57   02 Jun 2027 05:49:39.583   02 Jun 2027 05:50:02.458            22.875               Magadan1          2859.375
        58   02 Jun 2027 05:50:56.320   02 Jun 2027 05:52:12.744            76.424                Irkutsk          9553.000
        59   02 Jun 2027 05:52:18.354   02 Jun 2027 05:53:24.194            65.840              Murmansk1          8230.000
        60   02 Jun 2027 05:53:24.194   02 Jun 2027 05:58:05.045           280.851              Murmansk2         35106.375
        61   02 Jun 2027 05:58:35.626   02 Jun 2027 06:00:10.502            94.876              Murmansk2         11859.500
        62   02 Jun 2027 06:27:16.456   02 Jun 2027 06:29:57.245           160.789            RioGallegos         20098.625
        63   02 Jun 2027 07:01:45.905   02 Jun 2027 07:03:40.250           114.345                Sumatra         14293.125
        64   02 Jun 2027 07:26:41.916   02 Jun 2027 07:27:09.529            27.613                Novosib          3451.625
        65   02 Jun 2027 07:27:12.254   02 Jun 2027 07:27:52.360            40.106                Novosib          5013.250
        66   02 Jun 2027 07:28:04.276   02 Jun 2027 07:29:41.446            97.170                Novosib         12146.250
        67   02 Jun 2027 07:29:54.940   02 Jun 2027 07:30:21.921            26.981                 Moscow          3372.625
        68   02 Jun 2027 07:31:03.906   02 Jun 2027 07:35:11.301           247.395              Murmansk2         30924.375
        69   02 Jun 2027 08:09:04.144   02 Jun 2027 08:12:05.467           181.323            RioGallegos         22665.375
        70   02 Jun 2027 08:46:15.838   02 Jun 2027 08:48:52.595           156.757                  Delhi         19594.625
        71   02 Jun 2027 08:49:49.650   02 Jun 2027 08:52:31.749           162.099                  Delhi         20262.375
        72   02 Jun 2027 08:54:19.172   02 Jun 2027 08:58:12.655           233.483                Novosib         29185.375
        73   02 Jun 2027 09:03:44.541   02 Jun 2027 09:10:48.151           423.610              Murmansk2         52951.250
        74   02 Jun 2027 10:33:49.002   02 Jun 2027 10:34:10.651            21.649              Murmansk2          2706.125
        75   02 Jun 2027 10:34:46.220   02 Jun 2027 10:35:33.652            47.432              Murmansk2          5929.000
        76   02 Jun 2027 10:38:47.911   02 Jun 2027 10:43:12.719           264.808                 Moscow         33101.000
        77   02 Jun 2027 10:43:14.845   02 Jun 2027 10:44:34.797            79.952                Norilsk          9994.000
        78   02 Jun 2027 10:45:06.829   02 Jun 2027 10:46:42.814            95.985              Murmansk1         11998.125
        79   02 Jun 2027 11:44:31.535   02 Jun 2027 11:53:54.075           562.540               CapeTown         70317.500
        80   02 Jun 2027 12:08:14.604   02 Jun 2027 12:15:22.698           428.094                 Moscow         53511.750
        81   02 Jun 2027 12:15:23.026   02 Jun 2027 12:16:25.059            62.033              Murmansk2          7754.125
        82   02 Jun 2027 12:24:44.504   02 Jun 2027 12:24:54.499             9.995                Anadyr1          1249.375
        83   02 Jun 2027 12:26:43.853   02 Jun 2027 12:26:49.326             5.473                Anadyr1           684.125
        84   02 Jun 2027 12:28:33.145   02 Jun 2027 12:29:03.947            30.802                Anadyr2          3850.250
        85   02 Jun 2027 12:31:47.150   02 Jun 2027 12:33:37.045           109.895                Anadyr2         13736.875
        86   02 Jun 2027 14:03:30.538   02 Jun 2027 14:07:29.488           238.950               Magadan1         29868.750
        87   02 Jun 2027 14:08:45.550   02 Jun 2027 14:10:11.952            86.402               Magadan2         10800.250
        88   02 Jun 2027 16:32:32.848   02 Jun 2027 16:35:26.509           173.661            RioGallegos         21707.625
        89   02 Jun 2027 17:19:13.360   02 Jun 2027 17:22:55.994           222.634                Irkutsk         27829.250
        90   02 Jun 2027 17:25:36.828   02 Jun 2027 17:25:54.937            18.109                Irkutsk          2263.625
        91   02 Jun 2027 17:34:09.879   02 Jun 2027 17:36:46.224           156.345                Sumatra         19543.125
        92   02 Jun 2027 17:38:36.204   02 Jun 2027 17:40:22.790           106.586                Sumatra         13323.250
        93   02 Jun 2027 17:40:58.923   02 Jun 2027 17:42:51.137           112.214                Sumatra         14026.750
        94   02 Jun 2027 19:00:46.364   02 Jun 2027 19:01:31.651            45.287                Novosib          5660.875
        95   02 Jun 2027 19:04:39.422   02 Jun 2027 19:05:35.785            56.363                  Delhi          7045.375
        96   02 Jun 2027 20:30:14.768   02 Jun 2027 20:31:39.613            84.845              Murmansk1         10605.625
        97   02 Jun 2027 22:08:01.132   02 Jun 2027 22:09:52.348           111.216                 Moscow         13902.000
        98   02 Jun 2027 22:13:57.680   02 Jun 2027 22:14:33.009            35.329                 Moscow          2576.875
        99   03 Jun 2027 04:28:13.515   03 Jun 2027 04:28:53.667            40.152                Novosib          5019.000
       100   03 Jun 2027 04:29:10.791   03 Jun 2027 04:33:02.960           232.169                Norilsk         29021.125
       101   03 Jun 2027 04:33:16.257   03 Jun 2027 04:33:25.321             9.064                Norilsk          1133.000
       102   03 Jun 2027 04:33:49.597   03 Jun 2027 04:36:28.898           159.301              Murmansk2         19912.625
       103   03 Jun 2027 05:39:45.011   03 Jun 2027 05:41:13.487            88.476                Sumatra         11059.500
       104   03 Jun 2027 05:44:24.298   03 Jun 2027 05:45:14.650            50.352                Sumatra          6294.000
       105   03 Jun 2027 06:03:58.766   03 Jun 2027 06:09:11.219           312.453                Norilsk         39056.625
       106   03 Jun 2027 06:09:18.519   03 Jun 2027 06:12:02.396           163.877              Murmansk1         20484.625
       107   03 Jun 2027 06:39:34.416   03 Jun 2027 06:43:17.158           222.742            RioGallegos         27842.750
       108   03 Jun 2027 06:48:09.272   03 Jun 2027 06:48:22.814            13.542            RioGallegos          1692.750
       109   03 Jun 2027 06:48:44.309   03 Jun 2027 06:49:18.754            34.445            RioGallegos          4305.625
       110   03 Jun 2027 07:13:55.795   03 Jun 2027 07:19:57.548           361.753                Sumatra         45219.125
       111   03 Jun 2027 07:28:49.019   03 Jun 2027 07:30:15.328            86.309                Novosib         10788.625
       112   03 Jun 2027 07:30:50.002   03 Jun 2027 07:35:01.871           251.869                Irkutsk         31483.625
       113   03 Jun 2027 07:39:46.988   03 Jun 2027 07:41:41.998           115.010                Novosib         14376.250
       114   03 Jun 2027 07:41:56.638   03 Jun 2027 07:44:45.676           169.038              Murmansk1         21129.750
       115   03 Jun 2027 07:46:02.189   03 Jun 2027 07:46:25.939            23.750              Murmansk2          2968.750
       116   03 Jun 2027 07:46:27.429   03 Jun 2027 07:47:08.649            41.220              Murmansk1          5152.500
       117   03 Jun 2027 08:58:36.423   03 Jun 2027 09:05:34.044           417.621                  Delhi         52202.625
       118   03 Jun 2027 09:06:50.818   03 Jun 2027 09:11:03.158           252.340                Novosib         31542.500
       119   03 Jun 2027 09:15:34.853   03 Jun 2027 09:17:19.879           105.026                 Moscow         13128.250
       120   03 Jun 2027 09:17:23.035   03 Jun 2027 09:20:12.272           169.237              Murmansk1         21154.625
       121   03 Jun 2027 09:20:21.600   03 Jun 2027 09:21:06.925            45.325                Norilsk          5665.625
       122   03 Jun 2027 10:45:38.240   03 Jun 2027 10:46:26.617            48.377                 Moscow          6047.125
       123   03 Jun 2027 10:46:43.559   03 Jun 2027 10:47:08.851            25.292              Murmansk2          3161.500
       124   03 Jun 2027 10:47:32.068   03 Jun 2027 10:47:49.866            17.798              Murmansk2          2224.750
       125   03 Jun 2027 10:48:41.749   03 Jun 2027 10:48:44.748             2.999              Murmansk2           374.875
       126   03 Jun 2027 10:50:26.317   03 Jun 2027 10:53:32.073           185.756                 Moscow         23219.500
       127   03 Jun 2027 10:53:41.385   03 Jun 2027 10:55:34.952           113.567              Murmansk1         14195.875
       128   03 Jun 2027 10:55:35.632   03 Jun 2027 10:57:05.614            89.982              Murmansk2         11247.750
       129   03 Jun 2027 10:57:14.475   03 Jun 2027 10:57:36.877            22.402              Murmansk2          2800.250
       130   03 Jun 2027 10:58:20.223   03 Jun 2027 10:58:44.463            24.240              Murmansk2          3030.000
       131   03 Jun 2027 11:03:26.973   03 Jun 2027 11:04:40.166            73.193                Anadyr1          9149.125
       132   03 Jun 2027 11:56:16.986   03 Jun 2027 11:58:16.570           119.584               CapeTown         14948.000
       133   03 Jun 2027 11:58:22.598   03 Jun 2027 12:05:12.144           409.546               CapeTown         51193.250
       134   03 Jun 2027 12:20:50.928   03 Jun 2027 12:22:54.300           123.372                 Moscow         15421.500
       135   03 Jun 2027 12:36:41.182   03 Jun 2027 12:38:56.922           135.740                Anadyr1         16967.500
       136   03 Jun 2027 14:15:19.370   03 Jun 2027 14:19:25.378           246.008               Magadan1         30751.000
       137   03 Jun 2027 16:43:52.089   03 Jun 2027 16:47:14.004           201.915            RioGallegos         25239.375
       138   03 Jun 2027 17:33:22.175   03 Jun 2027 17:37:07.689           225.514                Irkutsk         28189.250
       139   03 Jun 2027 17:45:24.040   03 Jun 2027 17:48:32.736           188.696                Sumatra         23587.000
       140   03 Jun 2027 17:50:10.229   03 Jun 2027 17:51:21.360            71.131                Sumatra          8891.375
       141   03 Jun 2027 17:53:06.212   03 Jun 2027 17:53:19.557            13.345                Sumatra          1668.125
       142   03 Jun 2027 19:15:33.032   03 Jun 2027 19:18:19.949           166.917                  Delhi         20864.625
       143   03 Jun 2027 19:20:10.934   03 Jun 2027 19:20:30.825            19.891                  Delhi          2486.375
       144   03 Jun 2027 20:42:11.792   03 Jun 2027 20:44:21.180           129.388              Murmansk2         16173.500
       145   03 Jun 2027 22:19:18.775   03 Jun 2027 22:20:34.519            75.744              Murmansk2          9468.000
       146   03 Jun 2027 22:22:40.587   03 Jun 2027 22:23:05.503            24.916              Murmansk1          3114.500
       147   03 Jun 2027 22:48:43.129   03 Jun 2027 22:50:36.239           113.110               CapeTown         11830.999
       148   04 Jun 2027 04:40:23.143   04 Jun 2027 04:45:07.377           284.234              Murmansk2         35529.250
       149   04 Jun 2027 04:47:49.212   04 Jun 2027 04:48:08.878            19.666              Murmansk1          2458.250
       150   04 Jun 2027 04:48:19.985   04 Jun 2027 04:49:27.890            67.905              Murmansk1          8488.125
       151   04 Jun 2027 05:51:06.216   04 Jun 2027 05:51:46.539            40.323                Sumatra          5040.375
       152   04 Jun 2027 05:52:27.905   04 Jun 2027 05:54:05.139            97.234                Sumatra         12154.250
       153   04 Jun 2027 06:16:09.002   04 Jun 2027 06:20:31.730           262.728                Norilsk         32841.000
       154   04 Jun 2027 06:20:47.069   04 Jun 2027 06:23:51.370           184.301              Murmansk1         23037.625
       155   04 Jun 2027 06:23:51.370   04 Jun 2027 06:23:55.047             3.677              Murmansk2           459.625
       156   04 Jun 2027 06:51:56.927   04 Jun 2027 06:57:37.871           340.944            RioGallegos         42618.000
       157   04 Jun 2027 07:26:12.185   04 Jun 2027 07:32:58.399           406.214                Sumatra         50776.750
       158   04 Jun 2027 07:40:53.790   04 Jun 2027 07:42:07.868            74.078                Novosib          9259.750
       159   04 Jun 2027 07:43:16.613   04 Jun 2027 07:47:29.038           252.425                Irkutsk         31553.125
       160   04 Jun 2027 07:51:58.936   04 Jun 2027 07:53:00.503            61.567              Murmansk2          7695.875
       161   04 Jun 2027 07:53:37.328   04 Jun 2027 07:56:37.918           180.590              Murmansk1         22573.750
       162   04 Jun 2027 07:56:47.463   04 Jun 2027 07:57:11.619            24.156                Norilsk          3019.500
       163   04 Jun 2027 07:58:29.219   04 Jun 2027 07:59:06.531            37.312              Murmansk1          4664.000
       164   04 Jun 2027 09:11:04.872   04 Jun 2027 09:19:19.544           494.672                  Delhi         61834.000
       165   04 Jun 2027 09:19:28.483   04 Jun 2027 09:23:08.618           220.135                Novosib         27516.875
       166   04 Jun 2027 09:27:34.483   04 Jun 2027 09:28:40.331            65.848                Novosib          8231.000
       167   04 Jun 2027 09:28:44.473   04 Jun 2027 09:31:54.761           190.288                Norilsk         23786.000
       168   04 Jun 2027 09:32:11.933   04 Jun 2027 09:33:07.248            55.315                Norilsk          6914.375
       169   04 Jun 2027 10:58:02.032   04 Jun 2027 10:59:30.943            88.911              Murmansk1         11113.875
       170   04 Jun 2027 11:01:35.460   04 Jun 2027 11:02:02.544            27.084              Murmansk2          3385.500
       171   04 Jun 2027 11:02:48.044   04 Jun 2027 11:03:18.656            30.612              Murmansk2          3826.500
       172   04 Jun 2027 11:04:00.388   04 Jun 2027 11:05:27.836            87.448              Murmansk1         10931.000
       173   04 Jun 2027 11:05:30.215   04 Jun 2027 11:08:03.438           153.223                Norilsk         19152.875
       174   04 Jun 2027 11:08:16.748   04 Jun 2027 11:08:47.996            31.248              Murmansk1          3906.000
       175   04 Jun 2027 11:14:16.377   04 Jun 2027 11:16:57.549           161.172                Anadyr1         20146.500
       176   04 Jun 2027 12:08:06.759   04 Jun 2027 12:10:13.177           126.418               CapeTown         15802.250
       177   04 Jun 2027 12:33:34.431   04 Jun 2027 12:34:20.341            45.910                 Moscow          5738.750
       178   04 Jun 2027 12:53:52.399   04 Jun 2027 12:55:32.317            99.918                Anadyr2         12489.750
       179   04 Jun 2027 14:27:10.988   04 Jun 2027 14:31:00.031           229.043               Magadan1         28630.375
       180   04 Jun 2027 14:31:03.640   04 Jun 2027 14:31:22.425            18.785               Magadan1          2348.125
       181   04 Jun 2027 16:55:25.370   04 Jun 2027 17:00:37.100           311.730            RioGallegos         38966.250
       182   04 Jun 2027 17:01:44.006   04 Jun 2027 17:02:17.319            33.313            RioGallegos          4164.125
       183   04 Jun 2027 17:40:29.197   04 Jun 2027 17:40:52.021            22.824                Norilsk          2853.000
       184   04 Jun 2027 17:46:34.768   04 Jun 2027 17:46:44.715             9.947                Irkutsk          1243.375
       185   04 Jun 2027 18:01:05.531   04 Jun 2027 18:03:52.909           167.378                Sumatra         20922.250
       186   04 Jun 2027 19:26:51.092   04 Jun 2027 19:30:06.870           195.778                  Delhi         24472.250
       187   04 Jun 2027 19:32:34.026   04 Jun 2027 19:34:26.457           112.431                  Delhi         14053.875
       188   04 Jun 2027 20:52:41.615   04 Jun 2027 20:53:02.454            20.839              Murmansk1          2604.875
       189   04 Jun 2027 20:54:07.037   04 Jun 2027 20:56:38.013           150.976              Murmansk2         18872.000
       190   04 Jun 2027 23:02:25.123   04 Jun 2027 23:03:00.162            35.039               CapeTown          4379.875
       191   05 Jun 2027 04:52:10.298   05 Jun 2027 04:53:13.945            63.647                Novosib          7955.875
       192   05 Jun 2027 04:55:39.507   05 Jun 2027 04:57:28.484           108.977              Murmansk2         13622.125
       193   05 Jun 2027 04:57:36.139   05 Jun 2027 04:57:56.409            20.270              Murmansk2          2533.750
       194   05 Jun 2027 04:59:41.314   05 Jun 2027 04:59:57.047            15.733              Murmansk2          1966.625
       195   05 Jun 2027 05:00:01.274   05 Jun 2027 05:01:12.055            70.781              Murmansk2          8847.625
       196   05 Jun 2027 06:15:25.255   05 Jun 2027 06:19:27.736           242.481                Irkutsk         30310.125
       197   05 Jun 2027 06:20:19.939   05 Jun 2027 06:20:30.995            11.056                Irkutsk          1382.000
       198   05 Jun 2027 06:21:10.942   05 Jun 2027 06:21:48.760            37.818                Novosib          4727.250
       199   05 Jun 2027 06:28:06.738   05 Jun 2027 06:33:13.846           307.108                Norilsk         38388.500
       200   05 Jun 2027 06:33:20.189   05 Jun 2027 06:34:48.983            88.794              Murmansk2         11099.250
       201   05 Jun 2027 06:34:48.983   05 Jun 2027 06:35:48.442            59.459              Murmansk1          7432.375
       202   05 Jun 2027 07:04:24.579   05 Jun 2027 07:11:24.345           419.766            RioGallegos         52470.750
       203   05 Jun 2027 07:38:36.347   05 Jun 2027 07:47:06.360           510.013                Sumatra         63751.625
       204   05 Jun 2027 07:53:01.638   05 Jun 2027 07:53:55.500            53.862                Novosib          6732.750
       205   05 Jun 2027 07:54:02.869   05 Jun 2027 07:59:22.450           319.581                Irkutsk         39947.625
       206   05 Jun 2027 08:03:49.811   05 Jun 2027 08:05:40.893           111.082                Novosib         13885.250
       207   05 Jun 2027 08:05:44.873   05 Jun 2027 08:06:34.156            49.283                 Moscow          6160.375
       208   05 Jun 2027 08:06:47.096   05 Jun 2027 08:08:30.909           103.813              Murmansk1         12976.625
       209   05 Jun 2027 08:10:30.712   05 Jun 2027 08:11:04.903            34.191              Murmansk2          4273.875
       210   05 Jun 2027 09:24:48.647   05 Jun 2027 09:33:11.884           503.237                  Delhi         62904.625
       211   05 Jun 2027 09:33:19.989   05 Jun 2027 09:35:49.120           149.131                Novosib         18641.375
       212   05 Jun 2027 09:40:09.702   05 Jun 2027 09:40:22.072            12.370                Novosib          1546.250
       213   05 Jun 2027 09:40:28.772   05 Jun 2027 09:45:31.264           302.492              Murmansk1         37811.500
       214   05 Jun 2027 11:10:11.137   05 Jun 2027 11:12:21.599           130.462              Murmansk1         16307.750
       215   05 Jun 2027 11:12:21.599   05 Jun 2027 11:17:41.119           319.520              Murmansk2         39940.000
       216   05 Jun 2027 11:17:44.397   05 Jun 2027 11:18:22.063            37.666              Murmansk1          4708.250
       217   05 Jun 2027 11:18:31.227   05 Jun 2027 11:19:27.751            56.524              Murmansk1          7065.500
       218   05 Jun 2027 11:20:51.012   05 Jun 2027 11:21:04.421            13.409              Murmansk2          1676.125
       219   05 Jun 2027 11:25:48.181   05 Jun 2027 11:30:53.680           305.499                Anadyr2         38187.375
       220   05 Jun 2027 12:22:57.528   05 Jun 2027 12:24:27.083            89.555               CapeTown         11194.375
       221   05 Jun 2027 12:46:27.651   05 Jun 2027 12:47:18.997            51.346                 Moscow          6418.250
       222   05 Jun 2027 14:39:04.681   05 Jun 2027 14:41:26.063           141.382               Magadan2         17672.750
       223   05 Jun 2027 14:43:50.860   05 Jun 2027 14:44:38.560            47.700               Magadan2          5962.500
       224   05 Jun 2027 14:47:05.840   05 Jun 2027 14:48:35.345            89.505               Magadan1         11188.125
       225   05 Jun 2027 17:09:19.840   05 Jun 2027 17:13:23.453           243.613            RioGallegos         30451.625
       226   05 Jun 2027 18:14:16.383   05 Jun 2027 18:14:58.411            42.028                Sumatra          5253.500
       227   05 Jun 2027 19:41:16.465   05 Jun 2027 19:45:14.694           238.229                  Delhi         29778.625
       228   05 Jun 2027 21:05:40.158   05 Jun 2027 21:10:09.001           268.843              Murmansk1         33605.375
       229   05 Jun 2027 21:10:15.204   05 Jun 2027 21:13:00.955           165.751                 Moscow         20718.875
       230   05 Jun 2027 23:14:24.032   05 Jun 2027 23:14:31.676             7.644               CapeTown           955.500
       231   06 Jun 2027 05:04:27.260   06 Jun 2027 05:09:53.861           326.601              Murmansk1         40825.125
       232   06 Jun 2027 05:10:14.038   06 Jun 2027 05:10:46.664            32.626              Murmansk1          4078.250
       233   06 Jun 2027 05:11:27.409   06 Jun 2027 05:13:04.520            97.111              Murmansk1         12138.875
       234   06 Jun 2027 05:38:57.916   06 Jun 2027 05:39:44.619            46.703            RioGallegos          5837.875
       235   06 Jun 2027 05:43:37.470   06 Jun 2027 05:43:50.155            12.685            RioGallegos          1585.625
       236   06 Jun 2027 06:14:18.204   06 Jun 2027 06:16:01.405           103.201                Sumatra         12900.125
       237   06 Jun 2027 06:18:10.386   06 Jun 2027 06:18:24.720            14.334                Sumatra          1791.750
       238   06 Jun 2027 06:21:32.539   06 Jun 2027 06:21:48.197            15.658                Sumatra          1957.250
       239   06 Jun 2027 06:27:32.057   06 Jun 2027 06:29:32.046           119.989                Irkutsk         14998.625
       240   06 Jun 2027 06:30:40.103   06 Jun 2027 06:31:27.458            47.355                Irkutsk          5919.375
       241   06 Jun 2027 06:31:48.495   06 Jun 2027 06:33:25.870            97.375                Novosib         12171.875
       242   06 Jun 2027 06:39:58.971   06 Jun 2027 06:47:42.566           463.595              Murmansk1         57949.375
       243   06 Jun 2027 07:16:58.251   06 Jun 2027 07:24:41.931           463.680            RioGallegos         57960.000
       244   06 Jun 2027 07:51:10.728   06 Jun 2027 08:00:35.355           564.627                Sumatra         70578.375
       245   06 Jun 2027 08:06:52.380   06 Jun 2027 08:11:59.764           307.384                Irkutsk         38423.000
       246   06 Jun 2027 08:15:41.489   06 Jun 2027 08:17:39.030           117.541                Novosib         14692.625
       247   06 Jun 2027 08:17:40.272   06 Jun 2027 08:17:53.390            13.118                Norilsk          1639.750
       248   06 Jun 2027 08:17:55.060   06 Jun 2027 08:20:24.647           149.587              Murmansk2         18698.375
       249   06 Jun 2027 08:20:48.354   06 Jun 2027 08:21:15.238            26.884                Norilsk          3360.500
       250   06 Jun 2027 09:36:36.352   06 Jun 2027 09:44:29.696           473.344                  Delhi         59168.000
       251   06 Jun 2027 09:45:09.492   06 Jun 2027 09:47:28.523           139.031                Novosib         17378.875
       252   06 Jun 2027 09:51:17.832   06 Jun 2027 09:51:47.240            29.408              Murmansk2          3676.000
       253   06 Jun 2027 09:52:44.833   06 Jun 2027 09:56:52.204           247.371              Murmansk1         30921.375
       254   06 Jun 2027 11:22:22.042   06 Jun 2027 11:29:14.343           412.301              Murmansk2         51537.625
       255   06 Jun 2027 11:29:45.707   06 Jun 2027 11:32:20.825           155.118              Murmansk1         19389.750
       256   06 Jun 2027 11:33:04.371   06 Jun 2027 11:33:37.250            32.879              Murmansk1          4109.875
       257   06 Jun 2027 11:37:30.660   06 Jun 2027 11:41:17.699           227.039                Anadyr2         28379.875
       258   06 Jun 2027 12:31:56.636   06 Jun 2027 12:32:54.284            57.648               CapeTown          7206.000
       259   06 Jun 2027 12:33:31.316   06 Jun 2027 12:34:07.618            36.302               CapeTown          4537.750
       260   06 Jun 2027 12:35:27.876   06 Jun 2027 12:36:14.304            46.428               CapeTown          5803.500
       261   06 Jun 2027 12:59:36.527   06 Jun 2027 13:01:07.477            90.950                 Moscow         11368.750
       262   06 Jun 2027 13:18:08.252   06 Jun 2027 13:19:58.785           110.533               Magadan2         13816.625
       263   06 Jun 2027 14:50:59.975   06 Jun 2027 14:53:08.369           128.394               Magadan2         16049.250
       264   06 Jun 2027 17:22:37.493   06 Jun 2027 17:24:51.253           133.760            RioGallegos         16720.000
       265   06 Jun 2027 18:08:32.142   06 Jun 2027 18:13:22.485           290.343                Novosib         36292.875
       266   06 Jun 2027 19:54:49.263   06 Jun 2027 19:56:23.528            94.265                  Delhi         11783.125
       267   06 Jun 2027 21:17:47.972   06 Jun 2027 21:18:43.581            55.609              Murmansk1          6951.125
       268   06 Jun 2027 21:19:07.922   06 Jun 2027 21:23:23.400           255.478              Murmansk2         31934.750
       269   06 Jun 2027 21:23:57.108   06 Jun 2027 21:24:48.337            51.229                 Moscow          6403.625
       270   06 Jun 2027 21:27:02.786   06 Jun 2027 21:27:53.959            51.173                 Moscow          6396.625
       271   07 Jun 2027 03:38:42.700   07 Jun 2027 03:39:36.192            53.492               Magadan2          6686.500
       272   07 Jun 2027 05:15:22.369   07 Jun 2027 05:15:55.610            33.241                Irkutsk          4155.125
       273   07 Jun 2027 05:16:21.293   07 Jun 2027 05:17:29.275            67.982                Novosib          8497.750
       274   07 Jun 2027 05:17:29.381   07 Jun 2027 05:20:55.249           205.868                Norilsk         25733.500
       275   07 Jun 2027 05:21:11.009   07 Jun 2027 05:24:53.647           222.638              Murmansk2         27829.750
       276   07 Jun 2027 05:51:00.917   07 Jun 2027 05:54:16.536           195.619            RioGallegos         24452.375
       277   07 Jun 2027 05:55:49.806   07 Jun 2027 05:56:05.823            16.017            RioGallegos          2002.125
       278   07 Jun 2027 05:58:37.242   07 Jun 2027 05:59:27.582            50.340            RioGallegos          6292.500
       279   07 Jun 2027 06:26:05.070   07 Jun 2027 06:26:25.269            20.199                Sumatra          2524.875
       280   07 Jun 2027 06:27:37.593   07 Jun 2027 06:28:24.031            46.438                Sumatra          5804.750
       281   07 Jun 2027 06:28:54.926   07 Jun 2027 06:30:26.748            91.822                Sumatra         11477.750
       282   07 Jun 2027 06:37:41.647   07 Jun 2027 06:38:38.194            56.547                  Delhi          7068.375
       283   07 Jun 2027 06:39:42.363   07 Jun 2027 06:44:36.639           294.276                Irkutsk         36784.500
       284   07 Jun 2027 06:45:38.319   07 Jun 2027 06:46:16.636            38.317                Irkutsk          4789.625
       285   07 Jun 2027 06:52:14.392   07 Jun 2027 06:57:17.040           302.648                Norilsk         37831.000
       286   07 Jun 2027 06:57:36.055   07 Jun 2027 06:59:37.410           121.355              Murmansk2         15169.375
       287   07 Jun 2027 07:30:58.090   07 Jun 2027 07:38:33.379           455.289            RioGallegos         56911.125
       288   07 Jun 2027 08:04:00.744   07 Jun 2027 08:11:39.585           458.841                Sumatra         57355.125
       289   07 Jun 2027 08:18:39.173   07 Jun 2027 08:19:33.597            54.424                Novosib          6803.000
       290   07 Jun 2027 08:19:55.929   07 Jun 2027 08:24:08.424           252.495                Irkutsk         31561.875
       291   07 Jun 2027 08:27:47.027   07 Jun 2027 08:29:36.096           109.069                Novosib         13633.625
       292   07 Jun 2027 08:29:39.196   07 Jun 2027 08:31:02.619            83.423                Norilsk         10427.875
       293   07 Jun 2027 08:31:02.834   07 Jun 2027 08:32:43.821           100.987              Murmansk2         12623.375
       294   07 Jun 2027 08:32:43.821   07 Jun 2027 08:33:07.424            23.603              Murmansk1          2950.375
       295   07 Jun 2027 09:49:56.067   07 Jun 2027 09:55:22.716           326.649                  Delhi         40831.125
       296   07 Jun 2027 10:03:14.040   07 Jun 2027 10:03:21.299             7.259              Murmansk1           907.375
       297   07 Jun 2027 10:05:00.959   07 Jun 2027 10:10:52.880           351.921              Murmansk2         43990.125
       298   07 Jun 2027 11:10:12.219   07 Jun 2027 11:18:01.728           469.509               CapeTown         58688.625
       299   07 Jun 2027 11:31:12.068   07 Jun 2027 11:37:12.087           360.019                 Moscow         45002.375
       300   07 Jun 2027 11:37:15.159   07 Jun 2027 11:41:11.784           236.625              Murmansk1         29578.125
       301   07 Jun 2027 11:41:11.784   07 Jun 2027 11:46:05.644           293.860              Murmansk2         36732.500
       302   07 Jun 2027 11:49:18.618   07 Jun 2027 11:52:57.802           219.184                Anadyr2         27398.000
       303   07 Jun 2027 11:55:14.028   07 Jun 2027 11:55:49.163            35.135                Anadyr2          4391.875
       304   07 Jun 2027 12:43:56.023   07 Jun 2027 12:46:02.350           126.327               CapeTown         15790.875
       305   07 Jun 2027 12:46:34.352   07 Jun 2027 12:47:09.782            35.430               CapeTown          4428.750
       306   07 Jun 2027 12:51:10.856   07 Jun 2027 12:52:05.601            54.745               CapeTown          6843.125
       307   07 Jun 2027 13:28:54.698   07 Jun 2027 13:32:06.729           192.031               Magadan1         24003.875
       308   07 Jun 2027 16:45:37.754   07 Jun 2027 16:48:39.281           181.527                Irkutsk         22690.875
       309   07 Jun 2027 18:16:10.486   07 Jun 2027 18:17:14.618            64.132                Norilsk          8016.500
       310   07 Jun 2027 18:19:51.012   07 Jun 2027 18:26:36.557           405.545                Novosib         50693.125
       311   07 Jun 2027 21:29:27.950   07 Jun 2027 21:31:14.867           106.917              Murmansk2         13364.625
       312   07 Jun 2027 21:31:22.220   07 Jun 2027 21:33:52.781           150.561              Murmansk2         18820.125
       313   07 Jun 2027 21:34:27.597   07 Jun 2027 21:37:33.525           185.928                 Moscow         23241.000
       314   07 Jun 2027 21:39:10.631   07 Jun 2027 21:40:48.381            97.750                 Moscow         12218.750
       315   08 Jun 2027 03:50:45.273   08 Jun 2027 03:52:09.860            84.587                Novosib         10573.375
       316   08 Jun 2027 03:52:12.570   08 Jun 2027 03:52:13.249             0.679                Anadyr2            84.875
       317   08 Jun 2027 03:52:17.066   08 Jun 2027 03:52:31.992            14.926               Magadan1          1865.750
       318   08 Jun 2027 03:52:32.975   08 Jun 2027 03:55:17.302           164.327                Norilsk         20540.875
       319   08 Jun 2027 05:28:27.648   08 Jun 2027 05:29:35.726            68.078                Novosib          8509.750
       320   08 Jun 2027 05:29:37.314   08 Jun 2027 05:33:23.434           226.120                Norilsk         28265.000
       321   08 Jun 2027 05:33:29.316   08 Jun 2027 05:36:43.407           194.091              Murmansk2         24261.375
       322   08 Jun 2027 06:03:07.349   08 Jun 2027 06:06:16.127           188.778            RioGallegos         23597.250
       323   08 Jun 2027 06:07:06.996   08 Jun 2027 06:08:00.214            53.218            RioGallegos          6652.250
       324   08 Jun 2027 06:08:06.319   08 Jun 2027 06:10:11.813           125.494            RioGallegos         15686.750
       325   08 Jun 2027 06:11:42.200   08 Jun 2027 06:12:23.195            40.995            RioGallegos          5124.375
       326   08 Jun 2027 06:37:57.954   08 Jun 2027 06:39:03.061            65.107                Sumatra          8138.375
       327   08 Jun 2027 06:41:03.351   08 Jun 2027 06:42:44.130           100.779                Sumatra         12597.375
       328   08 Jun 2027 06:48:45.582   08 Jun 2027 06:50:52.401           126.819                  Delhi         15852.375
       329   08 Jun 2027 06:51:56.405   08 Jun 2027 06:56:18.667           262.262                Irkutsk         32782.750
       330   08 Jun 2027 07:04:28.044   08 Jun 2027 07:11:32.932           424.888              Murmansk1         53111.000
       331   08 Jun 2027 07:42:30.280   08 Jun 2027 07:50:08.191           457.911            RioGallegos         57238.875
       332   08 Jun 2027 08:17:24.002   08 Jun 2027 08:22:09.587           285.585                Sumatra         35698.125
       333   08 Jun 2027 08:29:45.353   08 Jun 2027 08:31:41.562           116.209                Novosib         14526.125
       334   08 Jun 2027 08:32:00.821   08 Jun 2027 08:33:07.484            66.663                Novosib          8332.875
       335   08 Jun 2027 08:33:29.864   08 Jun 2027 08:36:15.963           166.099                Irkutsk         20762.375
       336   08 Jun 2027 08:39:52.023   08 Jun 2027 08:41:31.890            99.867                Novosib         12483.375
       337   08 Jun 2027 08:41:38.319   08 Jun 2027 08:45:18.422           220.103                Norilsk         27512.875
       338   08 Jun 2027 08:45:29.527   08 Jun 2027 08:45:40.968            11.441              Murmansk1          1430.125
       339   08 Jun 2027 08:46:32.923   08 Jun 2027 08:47:02.574            29.651              Murmansk1          3706.375
       340   08 Jun 2027 10:16:07.467   08 Jun 2027 10:16:23.144            15.677                Norilsk          1959.625
       341   08 Jun 2027 10:16:31.956   08 Jun 2027 10:21:01.333           269.377                Norilsk         33672.125
       342   08 Jun 2027 10:21:25.848   08 Jun 2027 10:22:54.318            88.470              Murmansk2         11058.750
       343   08 Jun 2027 11:21:33.331   08 Jun 2027 11:30:45.275           551.944               CapeTown         68993.000
       344   08 Jun 2027 11:43:33.379   08 Jun 2027 11:53:28.032           594.653                 Moscow         74331.625
       345   08 Jun 2027 11:53:31.764   08 Jun 2027 11:58:52.308           320.544              Murmansk2         40068.000
       346   08 Jun 2027 12:01:09.980   08 Jun 2027 12:10:01.508           531.528                Anadyr1         66441.000
       347   08 Jun 2027 12:55:58.163   08 Jun 2027 12:57:25.790            87.627               CapeTown         10953.375
       348   08 Jun 2027 13:40:21.508   08 Jun 2027 13:43:56.951           215.443               Magadan1         26930.375
       349   08 Jun 2027 13:46:08.487   08 Jun 2027 13:46:59.295            50.808               Magadan2          6351.000
       350   08 Jun 2027 16:56:28.646   08 Jun 2027 17:02:21.052           352.406                Irkutsk         44050.750
       351   08 Jun 2027 17:13:46.581   08 Jun 2027 17:15:57.018           130.437                Sumatra         16304.625
       352   08 Jun 2027 18:31:25.010   08 Jun 2027 18:36:09.239           284.229                Novosib         35528.625
       353   08 Jun 2027 18:37:41.102   08 Jun 2027 18:39:18.155            97.053                Novosib         12131.625
       354   08 Jun 2027 20:07:37.832   08 Jun 2027 20:07:58.763            20.931              Murmansk1          2616.375
       355   08 Jun 2027 21:40:37.396   08 Jun 2027 21:41:56.765            79.369              Murmansk2          9921.125
       356   08 Jun 2027 21:44:04.744   08 Jun 2027 21:46:21.149           136.405              Murmansk1         17050.625
       357   08 Jun 2027 21:46:23.480   08 Jun 2027 21:47:57.314            93.834                 Moscow         11729.250
       358   08 Jun 2027 22:12:31.875   08 Jun 2027 22:13:48.006            76.131               CapeTown          9516.375
       359   08 Jun 2027 22:14:17.360   08 Jun 2027 22:15:03.793            46.433               CapeTown          5004.499
       360   09 Jun 2027 04:03:11.885   09 Jun 2027 04:03:52.932            41.047                Anadyr1          5130.875
       361   09 Jun 2027 04:04:11.820   09 Jun 2027 04:09:43.473           331.653                Norilsk         41456.625
       362   09 Jun 2027 04:10:00.247   09 Jun 2027 04:10:18.949            18.702              Murmansk2          2337.750
       363   09 Jun 2027 05:18:20.688   09 Jun 2027 05:19:33.992            73.304                Sumatra          9163.000
       364   09 Jun 2027 05:40:33.626   09 Jun 2027 05:48:33.854           480.228              Murmansk2         60028.500
       365   09 Jun 2027 06:15:17.391   09 Jun 2027 06:20:50.569           333.178            RioGallegos         41647.250
       366   09 Jun 2027 06:22:57.302   09 Jun 2027 06:23:30.615            33.313            RioGallegos          4164.125
       367   09 Jun 2027 06:49:56.484   09 Jun 2027 06:51:59.066           122.582                Sumatra         15322.750
       368   09 Jun 2027 06:54:08.628   09 Jun 2027 06:55:03.860            55.232                Sumatra          6904.000
       369   09 Jun 2027 06:59:01.730   09 Jun 2027 06:59:33.859            32.129                Sumatra          4016.125
       370   09 Jun 2027 07:00:02.810   09 Jun 2027 07:03:04.999           182.189                  Delhi         22773.625
       371   09 Jun 2027 07:04:14.471   09 Jun 2027 07:05:43.784            89.313                Irkutsk         11164.125
       372   09 Jun 2027 07:05:47.400   09 Jun 2027 07:09:55.764           248.364                Irkutsk         31045.500
       373   09 Jun 2027 07:15:39.891   09 Jun 2027 07:16:20.864            40.973                Novosib          5121.625
       374   09 Jun 2027 07:16:28.951   09 Jun 2027 07:23:29.103           420.152              Murmansk2         52519.000
       375   09 Jun 2027 07:55:36.705   09 Jun 2027 08:01:30.568           353.863            RioGallegos         44232.875
       376   09 Jun 2027 08:37:52.304   09 Jun 2027 08:38:07.427            15.123                  Delhi          1890.375
       377   09 Jun 2027 08:42:07.523   09 Jun 2027 08:47:15.886           308.363                Novosib         38545.375
       378   09 Jun 2027 08:52:02.936   09 Jun 2027 08:53:26.134            83.198                Novosib         10399.750
       379   09 Jun 2027 08:53:41.171   09 Jun 2027 08:56:50.773           189.602              Murmansk2         23700.250
       380   09 Jun 2027 08:56:50.773   09 Jun 2027 08:57:16.945            26.172              Murmansk1          3271.500
       381   09 Jun 2027 08:58:34.280   09 Jun 2027 08:59:02.524            28.244              Murmansk2          3530.500
       382   09 Jun 2027 10:27:25.083   09 Jun 2027 10:27:52.586            27.503                Norilsk          3437.875
       383   09 Jun 2027 10:27:59.718   09 Jun 2027 10:31:26.662           206.944                 Moscow         25868.000
       384   09 Jun 2027 10:31:28.123   09 Jun 2027 10:32:56.592            88.469                Norilsk         11058.625
       385   09 Jun 2027 10:33:08.995   09 Jun 2027 10:34:55.846           106.851              Murmansk1         13356.375
       386   09 Jun 2027 11:33:05.909   09 Jun 2027 11:42:24.021           558.112               CapeTown         69764.000
       387   09 Jun 2027 11:55:59.030   09 Jun 2027 12:05:57.573           598.543                 Moscow         74817.875
       388   09 Jun 2027 12:06:06.857   09 Jun 2027 12:10:53.540           286.683              Murmansk1         35835.375
       389   09 Jun 2027 12:13:03.678   09 Jun 2027 12:22:37.340           573.662                Anadyr1         71707.750
       390   09 Jun 2027 13:52:00.125   09 Jun 2027 13:55:49.592           229.467               Magadan1         28683.375
       391   09 Jun 2027 13:56:30.708   09 Jun 2027 13:58:33.946           123.238               Magadan2         15404.750
       392   09 Jun 2027 16:22:13.214   09 Jun 2027 16:23:57.604           104.390            RioGallegos         13048.750
       393   09 Jun 2027 17:07:52.180   09 Jun 2027 17:13:48.538           356.358                Irkutsk         44544.750
       394   09 Jun 2027 17:15:26.333   09 Jun 2027 17:15:27.016             0.683                Irkutsk            85.375
       395   09 Jun 2027 17:23:30.922   09 Jun 2027 17:25:20.897           109.975                Sumatra         13746.875
       396   09 Jun 2027 17:26:58.651   09 Jun 2027 17:29:12.018           133.367                Sumatra         16670.875
       397   09 Jun 2027 18:44:35.248   09 Jun 2027 18:46:26.729           111.481                Novosib         13935.125
       398   09 Jun 2027 18:49:45.252   09 Jun 2027 18:51:20.993            95.741                Novosib         11967.625
       399   09 Jun 2027 20:19:01.065   09 Jun 2027 20:20:39.948            98.883              Murmansk2         12360.375
       400   09 Jun 2027 21:53:24.563   09 Jun 2027 21:54:32.360            67.797              Murmansk2          8474.625
       401   09 Jun 2027 21:56:26.423   09 Jun 2027 21:58:14.434           108.011                 Moscow         13501.375
       402   09 Jun 2027 21:59:14.188   09 Jun 2027 21:59:58.428            44.240                 Moscow          5530.000
       403   09 Jun 2027 22:23:15.404   09 Jun 2027 22:23:55.134            39.730               CapeTown           738.250
       404   10 Jun 2027 04:15:19.474   10 Jun 2027 04:15:29.432             9.958                Irkutsk          1244.750
       405   10 Jun 2027 04:16:27.467   10 Jun 2027 04:16:55.103            27.636                Novosib          3454.500
       406   10 Jun 2027 04:17:08.333   10 Jun 2027 04:21:41.463           273.130                Norilsk         34141.250
       407   10 Jun 2027 04:21:47.365   10 Jun 2027 04:23:01.961            74.596              Murmansk1          9324.500
       408   10 Jun 2027 05:28:53.712   10 Jun 2027 05:30:48.977           115.265                Sumatra         14408.125
       409   10 Jun 2027 05:52:35.676   10 Jun 2027 06:00:25.020           469.344              Murmansk1         58668.000
       410   10 Jun 2027 06:27:31.265   10 Jun 2027 06:31:13.747           222.482            RioGallegos         27810.250
       411   10 Jun 2027 06:31:48.207   10 Jun 2027 06:32:16.753            28.546            RioGallegos          3568.250
       412   10 Jun 2027 06:32:56.705   10 Jun 2027 06:33:43.999            47.294            RioGallegos          5911.750
       413   10 Jun 2027 06:34:16.130   10 Jun 2027 06:35:30.713            74.583            RioGallegos          9322.875
       414   10 Jun 2027 07:02:00.606   10 Jun 2027 07:05:42.074           221.468                Sumatra         27683.500
       415   10 Jun 2027 07:10:14.292   10 Jun 2027 07:10:53.063            38.771                Sumatra          4846.375
       416   10 Jun 2027 07:11:29.510   10 Jun 2027 07:12:41.642            72.132                  Delhi          9016.500
       417   10 Jun 2027 07:16:34.060   10 Jun 2027 07:16:59.966            25.906                  Delhi          3238.250
       418   10 Jun 2027 07:17:01.823   10 Jun 2027 07:17:45.460            43.637                Novosib          5454.625
       419   10 Jun 2027 07:17:58.815   10 Jun 2027 07:21:50.665           231.850                Irkutsk         28981.250
       420   10 Jun 2027 07:28:20.039   10 Jun 2027 07:33:22.486           302.447                Norilsk         37805.875
       421   10 Jun 2027 07:33:23.655   10 Jun 2027 07:35:25.885           122.230              Murmansk2         15278.750
       422   10 Jun 2027 08:09:20.614   10 Jun 2027 08:12:18.631           178.017            RioGallegos         22252.125
       423   10 Jun 2027 08:46:30.661   10 Jun 2027 08:52:47.038           376.377                  Delhi         47047.125
       424   10 Jun 2027 08:54:33.015   10 Jun 2027 08:56:21.124           108.109                  Delhi         13513.625
       425   10 Jun 2027 08:57:08.176   10 Jun 2027 08:59:15.535           127.359                Novosib         15919.875
       426   10 Jun 2027 09:03:59.071   10 Jun 2027 09:11:02.774           423.703              Murmansk1         52962.875
       427   10 Jun 2027 10:30:33.836   10 Jun 2027 10:31:20.699            46.863                 Moscow          5857.875
       428   10 Jun 2027 10:34:03.678   10 Jun 2027 10:34:26.389            22.711              Murmansk1          2838.875
       429   10 Jun 2027 10:35:00.889   10 Jun 2027 10:35:48.819            47.930              Murmansk1          5991.250
       430   10 Jun 2027 10:39:02.585   10 Jun 2027 10:43:27.342           264.757                 Moscow         33094.625
       431   10 Jun 2027 10:43:30.087   10 Jun 2027 10:44:49.297            79.210                Norilsk          9901.250
       432   10 Jun 2027 10:45:22.006   10 Jun 2027 10:46:57.451            95.445              Murmansk1         11930.625
       433   10 Jun 2027 11:44:45.956   10 Jun 2027 11:54:08.537           562.581               CapeTown         70322.625
       434   10 Jun 2027 11:55:52.891   10 Jun 2027 11:56:07.077            14.186               CapeTown          1773.250
       435   10 Jun 2027 12:08:29.627   10 Jun 2027 12:16:06.056           456.429                 Moscow         57053.625
       436   10 Jun 2027 12:16:18.349   10 Jun 2027 12:19:18.139           179.790              Murmansk2         22473.750
       437   10 Jun 2027 12:19:18.139   10 Jun 2027 12:21:36.029           137.890              Murmansk1         17236.250
       438   10 Jun 2027 12:24:59.078   10 Jun 2027 12:26:58.767           119.689                Anadyr1         14961.125
       439   10 Jun 2027 14:03:45.006   10 Jun 2027 14:09:00.537           315.531               Magadan1         39441.375
       440   10 Jun 2027 16:32:46.845   10 Jun 2027 16:35:40.964           174.119            RioGallegos         21764.875
       441   10 Jun 2027 17:19:27.736   10 Jun 2027 17:23:10.538           222.802                Irkutsk         27850.250
       442   10 Jun 2027 17:24:44.502   10 Jun 2027 17:25:51.679            67.177                Irkutsk          8397.125
       443   10 Jun 2027 17:34:23.851   10 Jun 2027 17:37:00.152           156.301                Sumatra         19537.625
       444   10 Jun 2027 17:39:21.123   10 Jun 2027 17:40:35.797            74.674                Sumatra          9334.250
       445   10 Jun 2027 18:58:54.604   10 Jun 2027 19:00:50.526           115.922                Novosib         14490.250
       446   10 Jun 2027 19:04:52.980   10 Jun 2027 19:06:52.776           119.796                  Delhi         14974.500
       447   10 Jun 2027 20:30:32.413   10 Jun 2027 20:31:29.708            57.295              Murmansk2          7161.875
       448   10 Jun 2027 22:06:37.387   10 Jun 2027 22:08:47.722           130.335              Murmansk1         16291.875
       449   10 Jun 2027 22:34:20.116   10 Jun 2027 22:36:05.233           105.117               CapeTown          3457.874
       450   11 Jun 2027 04:28:27.113   11 Jun 2027 04:29:08.436            41.323                Novosib          5165.375
       451   11 Jun 2027 04:29:26.239   11 Jun 2027 04:37:54.694           508.455              Murmansk2         63556.875
       452   11 Jun 2027 05:03:23.055   11 Jun 2027 05:06:48.696           205.641            RioGallegos         25705.125
       453   11 Jun 2027 05:39:59.084   11 Jun 2027 05:41:31.413            92.329                Sumatra         11541.125
       454   11 Jun 2027 05:44:38.683   11 Jun 2027 05:45:29.476            50.793                Sumatra          6349.125
       455   11 Jun 2027 06:04:13.629   11 Jun 2027 06:09:25.849           312.220                Norilsk         39027.500
       456   11 Jun 2027 06:09:37.068   11 Jun 2027 06:12:16.924           159.856              Murmansk2         19982.000
       457   11 Jun 2027 06:39:49.277   11 Jun 2027 06:44:23.317           274.040            RioGallegos         34255.000
       458   11 Jun 2027 06:45:32.449   11 Jun 2027 06:45:57.661            25.212            RioGallegos          3151.500
       459   11 Jun 2027 06:49:33.500   11 Jun 2027 06:49:41.450             7.950            RioGallegos           993.750
       460   11 Jun 2027 07:14:10.571   11 Jun 2027 07:20:12.795           362.224                Sumatra         45278.000
       461   11 Jun 2027 07:29:03.676   11 Jun 2027 07:30:29.866            86.190                Novosib         10773.750
       462   11 Jun 2027 07:31:08.065   11 Jun 2027 07:35:15.239           247.174                Irkutsk         30896.750
       463   11 Jun 2027 07:40:01.362   11 Jun 2027 07:40:43.237            41.875                Novosib          5234.375
       464   11 Jun 2027 07:40:48.431   11 Jun 2027 07:45:00.387           251.956              Murmansk1         31494.500
       465   11 Jun 2027 07:46:19.677   11 Jun 2027 07:46:42.174            22.497              Murmansk1          2812.125
       466   11 Jun 2027 07:46:42.442   11 Jun 2027 07:47:23.240            40.798              Murmansk2          5099.750
       467   11 Jun 2027 08:58:51.333   11 Jun 2027 09:05:49.641           418.308                  Delhi         52288.500
       468   11 Jun 2027 09:07:05.851   11 Jun 2027 09:11:18.066           252.215                Novosib         31526.875
       469   11 Jun 2027 09:15:49.603   11 Jun 2027 09:16:59.567            69.964                 Moscow          8745.500
       470   11 Jun 2027 09:17:04.929   11 Jun 2027 09:19:51.501           166.572              Murmansk1         20821.500
       471   11 Jun 2027 09:19:51.501   11 Jun 2027 09:20:27.617            36.116              Murmansk2          4514.500
       472   11 Jun 2027 09:20:36.233   11 Jun 2027 09:21:21.544            45.311                Norilsk          5663.875
       473   11 Jun 2027 10:46:09.374   11 Jun 2027 10:47:47.247            97.873              Murmansk1         12234.125
       474   11 Jun 2027 10:50:40.563   11 Jun 2027 10:53:47.257           186.694                 Moscow         23336.750
       475   11 Jun 2027 10:53:56.045   11 Jun 2027 10:57:20.797           204.752              Murmansk1         25594.000
       476   11 Jun 2027 10:57:20.797   11 Jun 2027 10:57:53.399            32.602              Murmansk2          4075.250
       477   11 Jun 2027 10:58:26.126   11 Jun 2027 10:58:34.953             8.827              Murmansk1          1103.375
       478   11 Jun 2027 11:03:39.479   11 Jun 2027 11:04:57.413            77.934                Anadyr2          9741.750
       479   11 Jun 2027 11:58:33.242   11 Jun 2027 12:05:57.554           444.312               CapeTown         55539.000
       480   11 Jun 2027 12:08:05.187   11 Jun 2027 12:08:28.958            23.771               CapeTown          2971.375
       481   11 Jun 2027 12:21:06.024   11 Jun 2027 12:23:55.743           169.719                 Moscow         21214.875
       482   11 Jun 2027 12:36:55.769   11 Jun 2027 12:37:40.557            44.788                Anadyr1          5598.500
