uniorb/output/strategy_4/Drop/Drop_KinoSat_111802.txt

KinoSat_111802
-------------------------
    Access    *     Start Time (UTCG)     *     Stop Time (UTCG)  *   Duration (s)        *       Station  *  Data (Mbytes)
         1   01 Jun 2027 03:36:15.261   01 Jun 2027 03:37:16.565            61.304                Novosib          1915.750
         2   01 Jun 2027 03:37:37.329   01 Jun 2027 03:40:58.388           201.059              Murmansk1          6283.094
         3   01 Jun 2027 03:41:16.455   01 Jun 2027 03:42:35.578            79.123                  Delhi          2472.594
         4   01 Jun 2027 03:45:02.945   01 Jun 2027 03:45:38.451            35.506                  Delhi          1109.562
         5   01 Jun 2027 05:13:01.377   01 Jun 2027 05:13:39.798            38.421                Novosib          1200.656
         6   01 Jun 2027 05:15:11.946   01 Jun 2027 05:15:33.982            22.036              Murmansk1           688.625
         7   01 Jun 2027 05:15:35.585   01 Jun 2027 05:16:00.424            24.839                Norilsk           776.219
         8   01 Jun 2027 05:16:17.794   01 Jun 2027 05:16:55.298            37.504              Murmansk1          1172.000
         9   01 Jun 2027 05:16:55.298   01 Jun 2027 05:17:11.727            16.429              Murmansk2           513.406
        10   01 Jun 2027 05:17:15.771   01 Jun 2027 05:18:28.314            72.543                Novosib          2266.969
        11   01 Jun 2027 05:18:39.007   01 Jun 2027 05:20:00.592            81.585              Murmansk2          2549.531
        12   01 Jun 2027 05:20:22.231   01 Jun 2027 05:23:39.003           196.772                 Moscow          6149.125
        13   01 Jun 2027 05:35:02.067   01 Jun 2027 05:37:50.922           168.855               CapeTown          5276.719
        14   01 Jun 2027 06:39:18.686   01 Jun 2027 06:42:33.212           194.526                Anadyr1          6078.937
        15   01 Jun 2027 06:42:43.140   01 Jun 2027 06:43:13.593            30.453                Anadyr1           951.656
        16   01 Jun 2027 06:43:22.453   01 Jun 2027 06:43:28.787             6.334               Magadan2           197.937
        17   01 Jun 2027 06:43:28.787   01 Jun 2027 06:43:46.511            17.724               Magadan1           553.875
        18   01 Jun 2027 06:49:59.933   01 Jun 2027 06:54:05.934           246.001                 Moscow          7687.531
        19   01 Jun 2027 07:12:10.208   01 Jun 2027 07:12:35.217            25.009               CapeTown           781.531
        20   01 Jun 2027 07:15:42.578   01 Jun 2027 07:17:06.035            83.457               CapeTown          2608.031
        21   01 Jun 2027 08:15:20.156   01 Jun 2027 08:17:28.546           128.390                Norilsk          4012.188
        22   01 Jun 2027 08:17:35.685   01 Jun 2027 08:20:19.849           164.164                Anadyr1          5130.125
        23   01 Jun 2027 08:27:30.199   01 Jun 2027 08:27:42.410            12.211                 Moscow           381.594
        24   01 Jun 2027 09:47:27.708   01 Jun 2027 09:47:55.996            28.288               Magadan2           884.000
        25   01 Jun 2027 09:48:22.607   01 Jun 2027 09:50:29.826           127.219                Anadyr2          3975.594
        26   01 Jun 2027 09:50:29.826   01 Jun 2027 09:55:34.944           305.118                Anadyr1          9534.937
        27   01 Jun 2027 11:23:56.460   01 Jun 2027 11:30:37.819           401.359               Magadan1         12542.469
        28   01 Jun 2027 16:22:25.848   01 Jun 2027 16:22:37.086            11.238                Norilsk           351.187
        29   01 Jun 2027 19:32:04.433   01 Jun 2027 19:32:43.849            39.416              Murmansk2          1231.750
        30   01 Jun 2027 19:34:15.309   01 Jun 2027 19:34:49.698            34.389              Murmansk2          1074.656
        31   01 Jun 2027 19:35:23.727   01 Jun 2027 19:37:49.280           145.553              Murmansk1          4548.531
        32   01 Jun 2027 20:39:46.293   01 Jun 2027 20:40:42.313            56.020               CapeTown          1750.625
        33   01 Jun 2027 20:41:29.592   01 Jun 2027 20:42:14.627            45.035               CapeTown          1407.344
        34   01 Jun 2027 22:53:40.922   01 Jun 2027 22:53:54.895            13.973                Anadyr2           436.656
        35   01 Jun 2027 22:54:04.532   01 Jun 2027 22:55:24.421            79.889               Magadan1          2496.531
        36   01 Jun 2027 22:55:52.647   01 Jun 2027 22:56:10.323            17.676               Magadan1           552.375
        37   01 Jun 2027 22:56:48.295   01 Jun 2027 22:57:14.958            26.663               Magadan1           833.219
        38   01 Jun 2027 22:59:29.742   01 Jun 2027 23:00:25.567            55.825                Irkutsk          1744.531
        39   01 Jun 2027 23:15:57.755   01 Jun 2027 23:16:52.545            54.790                Sumatra          1712.187
        40   01 Jun 2027 23:18:37.220   01 Jun 2027 23:19:27.775            50.555                Sumatra          1579.844
        41   01 Jun 2027 23:45:51.181   01 Jun 2027 23:46:46.017            54.836            RioGallegos          1713.625
        42   01 Jun 2027 23:49:19.803   01 Jun 2027 23:49:26.977             7.174            RioGallegos           224.188
        43   01 Jun 2027 23:50:33.968   01 Jun 2027 23:50:56.856            22.888            RioGallegos           715.250
        44   01 Jun 2027 23:56:24.782   01 Jun 2027 23:56:53.406            28.624            RioGallegos           894.500
        45   02 Jun 2027 00:27:11.447   02 Jun 2027 00:28:37.340            85.893                Anadyr1          2684.156
        46   02 Jun 2027 00:29:34.867   02 Jun 2027 00:31:21.605           106.738                Norilsk          3335.562
        47   02 Jun 2027 00:31:43.936   02 Jun 2027 00:32:01.344            17.408               Magadan1           544.000
        48   02 Jun 2027 00:32:08.890   02 Jun 2027 00:32:15.994             7.104               Magadan2           222.000
        49   02 Jun 2027 00:32:29.539   02 Jun 2027 00:34:09.222            99.683               Magadan2          3115.094
        50   02 Jun 2027 00:34:35.627   02 Jun 2027 00:36:23.198           107.571                Novosib          3361.594
        51   02 Jun 2027 00:47:18.033   02 Jun 2027 00:49:52.295           154.262                Sumatra          4820.687
        52   02 Jun 2027 01:24:27.163   02 Jun 2027 01:24:37.862            10.699            RioGallegos           334.344
        53   02 Jun 2027 01:26:54.035   02 Jun 2027 01:27:13.946            19.911            RioGallegos           622.219
        54   02 Jun 2027 01:30:30.845   02 Jun 2027 01:30:57.910            27.065            RioGallegos           845.781
        55   02 Jun 2027 01:33:38.589   02 Jun 2027 01:34:06.139            27.550            RioGallegos           860.938
        56   02 Jun 2027 02:02:24.308   02 Jun 2027 02:03:19.821            55.513                Anadyr2          1734.781
        57   02 Jun 2027 02:03:37.325   02 Jun 2027 02:03:56.531            19.206                Anadyr2           600.187
        58   02 Jun 2027 02:05:35.162   02 Jun 2027 02:07:20.861           105.699                Norilsk          3303.094
        59   02 Jun 2027 02:09:06.512   02 Jun 2027 02:09:25.117            18.605              Murmansk1           581.406
        60   02 Jun 2027 02:09:26.490   02 Jun 2027 02:12:00.346           153.856                Novosib          4808.000
        61   02 Jun 2027 02:16:52.668   02 Jun 2027 02:17:45.857            53.189                  Delhi          1662.156
        62   02 Jun 2027 02:24:58.373   02 Jun 2027 02:26:23.030            84.657                  Delhi          2645.531
        63   02 Jun 2027 02:59:30.803   02 Jun 2027 03:00:25.978            55.175            RioGallegos          1724.219
        64   02 Jun 2027 03:00:58.992   02 Jun 2027 03:02:44.799           105.807            RioGallegos          3306.469
        65   02 Jun 2027 03:04:24.140   02 Jun 2027 03:04:56.827            32.687            RioGallegos          1021.469
        66   02 Jun 2027 03:06:04.303   02 Jun 2027 03:06:51.640            47.337            RioGallegos          1479.281
        67   02 Jun 2027 03:47:35.331   02 Jun 2027 03:48:34.985            59.654                Irkutsk          1864.187
        68   02 Jun 2027 03:50:30.384   02 Jun 2027 03:51:51.244            80.860                Norilsk          2526.875
        69   02 Jun 2027 03:51:52.707   02 Jun 2027 03:53:33.314           100.607                Irkutsk          3143.969
        70   02 Jun 2027 03:54:04.252   02 Jun 2027 03:56:40.391           156.139                Novosib          4879.344
        71   02 Jun 2027 05:29:18.626   02 Jun 2027 05:29:53.227            34.601                Novosib          1081.281
        72   02 Jun 2027 05:29:54.193   02 Jun 2027 05:30:02.436             8.243                 Moscow           257.594
        73   02 Jun 2027 05:30:13.651   02 Jun 2027 05:32:27.902           134.251                 Moscow          4195.344
        74   02 Jun 2027 05:35:18.695   02 Jun 2027 05:35:46.671            27.976                 Moscow           874.250
        75   02 Jun 2027 05:50:00.029   02 Jun 2027 05:51:05.858            65.829               CapeTown          2057.156
        76   02 Jun 2027 05:51:45.093   02 Jun 2027 05:52:57.628            72.535               CapeTown          2266.719
        77   02 Jun 2027 06:50:15.659   02 Jun 2027 06:50:57.978            42.319               Magadan1          1322.469
        78   02 Jun 2027 06:51:21.628   02 Jun 2027 06:56:28.788           307.160                Anadyr2          9598.750
        79   02 Jun 2027 08:27:18.085   02 Jun 2027 08:29:44.785           146.700                Anadyr1          4584.375
        80   02 Jun 2027 08:29:44.785   02 Jun 2027 08:32:19.807           155.022                Anadyr2          4844.438
        81   02 Jun 2027 09:59:16.463   02 Jun 2027 10:00:15.071            58.608               Magadan2          1831.500
        82   02 Jun 2027 10:00:30.262   02 Jun 2027 10:00:40.939            10.677               Magadan1           333.656
        83   02 Jun 2027 10:00:52.319   02 Jun 2027 10:01:09.832            17.513                Anadyr1           547.281
        84   02 Jun 2027 10:01:13.451   02 Jun 2027 10:01:57.661            44.210               Magadan1          1381.562
        85   02 Jun 2027 10:01:57.661   02 Jun 2027 10:04:07.760           130.099               Magadan2          4065.594
        86   02 Jun 2027 10:04:09.695   02 Jun 2027 10:05:09.781            60.086                Anadyr2          1877.687
        87   02 Jun 2027 10:05:09.781   02 Jun 2027 10:05:23.476            13.695                Anadyr1           427.969
        88   02 Jun 2027 10:05:38.896   02 Jun 2027 10:05:43.862             4.966                Irkutsk           155.188
        89   02 Jun 2027 10:06:25.633   02 Jun 2027 10:07:21.712            56.079                Anadyr2          1752.469
        90   02 Jun 2027 10:07:33.236   02 Jun 2027 10:07:57.285            24.049                Norilsk           751.531
        91   02 Jun 2027 10:43:26.056   02 Jun 2027 10:43:44.722            18.666            RioGallegos           583.313
        92   02 Jun 2027 10:44:33.594   02 Jun 2027 10:45:05.518            31.924            RioGallegos           997.625
        93   02 Jun 2027 11:21:02.594   02 Jun 2027 11:22:11.880            69.286                Sumatra          2165.188
        94   02 Jun 2027 11:36:25.965   02 Jun 2027 11:40:35.704           249.739               Magadan1          7804.344
        95   02 Jun 2027 11:40:59.492   02 Jun 2027 11:41:13.561            14.069                Novosib           439.656
        96   02 Jun 2027 11:41:33.397   02 Jun 2027 11:42:39.461            66.064                Norilsk          2064.500
        97   02 Jun 2027 11:42:46.020   02 Jun 2027 11:42:55.755             9.735                Novosib           304.219
        98   02 Jun 2027 11:42:58.021   02 Jun 2027 11:43:08.900            10.879                Norilsk           339.969
        99   02 Jun 2027 11:43:14.537   02 Jun 2027 11:43:47.567            33.030                Irkutsk          1032.188
       100   02 Jun 2027 12:18:43.681   02 Jun 2027 12:19:12.777            29.096            RioGallegos           909.250
       101   02 Jun 2027 12:22:14.187   02 Jun 2027 12:23:13.007            58.820            RioGallegos          1838.125
       102   02 Jun 2027 12:53:19.302   02 Jun 2027 12:55:22.802           123.500                Sumatra          3859.375
       103   02 Jun 2027 13:07:43.651   02 Jun 2027 13:08:41.907            58.256                Irkutsk          1820.500
       104   02 Jun 2027 13:09:37.144   02 Jun 2027 13:10:27.925            50.781                Novosib          1586.906
       105   02 Jun 2027 13:11:57.151   02 Jun 2027 13:12:59.460            62.309                Irkutsk          1947.156
       106   02 Jun 2027 13:59:26.007   02 Jun 2027 14:02:12.811           166.804            RioGallegos          5212.625
       107   02 Jun 2027 14:45:38.015   02 Jun 2027 14:47:17.776            99.761                Novosib          3117.531
       108   02 Jun 2027 14:49:24.119   02 Jun 2027 14:50:40.669            76.550                Novosib          2392.188
       109   02 Jun 2027 14:51:08.444   02 Jun 2027 14:52:44.058            95.614                Norilsk          2987.937
       110   02 Jun 2027 14:55:39.997   02 Jun 2027 14:56:01.826            21.829                Novosib           682.156
       111   02 Jun 2027 14:59:28.589   02 Jun 2027 14:59:32.411             3.822                Norilsk           119.438
       112   02 Jun 2027 16:21:54.654   02 Jun 2027 16:24:37.666           163.012                 Moscow          5094.125
       113   02 Jun 2027 16:25:22.750   02 Jun 2027 16:26:35.856            73.106              Murmansk2          2284.562
       114   02 Jun 2027 16:29:43.185   02 Jun 2027 16:35:35.860           352.675                Norilsk         11021.094
       115   02 Jun 2027 17:59:30.859   02 Jun 2027 18:00:17.993            47.134                 Moscow          1472.937
       116   02 Jun 2027 18:02:34.071   02 Jun 2027 18:03:12.931            38.860              Murmansk1          1214.375
       117   02 Jun 2027 18:04:03.725   02 Jun 2027 18:04:33.863            30.138                 Moscow           941.812
       118   02 Jun 2027 18:06:18.278   02 Jun 2027 18:06:57.304            39.026              Murmansk2          1219.562
       119   02 Jun 2027 18:10:56.110   02 Jun 2027 18:12:12.748            76.638              Murmansk1          2394.938
       120   02 Jun 2027 18:17:00.603   02 Jun 2027 18:17:27.362            26.759                Anadyr1           836.219
       121   02 Jun 2027 18:25:08.287   02 Jun 2027 18:25:14.831             6.544                Anadyr2           204.500
       122   02 Jun 2027 19:11:28.183   02 Jun 2027 19:12:37.249            69.066               CapeTown          2158.312
       123   02 Jun 2027 19:13:15.379   02 Jun 2027 19:14:19.954            64.575               CapeTown          2017.969
       124   02 Jun 2027 19:42:04.238   02 Jun 2027 19:46:48.010           283.772              Murmansk2          8867.875
       125   02 Jun 2027 19:47:02.298   02 Jun 2027 19:49:29.058           146.760              Murmansk1          4586.250
       126   02 Jun 2027 21:27:53.938   02 Jun 2027 21:30:58.242           184.304                Anadyr2          5759.500
       127   02 Jun 2027 21:30:59.040   02 Jun 2027 21:31:52.957            53.917               Magadan2          1684.906
       128   02 Jun 2027 21:31:56.361   02 Jun 2027 21:33:26.779            90.418               Magadan1          2825.562
       129   02 Jun 2027 21:33:43.509   02 Jun 2027 21:34:36.767            53.258               Magadan1          1664.312
       130   02 Jun 2027 21:38:20.185   02 Jun 2027 21:38:37.925            17.740               Magadan2           554.375
       131   02 Jun 2027 21:38:43.044   02 Jun 2027 21:38:44.275             1.231               Magadan2            38.469
       132   02 Jun 2027 21:41:55.581   02 Jun 2027 21:42:15.733            20.152               Magadan2           629.750
       133   02 Jun 2027 22:24:41.326   02 Jun 2027 22:26:48.248           126.922            RioGallegos          3966.313
       134   02 Jun 2027 23:03:44.898   02 Jun 2027 23:05:03.843            78.945                Anadyr2          2467.031
       135   02 Jun 2027 23:05:09.936   02 Jun 2027 23:06:55.846           105.910                Anadyr1          3309.687
       136   02 Jun 2027 23:07:01.930   02 Jun 2027 23:07:39.031            37.101                Norilsk          1159.406
       137   02 Jun 2027 23:07:41.107   02 Jun 2027 23:07:58.274            17.167               Magadan1           536.469
       138   02 Jun 2027 23:08:01.130   02 Jun 2027 23:08:20.837            19.707                Norilsk           615.844
       139   02 Jun 2027 23:08:50.615   02 Jun 2027 23:09:11.645            21.030               Magadan1           657.187
       140   02 Jun 2027 23:09:31.830   02 Jun 2027 23:10:40.970            69.140               Magadan2          2160.625
       141   02 Jun 2027 23:12:07.698   02 Jun 2027 23:12:30.211            22.513                Irkutsk           703.531
       142   02 Jun 2027 23:15:04.396   02 Jun 2027 23:16:12.028            67.632                Irkutsk          2113.500
       143   02 Jun 2027 23:26:22.864   02 Jun 2027 23:28:12.672           109.808                Sumatra          3431.500
       144   02 Jun 2027 23:33:24.351   02 Jun 2027 23:33:53.104            28.753                Sumatra           898.531
       145   03 Jun 2027 00:08:56.710   03 Jun 2027 00:09:41.628            44.918            RioGallegos          1403.688
       146   03 Jun 2027 00:39:05.728   03 Jun 2027 00:40:31.940            86.212                Anadyr1          2694.125
       147   03 Jun 2027 00:41:02.816   03 Jun 2027 00:41:19.620            16.804                Anadyr1           525.125
       148   03 Jun 2027 00:41:36.701   03 Jun 2027 00:43:11.398            94.697                Norilsk          2959.281
       149   03 Jun 2027 00:43:17.454   03 Jun 2027 00:44:07.503            50.049               Magadan1          1564.031
       150   03 Jun 2027 00:45:33.867   03 Jun 2027 00:46:44.605            70.738                Irkutsk          2210.563
       151   03 Jun 2027 00:46:58.609   03 Jun 2027 00:48:37.083            98.474                Irkutsk          3077.313
       152   03 Jun 2027 00:55:01.424   03 Jun 2027 00:55:28.702            27.278                Novosib           852.438
       153   03 Jun 2027 00:57:25.093   03 Jun 2027 00:58:17.540            52.447                  Delhi          1638.969
       154   03 Jun 2027 01:05:41.454   03 Jun 2027 01:08:11.382           149.928                Sumatra          4685.250
       155   03 Jun 2027 02:13:19.053   03 Jun 2027 02:13:30.462            11.409                Anadyr2           356.531
       156   03 Jun 2027 02:14:36.267   03 Jun 2027 02:15:20.553            44.286                Anadyr2          1383.937
       157   03 Jun 2027 02:17:37.516   03 Jun 2027 02:18:44.699            67.183                Norilsk          2099.469
       158   03 Jun 2027 02:18:51.422   03 Jun 2027 02:18:59.434             8.012                Norilsk           250.375
       159   03 Jun 2027 02:20:40.871   03 Jun 2027 02:21:53.210            72.339              Murmansk2          2260.594
       160   03 Jun 2027 02:22:06.631   03 Jun 2027 02:23:15.743            69.112                Irkutsk          2159.750
       161   03 Jun 2027 02:24:37.812   03 Jun 2027 02:25:29.214            51.402                Novosib          1606.313
       162   03 Jun 2027 02:31:54.678   03 Jun 2027 02:32:16.189            21.511                  Delhi           672.219
       163   03 Jun 2027 02:36:39.653   03 Jun 2027 02:37:20.177            40.524                  Delhi          1266.375
       164   03 Jun 2027 03:10:32.753   03 Jun 2027 03:11:30.067            57.314            RioGallegos          1791.062
       165   03 Jun 2027 03:11:38.680   03 Jun 2027 03:12:10.567            31.887            RioGallegos           996.469
       166   03 Jun 2027 03:13:11.264   03 Jun 2027 03:15:14.455           123.191            RioGallegos          3849.719
       167   03 Jun 2027 04:00:22.361   03 Jun 2027 04:00:33.403            11.042                Irkutsk           345.063
       168   03 Jun 2027 04:02:51.803   03 Jun 2027 04:03:45.551            53.748                Irkutsk          1679.625
       169   03 Jun 2027 04:03:51.378   03 Jun 2027 04:04:06.392            15.014                Irkutsk           469.187
       170   03 Jun 2027 04:04:29.918   03 Jun 2027 04:04:50.973            21.055                Irkutsk           657.969
       171   03 Jun 2027 04:05:02.180   03 Jun 2027 04:06:21.374            79.194              Murmansk1          2474.813
       172   03 Jun 2027 04:06:22.809   03 Jun 2027 04:08:47.277           144.468                Novosib          4514.625
       173   03 Jun 2027 04:09:25.003   03 Jun 2027 04:11:19.542           114.539                  Delhi          3579.344
       174   03 Jun 2027 05:38:56.270   03 Jun 2027 05:39:42.261            45.991                Novosib          1437.219
       175   03 Jun 2027 05:40:44.009   03 Jun 2027 05:41:12.151            28.142                 Moscow           879.437
       176   03 Jun 2027 05:42:06.522   03 Jun 2027 05:42:24.876            18.354                 Moscow           573.562
       177   03 Jun 2027 05:42:29.074   03 Jun 2027 05:42:34.411             5.337                 Moscow           166.781
       178   03 Jun 2027 05:43:04.129   03 Jun 2027 05:43:16.104            11.975                 Moscow           374.219
       179   03 Jun 2027 05:43:39.435   03 Jun 2027 05:44:23.803            44.368              Murmansk2          1386.500
       180   03 Jun 2027 05:58:50.713   03 Jun 2027 06:01:35.865           165.152               CapeTown          5161.000
       181   03 Jun 2027 07:01:53.880   03 Jun 2027 07:02:36.922            43.042                Anadyr2          1345.062
       182   03 Jun 2027 07:02:36.922   03 Jun 2027 07:03:41.895            64.973                Anadyr1          2030.406
       183   03 Jun 2027 07:04:14.946   03 Jun 2027 07:04:38.899            23.953                Anadyr1           748.531
       184   03 Jun 2027 07:05:12.531   03 Jun 2027 07:06:27.683            75.152                Anadyr1          2348.500
       185   03 Jun 2027 07:37:55.500   03 Jun 2027 07:39:31.810            96.310               CapeTown          3009.687
       186   03 Jun 2027 08:37:42.778   03 Jun 2027 08:38:09.228            26.450                Anadyr2           826.563
       187   03 Jun 2027 08:38:20.253   03 Jun 2027 08:39:03.865            43.612               Magadan1          1362.875
       188   03 Jun 2027 08:39:46.102   03 Jun 2027 08:40:15.154            29.052               Magadan2           907.875
       189   03 Jun 2027 08:40:17.280   03 Jun 2027 08:40:48.148            30.868               Magadan1           964.625
       190   03 Jun 2027 08:41:59.095   03 Jun 2027 08:42:46.284            47.189                Anadyr2          1474.656
       191   03 Jun 2027 09:23:23.504   03 Jun 2027 09:24:15.870            52.366            RioGallegos          1636.437
       192   03 Jun 2027 10:12:59.269   03 Jun 2027 10:13:25.611            26.342               Magadan2           823.187
       193   03 Jun 2027 10:13:27.914   03 Jun 2027 10:13:34.765             6.851               Magadan1           214.094
       194   03 Jun 2027 10:13:34.765   03 Jun 2027 10:13:53.091            18.326               Magadan2           572.688
       195   03 Jun 2027 10:15:09.202   03 Jun 2027 10:15:12.216             3.014                Irkutsk            94.187
       196   03 Jun 2027 10:16:07.393   03 Jun 2027 10:17:16.481            69.088               Magadan2          2159.000
       197   03 Jun 2027 10:18:04.775   03 Jun 2027 10:18:09.326             4.551               Magadan1           142.219
       198   03 Jun 2027 10:18:41.101   03 Jun 2027 10:18:45.337             4.236                Norilsk           132.375
       199   03 Jun 2027 10:18:47.533   03 Jun 2027 10:19:50.010            62.477               Magadan2          1952.406
       200   03 Jun 2027 10:54:51.309   03 Jun 2027 10:55:28.577            37.268            RioGallegos          1164.625
       201   03 Jun 2027 11:31:51.486   03 Jun 2027 11:33:49.683           118.197                Sumatra          3693.656
       202   03 Jun 2027 11:49:51.291   03 Jun 2027 11:53:24.538           213.247               Magadan2          6663.969
       203   03 Jun 2027 11:53:43.209   03 Jun 2027 11:54:41.418            58.209                Norilsk          1819.031
       204   03 Jun 2027 11:54:59.216   03 Jun 2027 11:55:11.131            11.915                Irkutsk           372.344
       205   03 Jun 2027 11:55:14.507   03 Jun 2027 11:55:18.727             4.220                Novosib           131.875
       206   03 Jun 2027 11:55:26.670   03 Jun 2027 11:56:41.958            75.288                Norilsk          2352.750
       207   03 Jun 2027 12:32:14.751   03 Jun 2027 12:33:20.464            65.713            RioGallegos          2053.531
       208   03 Jun 2027 12:36:22.350   03 Jun 2027 12:36:25.030             2.680            RioGallegos            83.750
       209   03 Jun 2027 12:39:24.592   03 Jun 2027 12:40:17.516            52.924            RioGallegos          1653.875
       210   03 Jun 2027 12:40:49.272   03 Jun 2027 12:40:50.688             1.416            RioGallegos            44.250
       211   03 Jun 2027 12:41:51.615   03 Jun 2027 12:42:58.124            66.509            RioGallegos          2078.406
       212   03 Jun 2027 13:09:53.587   03 Jun 2027 13:11:05.001            71.414                Sumatra          2231.687
       213   03 Jun 2027 13:20:08.353   03 Jun 2027 13:20:42.256            33.903                Irkutsk          1059.469
       214   03 Jun 2027 13:23:57.315   03 Jun 2027 13:25:07.574            70.259                Irkutsk          2195.594
       215   03 Jun 2027 13:27:43.380   03 Jun 2027 13:27:59.984            16.604                Irkutsk           518.875
       216   03 Jun 2027 13:30:05.877   03 Jun 2027 13:30:32.132            26.255                Irkutsk           820.469
       217   03 Jun 2027 13:31:10.925   03 Jun 2027 13:31:15.741             4.816                Irkutsk           150.500
       218   03 Jun 2027 14:14:07.923   03 Jun 2027 14:14:30.980            23.057            RioGallegos           720.531
       219   03 Jun 2027 14:50:00.022   03 Jun 2027 14:50:31.545            31.523                  Delhi           985.094
       220   03 Jun 2027 14:52:26.245   03 Jun 2027 14:54:32.506           126.261                  Delhi          3945.656
       221   03 Jun 2027 14:57:40.854   03 Jun 2027 14:58:25.161            44.307                  Delhi          1384.594
       222   03 Jun 2027 14:58:30.373   03 Jun 2027 14:59:01.624            31.251                Novosib           976.594
       223   03 Jun 2027 15:01:23.566   03 Jun 2027 15:02:30.097            66.531                Novosib          2079.094
       224   03 Jun 2027 15:05:08.174   03 Jun 2027 15:08:16.391           188.217                Novosib          5881.781
       225   03 Jun 2027 16:35:05.240   03 Jun 2027 16:35:43.139            37.899                 Moscow          1184.344
       226   03 Jun 2027 16:37:27.742   03 Jun 2027 16:38:45.011            77.269              Murmansk1          2414.656
       227   03 Jun 2027 16:42:31.555   03 Jun 2027 16:46:59.954           268.399                Norilsk          8387.469
       228   03 Jun 2027 17:54:17.292   03 Jun 2027 17:54:19.913             2.621               CapeTown            81.906
       229   03 Jun 2027 17:54:28.874   03 Jun 2027 17:55:00.830            31.956               CapeTown           998.625
       230   03 Jun 2027 17:58:18.071   03 Jun 2027 17:58:53.303            35.232               CapeTown          1101.000
       231   03 Jun 2027 18:12:03.912   03 Jun 2027 18:13:35.454            91.542                 Moscow          2860.687
       232   03 Jun 2027 18:14:54.095   03 Jun 2027 18:15:39.442            45.347              Murmansk1          1417.094
       233   03 Jun 2027 18:16:20.381   03 Jun 2027 18:16:43.599            23.218              Murmansk1           725.562
       234   03 Jun 2027 18:18:16.611   03 Jun 2027 18:18:31.586            14.975              Murmansk2           467.969
       235   03 Jun 2027 18:22:00.943   03 Jun 2027 18:22:01.785             0.842                 Moscow            26.313
       236   03 Jun 2027 18:25:24.099   03 Jun 2027 18:25:45.342            21.243              Murmansk2           663.844
       237   03 Jun 2027 18:28:46.217   03 Jun 2027 18:28:58.443            12.226                Anadyr2           382.063
       238   03 Jun 2027 18:29:14.570   03 Jun 2027 18:29:47.445            32.875                Anadyr2          1027.344
       239   03 Jun 2027 18:36:30.826   03 Jun 2027 18:36:46.286            15.460                Anadyr1           483.125
       240   03 Jun 2027 18:37:46.312   03 Jun 2027 18:38:01.221            14.909                Anadyr1           465.906
       241   03 Jun 2027 18:38:29.919   03 Jun 2027 18:38:44.480            14.561                Anadyr1           455.031
       242   03 Jun 2027 19:23:37.831   03 Jun 2027 19:25:12.906            95.075               CapeTown          2971.094
       243   03 Jun 2027 19:54:46.973   03 Jun 2027 19:57:10.908           143.935              Murmansk2          4497.969
       244   03 Jun 2027 19:57:29.975   03 Jun 2027 20:01:30.123           240.148              Murmansk1          7504.625
       245   03 Jun 2027 20:16:05.943   03 Jun 2027 20:16:18.123            12.180               Magadan2           380.625
       246   03 Jun 2027 21:39:55.675   03 Jun 2027 21:44:30.705           275.030                Anadyr2          8594.688
       247   03 Jun 2027 21:44:35.062   03 Jun 2027 21:45:04.853            29.791                Anadyr2           930.969
       248   03 Jun 2027 21:45:14.082   03 Jun 2027 21:47:24.758           130.676               Magadan2          4083.625
       249   03 Jun 2027 21:47:32.667   03 Jun 2027 21:48:00.532            27.865               Magadan2           870.781
       250   03 Jun 2027 21:52:03.252   03 Jun 2027 21:52:04.731             1.479               Magadan1            46.219
       251   03 Jun 2027 22:35:45.886   03 Jun 2027 22:38:28.735           162.849            RioGallegos          5089.031
       252   03 Jun 2027 22:40:22.058   03 Jun 2027 22:40:49.247            27.189            RioGallegos           849.656
       253   03 Jun 2027 23:15:44.512   03 Jun 2027 23:17:31.201           106.689                Anadyr1          3334.031
       254   03 Jun 2027 23:17:50.113   03 Jun 2027 23:19:22.827            92.714                Norilsk          2897.312
       255   03 Jun 2027 23:19:49.770   03 Jun 2027 23:20:13.797            24.027                Norilsk           750.844
       256   03 Jun 2027 23:20:23.154   03 Jun 2027 23:21:02.817            39.663               Magadan1          1239.469
       257   03 Jun 2027 23:22:18.593   03 Jun 2027 23:23:00.214            41.621               Magadan1          1300.656
       258   03 Jun 2027 23:23:02.972   03 Jun 2027 23:24:31.559            88.587                Irkutsk          2768.344
       259   03 Jun 2027 23:28:05.813   03 Jun 2027 23:29:22.477            76.664                Irkutsk          2395.750
       260   03 Jun 2027 23:39:22.154   03 Jun 2027 23:39:52.452            30.298                Sumatra           946.813
       261   03 Jun 2027 23:46:26.306   03 Jun 2027 23:46:27.314             1.008                Sumatra            31.500
       262   04 Jun 2027 00:12:33.356   04 Jun 2027 00:12:46.268            12.912            RioGallegos           403.500
       263   04 Jun 2027 00:13:36.328   04 Jun 2027 00:14:07.104            30.776            RioGallegos           961.750
       264   04 Jun 2027 00:16:31.163   04 Jun 2027 00:16:41.034             9.871            RioGallegos           308.469
       265   04 Jun 2027 00:17:11.551   04 Jun 2027 00:17:40.605            29.054            RioGallegos           907.938
       266   04 Jun 2027 00:18:37.447   04 Jun 2027 00:19:13.639            36.192            RioGallegos          1131.000
       267   04 Jun 2027 00:50:58.874   04 Jun 2027 00:51:18.433            19.559                Anadyr1           611.219
       268   04 Jun 2027 00:51:26.938   04 Jun 2027 00:51:57.513            30.575                Anadyr2           955.469
       269   04 Jun 2027 00:52:28.231   04 Jun 2027 00:52:50.877            22.646                Anadyr2           707.687
       270   04 Jun 2027 00:53:38.739   04 Jun 2027 00:55:26.084           107.345                Norilsk          3354.531
       271   04 Jun 2027 00:55:35.206   04 Jun 2027 00:56:04.457            29.251               Magadan1           914.094
       272   04 Jun 2027 00:57:33.501   04 Jun 2027 00:59:39.485           125.984                Irkutsk          3937.000
       273   04 Jun 2027 01:03:04.674   04 Jun 2027 01:03:27.719            23.045                Novosib           720.156
       274   04 Jun 2027 01:03:57.040   04 Jun 2027 01:04:16.904            19.864                Novosib           620.750
       275   04 Jun 2027 01:07:41.738   04 Jun 2027 01:08:47.935            66.197                  Delhi          2068.656
       276   04 Jun 2027 01:14:18.438   04 Jun 2027 01:16:06.571           108.133                Sumatra          3379.156
       277   04 Jun 2027 01:53:45.419   04 Jun 2027 01:53:54.942             9.523            RioGallegos           297.594
       278   04 Jun 2027 01:54:07.009   04 Jun 2027 01:54:22.732            15.723            RioGallegos           491.344
       279   04 Jun 2027 01:56:08.673   04 Jun 2027 01:56:29.186            20.513            RioGallegos           641.031
       280   04 Jun 2027 02:26:24.070   04 Jun 2027 02:26:54.390            30.320                Anadyr1           947.500
       281   04 Jun 2027 02:27:40.427   04 Jun 2027 02:27:44.544             4.117                Anadyr1           128.656
       282   04 Jun 2027 02:28:42.038   04 Jun 2027 02:29:07.849            25.811                Anadyr2           806.594
       283   04 Jun 2027 02:29:39.806   04 Jun 2027 02:30:56.992            77.186                Norilsk          2412.063
       284   04 Jun 2027 02:32:26.842   04 Jun 2027 02:33:46.716            79.874              Murmansk2          2496.062
       285   04 Jun 2027 02:34:06.531   04 Jun 2027 02:34:48.929            42.398                Novosib          1324.937
       286   04 Jun 2027 02:35:06.134   04 Jun 2027 02:35:18.763            12.629                Irkutsk           394.656
       287   04 Jun 2027 02:36:04.169   04 Jun 2027 02:36:15.639            11.470                Novosib           358.437
       288   04 Jun 2027 02:37:09.640   04 Jun 2027 02:37:50.563            40.923                Novosib          1278.844
       289   04 Jun 2027 02:41:57.110   04 Jun 2027 02:42:05.921             8.811                Irkutsk           275.344
       290   04 Jun 2027 02:43:54.091   04 Jun 2027 02:43:59.733             5.642                  Delhi           176.312
       291   04 Jun 2027 02:44:51.689   04 Jun 2027 02:45:34.783            43.094                  Delhi          1346.688
       292   04 Jun 2027 02:52:36.392   04 Jun 2027 02:52:55.625            19.233                  Delhi           601.031
       293   04 Jun 2027 03:22:51.986   04 Jun 2027 03:23:28.630            36.644            RioGallegos          1145.125
       294   04 Jun 2027 03:24:12.042   04 Jun 2027 03:24:47.809            35.767            RioGallegos          1117.719
       295   04 Jun 2027 03:26:06.372   04 Jun 2027 03:28:08.987           122.615            RioGallegos          3831.719
       296   04 Jun 2027 04:14:12.216   04 Jun 2027 04:15:23.139            70.923                Irkutsk          2216.344
       297   04 Jun 2027 04:15:52.460   04 Jun 2027 04:15:53.113             0.653                Irkutsk            20.406
       298   04 Jun 2027 04:16:27.637   04 Jun 2027 04:16:54.201            26.564              Murmansk1           830.125
       299   04 Jun 2027 04:17:01.408   04 Jun 2027 04:18:11.914            70.506                Norilsk          2203.313
       300   04 Jun 2027 04:18:24.114   04 Jun 2027 04:18:37.937            13.823              Murmansk1           431.969
       301   04 Jun 2027 04:18:57.101   04 Jun 2027 04:21:09.838           132.737                  Delhi          4148.031
       302   04 Jun 2027 04:23:31.031   04 Jun 2027 04:25:27.394           116.363                  Delhi          3636.344
       303   04 Jun 2027 05:50:22.657   04 Jun 2027 05:51:00.470            37.813                Novosib          1181.656
       304   04 Jun 2027 05:52:44.071   04 Jun 2027 05:53:29.953            45.882                 Moscow          1433.813
       305   04 Jun 2027 05:54:16.228   04 Jun 2027 05:54:25.772             9.544              Murmansk2           298.250
       306   04 Jun 2027 05:54:38.143   04 Jun 2027 05:55:16.045            37.902                 Moscow          1184.437
       307   04 Jun 2027 05:55:30.304   04 Jun 2027 05:56:28.000            57.696              Murmansk1          1803.000
       308   04 Jun 2027 06:10:52.611   04 Jun 2027 06:11:29.946            37.335               CapeTown          1166.719
       309   04 Jun 2027 06:17:39.503   04 Jun 2027 06:19:46.875           127.372               CapeTown          3980.375
       310   04 Jun 2027 07:13:47.105   04 Jun 2027 07:14:44.301            57.196                Anadyr2          1787.375
       311   04 Jun 2027 07:14:50.045   04 Jun 2027 07:15:05.082            15.037               Magadan2           469.906
       312   04 Jun 2027 07:15:08.298   04 Jun 2027 07:15:18.416            10.118                Anadyr2           316.187
       313   04 Jun 2027 07:15:18.416   04 Jun 2027 07:16:13.484            55.068                Anadyr1          1720.875
       314   04 Jun 2027 07:16:40.796   04 Jun 2027 07:17:02.387            21.591                Anadyr1           674.719
       315   04 Jun 2027 07:51:31.971   04 Jun 2027 07:54:59.089           207.118               CapeTown          6472.437
       316   04 Jun 2027 08:50:14.682   04 Jun 2027 08:50:24.622             9.940                Anadyr2           310.625
       317   04 Jun 2027 08:50:28.432   04 Jun 2027 08:50:53.114            24.682                Anadyr2           771.313
       318   04 Jun 2027 08:51:16.699   04 Jun 2027 08:51:42.359            25.660               Magadan1           801.875
       319   04 Jun 2027 08:51:44.658   04 Jun 2027 08:52:17.615            32.957               Magadan2          1029.906
       320   04 Jun 2027 08:52:32.871   04 Jun 2027 08:53:52.334            79.463                Anadyr2          2483.219
       321   04 Jun 2027 10:22:15.096   04 Jun 2027 10:22:38.739            23.643               Magadan1           738.844
       322   04 Jun 2027 10:24:16.750   04 Jun 2027 10:25:32.943            76.193               Magadan2          2381.031
       323   04 Jun 2027 10:25:45.539   04 Jun 2027 10:25:46.829             1.290               Magadan2            40.312
       324   04 Jun 2027 10:26:42.771   04 Jun 2027 10:28:06.296            83.525               Magadan1          2610.156
       325   04 Jun 2027 10:28:06.296   04 Jun 2027 10:29:03.543            57.247               Magadan2          1788.969
       326   04 Jun 2027 10:30:31.295   04 Jun 2027 10:30:58.082            26.787               Magadan1           837.094
       327   04 Jun 2027 10:30:59.711   04 Jun 2027 10:31:46.346            46.635               Magadan1          1457.344
       328   04 Jun 2027 11:06:42.848   04 Jun 2027 11:07:47.077            64.229            RioGallegos          2007.156
       329   04 Jun 2027 11:12:46.012   04 Jun 2027 11:13:06.074            20.062            RioGallegos           626.937
       330   04 Jun 2027 11:43:04.092   04 Jun 2027 11:44:48.381           104.289                Sumatra          3259.031
       331   04 Jun 2027 12:08:55.948   04 Jun 2027 12:09:14.547            18.599                Novosib           581.219
       332   04 Jun 2027 12:48:12.795   04 Jun 2027 12:49:51.503            98.708            RioGallegos          3084.625
       333   04 Jun 2027 13:17:58.350   04 Jun 2027 13:19:20.694            82.344                Sumatra          2573.250
       334   04 Jun 2027 13:23:08.024   04 Jun 2027 13:24:41.751            93.727                Sumatra          2928.969
       335   04 Jun 2027 13:26:13.815   04 Jun 2027 13:27:28.788            74.973                Sumatra          2342.906
       336   04 Jun 2027 13:39:38.901   04 Jun 2027 13:42:40.721           181.820                Irkutsk          5681.875
       337   04 Jun 2027 15:07:00.451   04 Jun 2027 15:07:34.973            34.522                  Delhi          1078.813
       338   04 Jun 2027 15:10:19.524   04 Jun 2027 15:12:23.523           123.999                  Delhi          3874.969
       339   04 Jun 2027 15:15:11.697   04 Jun 2027 15:15:17.635             5.938                Norilsk           185.563
       340   04 Jun 2027 15:18:46.484   04 Jun 2027 15:19:33.780            47.296                Norilsk          1478.000
       341   04 Jun 2027 15:22:36.928   04 Jun 2027 15:24:00.760            83.832                Norilsk          2619.750
       342   04 Jun 2027 15:24:26.349   04 Jun 2027 15:24:36.083             9.734                Norilsk           304.188
       343   04 Jun 2027 16:46:02.980   04 Jun 2027 16:47:21.131            78.151                 Moscow          2442.219
       344   04 Jun 2027 16:49:15.945   04 Jun 2027 16:49:31.671            15.726                 Moscow           491.437
       345   04 Jun 2027 16:50:12.833   04 Jun 2027 16:50:46.995            34.162              Murmansk2          1067.563
       346   04 Jun 2027 16:52:23.401   04 Jun 2027 16:52:30.807             7.406              Murmansk2           231.437
       347   04 Jun 2027 16:53:45.416   04 Jun 2027 16:54:31.882            46.466              Murmansk2          1452.063
       348   04 Jun 2027 16:55:26.524   04 Jun 2027 16:56:30.099            63.575                Norilsk          1986.719
       349   04 Jun 2027 16:56:46.874   04 Jun 2027 16:59:45.002           178.128                Norilsk          5566.500
       350   04 Jun 2027 18:10:34.176   04 Jun 2027 18:11:03.143            28.967               CapeTown           905.219
       351   04 Jun 2027 18:24:43.224   04 Jun 2027 18:27:24.165           160.941                 Moscow          5029.406
       352   04 Jun 2027 18:30:13.767   04 Jun 2027 18:32:27.361           133.594              Murmansk2          4174.812
       353   04 Jun 2027 18:37:39.067   04 Jun 2027 18:37:47.139             8.072              Murmansk2           252.250
       354   04 Jun 2027 18:44:48.191   04 Jun 2027 18:45:11.284            23.093                Anadyr2           721.656
       355   04 Jun 2027 19:35:50.892   04 Jun 2027 19:37:13.338            82.446               CapeTown          2576.437
       356   04 Jun 2027 19:38:01.839   04 Jun 2027 19:40:20.906           139.067               CapeTown          4345.844
       357   04 Jun 2027 20:07:34.565   04 Jun 2027 20:13:44.857           370.292              Murmansk1         11571.625
       358   04 Jun 2027 21:51:57.304   04 Jun 2027 21:54:52.022           174.718                Anadyr2          5459.938
       359   04 Jun 2027 21:55:19.065   04 Jun 2027 21:55:57.600            38.535               Magadan1          1204.219
       360   04 Jun 2027 21:56:01.514   04 Jun 2027 21:56:49.273            47.759               Magadan2          1492.469
       361   04 Jun 2027 21:57:05.859   04 Jun 2027 21:57:12.234             6.375                Anadyr1           199.219
       362   04 Jun 2027 21:57:23.926   04 Jun 2027 21:57:47.093            23.167               Magadan1           723.969
       363   04 Jun 2027 21:57:47.093   04 Jun 2027 21:58:07.006            19.913               Magadan2           622.281
       364   04 Jun 2027 21:58:27.936   04 Jun 2027 21:58:31.900             3.964               Magadan1           123.875
       365   04 Jun 2027 21:59:01.535   04 Jun 2027 21:59:05.687             4.152               Magadan1           129.750
       366   04 Jun 2027 21:59:18.793   04 Jun 2027 22:00:02.230            43.437               Magadan1          1357.406
       367   04 Jun 2027 22:47:13.475   04 Jun 2027 22:49:30.313           136.838            RioGallegos          4276.187
       368   04 Jun 2027 22:51:51.108   04 Jun 2027 22:52:18.355            27.247            RioGallegos           851.469
       369   04 Jun 2027 22:53:06.111   04 Jun 2027 22:53:35.905            29.794            RioGallegos           931.063
       370   04 Jun 2027 23:27:43.606   04 Jun 2027 23:30:58.197           194.591                Anadyr1          6080.969
       371   04 Jun 2027 23:31:17.133   04 Jun 2027 23:31:47.567            30.434               Magadan1           951.062
       372   04 Jun 2027 23:33:06.075   04 Jun 2027 23:33:13.222             7.147                Norilsk           223.344
       373   04 Jun 2027 23:33:48.215   04 Jun 2027 23:33:50.572             2.357               Magadan1            73.656
       374   04 Jun 2027 23:34:24.663   04 Jun 2027 23:35:23.622            58.959                Irkutsk          1842.469
       375   04 Jun 2027 23:36:29.724   04 Jun 2027 23:36:46.013            16.289                Irkutsk           509.031
       376   04 Jun 2027 23:40:39.491   04 Jun 2027 23:41:19.320            39.829                Irkutsk          1244.656
       377   04 Jun 2027 23:44:04.938   04 Jun 2027 23:44:37.607            32.669                Irkutsk          1020.906
       378   04 Jun 2027 23:48:45.812   04 Jun 2027 23:50:04.787            78.975                Sumatra          2467.969
       379   04 Jun 2027 23:53:31.696   04 Jun 2027 23:54:07.676            35.980                Sumatra          1124.375
       380   04 Jun 2027 23:55:22.186   04 Jun 2027 23:55:48.799            26.613                Sumatra           831.656
       381   05 Jun 2027 00:27:32.462   05 Jun 2027 00:27:49.305            16.843            RioGallegos           526.344
       382   05 Jun 2027 00:31:03.326   05 Jun 2027 00:31:15.763            12.437            RioGallegos           388.656
       383   05 Jun 2027 00:33:05.916   05 Jun 2027 00:33:23.937            18.021            RioGallegos           563.156
       384   05 Jun 2027 01:02:50.798   05 Jun 2027 01:03:02.402            11.604                Anadyr2           362.625
       385   05 Jun 2027 01:03:28.026   05 Jun 2027 01:04:50.780            82.754                Anadyr2          2586.063
       386   05 Jun 2027 01:05:15.495   05 Jun 2027 01:05:25.912            10.417                Anadyr2           325.531
       387   05 Jun 2027 01:05:40.931   05 Jun 2027 01:07:28.261           107.330                Norilsk          3354.063
       388   05 Jun 2027 01:09:34.132   05 Jun 2027 01:11:28.985           114.853                Irkutsk          3589.156
       389   05 Jun 2027 01:12:22.205   05 Jun 2027 01:12:39.645            17.440                Novosib           545.000
       390   05 Jun 2027 01:14:30.061   05 Jun 2027 01:15:25.499            55.438                Novosib          1732.438
       391   05 Jun 2027 01:18:27.546   05 Jun 2027 01:18:39.806            12.260                Irkutsk           383.125
       392   05 Jun 2027 01:18:48.711   05 Jun 2027 01:19:17.002            28.291                  Delhi           884.094
       393   05 Jun 2027 01:22:47.999   05 Jun 2027 01:24:04.689            76.690                  Delhi          2396.562
       394   05 Jun 2027 01:28:43.831   05 Jun 2027 01:28:48.126             4.295                Sumatra           134.219
       395   05 Jun 2027 01:32:11.323   05 Jun 2027 01:33:41.042            89.719                Sumatra          2803.719
       396   05 Jun 2027 02:08:14.343   05 Jun 2027 02:08:41.866            27.523            RioGallegos           860.094
       397   05 Jun 2027 02:38:36.692   05 Jun 2027 02:38:50.136            13.444                Anadyr2           420.125
       398   05 Jun 2027 02:38:50.136   05 Jun 2027 02:39:20.303            30.167                Anadyr1           942.719
       399   05 Jun 2027 02:41:42.000   05 Jun 2027 02:42:53.995            71.995                Norilsk          2249.844
       400   05 Jun 2027 02:42:59.710   05 Jun 2027 02:43:24.265            24.555                Norilsk           767.344
       401   05 Jun 2027 02:44:18.088   05 Jun 2027 02:45:08.262            50.174              Murmansk2          1567.938
       402   05 Jun 2027 02:45:28.483   05 Jun 2027 02:46:04.627            36.144                Novosib          1129.500
       403   05 Jun 2027 02:46:32.360   05 Jun 2027 02:47:22.575            50.215                Irkutsk          1569.219
       404   05 Jun 2027 02:50:08.068   05 Jun 2027 02:50:22.269            14.201                Irkutsk           443.781
       405   05 Jun 2027 02:50:53.705   05 Jun 2027 02:51:43.324            49.619                Irkutsk          1550.594
       406   05 Jun 2027 02:57:17.896   05 Jun 2027 02:58:34.542            76.646                  Delhi          2395.188
       407   05 Jun 2027 03:35:17.760   05 Jun 2027 03:36:20.689            62.929            RioGallegos          1966.531
       408   05 Jun 2027 03:37:42.992   05 Jun 2027 03:38:43.400            60.408            RioGallegos          1887.750
       409   05 Jun 2027 03:38:46.285   05 Jun 2027 03:40:25.976            99.691            RioGallegos          3115.344
       410   05 Jun 2027 04:24:02.701   05 Jun 2027 04:24:39.876            37.175                Irkutsk          1161.719
       411   05 Jun 2027 04:27:00.916   05 Jun 2027 04:28:31.793            90.877                 Moscow          2839.906
       412   05 Jun 2027 04:28:34.389   05 Jun 2027 04:30:05.858            91.469                Norilsk          2858.406
       413   05 Jun 2027 04:30:09.851   05 Jun 2027 04:31:09.457            59.606              Murmansk1          1862.687
       414   05 Jun 2027 04:31:20.277   05 Jun 2027 04:32:22.607            62.330                Novosib          1947.812
       415   05 Jun 2027 04:32:48.483   05 Jun 2027 04:35:42.915           174.432                  Delhi          5451.000
       416   05 Jun 2027 06:01:45.721   05 Jun 2027 06:02:18.073            32.352                Novosib          1011.000
       417   05 Jun 2027 06:02:32.406   05 Jun 2027 06:03:44.239            71.833                Novosib          2244.781
       418   05 Jun 2027 07:25:57.558   05 Jun 2027 07:26:24.669            27.111               Magadan1           847.219
       419   05 Jun 2027 07:26:24.669   05 Jun 2027 07:26:31.419             6.750               Magadan2           210.937
       420   05 Jun 2027 07:26:45.429   05 Jun 2027 07:27:37.423            51.994                Anadyr1          1624.812
       421   05 Jun 2027 07:27:37.423   05 Jun 2027 07:28:11.166            33.743                Anadyr2          1054.469
       422   05 Jun 2027 08:57:46.938   05 Jun 2027 08:58:03.804            16.866                Anadyr2           527.062
       423   05 Jun 2027 09:00:41.436   05 Jun 2027 09:01:08.434            26.998                Anadyr2           843.688
       424   05 Jun 2027 09:02:19.212   05 Jun 2027 09:04:32.598           133.386                Anadyr1          4168.313
       425   05 Jun 2027 09:04:55.077   05 Jun 2027 09:06:02.857            67.780               Magadan2          2118.125
       426   05 Jun 2027 09:50:09.047   05 Jun 2027 09:50:36.099            27.052            RioGallegos           845.375
       427   05 Jun 2027 10:37:38.347   05 Jun 2027 10:38:06.552            28.205               Magadan1           881.406
       428   05 Jun 2027 10:38:12.089   05 Jun 2027 10:40:04.323           112.234               Magadan1          3507.313
       429   05 Jun 2027 10:40:29.335   05 Jun 2027 10:41:29.143            59.808               Magadan2          1869.000
       430   05 Jun 2027 10:42:18.318   05 Jun 2027 10:42:44.938            26.620                Norilsk           831.875
       431   05 Jun 2027 10:43:02.113   05 Jun 2027 10:43:14.913            12.800               Magadan1           400.000
       432   05 Jun 2027 10:43:28.467   05 Jun 2027 10:43:40.544            12.077                Irkutsk           377.406
       433   05 Jun 2027 10:43:41.753   05 Jun 2027 10:43:42.472             0.719                Norilsk            22.469
       434   05 Jun 2027 10:43:42.572   05 Jun 2027 10:44:46.380            63.808                Norilsk          1994.000
       435   05 Jun 2027 11:19:46.706   05 Jun 2027 11:20:36.566            49.860            RioGallegos          1558.125
       436   05 Jun 2027 11:54:30.306   05 Jun 2027 11:54:35.622             5.316                Sumatra           166.125
       437   05 Jun 2027 11:54:56.264   05 Jun 2027 11:55:19.549            23.285                Sumatra           727.656
       438   05 Jun 2027 12:07:00.331   05 Jun 2027 12:08:06.085            65.754                Irkutsk          2054.812
       439   05 Jun 2027 12:11:41.300   05 Jun 2027 12:12:16.254            34.954                Novosib          1092.312
       440   05 Jun 2027 12:17:19.542   05 Jun 2027 12:18:11.331            51.789                Novosib          1618.406
       441   05 Jun 2027 12:55:44.514   05 Jun 2027 12:56:22.417            37.903            RioGallegos          1184.469
       442   05 Jun 2027 12:59:34.117   05 Jun 2027 13:00:52.727            78.610            RioGallegos          2456.563
       443   05 Jun 2027 13:03:19.652   05 Jun 2027 13:03:29.486             9.834            RioGallegos           307.313
       444   05 Jun 2027 13:29:59.368   05 Jun 2027 13:31:14.821            75.453                Sumatra          2357.906
       445   05 Jun 2027 13:31:55.233   05 Jun 2027 13:31:59.182             3.949                Sumatra           123.406
       446   05 Jun 2027 13:34:21.447   05 Jun 2027 13:35:14.251            52.804                Sumatra          1650.125
       447   05 Jun 2027 13:40:48.461   05 Jun 2027 13:41:10.492            22.031                Sumatra           688.469
       448   05 Jun 2027 13:45:14.590   05 Jun 2027 13:45:28.903            14.313                Irkutsk           447.281
       449   05 Jun 2027 13:45:44.717   05 Jun 2027 13:46:23.777            39.060                Novosib          1220.625
       450   05 Jun 2027 13:49:51.198   05 Jun 2027 13:50:04.556            13.358                Irkutsk           417.437
       451   05 Jun 2027 13:51:32.544   05 Jun 2027 13:54:52.085           199.541                Irkutsk          6235.656
       452   05 Jun 2027 15:14:56.929   05 Jun 2027 15:15:54.967            58.038                  Delhi          1813.687
       453   05 Jun 2027 15:18:18.317   05 Jun 2027 15:19:54.161            95.844                  Delhi          2995.125
       454   05 Jun 2027 15:23:21.976   05 Jun 2027 15:25:19.403           117.427                Novosib          3669.594
       455   05 Jun 2027 15:26:15.549   05 Jun 2027 15:28:04.416           108.867                Novosib          3402.094
       456   05 Jun 2027 16:58:48.178   05 Jun 2027 16:58:58.017             9.839                 Moscow           307.469
       457   05 Jun 2027 16:59:51.561   05 Jun 2027 17:01:16.044            84.483                 Moscow          2640.094
       458   05 Jun 2027 17:08:03.027   05 Jun 2027 17:08:38.299            35.272              Murmansk1          1102.250
       459   05 Jun 2027 17:09:32.084   05 Jun 2027 17:11:23.022           110.938                Norilsk          3466.813
       460   05 Jun 2027 18:11:40.485   05 Jun 2027 18:12:36.967            56.482               CapeTown          1765.062
       461   05 Jun 2027 18:17:43.329   05 Jun 2027 18:18:32.052            48.723               CapeTown          1522.594
       462   05 Jun 2027 18:22:52.225   05 Jun 2027 18:23:16.433            24.208               CapeTown           756.500
       463   05 Jun 2027 18:37:30.493   05 Jun 2027 18:41:11.124           220.631                 Moscow          6894.719
       464   05 Jun 2027 18:44:30.867   05 Jun 2027 18:44:48.137            17.270              Murmansk1           539.687
       465   05 Jun 2027 18:46:31.401   05 Jun 2027 18:48:09.228            97.827              Murmansk1          3057.094
       466   05 Jun 2027 19:48:08.046   05 Jun 2027 19:48:42.794            34.748               CapeTown          1085.875
       467   05 Jun 2027 19:51:36.912   05 Jun 2027 19:52:58.982            82.070               CapeTown          2564.687
       468   05 Jun 2027 19:56:44.329   05 Jun 2027 19:57:47.047            62.718               CapeTown          1959.937
       469   05 Jun 2027 20:20:28.785   05 Jun 2027 20:25:29.820           301.035              Murmansk2          9407.344
       470   05 Jun 2027 22:03:58.776   05 Jun 2027 22:07:45.318           226.542                Anadyr1          7079.438
       471   05 Jun 2027 22:07:47.829   05 Jun 2027 22:10:44.754           176.925               Magadan1          5528.906
       472   05 Jun 2027 22:10:44.754   05 Jun 2027 22:10:51.190             6.436               Magadan2           201.125
       473   05 Jun 2027 22:11:19.997   05 Jun 2027 22:12:03.444            43.447               Magadan2          1357.719
       474   05 Jun 2027 22:58:51.302   05 Jun 2027 23:01:09.691           138.389            RioGallegos          4324.656
       475   05 Jun 2027 23:01:53.969   05 Jun 2027 23:02:03.814             9.845            RioGallegos           307.656
       476   05 Jun 2027 23:04:11.455   05 Jun 2027 23:04:51.401            39.946            RioGallegos          1248.313
       477   05 Jun 2027 23:39:42.108   05 Jun 2027 23:41:00.775            78.667                Anadyr2          2458.344
       478   05 Jun 2027 23:41:28.949   05 Jun 2027 23:42:59.149            90.200                Anadyr1          2818.750
       479   05 Jun 2027 23:43:10.894   05 Jun 2027 23:43:26.074            15.180                Norilsk           474.375
       480   05 Jun 2027 23:44:16.717   05 Jun 2027 23:45:16.247            59.530               Magadan1          1860.313
       481   05 Jun 2027 23:46:13.608   05 Jun 2027 23:47:23.425            69.817                Irkutsk          2181.781
       482   05 Jun 2027 23:54:23.658   05 Jun 2027 23:54:47.266            23.608                Irkutsk           737.750
