uniorb/output/strategy_4/Drop/Drop_KinoSat_110707.txt

KinoSat_110707
-------------------------
    Access    *     Start Time (UTCG)     *     Stop Time (UTCG)  *   Duration (s)        *       Station  *  Data (Mbytes)
         1   01 Jun 2027 03:19:50.727   01 Jun 2027 03:20:14.012            23.285                Anadyr1           727.656
         2   01 Jun 2027 03:20:23.079   01 Jun 2027 03:21:07.416            44.337                Anadyr1          1385.531
         3   01 Jun 2027 03:21:13.713   01 Jun 2027 03:22:38.003            84.290                Anadyr1          2634.062
         4   01 Jun 2027 03:22:57.553   01 Jun 2027 03:23:12.009            14.456                Anadyr1           451.750
         5   01 Jun 2027 03:23:14.376   01 Jun 2027 03:23:21.523             7.147                Anadyr2           223.344
         6   01 Jun 2027 03:23:21.523   01 Jun 2027 03:23:24.962             3.439                Anadyr1           107.469
         7   01 Jun 2027 03:23:39.214   01 Jun 2027 03:25:45.065           125.851               Magadan2          3932.844
         8   01 Jun 2027 03:25:47.414   01 Jun 2027 03:27:10.338            82.924                Anadyr1          2591.375
         9   01 Jun 2027 04:55:29.141   01 Jun 2027 04:56:14.753            45.612               Magadan2          1425.375
        10   01 Jun 2027 04:56:17.878   01 Jun 2027 04:56:23.844             5.966               Magadan2           186.438
        11   01 Jun 2027 04:56:31.341   01 Jun 2027 04:56:57.872            26.531               Magadan2           829.094
        12   01 Jun 2027 04:56:57.964   01 Jun 2027 04:58:07.239            69.275                Irkutsk          2164.844
        13   01 Jun 2027 04:58:15.451   01 Jun 2027 04:59:45.748            90.297                Anadyr1          2821.781
        14   01 Jun 2027 04:59:58.889   01 Jun 2027 05:01:17.489            78.600               Magadan2          2456.250
        15   01 Jun 2027 05:01:29.944   01 Jun 2027 05:02:05.779            35.835               Magadan1          1119.844
        16   01 Jun 2027 05:02:20.634   01 Jun 2027 05:02:24.647             4.013                Anadyr1           125.406
        17   01 Jun 2027 05:02:59.051   01 Jun 2027 05:03:32.302            33.251                Norilsk          1039.094
        18   01 Jun 2027 05:05:16.895   01 Jun 2027 05:06:06.774            49.879                Norilsk          1558.719
        19   01 Jun 2027 05:38:12.273   01 Jun 2027 05:41:01.523           169.250            RioGallegos          5289.063
        20   01 Jun 2027 06:32:41.694   01 Jun 2027 06:33:17.781            36.087                Novosib          1127.719
        21   01 Jun 2027 06:33:49.968   01 Jun 2027 06:34:13.749            23.781                Novosib           743.156
        22   01 Jun 2027 06:34:15.166   01 Jun 2027 06:35:13.935            58.769                Irkutsk          1836.531
        23   01 Jun 2027 06:35:21.512   01 Jun 2027 06:36:18.342            56.830                Novosib          1775.938
        24   01 Jun 2027 06:36:25.716   01 Jun 2027 06:38:35.736           130.020                Irkutsk          4063.125
        25   01 Jun 2027 06:38:38.341   01 Jun 2027 06:38:54.661            16.320              Murmansk2           510.000
        26   01 Jun 2027 06:38:54.661   01 Jun 2027 06:39:50.941            56.280              Murmansk1          1758.750
        27   01 Jun 2027 07:13:22.067   01 Jun 2027 07:14:46.354            84.287            RioGallegos          2633.969
        28   01 Jun 2027 07:48:10.484   01 Jun 2027 07:49:07.572            57.088                Sumatra          1784.000
        29   01 Jun 2027 07:49:12.549   01 Jun 2027 07:50:50.322            97.773                Sumatra          3055.406
        30   01 Jun 2027 07:58:50.359   01 Jun 2027 08:00:13.707            83.348                  Delhi          2604.625
        31   01 Jun 2027 08:10:40.463   01 Jun 2027 08:10:57.601            17.138              Murmansk1           535.562
        32   01 Jun 2027 08:11:19.930   01 Jun 2027 08:15:20.156           240.226                Norilsk          7507.062
        33   01 Jun 2027 08:15:31.587   01 Jun 2027 08:15:54.875            23.288                Novosib           727.750
        34   01 Jun 2027 08:16:05.492   01 Jun 2027 08:16:16.779            11.287              Murmansk1           352.719
        35   01 Jun 2027 08:16:41.528   01 Jun 2027 08:16:49.018             7.490              Murmansk1           234.063
        36   01 Jun 2027 08:17:15.771   01 Jun 2027 08:17:52.988            37.217              Murmansk1          1163.031
        37   01 Jun 2027 08:18:41.159   01 Jun 2027 08:19:22.389            41.230              Murmansk1          1288.437
        38   01 Jun 2027 08:52:53.865   01 Jun 2027 08:53:27.248            33.383            RioGallegos          1043.219
        39   01 Jun 2027 09:28:00.799   01 Jun 2027 09:29:52.528           111.729                Sumatra          3491.531
        40   01 Jun 2027 09:32:22.771   01 Jun 2027 09:33:51.033            88.262                  Delhi          2758.187
        41   01 Jun 2027 09:48:45.988   01 Jun 2027 09:51:04.844           138.856              Murmansk2          4339.250
        42   01 Jun 2027 09:51:06.503   01 Jun 2027 09:51:44.240            37.737                Novosib          1179.281
        43   01 Jun 2027 11:21:48.564   01 Jun 2027 11:22:14.525            25.961              Murmansk1           811.281
        44   01 Jun 2027 11:22:24.456   01 Jun 2027 11:26:06.282           221.826                 Moscow          6932.063
        45   01 Jun 2027 11:26:41.253   01 Jun 2027 11:30:09.102           207.849              Murmansk2          6495.281
        46   01 Jun 2027 11:30:09.102   01 Jun 2027 11:31:18.451            69.349              Murmansk1          2167.156
        47   01 Jun 2027 11:31:49.339   01 Jun 2027 11:32:10.224            20.885              Murmansk1           652.656
        48   01 Jun 2027 11:32:52.926   01 Jun 2027 11:33:04.289            11.363              Murmansk1           355.094
        49   01 Jun 2027 12:31:40.890   01 Jun 2027 12:38:52.549           431.659               CapeTown         13489.344
        50   01 Jun 2027 12:53:50.798   01 Jun 2027 12:54:03.751            12.953                 Moscow           404.781
        51   01 Jun 2027 12:57:05.537   01 Jun 2027 12:59:08.410           122.873              Murmansk1          3839.781
        52   01 Jun 2027 13:01:44.636   01 Jun 2027 13:02:19.614            34.978              Murmansk1          1093.063
        53   01 Jun 2027 13:02:55.282   01 Jun 2027 13:03:01.280             5.998              Murmansk1           187.437
        54   01 Jun 2027 13:08:07.843   01 Jun 2027 13:08:14.521             6.678              Murmansk2           208.688
        55   01 Jun 2027 13:11:21.800   01 Jun 2027 13:14:39.624           197.824                Anadyr2          6182.000
        56   01 Jun 2027 13:15:21.803   01 Jun 2027 13:17:10.677           108.874                Anadyr1          3402.313
        57   01 Jun 2027 13:17:24.720   01 Jun 2027 13:20:21.513           176.793                Anadyr2          5524.781
        58   01 Jun 2027 14:38:43.713   01 Jun 2027 14:39:16.895            33.182              Murmansk1          1036.938
        59   01 Jun 2027 14:46:49.375   01 Jun 2027 14:49:29.710           160.335                Anadyr1          5010.469
        60   01 Jun 2027 14:50:10.257   01 Jun 2027 14:50:32.791            22.534                Anadyr1           704.188
        61   01 Jun 2027 14:50:37.507   01 Jun 2027 14:57:23.080           405.573               Magadan1         12674.156
        62   01 Jun 2027 16:25:06.940   01 Jun 2027 16:27:25.465           138.525               Magadan1          4328.906
        63   01 Jun 2027 16:27:25.465   01 Jun 2027 16:28:34.322            68.857               Magadan2          2151.781
        64   01 Jun 2027 17:58:34.996   01 Jun 2027 18:02:06.241           211.245                Anadyr2          6601.406
        65   01 Jun 2027 18:02:13.554   01 Jun 2027 18:03:30.894            77.340               Magadan1          2416.875
        66   01 Jun 2027 18:03:32.095   01 Jun 2027 18:07:02.483           210.388                Norilsk          6574.625
        67   01 Jun 2027 18:07:55.528   01 Jun 2027 18:12:47.728           292.200                Irkutsk          9131.250
        68   01 Jun 2027 18:23:20.152   01 Jun 2027 18:26:48.405           208.253                Sumatra          6507.906
        69   01 Jun 2027 19:41:34.371   01 Jun 2027 19:48:11.537           397.166                Novosib         12411.438
        70   01 Jun 2027 21:16:21.966   01 Jun 2027 21:18:34.344           132.378              Murmansk1          4136.812
        71   01 Jun 2027 21:23:46.204   01 Jun 2027 21:26:32.597           166.393                  Delhi          5199.781
        72   01 Jun 2027 21:35:18.993   01 Jun 2027 21:35:34.370            15.377                  Delhi           480.531
        73   01 Jun 2027 22:49:37.204   01 Jun 2027 22:49:46.978             9.774               Magadan2           305.438
        74   01 Jun 2027 22:50:03.248   01 Jun 2027 22:50:12.109             8.861               Magadan1           276.906
        75   01 Jun 2027 22:50:41.844   01 Jun 2027 22:57:11.268           389.424              Murmansk2         12169.500
        76   01 Jun 2027 22:57:23.445   01 Jun 2027 23:02:08.572           285.127                 Moscow          8910.219
        77   01 Jun 2027 23:22:29.061   01 Jun 2027 23:23:52.837            83.776               CapeTown          2618.000
        78   01 Jun 2027 23:26:24.359   01 Jun 2027 23:28:05.557           101.198               CapeTown          3162.438
        79   02 Jun 2027 00:53:46.513   02 Jun 2027 00:55:20.240            93.727               CapeTown          2928.969
        80   02 Jun 2027 00:58:43.367   02 Jun 2027 00:59:40.739            57.372               CapeTown          1792.875
        81   02 Jun 2027 01:52:03.440   02 Jun 2027 01:52:06.622             3.182               Magadan2            99.437
        82   02 Jun 2027 01:52:06.622   02 Jun 2027 01:52:58.364            51.742               Magadan1          1616.938
        83   02 Jun 2027 01:53:16.314   02 Jun 2027 01:53:46.181            29.867               Magadan2           933.344
        84   02 Jun 2027 01:54:18.961   02 Jun 2027 01:54:29.790            10.829               Magadan2           338.406
        85   02 Jun 2027 01:56:45.903   02 Jun 2027 01:57:04.092            18.189               Magadan1           568.406
        86   02 Jun 2027 01:59:17.689   02 Jun 2027 01:59:22.783             5.094                Norilsk           159.187
        87   02 Jun 2027 02:00:56.674   02 Jun 2027 02:01:06.050             9.376               Magadan1           293.000
        88   02 Jun 2027 02:02:31.036   02 Jun 2027 02:04:29.512           118.476              Murmansk1          3702.375
        89   02 Jun 2027 02:05:49.651   02 Jun 2027 02:06:14.463            24.812                 Moscow           775.375
        90   02 Jun 2027 02:06:59.964   02 Jun 2027 02:07:01.999             2.035                 Moscow            63.594
        91   02 Jun 2027 02:07:52.853   02 Jun 2027 02:07:53.323             0.470                 Moscow            14.687
        92   02 Jun 2027 02:08:19.881   02 Jun 2027 02:08:49.608            29.727                 Moscow           928.969
        93   02 Jun 2027 02:12:12.743   02 Jun 2027 02:12:34.352            21.609                 Moscow           675.281
        94   02 Jun 2027 02:16:37.902   02 Jun 2027 02:16:54.901            16.999                 Moscow           531.219
        95   02 Jun 2027 02:31:36.905   02 Jun 2027 02:32:57.670            80.765               CapeTown          2523.906
        96   02 Jun 2027 03:30:42.111   02 Jun 2027 03:31:51.283            69.172               Magadan1          2161.625
        97   02 Jun 2027 03:31:55.235   02 Jun 2027 03:33:15.883            80.648                Anadyr2          2520.250
        98   02 Jun 2027 03:33:39.289   02 Jun 2027 03:38:57.097           317.808               Magadan2          9931.500
        99   02 Jun 2027 04:23:58.968   02 Jun 2027 04:24:58.476            59.508            RioGallegos          1859.625
       100   02 Jun 2027 05:08:20.667   02 Jun 2027 05:08:52.417            31.750               Magadan1           992.188
       101   02 Jun 2027 05:08:55.281   02 Jun 2027 05:12:25.554           210.273                Anadyr2          6571.031
       102   02 Jun 2027 05:12:30.294   02 Jun 2027 05:12:55.848            25.554               Magadan1           798.562
       103   02 Jun 2027 05:13:04.524   02 Jun 2027 05:14:11.225            66.701                Anadyr2          2084.406
       104   02 Jun 2027 05:14:26.601   02 Jun 2027 05:14:43.039            16.438               Magadan1           513.687
       105   02 Jun 2027 06:45:21.692   02 Jun 2027 06:46:20.459            58.767                Irkutsk          1836.469
       106   02 Jun 2027 06:47:29.495   02 Jun 2027 06:47:53.567            24.072                Novosib           752.250
       107   02 Jun 2027 06:47:58.210   02 Jun 2027 06:48:05.290             7.080               Magadan2           221.250
       108   02 Jun 2027 06:48:08.479   02 Jun 2027 06:50:38.724           150.245                Irkutsk          4695.156
       109   02 Jun 2027 08:23:37.721   02 Jun 2027 08:24:49.570            71.849                Novosib          2245.281
       110   02 Jun 2027 08:25:07.926   02 Jun 2027 08:25:12.746             4.820                Novosib           150.625
       111   02 Jun 2027 08:25:15.470   02 Jun 2027 08:26:17.628            62.158                Norilsk          1942.437
       112   02 Jun 2027 08:27:04.032   02 Jun 2027 08:27:43.032            39.000                Novosib          1218.750
       113   02 Jun 2027 08:27:55.157   02 Jun 2027 08:28:31.853            36.696              Murmansk1          1146.750
       114   02 Jun 2027 09:06:04.251   02 Jun 2027 09:06:19.427            15.176            RioGallegos           474.250
       115   02 Jun 2027 09:06:31.415   02 Jun 2027 09:07:15.710            44.295            RioGallegos          1384.219
       116   02 Jun 2027 09:08:23.556   02 Jun 2027 09:08:39.370            15.814            RioGallegos           494.188
       117   02 Jun 2027 09:09:19.399   02 Jun 2027 09:09:20.289             0.890            RioGallegos            27.812
       118   02 Jun 2027 09:10:59.817   02 Jun 2027 09:11:14.436            14.619            RioGallegos           456.844
       119   02 Jun 2027 09:46:06.473   02 Jun 2027 09:47:03.163            56.690                  Delhi          1771.563
       120   02 Jun 2027 09:58:44.257   02 Jun 2027 09:58:47.105             2.848              Murmansk2            89.000
       121   02 Jun 2027 09:58:57.888   02 Jun 2027 09:59:04.208             6.320              Murmansk2           197.500
       122   02 Jun 2027 09:59:16.127   02 Jun 2027 09:59:44.592            28.465                Novosib           889.531
       123   02 Jun 2027 10:00:47.736   02 Jun 2027 10:00:53.046             5.310                Novosib           165.937
       124   02 Jun 2027 10:01:03.736   02 Jun 2027 10:01:24.492            20.756                Novosib           648.625
       125   02 Jun 2027 10:01:46.340   02 Jun 2027 10:01:54.791             8.451                Norilsk           264.094
       126   02 Jun 2027 10:02:01.058   02 Jun 2027 10:02:14.087            13.029                Norilsk           407.156
       127   02 Jun 2027 11:39:13.817   02 Jun 2027 11:39:28.054            14.237              Murmansk2           444.906
       128   02 Jun 2027 13:06:17.301   02 Jun 2027 13:06:32.619            15.318                 Moscow           478.688
       129   02 Jun 2027 13:07:06.624   02 Jun 2027 13:07:34.475            27.851                 Moscow           870.344
       130   02 Jun 2027 13:07:47.581   02 Jun 2027 13:08:56.393            68.812                 Moscow          2150.375
       131   02 Jun 2027 13:09:22.647   02 Jun 2027 13:11:21.815           119.168              Murmansk1          3724.000
       132   02 Jun 2027 13:12:36.028   02 Jun 2027 13:13:18.662            42.634              Murmansk1          1332.312
       133   02 Jun 2027 13:14:30.609   02 Jun 2027 13:14:43.619            13.010              Murmansk1           406.562
       134   02 Jun 2027 13:18:39.224   02 Jun 2027 13:18:41.734             2.510              Murmansk1            78.438
       135   02 Jun 2027 13:18:45.242   02 Jun 2027 13:19:12.343            27.101              Murmansk1           846.906
       136   02 Jun 2027 13:23:15.874   02 Jun 2027 13:25:47.978           152.104                Anadyr1          4753.250
       137   02 Jun 2027 13:26:19.219   02 Jun 2027 13:28:42.566           143.347                Anadyr2          4479.594
       138   02 Jun 2027 14:48:50.656   02 Jun 2027 14:49:14.218            23.562              Murmansk1           736.313
       139   02 Jun 2027 14:50:28.950   02 Jun 2027 14:51:07.357            38.407              Murmansk2          1200.219
       140   02 Jun 2027 14:51:07.357   02 Jun 2027 14:52:25.239            77.882              Murmansk1          2433.812
       141   02 Jun 2027 14:58:49.850   02 Jun 2027 15:00:55.866           126.016                Anadyr2          3938.000
       142   02 Jun 2027 15:02:10.074   02 Jun 2027 15:02:23.576            13.502                Anadyr2           421.938
       143   02 Jun 2027 15:02:26.671   02 Jun 2027 15:05:50.272           203.601               Magadan2          6362.531
       144   02 Jun 2027 15:06:25.721   02 Jun 2027 15:08:34.219           128.498               Magadan1          4015.562
       145   02 Jun 2027 16:35:48.350   02 Jun 2027 16:36:04.115            15.765                Anadyr2           492.656
       146   02 Jun 2027 16:36:10.079   02 Jun 2027 16:36:19.105             9.026                Anadyr1           282.063
       147   02 Jun 2027 16:37:05.531   02 Jun 2027 16:38:48.708           103.177               Magadan1          3224.281
       148   02 Jun 2027 16:39:19.850   02 Jun 2027 16:41:18.666           118.816               Magadan2          3713.000
       149   02 Jun 2027 17:32:00.970   02 Jun 2027 17:34:00.206           119.236            RioGallegos          3726.125
       150   02 Jun 2027 18:10:34.649   02 Jun 2027 18:11:51.732            77.083                Anadyr2          2408.844
       151   02 Jun 2027 18:12:49.290   02 Jun 2027 18:16:55.378           246.088                Norilsk          7690.250
       152   02 Jun 2027 18:18:00.239   02 Jun 2027 18:21:20.497           200.258                Irkutsk          6258.062
       153   02 Jun 2027 18:23:16.688   02 Jun 2027 18:25:16.155           119.467                Irkutsk          3733.344
       154   02 Jun 2027 18:33:29.743   02 Jun 2027 18:35:24.210           114.467                Sumatra          3577.094
       155   02 Jun 2027 18:38:59.355   02 Jun 2027 18:40:31.817            92.462                Sumatra          2889.437
       156   02 Jun 2027 19:54:12.015   02 Jun 2027 19:57:00.223           168.208                Novosib          5256.500
       157   02 Jun 2027 19:58:26.392   02 Jun 2027 19:59:15.202            48.810                Novosib          1525.313
       158   02 Jun 2027 21:27:44.749   02 Jun 2027 21:31:55.380           250.631              Murmansk1          7832.219
       159   02 Jun 2027 21:35:40.379   02 Jun 2027 21:37:19.402            99.023                  Delhi          3094.469
       160   02 Jun 2027 22:59:35.814   02 Jun 2027 22:59:41.615             5.801               Magadan2           181.281
       161   02 Jun 2027 23:00:03.635   02 Jun 2027 23:00:15.644            12.009               Magadan2           375.281
       162   02 Jun 2027 23:01:25.537   02 Jun 2027 23:01:34.623             9.086               Magadan1           283.938
       163   02 Jun 2027 23:01:34.623   02 Jun 2027 23:01:42.735             8.112               Magadan2           253.500
       164   02 Jun 2027 23:01:49.554   02 Jun 2027 23:02:02.876            13.322               Magadan1           416.313
       165   02 Jun 2027 23:02:02.876   02 Jun 2027 23:02:09.340             6.464               Magadan2           202.000
       166   02 Jun 2027 23:02:41.329   02 Jun 2027 23:08:10.589           329.260              Murmansk2         10289.375
       167   02 Jun 2027 23:09:21.497   02 Jun 2027 23:10:56.025            94.528              Murmansk1          2954.000
       168   02 Jun 2027 23:11:45.868   02 Jun 2027 23:14:11.203           145.335                 Moscow          4541.719
       169   02 Jun 2027 23:33:17.634   02 Jun 2027 23:35:20.879           123.245               CapeTown          3851.406
       170   02 Jun 2027 23:38:39.972   02 Jun 2027 23:40:48.747           128.775               CapeTown          4024.219
       171   03 Jun 2027 00:50:05.139   03 Jun 2027 00:50:35.279            30.140                 Moscow           941.875
       172   03 Jun 2027 01:05:42.095   03 Jun 2027 01:06:15.770            33.675               CapeTown          1052.344
       173   03 Jun 2027 01:07:19.398   03 Jun 2027 01:08:22.312            62.914               CapeTown          1966.063
       174   03 Jun 2027 01:13:46.769   03 Jun 2027 01:14:10.194            23.425               CapeTown           732.031
       175   03 Jun 2027 02:02:25.349   03 Jun 2027 02:03:01.320            35.971                Anadyr2          1124.094
       176   03 Jun 2027 02:03:43.812   03 Jun 2027 02:04:27.499            43.687               Magadan1          1365.219
       177   03 Jun 2027 02:04:32.394   03 Jun 2027 02:05:19.021            46.627               Magadan2          1457.094
       178   03 Jun 2027 02:05:45.777   03 Jun 2027 02:05:47.318             1.541               Magadan2            48.156
       179   03 Jun 2027 02:06:32.035   03 Jun 2027 02:07:03.954            31.919               Magadan2           997.469
       180   03 Jun 2027 02:10:22.991   03 Jun 2027 02:10:38.935            15.944               Magadan2           498.250
       181   03 Jun 2027 02:12:58.261   03 Jun 2027 02:13:12.794            14.533               Magadan1           454.156
       182   03 Jun 2027 02:14:32.185   03 Jun 2027 02:15:51.332            79.147              Murmansk2          2473.344
       183   03 Jun 2027 02:17:10.904   03 Jun 2027 02:17:31.452            20.548              Murmansk1           642.125
       184   03 Jun 2027 02:17:50.917   03 Jun 2027 02:18:33.721            42.804              Murmansk2          1337.625
       185   03 Jun 2027 02:24:27.048   03 Jun 2027 02:24:39.711            12.663                 Moscow           395.719
       186   03 Jun 2027 02:24:41.471   03 Jun 2027 02:25:54.948            73.477                 Moscow          2296.156
       187   03 Jun 2027 02:49:28.972   03 Jun 2027 02:50:59.679            90.707               CapeTown          2834.594
       188   03 Jun 2027 03:44:30.692   03 Jun 2027 03:46:30.014           119.322                Anadyr2          3728.813
       189   03 Jun 2027 03:46:36.962   03 Jun 2027 03:48:37.292           120.330                Anadyr1          3760.313
       190   03 Jun 2027 04:29:14.037   03 Jun 2027 04:29:51.836            37.799            RioGallegos          1181.219
       191   03 Jun 2027 04:35:37.674   03 Jun 2027 04:36:20.879            43.205            RioGallegos          1350.156
       192   03 Jun 2027 05:20:50.617   03 Jun 2027 05:24:17.707           207.090                Irkutsk          6471.563
       193   03 Jun 2027 05:25:02.370   03 Jun 2027 05:26:02.965            60.595               Magadan2          1893.594
       194   03 Jun 2027 06:56:28.802   03 Jun 2027 06:56:31.229             2.427               Magadan2            75.844
       195   03 Jun 2027 06:56:50.022   03 Jun 2027 06:57:08.754            18.732               Magadan2           585.375
       196   03 Jun 2027 06:57:08.754   03 Jun 2027 06:58:13.701            64.947               Magadan1          2029.594
       197   03 Jun 2027 06:58:14.909   03 Jun 2027 06:58:26.845            11.936               Magadan1           373.000
       198   03 Jun 2027 06:58:49.925   03 Jun 2027 06:59:07.777            17.852                Novosib           557.875
       199   03 Jun 2027 06:59:27.106   03 Jun 2027 06:59:55.131            28.025               Magadan2           875.781
       200   03 Jun 2027 07:00:05.406   03 Jun 2027 07:01:09.036            63.630              Murmansk2          1988.438
       201   03 Jun 2027 07:01:14.917   03 Jun 2027 07:01:35.359            20.442                Irkutsk           638.813
       202   03 Jun 2027 07:03:19.940   03 Jun 2027 07:03:22.643             2.703                Novosib            84.469
       203   03 Jun 2027 07:09:05.794   03 Jun 2027 07:09:18.084            12.290              Murmansk1           384.063
       204   03 Jun 2027 07:39:19.980   03 Jun 2027 07:39:45.946            25.966            RioGallegos           811.438
       205   03 Jun 2027 08:20:00.634   03 Jun 2027 08:20:13.310            12.676                Sumatra           396.125
       206   03 Jun 2027 08:21:58.061   03 Jun 2027 08:23:32.240            94.179                Sumatra          2943.094
       207   03 Jun 2027 08:34:41.861   03 Jun 2027 08:34:48.389             6.528                Novosib           204.000
       208   03 Jun 2027 08:34:55.653   03 Jun 2027 08:35:49.333            53.680              Murmansk1          1677.500
       209   03 Jun 2027 08:35:54.222   03 Jun 2027 08:36:07.698            13.476                 Moscow           421.125
       210   03 Jun 2027 08:36:45.881   03 Jun 2027 08:36:51.496             5.615                Irkutsk           175.469
       211   03 Jun 2027 08:37:02.829   03 Jun 2027 08:37:17.858            15.029                Novosib           469.656
       212   03 Jun 2027 08:37:39.475   03 Jun 2027 08:38:06.788            27.313                Irkutsk           853.531
       213   03 Jun 2027 08:39:00.106   03 Jun 2027 08:40:09.455            69.349                Novosib          2167.156
       214   03 Jun 2027 09:56:47.071   03 Jun 2027 09:57:54.097            67.026                  Delhi          2094.562
       215   03 Jun 2027 09:59:18.611   03 Jun 2027 10:00:05.687            47.076                  Delhi          1471.125
       216   03 Jun 2027 10:04:58.773   03 Jun 2027 10:05:49.987            51.214                  Delhi          1600.438
       217   03 Jun 2027 10:10:29.786   03 Jun 2027 10:11:11.180            41.394                Novosib          1293.563
       218   03 Jun 2027 10:12:12.814   03 Jun 2027 10:12:21.797             8.983                Novosib           280.719
       219   03 Jun 2027 10:13:00.232   03 Jun 2027 10:13:10.781            10.549                Novosib           329.656
       220   03 Jun 2027 10:14:26.469   03 Jun 2027 10:14:48.444            21.975                Novosib           686.719
       221   03 Jun 2027 11:54:41.418   03 Jun 2027 11:54:59.687            18.269                Norilsk           570.906
       222   03 Jun 2027 13:18:48.875   03 Jun 2027 13:19:24.258            35.383                 Moscow          1105.719
       223   03 Jun 2027 13:21:01.892   03 Jun 2027 13:22:15.504            73.612                 Moscow          2300.375
       224   03 Jun 2027 13:22:31.806   03 Jun 2027 13:23:13.194            41.388              Murmansk2          1293.375
       225   03 Jun 2027 13:30:03.069   03 Jun 2027 13:30:07.118             4.049              Murmansk1           126.531
       226   03 Jun 2027 13:30:34.183   03 Jun 2027 13:30:39.128             4.945              Murmansk1           154.531
       227   03 Jun 2027 13:31:26.560   03 Jun 2027 13:31:33.312             6.752              Murmansk1           211.000
       228   03 Jun 2027 13:32:04.624   03 Jun 2027 13:32:17.108            12.484              Murmansk2           390.125
       229   03 Jun 2027 13:32:48.477   03 Jun 2027 13:33:08.011            19.534              Murmansk2           610.437
       230   03 Jun 2027 13:35:28.639   03 Jun 2027 13:36:18.292            49.653                Anadyr2          1551.656
       231   03 Jun 2027 13:38:32.692   03 Jun 2027 13:39:18.448            45.756                Anadyr1          1429.875
       232   03 Jun 2027 13:41:06.030   03 Jun 2027 13:41:44.032            38.002                Anadyr2          1187.563
       233   03 Jun 2027 13:43:10.602   03 Jun 2027 13:44:43.529            92.927                Anadyr2          2903.969
       234   03 Jun 2027 14:37:31.469   03 Jun 2027 14:38:35.661            64.192               CapeTown          2006.000
       235   03 Jun 2027 15:01:32.461   03 Jun 2027 15:04:27.154           174.693              Murmansk2          5459.156
       236   03 Jun 2027 15:08:15.411   03 Jun 2027 15:08:36.439            21.028              Murmansk2           657.125
       237   03 Jun 2027 15:10:50.595   03 Jun 2027 15:12:16.319            85.724                Anadyr2          2678.875
       238   03 Jun 2027 15:13:15.357   03 Jun 2027 15:13:36.914            21.557                Anadyr1           673.656
       239   03 Jun 2027 15:13:53.859   03 Jun 2027 15:14:01.485             7.626                Anadyr2           238.313
       240   03 Jun 2027 15:14:09.483   03 Jun 2027 15:14:16.917             7.434                Anadyr2           232.313
       241   03 Jun 2027 15:14:40.047   03 Jun 2027 15:21:22.673           402.626               Magadan2         12582.063
       242   03 Jun 2027 16:46:45.748   03 Jun 2027 16:47:12.653            26.905                Anadyr2           840.781
       243   03 Jun 2027 16:49:04.801   03 Jun 2027 16:50:42.825            98.024               Magadan1          3063.250
       244   03 Jun 2027 16:53:16.074   03 Jun 2027 16:53:19.478             3.404               Magadan1           106.375
       245   03 Jun 2027 16:56:19.706   03 Jun 2027 16:56:38.459            18.753               Magadan2           586.031
       246   03 Jun 2027 16:56:57.544   03 Jun 2027 16:57:26.030            28.486               Magadan2           890.188
       247   03 Jun 2027 17:42:51.032   03 Jun 2027 17:45:42.827           171.795            RioGallegos          5368.594
       248   03 Jun 2027 18:22:33.870   03 Jun 2027 18:23:06.722            32.852                Anadyr1          1026.625
       249   03 Jun 2027 18:23:28.242   03 Jun 2027 18:23:35.538             7.296                Anadyr1           228.000
       250   03 Jun 2027 18:23:55.647   03 Jun 2027 18:24:00.363             4.716                Anadyr1           147.375
       251   03 Jun 2027 18:24:45.486   03 Jun 2027 18:27:13.074           147.588                Norilsk          4612.125
       252   03 Jun 2027 18:29:37.298   03 Jun 2027 18:35:22.428           345.130                Irkutsk         10785.313
       253   03 Jun 2027 18:44:27.674   03 Jun 2027 18:48:38.625           250.951                Sumatra          7842.219
       254   03 Jun 2027 18:50:58.395   03 Jun 2027 18:53:23.558           145.163                Sumatra          4536.344
       255   03 Jun 2027 20:07:57.671   03 Jun 2027 20:08:54.971            57.300                Novosib          1790.625
       256   03 Jun 2027 20:14:51.261   03 Jun 2027 20:16:55.709           124.448                  Delhi          3889.000
       257   03 Jun 2027 20:20:27.329   03 Jun 2027 20:20:55.395            28.066                  Delhi           877.063
       258   03 Jun 2027 21:39:26.660   03 Jun 2027 21:43:16.368           229.708              Murmansk2          7178.375
       259   03 Jun 2027 21:43:43.525   03 Jun 2027 21:44:55.244            71.719              Murmansk1          2241.219
       260   03 Jun 2027 23:11:10.773   03 Jun 2027 23:13:01.794           111.021               Magadan2          3469.406
       261   03 Jun 2027 23:14:41.359   03 Jun 2027 23:16:14.327            92.968              Murmansk1          2905.250
       262   03 Jun 2027 23:16:22.777   03 Jun 2027 23:18:08.041           105.264              Murmansk2          3289.500
       263   03 Jun 2027 23:18:27.180   03 Jun 2027 23:21:31.686           184.506                 Moscow          5765.812
       264   03 Jun 2027 23:44:24.905   03 Jun 2027 23:44:26.559             1.654               CapeTown            51.688
       265   03 Jun 2027 23:46:13.089   03 Jun 2027 23:48:34.829           141.740               CapeTown          4429.375
       266   03 Jun 2027 23:50:32.643   03 Jun 2027 23:52:11.502            98.859               CapeTown          3089.344
       267   04 Jun 2027 00:50:36.530   04 Jun 2027 00:50:49.613            13.083              Murmansk1           408.844
       268   04 Jun 2027 00:51:41.022   04 Jun 2027 00:51:55.089            14.067              Murmansk1           439.594
       269   04 Jun 2027 00:53:05.801   04 Jun 2027 00:53:30.244            24.443              Murmansk2           763.844
       270   04 Jun 2027 00:53:49.350   04 Jun 2027 00:54:44.456            55.106                 Moscow          1722.063
       271   04 Jun 2027 00:57:07.771   04 Jun 2027 00:57:14.865             7.094                 Moscow           221.688
       272   04 Jun 2027 01:01:16.263   04 Jun 2027 01:01:35.681            19.418                 Moscow           606.812
       273   04 Jun 2027 01:17:42.625   04 Jun 2027 01:18:33.516            50.891               CapeTown          1590.344
       274   04 Jun 2027 01:18:59.350   04 Jun 2027 01:19:56.376            57.026               CapeTown          1782.063
       275   04 Jun 2027 02:14:29.237   04 Jun 2027 02:15:18.993            49.756                Anadyr1          1554.875
       276   04 Jun 2027 02:15:26.074   04 Jun 2027 02:17:15.040           108.966               Magadan1          3405.188
       277   04 Jun 2027 02:18:34.496   04 Jun 2027 02:18:39.010             4.514               Magadan1           141.062
       278   04 Jun 2027 02:21:06.714   04 Jun 2027 02:21:21.792            15.078               Magadan1           471.187
       279   04 Jun 2027 02:23:17.167   04 Jun 2027 02:23:53.097            35.930                Norilsk          1122.812
       280   04 Jun 2027 02:26:33.154   04 Jun 2027 02:27:45.621            72.467              Murmansk1          2264.594
       281   04 Jun 2027 02:28:44.543   04 Jun 2027 02:29:04.515            19.972              Murmansk2           624.125
       282   04 Jun 2027 02:29:48.653   04 Jun 2027 02:29:59.063            10.410              Murmansk1           325.312
       283   04 Jun 2027 02:30:24.323   04 Jun 2027 02:31:06.169            41.846                 Moscow          1307.687
       284   04 Jun 2027 02:34:30.434   04 Jun 2027 02:34:49.225            18.791                 Moscow           587.219
       285   04 Jun 2027 02:37:05.500   04 Jun 2027 02:37:15.113             9.613                 Moscow           300.406
       286   04 Jun 2027 02:37:39.879   04 Jun 2027 02:37:49.469             9.590                 Moscow           299.688
       287   04 Jun 2027 02:57:58.998   04 Jun 2027 02:59:46.628           107.630               CapeTown          3363.437
       288   04 Jun 2027 03:56:41.464   04 Jun 2027 03:58:48.212           126.748               Magadan1          3960.875
       289   04 Jun 2027 03:58:49.607   04 Jun 2027 03:59:36.945            47.338               Magadan1          1479.313
       290   04 Jun 2027 04:00:09.701   04 Jun 2027 04:00:43.590            33.889               Magadan1          1059.031
       291   04 Jun 2027 04:01:57.863   04 Jun 2027 04:02:20.820            22.957               Magadan1           717.406
       292   04 Jun 2027 04:02:35.848   04 Jun 2027 04:02:46.988            11.140               Magadan1           348.125
       293   04 Jun 2027 04:40:36.185   04 Jun 2027 04:42:35.986           119.801            RioGallegos          3743.781
       294   04 Jun 2027 04:45:35.681   04 Jun 2027 04:46:39.624            63.943            RioGallegos          1998.219
       295   04 Jun 2027 05:32:49.132   04 Jun 2027 05:33:17.847            28.715                Irkutsk           897.344
       296   04 Jun 2027 05:33:25.469   04 Jun 2027 05:37:03.357           217.888                Irkutsk          6809.000
       297   04 Jun 2027 05:38:32.965   04 Jun 2027 05:38:36.207             3.242               Magadan1           101.312
       298   04 Jun 2027 07:10:16.430   04 Jun 2027 07:10:42.746            26.316                Novosib           822.375
       299   04 Jun 2027 07:10:53.443   04 Jun 2027 07:11:42.947            49.504                Novosib          1547.000
       300   04 Jun 2027 07:11:53.276   04 Jun 2027 07:11:55.962             2.686              Murmansk1            83.937
       301   04 Jun 2027 07:13:47.056   04 Jun 2027 07:14:13.092            26.036                Norilsk           813.625
       302   04 Jun 2027 07:14:44.151   04 Jun 2027 07:15:21.805            37.654                Novosib          1176.687
       303   04 Jun 2027 07:52:19.903   04 Jun 2027 07:52:48.371            28.468            RioGallegos           889.625
       304   04 Jun 2027 08:24:26.275   04 Jun 2027 08:25:54.567            88.292                Sumatra          2759.125
       305   04 Jun 2027 08:47:02.421   04 Jun 2027 08:47:54.761            52.340                Novosib          1635.625
       306   04 Jun 2027 08:47:58.494   04 Jun 2027 08:48:29.510            31.016                Irkutsk           969.250
       307   04 Jun 2027 08:48:56.203   04 Jun 2027 08:49:24.636            28.433                Irkutsk           888.531
       308   04 Jun 2027 08:50:27.018   04 Jun 2027 08:50:27.234             0.216                Novosib             6.750
       309   04 Jun 2027 08:51:41.253   04 Jun 2027 08:51:44.674             3.421              Murmansk2           106.906
       310   04 Jun 2027 10:09:09.067   04 Jun 2027 10:12:50.822           221.755                  Delhi          6929.844
       311   04 Jun 2027 10:23:19.240   04 Jun 2027 10:23:26.943             7.703                Norilsk           240.719
       312   04 Jun 2027 10:23:36.978   04 Jun 2027 10:23:58.614            21.636                Novosib           676.125
       313   04 Jun 2027 10:26:40.976   04 Jun 2027 10:26:55.970            14.994                Novosib           468.562
       314   04 Jun 2027 12:02:09.530   04 Jun 2027 12:02:40.175            30.645              Murmansk1           957.656
       315   04 Jun 2027 12:02:54.847   04 Jun 2027 12:03:39.916            45.069                Norilsk          1408.406
       316   04 Jun 2027 12:05:04.887   04 Jun 2027 12:05:44.012            39.125                Norilsk          1222.656
       317   04 Jun 2027 13:31:26.455   04 Jun 2027 13:33:06.860           100.405                 Moscow          3137.656
       318   04 Jun 2027 13:33:14.392   04 Jun 2027 13:34:04.817            50.425                 Moscow          1575.781
       319   04 Jun 2027 13:35:14.900   04 Jun 2027 13:35:18.073             3.173              Murmansk1            99.156
       320   04 Jun 2027 13:35:33.650   04 Jun 2027 13:35:48.594            14.944              Murmansk1           467.000
       321   04 Jun 2027 13:36:53.452   04 Jun 2027 13:37:30.753            37.301              Murmansk1          1165.656
       322   04 Jun 2027 13:40:57.106   04 Jun 2027 13:41:54.379            57.273              Murmansk1          1789.781
       323   04 Jun 2027 13:43:56.573   04 Jun 2027 13:44:18.638            22.065              Murmansk2           689.531
       324   04 Jun 2027 13:44:51.436   04 Jun 2027 13:45:08.716            17.280              Murmansk1           540.000
       325   04 Jun 2027 13:47:08.464   04 Jun 2027 13:49:06.861           118.397                Anadyr1          3699.906
       326   04 Jun 2027 13:49:35.012   04 Jun 2027 13:50:21.736            46.724                Anadyr2          1460.125
       327   04 Jun 2027 13:50:33.804   04 Jun 2027 13:52:15.813           102.009                Anadyr2          3187.781
       328   04 Jun 2027 15:14:19.067   04 Jun 2027 15:16:29.058           129.991              Murmansk1          4062.219
       329   04 Jun 2027 15:22:51.546   04 Jun 2027 15:25:12.984           141.438                Anadyr2          4419.938
       330   04 Jun 2027 15:25:45.356   04 Jun 2027 15:31:22.412           337.056               Magadan1         10533.000
       331   04 Jun 2027 16:59:20.706   04 Jun 2027 16:59:29.805             9.099                Anadyr2           284.344
       332   04 Jun 2027 16:59:42.792   04 Jun 2027 17:00:06.763            23.971                Anadyr1           749.094
       333   04 Jun 2027 17:01:04.657   04 Jun 2027 17:03:20.634           135.977               Magadan1          4249.281
       334   04 Jun 2027 17:09:46.703   04 Jun 2027 17:10:39.428            52.725               Magadan2          1647.656
       335   04 Jun 2027 17:54:13.919   04 Jun 2027 17:57:29.842           195.923            RioGallegos          6122.594
       336   04 Jun 2027 18:00:51.092   04 Jun 2027 18:01:26.542            35.450            RioGallegos          1107.813
       337   04 Jun 2027 18:36:43.131   04 Jun 2027 18:37:01.825            18.694                Norilsk           584.188
       338   04 Jun 2027 18:38:14.335   04 Jun 2027 18:40:15.358           121.023                Norilsk          3781.969
       339   04 Jun 2027 18:41:20.611   04 Jun 2027 18:44:06.629           166.018                Irkutsk          5188.062
       340   04 Jun 2027 18:44:43.334   04 Jun 2027 18:45:04.587            21.253                Irkutsk           664.156
       341   04 Jun 2027 18:47:05.690   04 Jun 2027 18:48:50.027           104.337                Irkutsk          3260.531
       342   04 Jun 2027 18:58:38.383   04 Jun 2027 19:03:03.037           264.654                Sumatra          8270.437
       343   04 Jun 2027 20:16:54.624   04 Jun 2027 20:18:05.333            70.709                Novosib          2209.656
       344   04 Jun 2027 20:18:37.697   04 Jun 2027 20:20:01.227            83.530                Novosib          2610.312
       345   04 Jun 2027 20:25:51.466   04 Jun 2027 20:28:36.437           164.971                  Delhi          5155.344
       346   04 Jun 2027 20:32:27.570   04 Jun 2027 20:34:07.561            99.991                  Delhi          3124.719
       347   04 Jun 2027 21:51:15.516   04 Jun 2027 21:57:20.762           365.246              Murmansk2         11413.937
       348   04 Jun 2027 23:26:41.823   04 Jun 2027 23:28:11.104            89.281              Murmansk2          2790.031
       349   04 Jun 2027 23:28:15.990   04 Jun 2027 23:30:08.897           112.907              Murmansk1          3528.344
       350   04 Jun 2027 23:30:19.455   04 Jun 2027 23:31:41.800            82.345                 Moscow          2573.281
       351   04 Jun 2027 23:32:15.004   04 Jun 2027 23:33:01.062            46.058                 Moscow          1439.312
       352   04 Jun 2027 23:36:48.539   04 Jun 2027 23:37:01.960            13.421                 Moscow           419.406
       353   04 Jun 2027 23:38:37.496   04 Jun 2027 23:38:49.344            11.848                 Moscow           370.250
       354   04 Jun 2027 23:39:46.432   04 Jun 2027 23:39:49.231             2.799                 Moscow            87.469
       355   04 Jun 2027 23:55:43.590   04 Jun 2027 23:57:10.868            87.278               CapeTown          2727.438
       356   05 Jun 2027 00:00:00.468   05 Jun 2027 00:00:29.953            29.485               CapeTown           921.406
       357   05 Jun 2027 00:01:04.376   05 Jun 2027 00:02:30.252            85.876               CapeTown          2683.625
       358   05 Jun 2027 01:02:38.212   05 Jun 2027 01:04:00.581            82.369              Murmansk2          2574.031
       359   05 Jun 2027 01:05:50.534   05 Jun 2027 01:06:39.844            49.310                 Moscow          1540.938
       360   05 Jun 2027 01:10:35.999   05 Jun 2027 01:10:44.084             8.085                 Moscow           252.656
       361   05 Jun 2027 01:14:44.261   05 Jun 2027 01:14:52.291             8.030                 Moscow           250.938
       362   05 Jun 2027 01:15:00.768   05 Jun 2027 01:15:26.418            25.650                 Moscow           801.563
       363   05 Jun 2027 01:29:48.223   05 Jun 2027 01:30:31.789            43.566               CapeTown          1361.437
       364   05 Jun 2027 01:32:53.954   05 Jun 2027 01:34:00.997            67.043               CapeTown          2095.094
       365   05 Jun 2027 02:26:35.158   05 Jun 2027 02:26:49.831            14.673                Anadyr2           458.531
       366   05 Jun 2027 02:27:00.276   05 Jun 2027 02:27:24.575            24.299                Anadyr1           759.344
       367   05 Jun 2027 02:27:27.059   05 Jun 2027 02:29:24.360           117.301               Magadan2          3665.656
       368   05 Jun 2027 02:30:37.097   05 Jun 2027 02:30:47.834            10.737               Magadan1           335.531
       369   05 Jun 2027 02:32:52.419   05 Jun 2027 02:33:07.504            15.085               Magadan1           471.406
       370   05 Jun 2027 02:35:14.208   05 Jun 2027 02:35:20.506             6.298                Norilsk           196.813
       371   05 Jun 2027 02:36:49.841   05 Jun 2027 02:37:40.167            50.326               Magadan1          1572.688
       372   05 Jun 2027 02:38:33.910   05 Jun 2027 02:39:06.704            32.794              Murmansk2          1024.812
       373   05 Jun 2027 02:40:57.373   05 Jun 2027 02:41:02.663             5.290              Murmansk1           165.312
       374   05 Jun 2027 02:41:09.462   05 Jun 2027 02:41:32.195            22.733              Murmansk2           710.406
       375   05 Jun 2027 02:41:45.083   05 Jun 2027 02:41:51.780             6.697              Murmansk1           209.281
       376   05 Jun 2027 02:42:03.843   05 Jun 2027 02:43:09.026            65.183                 Moscow          2036.969
       377   05 Jun 2027 02:49:28.718   05 Jun 2027 02:49:34.984             6.266                 Moscow           195.813
       378   05 Jun 2027 02:49:54.997   05 Jun 2027 02:50:19.142            24.145                 Moscow           754.531
       379   05 Jun 2027 04:09:06.425   05 Jun 2027 04:09:32.674            26.249                Anadyr1           820.281
       380   05 Jun 2027 04:09:34.583   05 Jun 2027 04:12:39.599           185.016                Anadyr2          5781.750
       381   05 Jun 2027 04:13:13.843   05 Jun 2027 04:13:21.630             7.787                Anadyr2           243.344
       382   05 Jun 2027 04:13:29.870   05 Jun 2027 04:14:03.789            33.919                Anadyr2          1059.969
       383   05 Jun 2027 04:52:02.826   05 Jun 2027 04:53:06.801            63.975            RioGallegos          1999.219
       384   05 Jun 2027 05:45:22.853   05 Jun 2027 05:46:14.799            51.946                Irkutsk          1623.312
       385   05 Jun 2027 05:46:38.754   05 Jun 2027 05:46:54.290            15.536                Irkutsk           485.500
       386   05 Jun 2027 05:47:21.695   05 Jun 2027 05:49:54.195           152.500                Irkutsk          4765.625
       387   05 Jun 2027 07:22:20.395   05 Jun 2027 07:22:56.478            36.083                Novosib          1127.594
       388   05 Jun 2027 07:23:40.903   05 Jun 2027 07:23:42.827             1.924              Murmansk2            60.125
       389   05 Jun 2027 07:23:48.677   05 Jun 2027 07:24:04.337            15.660                Novosib           489.375
       390   05 Jun 2027 07:25:38.634   05 Jun 2027 07:25:53.069            14.435                Irkutsk           451.094
       391   05 Jun 2027 07:27:40.135   05 Jun 2027 07:27:53.738            13.603              Murmansk2           425.094
       392   05 Jun 2027 07:32:19.423   05 Jun 2027 07:32:41.482            22.059              Murmansk1           689.344
       393   05 Jun 2027 08:02:29.655   05 Jun 2027 08:02:41.369            11.714            RioGallegos           366.062
       394   05 Jun 2027 08:02:50.439   05 Jun 2027 08:03:34.927            44.488            RioGallegos          1390.250
       395   05 Jun 2027 08:36:44.051   05 Jun 2027 08:37:42.695            58.644                Sumatra          1832.625
       396   05 Jun 2027 08:41:16.354   05 Jun 2027 08:41:24.962             8.608                Sumatra           269.000
       397   05 Jun 2027 08:58:48.739   05 Jun 2027 08:59:00.687            11.948                Novosib           373.375
       398   05 Jun 2027 08:59:36.257   05 Jun 2027 08:59:58.865            22.608                Irkutsk           706.500
       399   05 Jun 2027 09:02:47.456   05 Jun 2027 09:03:01.918            14.462                Novosib           451.938
       400   05 Jun 2027 10:21:39.251   05 Jun 2027 10:24:23.078           163.827                  Delhi          5119.594
       401   05 Jun 2027 10:25:34.579   05 Jun 2027 10:26:07.973            33.394                  Delhi          1043.563
       402   05 Jun 2027 10:39:21.291   05 Jun 2027 10:39:58.363            37.072              Murmansk1          1158.500
       403   05 Jun 2027 12:05:00.146   05 Jun 2027 12:05:50.071            49.925                 Moscow          1560.156
       404   05 Jun 2027 12:10:38.880   05 Jun 2027 12:11:03.325            24.445              Murmansk1           763.906
       405   05 Jun 2027 12:11:04.787   05 Jun 2027 12:11:34.865            30.078              Murmansk2           939.937
       406   05 Jun 2027 12:11:58.720   05 Jun 2027 12:12:57.028            58.308              Murmansk2          1822.125
       407   05 Jun 2027 12:15:17.763   05 Jun 2027 12:16:51.564            93.801                Norilsk          2931.281
       408   05 Jun 2027 12:24:37.259   05 Jun 2027 12:27:57.070           199.811                Anadyr1          6244.094
       409   05 Jun 2027 13:53:00.000   05 Jun 2027 13:53:09.031             9.031              Murmansk1           282.219
       410   05 Jun 2027 13:53:41.674   05 Jun 2027 13:54:14.202            32.528              Murmansk1          1016.500
       411   05 Jun 2027 13:55:56.555   05 Jun 2027 13:56:20.287            23.732              Murmansk2           741.625
       412   05 Jun 2027 13:59:06.329   05 Jun 2027 14:00:55.732           109.403                Anadyr1          3418.844
       413   05 Jun 2027 14:00:55.890   05 Jun 2027 14:02:22.824            86.934                Anadyr2          2716.687
       414   05 Jun 2027 15:05:12.206   05 Jun 2027 15:05:31.301            19.095               CapeTown           596.719
       415   05 Jun 2027 15:27:12.200   05 Jun 2027 15:29:18.644           126.444              Murmansk1          3951.375
       416   05 Jun 2027 15:29:18.644   05 Jun 2027 15:30:06.659            48.015              Murmansk2          1500.469
       417   05 Jun 2027 15:34:52.664   05 Jun 2027 15:37:08.871           136.207                Anadyr1          4256.469
       418   05 Jun 2027 15:37:37.443   05 Jun 2027 15:40:38.601           181.158               Magadan2          5661.187
       419   05 Jun 2027 15:40:46.900   05 Jun 2027 15:42:09.841            82.941               Magadan2          2591.906
       420   05 Jun 2027 15:47:01.373   05 Jun 2027 15:48:07.920            66.547               Magadan1          2079.594
       421   05 Jun 2027 17:13:05.007   05 Jun 2027 17:15:14.409           129.402               Magadan2          4043.813
       422   05 Jun 2027 17:21:48.903   05 Jun 2027 17:22:31.930            43.027               Magadan2          1344.594
       423   05 Jun 2027 18:05:49.008   05 Jun 2027 18:09:20.067           211.059            RioGallegos          6595.594
       424   05 Jun 2027 18:10:23.892   05 Jun 2027 18:12:26.348           122.456            RioGallegos          3826.750
       425   05 Jun 2027 18:48:41.830   05 Jun 2027 18:50:24.632           102.802                Norilsk          3212.562
       426   05 Jun 2027 18:50:44.716   05 Jun 2027 18:52:55.655           130.939                Norilsk          4091.844
       427   05 Jun 2027 18:53:08.137   05 Jun 2027 18:53:51.675            43.538                Irkutsk          1360.562
       428   05 Jun 2027 18:54:45.955   05 Jun 2027 18:56:08.276            82.321                Irkutsk          2572.531
       429   05 Jun 2027 19:07:13.688   05 Jun 2027 19:10:40.326           206.638                Sumatra          6457.437
       430   05 Jun 2027 19:13:43.683   05 Jun 2027 19:14:03.680            19.997                Sumatra           624.906
       431   05 Jun 2027 20:28:47.343   05 Jun 2027 20:29:55.484            68.141                Novosib          2129.406
       432   05 Jun 2027 20:32:03.120   05 Jun 2027 20:32:48.583            45.463                Novosib          1420.719
       433   05 Jun 2027 20:37:12.477   05 Jun 2027 20:38:02.395            49.918                  Delhi          1559.938
       434   05 Jun 2027 20:38:15.134   05 Jun 2027 20:40:22.709           127.575                  Delhi          3986.719
       435   05 Jun 2027 20:44:26.651   05 Jun 2027 20:44:32.115             5.464                  Delhi           170.750
       436   05 Jun 2027 22:03:08.155   05 Jun 2027 22:09:28.231           380.076              Murmansk2         11877.375
       437   05 Jun 2027 23:34:12.760   05 Jun 2027 23:34:46.322            33.562               Magadan1          1048.813
       438   05 Jun 2027 23:37:47.669   05 Jun 2027 23:37:56.439             8.770               Magadan1           274.062
       439   05 Jun 2027 23:38:06.156   05 Jun 2027 23:38:18.024            11.868               Magadan1           370.875
       440   05 Jun 2027 23:38:42.629   05 Jun 2027 23:40:08.164            85.535              Murmansk1          2672.969
       441   05 Jun 2027 23:40:23.684   05 Jun 2027 23:40:46.832            23.148              Murmansk1           723.375
       442   05 Jun 2027 23:41:58.422   05 Jun 2027 23:42:18.058            19.636              Murmansk2           613.625
       443   05 Jun 2027 23:42:22.634   05 Jun 2027 23:44:00.825            98.191              Murmansk1          3068.469
       444   05 Jun 2027 23:44:07.614   05 Jun 2027 23:44:35.096            27.482                 Moscow           858.812
       445   05 Jun 2027 23:46:18.040   05 Jun 2027 23:46:48.160            30.120                 Moscow           941.250
       446   05 Jun 2027 23:49:15.422   05 Jun 2027 23:50:22.003            66.581                 Moscow          2080.656
       447   06 Jun 2027 00:07:10.740   06 Jun 2027 00:09:58.116           167.376               CapeTown          5230.500
       448   06 Jun 2027 00:13:13.551   06 Jun 2027 00:14:00.167            46.616               CapeTown          1456.750
       449   06 Jun 2027 01:13:37.453   06 Jun 2027 01:13:47.085             9.632               Magadan1           301.000
       450   06 Jun 2027 01:14:39.871   06 Jun 2027 01:17:03.693           143.822              Murmansk2          4494.438
       451   06 Jun 2027 01:18:01.400   06 Jun 2027 01:19:08.525            67.125                 Moscow          2097.656
       452   06 Jun 2027 01:41:59.156   06 Jun 2027 01:43:22.046            82.890               CapeTown          2590.313
       453   06 Jun 2027 01:52:48.737   06 Jun 2027 01:54:13.724            84.987               CapeTown          2655.844
       454   06 Jun 2027 02:38:56.531   06 Jun 2027 02:40:25.200            88.669               Magadan2          2770.906
       455   06 Jun 2027 02:42:36.980   06 Jun 2027 02:42:40.705             3.725               Magadan2           116.406
       456   06 Jun 2027 02:43:42.226   06 Jun 2027 02:44:16.372            34.146               Magadan1          1067.063
       457   06 Jun 2027 02:46:45.476   06 Jun 2027 02:47:03.325            17.849                Norilsk           557.781
       458   06 Jun 2027 02:48:13.527   06 Jun 2027 02:48:36.097            22.570               Magadan2           705.312
       459   06 Jun 2027 02:50:34.423   06 Jun 2027 02:51:13.060            38.637              Murmansk2          1207.406
       460   06 Jun 2027 02:51:13.060   06 Jun 2027 02:51:53.233            40.173              Murmansk1          1255.406
       461   06 Jun 2027 02:53:32.010   06 Jun 2027 02:53:36.787             4.777              Murmansk2           149.281
       462   06 Jun 2027 02:54:09.656   06 Jun 2027 02:55:04.367            54.711                 Moscow          1709.719
       463   06 Jun 2027 04:21:58.622   06 Jun 2027 04:22:44.815            46.193                Anadyr1          1443.531
       464   06 Jun 2027 04:22:51.600   06 Jun 2027 04:23:50.892            59.292               Magadan1          1852.875
       465   06 Jun 2027 04:24:02.283   06 Jun 2027 04:24:14.433            12.150               Magadan2           379.688
       466   06 Jun 2027 04:24:19.997   06 Jun 2027 04:25:09.748            49.751               Magadan2          1554.719
       467   06 Jun 2027 04:25:17.026   06 Jun 2027 04:25:35.221            18.195               Magadan1           568.594
       468   06 Jun 2027 05:03:33.458   06 Jun 2027 05:06:38.254           184.796            RioGallegos          5774.875
       469   06 Jun 2027 05:58:23.603   06 Jun 2027 05:58:37.721            14.118                Irkutsk           441.188
       470   06 Jun 2027 05:58:42.055   06 Jun 2027 06:01:44.705           182.650                Irkutsk          5707.813
       471   06 Jun 2027 07:34:56.852   06 Jun 2027 07:34:59.017             2.165                Novosib            67.656
       472   06 Jun 2027 07:35:28.242   06 Jun 2027 07:36:00.050            31.808              Murmansk2           994.000
       473   06 Jun 2027 07:36:00.050   06 Jun 2027 07:36:45.653            45.603              Murmansk1          1425.094
       474   06 Jun 2027 07:36:51.990   06 Jun 2027 07:37:18.163            26.173              Murmansk1           817.906
       475   06 Jun 2027 07:38:24.451   06 Jun 2027 07:38:42.549            18.098                Irkutsk           565.563
       476   06 Jun 2027 07:44:50.971   06 Jun 2027 07:44:53.564             2.593              Murmansk1            81.031
       477   06 Jun 2027 07:45:14.564   06 Jun 2027 07:45:35.733            21.169              Murmansk1           661.531
       478   06 Jun 2027 08:14:58.397   06 Jun 2027 08:15:40.844            42.447            RioGallegos          1326.469
       479   06 Jun 2027 08:49:09.954   06 Jun 2027 08:50:26.420            76.466                Sumatra          2389.562
       480   06 Jun 2027 09:14:24.647   06 Jun 2027 09:14:30.275             5.628                Norilsk           175.875
       481   06 Jun 2027 10:34:20.095   06 Jun 2027 10:36:57.325           157.230                  Delhi          4913.437
       482   06 Jun 2027 10:38:23.307   06 Jun 2027 10:38:32.350             9.043                  Delhi           282.594
