uniorb/output/strategy_4/Drop/Drop_KinoSat_111910.txt

KinoSat_111910
-------------------------
    Access    *     Start Time (UTCG)     *     Stop Time (UTCG)  *   Duration (s)        *       Station  *  Data (Mbytes)
         1   01 Jun 2027 03:51:51.240   01 Jun 2027 03:53:15.320            84.080                 Moscow          2627.500
         2   01 Jun 2027 03:53:21.835   01 Jun 2027 03:56:42.660           200.825                Novosib          6275.781
         3   01 Jun 2027 03:57:26.322   01 Jun 2027 03:57:34.532             8.210                Norilsk           256.562
         4   01 Jun 2027 03:58:28.280   01 Jun 2027 04:01:03.126           154.846                  Delhi          4838.937
         5   01 Jun 2027 05:30:18.874   01 Jun 2027 05:32:45.712           146.838                Norilsk          4588.688
         6   01 Jun 2027 05:32:51.675   01 Jun 2027 05:33:53.174            61.499                 Moscow          1921.844
         7   01 Jun 2027 05:34:02.039   01 Jun 2027 05:35:07.545            65.506              Murmansk2          2047.062
         8   01 Jun 2027 05:35:45.209   01 Jun 2027 05:38:50.795           185.586                 Moscow          5799.563
         9   01 Jun 2027 05:50:34.965   01 Jun 2027 05:53:59.923           204.958               CapeTown          6404.937
        10   01 Jun 2027 05:59:58.648   01 Jun 2027 06:02:13.240           134.592               CapeTown          4206.000
        11   01 Jun 2027 06:54:38.629   01 Jun 2027 06:56:27.167           108.538                Anadyr2          3391.813
        12   01 Jun 2027 06:57:26.055   01 Jun 2027 06:58:22.224            56.169               Magadan1          1755.281
        13   01 Jun 2027 07:05:42.894   01 Jun 2027 07:08:53.394           190.500                 Moscow          5953.125
        14   01 Jun 2027 07:11:02.571   01 Jun 2027 07:11:33.943            31.372                 Moscow           980.375
        15   01 Jun 2027 07:11:43.686   01 Jun 2027 07:11:50.883             7.197                 Moscow           224.906
        16   01 Jun 2027 07:27:01.416   01 Jun 2027 07:29:19.430           138.014               CapeTown          4312.938
        17   01 Jun 2027 07:31:31.646   01 Jun 2027 07:32:03.435            31.789               CapeTown           993.406
        18   01 Jun 2027 08:29:39.630   01 Jun 2027 08:31:18.894            99.264               Magadan2          3102.000
        19   01 Jun 2027 08:31:47.183   01 Jun 2027 08:35:40.871           233.688                Anadyr1          7302.750
        20   01 Jun 2027 10:02:35.279   01 Jun 2027 10:02:59.500            24.221                Anadyr2           756.906
        21   01 Jun 2027 10:03:45.249   01 Jun 2027 10:07:12.508           207.259                Anadyr2          6476.844
        22   01 Jun 2027 10:07:32.585   01 Jun 2027 10:08:33.945            61.360                Anadyr2          1917.500
        23   01 Jun 2027 10:09:03.741   01 Jun 2027 10:11:16.092           132.351               Magadan2          4135.969
        24   01 Jun 2027 11:37:59.947   01 Jun 2027 11:44:19.651           379.704               Magadan1         11865.750
        25   01 Jun 2027 11:46:01.903   01 Jun 2027 11:46:15.438            13.535               Magadan2           422.969
        26   01 Jun 2027 14:00:42.447   01 Jun 2027 14:07:37.992           415.545            RioGallegos         12985.781
        27   01 Jun 2027 14:35:17.957   01 Jun 2027 14:41:46.529           388.572                Sumatra         12142.875
        28   01 Jun 2027 14:51:11.921   01 Jun 2027 14:56:29.266           317.345                Irkutsk          9917.031
        29   01 Jun 2027 16:21:37.071   01 Jun 2027 16:25:16.145           219.074                  Delhi          6846.062
        30   01 Jun 2027 16:29:45.979   01 Jun 2027 16:33:36.253           230.274                Novosib          7196.062
        31   01 Jun 2027 16:37:17.110   01 Jun 2027 16:37:19.255             2.145                Norilsk            67.031
        32   01 Jun 2027 19:44:42.272   01 Jun 2027 19:45:03.022            20.750              Murmansk1           648.437
        33   01 Jun 2027 19:47:32.844   01 Jun 2027 19:49:37.156           124.312              Murmansk2          3884.750
        34   01 Jun 2027 19:51:00.798   01 Jun 2027 19:51:51.138            50.340              Murmansk1          1573.125
        35   01 Jun 2027 20:52:49.375   01 Jun 2027 20:59:02.690           373.315               CapeTown         11666.094
        36   01 Jun 2027 23:15:31.863   01 Jun 2027 23:16:21.948            50.085                Irkutsk          1565.156
        37   01 Jun 2027 23:17:42.690   01 Jun 2027 23:18:34.441            51.751                Irkutsk          1617.219
        38   02 Jun 2027 00:01:18.038   02 Jun 2027 00:02:54.647            96.609            RioGallegos          3019.031
        39   02 Jun 2027 00:03:16.320   02 Jun 2027 00:03:21.897             5.577            RioGallegos           174.281
        40   02 Jun 2027 00:03:30.598   02 Jun 2027 00:04:38.859            68.261            RioGallegos          2133.156
        41   02 Jun 2027 00:08:42.657   02 Jun 2027 00:09:12.275            29.618            RioGallegos           925.562
        42   02 Jun 2027 00:11:55.566   02 Jun 2027 00:12:19.153            23.587            RioGallegos           737.094
        43   02 Jun 2027 00:42:37.162   02 Jun 2027 00:44:07.188            90.026                Anadyr1          2813.313
        44   02 Jun 2027 00:44:54.547   02 Jun 2027 00:45:46.756            52.209                Norilsk          1631.531
        45   02 Jun 2027 00:46:00.218   02 Jun 2027 00:46:05.101             4.883               Magadan2           152.594
        46   02 Jun 2027 00:46:23.440   02 Jun 2027 00:47:22.435            58.995               Magadan1          1843.594
        47   02 Jun 2027 00:47:28.467   02 Jun 2027 00:48:30.408            61.941               Magadan2          1935.656
        48   02 Jun 2027 00:48:58.940   02 Jun 2027 00:49:43.180            44.240                Irkutsk          1382.500
        49   02 Jun 2027 00:50:10.606   02 Jun 2027 00:50:39.951            29.345                Irkutsk           917.031
        50   02 Jun 2027 00:53:13.122   02 Jun 2027 00:53:51.188            38.066                Irkutsk          1189.563
        51   02 Jun 2027 00:55:02.581   02 Jun 2027 00:55:34.676            32.095                Novosib          1002.969
        52   02 Jun 2027 00:59:46.354   02 Jun 2027 01:00:15.394            29.040                Irkutsk           907.500
        53   02 Jun 2027 01:02:40.528   02 Jun 2027 01:03:19.731            39.203                Sumatra          1225.094
        54   02 Jun 2027 01:05:45.785   02 Jun 2027 01:05:54.538             8.753                Sumatra           273.531
        55   02 Jun 2027 01:06:11.091   02 Jun 2027 01:06:54.972            43.881                Sumatra          1371.281
        56   02 Jun 2027 01:11:04.542   02 Jun 2027 01:12:13.495            68.953                Sumatra          2154.781
        57   02 Jun 2027 01:45:47.402   02 Jun 2027 01:46:24.467            37.065            RioGallegos          1158.281
        58   02 Jun 2027 01:47:34.827   02 Jun 2027 01:48:49.575            74.748            RioGallegos          2335.875
        59   02 Jun 2027 02:19:21.291   02 Jun 2027 02:19:28.562             7.271                Anadyr2           227.219
        60   02 Jun 2027 02:19:51.466   02 Jun 2027 02:19:54.845             3.379                Anadyr1           105.594
        61   02 Jun 2027 02:20:20.941   02 Jun 2027 02:20:36.941            16.000                Anadyr1           500.000
        62   02 Jun 2027 02:20:54.264   02 Jun 2027 02:22:01.275            67.011                Norilsk          2094.094
        63   02 Jun 2027 02:23:30.530   02 Jun 2027 02:23:41.582            11.052               Magadan1           345.375
        64   02 Jun 2027 02:24:01.836   02 Jun 2027 02:24:22.139            20.303                Norilsk           634.469
        65   02 Jun 2027 02:24:48.502   02 Jun 2027 02:26:17.557            89.055                Novosib          2782.969
        66   02 Jun 2027 02:26:49.914   02 Jun 2027 02:27:38.375            48.461                Novosib          1514.406
        67   02 Jun 2027 02:30:13.246   02 Jun 2027 02:30:25.819            12.573                Irkutsk           392.906
        68   02 Jun 2027 02:32:57.851   02 Jun 2027 02:33:17.048            19.197                  Delhi           599.906
        69   02 Jun 2027 02:34:11.156   02 Jun 2027 02:34:50.454            39.298                  Delhi          1228.062
        70   02 Jun 2027 02:39:06.813   02 Jun 2027 02:39:46.517            39.704                  Delhi          1240.750
        71   02 Jun 2027 02:42:06.485   02 Jun 2027 02:46:55.032           288.547                Sumatra          9017.094
        72   02 Jun 2027 03:17:03.824   02 Jun 2027 03:17:35.748            31.924            RioGallegos           997.625
        73   02 Jun 2027 04:04:08.779   02 Jun 2027 04:04:13.841             5.062              Murmansk1           158.187
        74   02 Jun 2027 04:04:28.491   02 Jun 2027 04:05:55.020            86.529                Norilsk          2704.031
        75   02 Jun 2027 04:06:11.340   02 Jun 2027 04:09:37.812           206.472                Irkutsk          6452.250
        76   02 Jun 2027 04:09:56.719   02 Jun 2027 04:12:17.701           140.982                  Delhi          4405.687
        77   02 Jun 2027 04:12:24.315   02 Jun 2027 04:13:01.303            36.988                Novosib          1155.875
        78   02 Jun 2027 04:16:25.324   02 Jun 2027 04:18:49.744           144.420                  Delhi          4513.125
        79   02 Jun 2027 05:42:30.257   02 Jun 2027 05:42:53.321            23.064                Norilsk           720.750
        80   02 Jun 2027 05:43:36.641   02 Jun 2027 05:45:45.530           128.889                Novosib          4027.781
        81   02 Jun 2027 05:49:21.891   02 Jun 2027 05:51:01.365            99.474                 Moscow          3108.562
        82   02 Jun 2027 06:02:22.179   02 Jun 2027 06:02:52.130            29.951               CapeTown           935.969
        83   02 Jun 2027 06:03:20.876   02 Jun 2027 06:04:44.087            83.211               CapeTown          2600.344
        84   02 Jun 2027 06:05:59.709   02 Jun 2027 06:06:44.173            44.464               CapeTown          1389.500
        85   02 Jun 2027 06:08:31.761   02 Jun 2027 06:14:41.339           369.578               CapeTown         11549.313
        86   02 Jun 2027 07:05:37.270   02 Jun 2027 07:06:13.464            36.194               Magadan2          1131.063
        87   02 Jun 2027 07:06:47.402   02 Jun 2027 07:11:48.469           301.067                Anadyr2          9408.344
        88   02 Jun 2027 07:17:07.616   02 Jun 2027 07:18:10.706            63.090                 Moscow          1971.562
        89   02 Jun 2027 07:25:58.423   02 Jun 2027 07:26:21.807            23.384                 Moscow           730.750
        90   02 Jun 2027 08:42:56.375   02 Jun 2027 08:44:42.729           106.354                Anadyr1          3323.563
        91   02 Jun 2027 08:46:52.802   02 Jun 2027 08:47:25.081            32.279               Magadan1          1008.719
        92   02 Jun 2027 10:15:34.007   02 Jun 2027 10:15:34.559             0.552               Magadan2            17.250
        93   02 Jun 2027 10:16:19.560   02 Jun 2027 10:17:24.876            65.316               Magadan2          2041.125
        94   02 Jun 2027 10:17:57.692   02 Jun 2027 10:18:10.166            12.474               Magadan1           389.813
        95   02 Jun 2027 10:18:22.909   02 Jun 2027 10:19:02.896            39.987                Irkutsk          1249.594
        96   02 Jun 2027 10:19:23.618   02 Jun 2027 10:20:15.369            51.751                Anadyr2          1617.219
        97   02 Jun 2027 10:20:26.920   02 Jun 2027 10:20:46.237            19.317               Magadan2           603.656
        98   02 Jun 2027 10:20:58.235   02 Jun 2027 10:23:15.319           137.084               Magadan1          4283.875
        99   02 Jun 2027 11:50:51.412   02 Jun 2027 11:57:57.056           425.644               Magadan2         13301.375
       100   02 Jun 2027 11:58:38.487   02 Jun 2027 11:58:51.554            13.067                Novosib           408.344
       101   02 Jun 2027 11:58:55.199   02 Jun 2027 11:59:05.842            10.643                Irkutsk           332.594
       102   02 Jun 2027 12:00:13.131   02 Jun 2027 12:00:41.188            28.057                Norilsk           876.781
       103   02 Jun 2027 12:02:38.187   02 Jun 2027 12:03:51.998            73.811                Norilsk          2306.594
       104   02 Jun 2027 12:36:59.032   02 Jun 2027 12:37:55.201            56.169            RioGallegos          1755.281
       105   02 Jun 2027 12:42:42.027   02 Jun 2027 12:43:06.961            24.934            RioGallegos           779.188
       106   02 Jun 2027 12:43:37.948   02 Jun 2027 12:44:07.238            29.290            RioGallegos           915.312
       107   02 Jun 2027 13:08:39.315   02 Jun 2027 13:09:49.918            70.603                Sumatra          2206.344
       108   02 Jun 2027 13:14:33.345   02 Jun 2027 13:15:26.052            52.707                Sumatra          1647.094
       109   02 Jun 2027 13:18:14.524   02 Jun 2027 13:18:23.547             9.023                Sumatra           281.969
       110   02 Jun 2027 13:20:20.963   02 Jun 2027 13:21:23.255            62.292                Sumatra          1946.625
       111   02 Jun 2027 13:25:03.866   02 Jun 2027 13:26:05.110            61.244                Novosib          1913.875
       112   02 Jun 2027 13:26:27.622   02 Jun 2027 13:27:33.669            66.047                Irkutsk          2063.969
       113   02 Jun 2027 14:13:39.751   02 Jun 2027 14:16:41.184           181.433            RioGallegos          5669.781
       114   02 Jun 2027 14:17:46.860   02 Jun 2027 14:17:49.546             2.686            RioGallegos            83.937
       115   02 Jun 2027 14:49:39.365   02 Jun 2027 14:51:18.887            99.522                Sumatra          3110.062
       116   02 Jun 2027 15:00:37.660   02 Jun 2027 15:00:49.015            11.355                Novosib           354.844
       117   02 Jun 2027 15:02:43.237   02 Jun 2027 15:05:34.664           171.427                Novosib          5357.094
       118   02 Jun 2027 15:05:35.895   02 Jun 2027 15:06:47.934            72.039                Irkutsk          2251.219
       119   02 Jun 2027 16:38:34.282   02 Jun 2027 16:39:26.466            52.184                 Moscow          1630.750
       120   02 Jun 2027 16:40:40.983   02 Jun 2027 16:41:41.132            60.149              Murmansk1          1879.656
       121   02 Jun 2027 16:44:25.303   02 Jun 2027 16:47:24.765           179.462                Norilsk          5608.187
       122   02 Jun 2027 16:48:51.313   02 Jun 2027 16:50:11.128            79.815                Norilsk          2494.219
       123   02 Jun 2027 17:55:31.869   02 Jun 2027 17:55:45.571            13.702               CapeTown           428.188
       124   02 Jun 2027 17:57:08.266   02 Jun 2027 17:57:40.439            32.173               CapeTown          1005.406
       125   02 Jun 2027 18:00:33.332   02 Jun 2027 18:01:15.147            41.815               CapeTown          1306.719
       126   02 Jun 2027 18:14:27.244   02 Jun 2027 18:14:59.017            31.773                 Moscow           992.906
       127   02 Jun 2027 18:15:57.749   02 Jun 2027 18:16:10.289            12.540                 Moscow           391.875
       128   02 Jun 2027 18:17:39.378   02 Jun 2027 18:18:04.520            25.142              Murmansk2           785.687
       129   02 Jun 2027 18:19:23.428   02 Jun 2027 18:20:01.705            38.277              Murmansk2          1196.156
       130   02 Jun 2027 18:21:07.139   02 Jun 2027 18:22:40.787            93.648              Murmansk1          2926.500
       131   02 Jun 2027 18:23:26.177   02 Jun 2027 18:23:52.991            26.814              Murmansk1           837.938
       132   02 Jun 2027 18:31:46.130   02 Jun 2027 18:32:22.915            36.785                Anadyr1          1149.531
       133   02 Jun 2027 18:36:12.644   02 Jun 2027 18:36:56.675            44.031                Anadyr1          1375.969
       134   02 Jun 2027 19:26:43.523   02 Jun 2027 19:28:46.420           122.897               CapeTown          3840.531
       135   02 Jun 2027 19:37:35.265   02 Jun 2027 19:38:42.374            67.109               CapeTown          2097.156
       136   02 Jun 2027 19:56:50.801   02 Jun 2027 19:57:58.912            68.111              Murmansk1          2128.469
       137   02 Jun 2027 19:59:04.387   02 Jun 2027 20:02:22.576           198.189              Murmansk2          6193.406
       138   02 Jun 2027 20:02:47.045   02 Jun 2027 20:05:22.362           155.317              Murmansk1          4853.656
       139   02 Jun 2027 21:06:08.341   02 Jun 2027 21:09:18.938           190.597               CapeTown          5956.156
       140   02 Jun 2027 21:44:56.145   02 Jun 2027 21:46:10.082            73.937                Anadyr2          2310.531
       141   02 Jun 2027 21:46:50.395   02 Jun 2027 21:47:53.316            62.921               Magadan1          1966.281
       142   02 Jun 2027 21:50:48.431   02 Jun 2027 21:51:09.485            21.054               Magadan1           657.937
       143   02 Jun 2027 23:19:06.321   02 Jun 2027 23:22:52.573           226.252                Anadyr1          7070.375
       144   02 Jun 2027 23:22:54.135   02 Jun 2027 23:24:28.900            94.765                Anadyr2          2961.406
       145   02 Jun 2027 23:24:37.566   02 Jun 2027 23:25:43.157            65.591               Magadan1          2049.719
       146   02 Jun 2027 23:26:06.147   02 Jun 2027 23:26:26.418            20.271               Magadan1           633.469
       147   02 Jun 2027 23:26:32.274   02 Jun 2027 23:26:32.807             0.533                Norilsk            16.656
       148   02 Jun 2027 23:26:41.406   02 Jun 2027 23:27:05.331            23.925               Magadan1           747.656
       149   02 Jun 2027 23:27:53.842   02 Jun 2027 23:28:23.847            30.005                Irkutsk           937.656
       150   02 Jun 2027 23:29:01.716   02 Jun 2027 23:29:34.022            32.306                Irkutsk          1009.562
       151   02 Jun 2027 23:30:32.690   02 Jun 2027 23:31:39.656            66.966                Irkutsk          2092.688
       152   02 Jun 2027 23:43:04.150   02 Jun 2027 23:44:09.328            65.178                Sumatra          2036.813
       153   02 Jun 2027 23:45:50.095   02 Jun 2027 23:46:50.033            59.938                Sumatra          1873.063
       154   03 Jun 2027 00:14:14.108   03 Jun 2027 00:14:45.335            31.227            RioGallegos           975.844
       155   03 Jun 2027 00:18:01.234   03 Jun 2027 00:18:17.475            16.241            RioGallegos           507.531
       156   03 Jun 2027 00:19:49.624   03 Jun 2027 00:20:10.248            20.624            RioGallegos           644.500
       157   03 Jun 2027 00:24:40.001   03 Jun 2027 00:24:52.221            12.220            RioGallegos           381.875
       158   03 Jun 2027 00:54:32.409   03 Jun 2027 00:54:41.837             9.428                Anadyr1           294.625
       159   03 Jun 2027 00:54:49.075   03 Jun 2027 00:55:36.287            47.212                Anadyr2          1475.375
       160   03 Jun 2027 00:56:05.672   03 Jun 2027 00:56:49.831            44.159                Anadyr1          1379.969
       161   03 Jun 2027 00:56:56.215   03 Jun 2027 00:58:49.760           113.545                Norilsk          3548.281
       162   03 Jun 2027 00:59:15.633   03 Jun 2027 00:59:58.439            42.806               Magadan1          1337.688
       163   03 Jun 2027 01:00:56.371   03 Jun 2027 01:02:25.642            89.271                Irkutsk          2789.719
       164   03 Jun 2027 01:02:41.072   03 Jun 2027 01:03:43.599            62.527                Irkutsk          1953.969
       165   03 Jun 2027 01:14:39.520   03 Jun 2027 01:17:05.100           145.580                Sumatra          4549.375
       166   03 Jun 2027 01:54:11.530   03 Jun 2027 01:54:31.437            19.907            RioGallegos           622.094
       167   03 Jun 2027 01:55:19.370   03 Jun 2027 01:55:28.923             9.553            RioGallegos           298.531
       168   03 Jun 2027 01:57:31.572   03 Jun 2027 01:57:48.257            16.685            RioGallegos           521.406
       169   03 Jun 2027 01:58:05.330   03 Jun 2027 01:58:18.969            13.639            RioGallegos           426.219
       170   03 Jun 2027 01:58:31.512   03 Jun 2027 02:00:01.984            90.472            RioGallegos          2827.250
       171   03 Jun 2027 02:31:18.870   03 Jun 2027 02:31:28.100             9.230                Anadyr2           288.437
       172   03 Jun 2027 02:32:56.705   03 Jun 2027 02:33:44.859            48.154                Norilsk          1504.812
       173   03 Jun 2027 02:34:12.257   03 Jun 2027 02:34:24.386            12.129                Norilsk           379.031
       174   03 Jun 2027 02:35:50.854   03 Jun 2027 02:36:03.901            13.047                Norilsk           407.719
       175   03 Jun 2027 02:36:22.736   03 Jun 2027 02:37:06.776            44.040              Murmansk1          1376.250
       176   03 Jun 2027 02:37:09.704   03 Jun 2027 02:38:48.487            98.783                Irkutsk          3086.969
       177   03 Jun 2027 02:42:17.692   03 Jun 2027 02:42:29.305            11.613                Irkutsk           362.906
       178   03 Jun 2027 02:44:13.233   03 Jun 2027 02:45:10.223            56.990                  Delhi          1780.937
       179   03 Jun 2027 02:53:43.950   03 Jun 2027 02:54:35.179            51.229                  Delhi          1600.906
       180   03 Jun 2027 03:26:41.292   03 Jun 2027 03:28:26.060           104.768            RioGallegos          3274.000
       181   03 Jun 2027 03:33:01.060   03 Jun 2027 03:34:08.360            67.300            RioGallegos          2103.125
       182   03 Jun 2027 04:16:28.300   03 Jun 2027 04:18:23.822           115.522                Norilsk          3610.062
       183   03 Jun 2027 04:18:43.410   03 Jun 2027 04:20:55.117           131.707                Irkutsk          4115.844
       184   03 Jun 2027 04:23:17.115   03 Jun 2027 04:28:06.638           289.523                  Delhi          9047.594
       185   03 Jun 2027 05:55:58.537   03 Jun 2027 05:57:10.021            71.484                Novosib          2233.875
       186   03 Jun 2027 05:57:25.022   03 Jun 2027 05:57:58.463            33.441                 Moscow          1045.031
       187   03 Jun 2027 05:58:09.624   03 Jun 2027 05:59:52.929           103.305                 Moscow          3228.281
       188   03 Jun 2027 06:00:10.040   03 Jun 2027 06:00:58.839            48.799                 Moscow          1524.969
       189   03 Jun 2027 06:01:31.268   03 Jun 2027 06:02:23.929            52.661                 Moscow          1645.656
       190   03 Jun 2027 06:18:29.171   03 Jun 2027 06:20:14.790           105.619               CapeTown          3300.594
       191   03 Jun 2027 07:17:23.120   03 Jun 2027 07:17:31.642             8.522                Anadyr1           266.312
       192   03 Jun 2027 07:17:31.642   03 Jun 2027 07:17:53.129            21.487                Anadyr2           671.469
       193   03 Jun 2027 07:18:06.141   03 Jun 2027 07:18:58.427            52.286                Anadyr2          1633.937
       194   03 Jun 2027 07:19:43.514   03 Jun 2027 07:20:30.065            46.551                Anadyr1          1454.719
       195   03 Jun 2027 07:21:53.561   03 Jun 2027 07:22:33.786            40.225                Anadyr2          1257.031
       196   03 Jun 2027 07:33:22.493   03 Jun 2027 07:34:22.751            60.258                 Moscow          1883.063
       197   03 Jun 2027 07:52:21.837   03 Jun 2027 07:56:51.677           269.840               CapeTown          8432.500
       198   03 Jun 2027 08:51:38.139   03 Jun 2027 08:52:29.452            51.313               Magadan2          1603.531
       199   03 Jun 2027 08:52:43.777   03 Jun 2027 08:53:10.357            26.580                Anadyr2           830.625
       200   03 Jun 2027 08:53:43.504   03 Jun 2027 08:54:48.739            65.235               Magadan1          2038.594
       201   03 Jun 2027 08:55:16.037   03 Jun 2027 08:55:29.931            13.894               Magadan1           434.187
       202   03 Jun 2027 08:55:49.522   03 Jun 2027 08:56:51.157            61.635                Anadyr2          1926.094
       203   03 Jun 2027 09:38:54.603   03 Jun 2027 09:39:50.440            55.837            RioGallegos          1744.906
       204   03 Jun 2027 10:26:40.886   03 Jun 2027 10:27:59.689            78.803               Magadan2          2462.594
       205   03 Jun 2027 10:28:21.576   03 Jun 2027 10:28:31.124             9.548               Magadan1           298.375
       206   03 Jun 2027 10:29:21.478   03 Jun 2027 10:31:25.266           123.788               Magadan1          3868.375
       207   03 Jun 2027 10:31:29.586   03 Jun 2027 10:32:02.724            33.138                Anadyr2          1035.562
       208   03 Jun 2027 10:32:50.752   03 Jun 2027 10:33:03.668            12.916               Magadan1           403.625
       209   03 Jun 2027 10:33:05.810   03 Jun 2027 10:34:44.546            98.736               Magadan2          3085.500
       210   03 Jun 2027 10:37:30.428   03 Jun 2027 10:37:52.988            22.560                Norilsk           705.000
       211   03 Jun 2027 11:10:22.878   03 Jun 2027 11:10:35.310            12.432            RioGallegos           388.500
       212   03 Jun 2027 11:11:11.716   03 Jun 2027 11:11:46.083            34.367            RioGallegos          1073.969
       213   03 Jun 2027 11:12:59.025   03 Jun 2027 11:13:47.913            48.888            RioGallegos          1527.750
       214   03 Jun 2027 11:48:13.709   03 Jun 2027 11:49:42.228            88.519                Sumatra          2766.219
       215   03 Jun 2027 12:03:55.107   03 Jun 2027 12:07:53.937           238.830               Magadan2          7463.437
       216   03 Jun 2027 13:24:58.560   03 Jun 2027 13:26:01.835            63.275                Sumatra          1977.344
       217   03 Jun 2027 13:35:07.537   03 Jun 2027 13:35:26.390            18.853                Irkutsk           589.156
       218   03 Jun 2027 13:37:04.422   03 Jun 2027 13:40:07.170           182.748                Irkutsk          5710.875
       219   03 Jun 2027 14:26:57.661   03 Jun 2027 14:30:37.424           219.763            RioGallegos          6867.594
       220   03 Jun 2027 15:13:44.634   03 Jun 2027 15:14:53.764            69.130                  Delhi          2160.312
       221   03 Jun 2027 15:18:05.446   03 Jun 2027 15:18:12.590             7.144                Novosib           223.250
       222   03 Jun 2027 15:20:29.080   03 Jun 2027 15:21:05.615            36.535                Novosib          1141.719
       223   03 Jun 2027 15:22:27.792   03 Jun 2027 15:24:04.360            96.568                Novosib          3017.750
       224   03 Jun 2027 16:50:33.307   03 Jun 2027 16:51:22.732            49.425                 Moscow          1544.531
       225   03 Jun 2027 16:54:09.180   03 Jun 2027 16:54:20.669            11.489              Murmansk2           359.031
       226   03 Jun 2027 16:56:04.420   03 Jun 2027 16:56:47.613            43.193              Murmansk2          1349.781
       227   03 Jun 2027 16:57:09.446   03 Jun 2027 17:03:11.869           362.423                Norilsk         11325.719
       228   03 Jun 2027 18:26:55.645   03 Jun 2027 18:28:00.345            64.700                 Moscow          2021.875
       229   03 Jun 2027 18:29:57.528   03 Jun 2027 18:30:51.193            53.665              Murmansk1          1677.031
       230   03 Jun 2027 18:31:33.298   03 Jun 2027 18:31:51.723            18.425                 Moscow           575.781
       231   03 Jun 2027 18:34:17.426   03 Jun 2027 18:35:05.058            47.632              Murmansk1          1488.500
       232   03 Jun 2027 18:39:39.531   03 Jun 2027 18:39:43.335             3.804              Murmansk1           118.875
       233   03 Jun 2027 18:51:05.937   03 Jun 2027 18:52:09.699            63.762                Anadyr1          1992.563
       234   03 Jun 2027 18:52:42.014   03 Jun 2027 18:52:51.393             9.379                Anadyr1           293.094
       235   03 Jun 2027 19:38:50.543   03 Jun 2027 19:39:47.211            56.668               CapeTown          1770.875
       236   03 Jun 2027 19:44:27.773   03 Jun 2027 19:44:42.734            14.961               CapeTown           467.531
       237   03 Jun 2027 19:47:05.026   03 Jun 2027 19:47:35.077            30.051               CapeTown           939.094
       238   03 Jun 2027 19:48:17.299   03 Jun 2027 19:48:32.487            15.188               CapeTown           474.625
       239   03 Jun 2027 20:09:30.017   03 Jun 2027 20:11:07.917            97.900              Murmansk1          3059.375
       240   03 Jun 2027 20:11:13.163   03 Jun 2027 20:14:05.993           172.830              Murmansk2          5400.938
       241   03 Jun 2027 20:14:22.247   03 Jun 2027 20:15:13.719            51.472              Murmansk1          1608.500
       242   03 Jun 2027 20:25:56.075   03 Jun 2027 20:26:04.532             8.457               Magadan2           264.281
       243   03 Jun 2027 21:55:15.536   03 Jun 2027 21:57:02.100           106.564                Anadyr2          3330.125
       244   03 Jun 2027 21:57:09.254   03 Jun 2027 21:59:06.694           117.440                Anadyr1          3670.000
       245   03 Jun 2027 21:59:21.782   03 Jun 2027 22:01:06.913           105.131               Magadan2          3285.344
       246   03 Jun 2027 22:01:39.171   03 Jun 2027 22:03:03.560            84.389               Magadan1          2637.156
       247   03 Jun 2027 22:03:44.622   03 Jun 2027 22:04:36.900            52.278               Magadan2          1633.687
       248   03 Jun 2027 22:06:02.367   03 Jun 2027 22:06:28.512            26.145               Magadan2           817.031
       249   03 Jun 2027 22:51:53.261   03 Jun 2027 22:54:08.134           134.873            RioGallegos          4214.781
       250   03 Jun 2027 22:56:19.861   03 Jun 2027 22:56:23.418             3.557            RioGallegos           111.156
       251   03 Jun 2027 23:31:06.379   03 Jun 2027 23:32:30.532            84.153                Anadyr1          2629.781
       252   03 Jun 2027 23:32:32.318   03 Jun 2027 23:33:49.291            76.973                Anadyr1          2405.406
       253   03 Jun 2027 23:33:59.699   03 Jun 2027 23:35:11.715            72.016               Magadan1          2250.500
       254   03 Jun 2027 23:35:14.959   03 Jun 2027 23:36:32.222            77.263               Magadan2          2414.469
       255   03 Jun 2027 23:38:10.008   03 Jun 2027 23:38:26.170            16.162               Magadan2           505.062
       256   03 Jun 2027 23:38:54.172   03 Jun 2027 23:39:16.101            21.929                Irkutsk           685.281
       257   03 Jun 2027 23:39:29.064   03 Jun 2027 23:39:57.710            28.646                Irkutsk           895.188
       258   03 Jun 2027 23:42:04.453   03 Jun 2027 23:42:32.067            27.614                Irkutsk           862.938
       259   03 Jun 2027 23:53:36.266   03 Jun 2027 23:55:36.461           120.195                Sumatra          3756.094
       260   03 Jun 2027 23:59:17.569   04 Jun 2027 00:00:58.453           100.884                Sumatra          3152.625
       261   04 Jun 2027 00:36:21.520   04 Jun 2027 00:37:27.654            66.134            RioGallegos          2066.687
       262   04 Jun 2027 01:06:26.604   04 Jun 2027 01:06:57.518            30.914                Anadyr1           966.063
       263   04 Jun 2027 01:08:42.180   04 Jun 2027 01:09:09.477            27.297                Anadyr2           853.031
       264   04 Jun 2027 01:09:29.370   04 Jun 2027 01:10:52.060            82.690                Norilsk          2584.063
       265   04 Jun 2027 01:11:04.893   04 Jun 2027 01:11:51.136            46.243               Magadan1          1445.094
       266   04 Jun 2027 01:12:55.073   04 Jun 2027 01:15:59.688           184.615                Irkutsk          5769.219
       267   04 Jun 2027 01:25:45.560   04 Jun 2027 01:26:15.705            30.145                  Delhi           942.031
       268   04 Jun 2027 01:29:46.771   04 Jun 2027 01:31:09.930            83.159                Sumatra          2598.719
       269   04 Jun 2027 02:00:58.271   04 Jun 2027 02:02:34.705            96.434            RioGallegos          3013.562
       270   04 Jun 2027 02:40:38.799   04 Jun 2027 02:40:44.297             5.498                Anadyr1           171.813
       271   04 Jun 2027 02:42:22.573   04 Jun 2027 02:43:10.470            47.897                Anadyr1          1496.781
       272   04 Jun 2027 02:44:59.100   04 Jun 2027 02:46:09.547            70.447                Norilsk          2201.469
       273   04 Jun 2027 02:47:05.128   04 Jun 2027 02:47:38.822            33.694                Norilsk          1052.938
       274   04 Jun 2027 02:47:59.510   04 Jun 2027 02:48:58.943            59.433              Murmansk1          1857.281
       275   04 Jun 2027 02:48:59.670   04 Jun 2027 02:50:12.391            72.721                Irkutsk          2272.531
       276   04 Jun 2027 02:56:09.170   04 Jun 2027 02:56:57.860            48.690                  Delhi          1521.563
       277   04 Jun 2027 03:00:00.927   04 Jun 2027 03:01:49.473           108.546                  Delhi          3392.063
       278   04 Jun 2027 03:37:56.448   04 Jun 2027 03:39:31.601            95.153            RioGallegos          2973.531
       279   04 Jun 2027 04:29:31.908   04 Jun 2027 04:30:25.160            53.252                Norilsk          1664.125
       280   04 Jun 2027 04:30:27.375   04 Jun 2027 04:30:38.671            11.296              Murmansk2           353.000
       281   04 Jun 2027 04:31:07.802   04 Jun 2027 04:33:37.722           149.920                Norilsk          4685.000
       282   04 Jun 2027 04:33:43.365   04 Jun 2027 04:35:25.625           102.260                Novosib          3195.625
       283   04 Jun 2027 04:36:32.177   04 Jun 2027 04:41:47.093           314.916                  Delhi          9841.125
       284   04 Jun 2027 06:03:52.920   04 Jun 2027 06:04:28.370            35.450                Novosib          1107.813
       285   04 Jun 2027 06:07:47.321   04 Jun 2027 06:08:03.156            15.835                Novosib           494.844
       286   04 Jun 2027 06:08:30.229   04 Jun 2027 06:08:30.972             0.743                Novosib            23.219
       287   04 Jun 2027 06:09:26.283   04 Jun 2027 06:09:51.728            25.445                 Moscow           795.156
       288   04 Jun 2027 06:10:01.885   04 Jun 2027 06:10:27.806            25.921                 Moscow           810.031
       289   04 Jun 2027 06:26:12.037   04 Jun 2027 06:29:25.520           193.483               CapeTown          6046.344
       290   04 Jun 2027 07:29:17.984   04 Jun 2027 07:30:09.189            51.205                Anadyr1          1600.156
       291   04 Jun 2027 07:30:16.737   04 Jun 2027 07:31:11.801            55.064                Anadyr1          1720.750
       292   04 Jun 2027 07:31:11.801   04 Jun 2027 07:31:42.640            30.839                Anadyr2           963.719
       293   04 Jun 2027 08:05:25.432   04 Jun 2027 08:09:28.522           243.090               CapeTown          7596.562
       294   04 Jun 2027 09:05:12.808   04 Jun 2027 09:05:46.555            33.747                Anadyr2          1054.594
       295   04 Jun 2027 09:05:50.495   04 Jun 2027 09:07:50.209           119.714                Anadyr2          3741.063
       296   04 Jun 2027 09:07:50.209   04 Jun 2027 09:09:24.559            94.350                Anadyr1          2948.437
       297   04 Jun 2027 10:40:29.568   04 Jun 2027 10:40:45.679            16.111               Magadan2           503.469
       298   04 Jun 2027 10:40:45.679   04 Jun 2027 10:41:02.236            16.557               Magadan1           517.406
       299   04 Jun 2027 10:41:16.682   04 Jun 2027 10:43:24.930           128.248               Magadan2          4007.750
       300   04 Jun 2027 10:43:25.302   04 Jun 2027 10:45:13.308           108.006                Anadyr1          3375.187
       301   04 Jun 2027 10:45:28.929   04 Jun 2027 10:47:11.165           102.236               Magadan1          3194.875
       302   04 Jun 2027 11:59:06.352   04 Jun 2027 12:01:04.666           118.314                Sumatra          3697.312
       303   04 Jun 2027 12:10:20.992   04 Jun 2027 12:11:36.564            75.572                Irkutsk          2361.625
       304   04 Jun 2027 12:17:25.100   04 Jun 2027 12:20:38.271           193.171               Magadan1          6036.594
       305   04 Jun 2027 13:35:43.425   04 Jun 2027 13:37:23.515           100.090                Sumatra          3127.813
       306   04 Jun 2027 13:41:00.498   04 Jun 2027 13:42:33.434            92.936                Sumatra          2904.250
       307   04 Jun 2027 14:02:14.289   04 Jun 2027 14:02:39.262            24.973                Norilsk           780.406
       308   04 Jun 2027 15:17:23.804   04 Jun 2027 15:22:29.661           305.857                  Delhi          9558.031
       309   04 Jun 2027 15:25:31.825   04 Jun 2027 15:26:32.262            60.437                Novosib          1888.656
       310   04 Jun 2027 15:29:49.653   04 Jun 2027 15:30:26.138            36.485                Novosib          1140.156
       311   04 Jun 2027 15:32:25.677   04 Jun 2027 15:34:32.111           126.434                Novosib          3951.062
       312   04 Jun 2027 17:02:31.328   04 Jun 2027 17:03:05.765            34.437                 Moscow          1076.156
       313   04 Jun 2027 17:04:36.628   04 Jun 2027 17:04:37.226             0.598                 Moscow            18.687
       314   04 Jun 2027 17:04:49.787   04 Jun 2027 17:05:38.010            48.223              Murmansk2          1506.969
       315   04 Jun 2027 17:06:12.162   04 Jun 2027 17:07:44.651            92.489              Murmansk2          2890.281
       316   04 Jun 2027 17:09:58.422   04 Jun 2027 17:14:18.038           259.616                Norilsk          8113.000
       317   04 Jun 2027 18:39:29.393   04 Jun 2027 18:41:25.734           116.341                 Moscow          3635.656
       318   04 Jun 2027 18:42:17.843   04 Jun 2027 18:42:53.973            36.130              Murmansk2          1129.062
       319   04 Jun 2027 18:43:04.998   04 Jun 2027 18:44:05.307            60.309              Murmansk2          1884.656
       320   04 Jun 2027 19:04:36.011   04 Jun 2027 19:04:43.580             7.569                Anadyr1           236.531
       321   04 Jun 2027 19:51:00.631   04 Jun 2027 19:53:26.154           145.523               CapeTown          4547.594
       322   04 Jun 2027 20:22:13.262   04 Jun 2027 20:26:42.526           269.264              Murmansk2          8414.500
       323   04 Jun 2027 20:27:51.792   04 Jun 2027 20:28:19.455            27.663              Murmansk1           864.469
       324   04 Jun 2027 20:36:37.925   04 Jun 2027 20:36:39.317             1.392               Magadan1            43.500
       325   04 Jun 2027 20:36:51.920   04 Jun 2027 20:37:43.072            51.152               Magadan1          1598.500
       326   04 Jun 2027 20:42:34.568   04 Jun 2027 20:43:03.922            29.354               Magadan1           917.312
       327   04 Jun 2027 22:07:17.308   04 Jun 2027 22:09:02.220           104.912                Anadyr2          3278.500
       328   04 Jun 2027 22:09:29.659   04 Jun 2027 22:11:27.236           117.577                Anadyr1          3674.281
       329   04 Jun 2027 22:11:36.119   04 Jun 2027 22:12:24.612            48.493                Anadyr1          1515.406
       330   04 Jun 2027 22:12:24.910   04 Jun 2027 22:13:38.086            73.176               Magadan1          2286.750
       331   04 Jun 2027 22:13:38.086   04 Jun 2027 22:14:31.611            53.525               Magadan2          1672.656
       332   04 Jun 2027 22:17:04.591   04 Jun 2027 22:17:19.667            15.076               Magadan1           471.125
       333   04 Jun 2027 22:17:30.886   04 Jun 2027 22:17:40.364             9.478               Magadan1           296.188
       334   04 Jun 2027 22:18:38.458   04 Jun 2027 22:19:09.084            30.626               Magadan2           957.063
       335   04 Jun 2027 22:20:25.814   04 Jun 2027 22:20:53.925            28.111               Magadan2           878.469
       336   04 Jun 2027 23:03:02.294   04 Jun 2027 23:05:05.298           123.004            RioGallegos          3843.875
       337   04 Jun 2027 23:05:26.663   04 Jun 2027 23:05:31.572             4.909            RioGallegos           153.406
       338   04 Jun 2027 23:07:46.531   04 Jun 2027 23:08:04.769            18.238            RioGallegos           569.938
       339   04 Jun 2027 23:43:05.982   04 Jun 2027 23:44:25.145            79.163                Anadyr1          2473.844
       340   04 Jun 2027 23:44:30.871   04 Jun 2027 23:44:58.911            28.040                Anadyr2           876.250
       341   04 Jun 2027 23:45:10.943   04 Jun 2027 23:45:27.651            16.708                Norilsk           522.125
       342   04 Jun 2027 23:45:31.578   04 Jun 2027 23:46:18.671            47.093               Magadan1          1471.656
       343   04 Jun 2027 23:46:18.671   04 Jun 2027 23:47:03.339            44.668               Magadan2          1395.875
       344   04 Jun 2027 23:47:48.624   04 Jun 2027 23:48:17.236            28.612                Norilsk           894.125
       345   04 Jun 2027 23:48:23.918   04 Jun 2027 23:49:14.867            50.949               Magadan1          1592.156
       346   04 Jun 2027 23:49:58.723   04 Jun 2027 23:50:25.567            26.844                Irkutsk           838.875
       347   04 Jun 2027 23:52:26.052   04 Jun 2027 23:52:30.014             3.962                Irkutsk           123.813
       348   04 Jun 2027 23:53:11.728   04 Jun 2027 23:53:50.111            38.383                Irkutsk          1199.469
       349   04 Jun 2027 23:54:37.545   04 Jun 2027 23:55:12.115            34.570                Irkutsk          1080.313
       350   05 Jun 2027 00:04:41.644   05 Jun 2027 00:05:08.009            26.365                Sumatra           823.906
       351   05 Jun 2027 00:06:17.043   05 Jun 2027 00:06:34.984            17.941                Sumatra           560.656
       352   05 Jun 2027 00:07:44.925   05 Jun 2027 00:08:44.982            60.057                Sumatra          1876.781
       353   05 Jun 2027 00:13:34.153   05 Jun 2027 00:13:35.456             1.303                Sumatra            40.719
       354   05 Jun 2027 00:37:04.614   05 Jun 2027 00:38:19.600            74.986            RioGallegos          2343.313
       355   05 Jun 2027 00:47:52.349   05 Jun 2027 00:47:59.659             7.310            RioGallegos           228.438
       356   05 Jun 2027 01:18:19.647   05 Jun 2027 01:19:25.443            65.796                Anadyr2          2056.125
       357   05 Jun 2027 01:20:04.198   05 Jun 2027 01:20:31.575            27.377                Anadyr2           855.531
       358   05 Jun 2027 01:20:52.603   05 Jun 2027 01:21:06.667            14.064                Anadyr1           439.500
       359   05 Jun 2027 01:21:13.498   05 Jun 2027 01:21:30.469            16.971                Anadyr1           530.344
       360   05 Jun 2027 01:21:36.056   05 Jun 2027 01:22:54.336            78.280                Norilsk          2446.250
       361   05 Jun 2027 01:22:56.302   05 Jun 2027 01:23:24.135            27.833               Magadan2           869.781
       362   05 Jun 2027 01:24:54.880   05 Jun 2027 01:27:16.477           141.597                Irkutsk          4424.906
       363   05 Jun 2027 01:29:52.015   05 Jun 2027 01:30:23.447            31.432                Novosib           982.250
       364   05 Jun 2027 01:34:55.259   05 Jun 2027 01:37:02.950           127.691                  Delhi          3990.344
       365   05 Jun 2027 01:38:54.888   05 Jun 2027 01:39:06.674            11.786                Sumatra           368.313
       366   05 Jun 2027 01:41:38.582   05 Jun 2027 01:44:23.353           164.771                Sumatra          5149.094
       367   05 Jun 2027 02:56:06.941   05 Jun 2027 02:56:14.051             7.110                Anadyr1           222.187
       368   05 Jun 2027 02:56:30.440   05 Jun 2027 02:57:29.589            59.149                Anadyr1          1848.406
       369   05 Jun 2027 02:58:57.112   05 Jun 2027 02:59:30.243            33.131                Norilsk          1035.344
       370   05 Jun 2027 02:59:46.458   05 Jun 2027 03:00:45.896            59.438              Murmansk2          1857.437
       371   05 Jun 2027 03:01:13.896   05 Jun 2027 03:01:50.082            36.186               Magadan2          1130.812
       372   05 Jun 2027 03:02:20.884   05 Jun 2027 03:03:03.400            42.516                Irkutsk          1328.625
       373   05 Jun 2027 03:03:05.571   05 Jun 2027 03:04:28.540            82.969                Novosib          2592.781
       374   05 Jun 2027 03:04:35.379   05 Jun 2027 03:05:10.246            34.867              Murmansk2          1089.594
       375   05 Jun 2027 03:05:16.008   05 Jun 2027 03:05:49.201            33.193              Murmansk2          1037.281
       376   05 Jun 2027 03:06:10.375   05 Jun 2027 03:06:30.868            20.493                Novosib           640.406
       377   05 Jun 2027 03:06:35.410   05 Jun 2027 03:08:57.184           141.774                Norilsk          4430.437
       378   05 Jun 2027 03:09:00.384   05 Jun 2027 03:09:57.090            56.706                Norilsk          1772.063
       379   05 Jun 2027 03:10:29.317   05 Jun 2027 03:11:01.193            31.876                Irkutsk           996.125
       380   05 Jun 2027 03:11:11.437   05 Jun 2027 03:11:14.913             3.476                  Delhi           108.625
       381   05 Jun 2027 03:50:16.396   05 Jun 2027 03:55:27.479           311.083            RioGallegos          9721.344
       382   05 Jun 2027 04:40:34.885   05 Jun 2027 04:41:27.829            52.944                Novosib          1654.500
       383   05 Jun 2027 04:42:03.003   05 Jun 2027 04:42:26.145            23.142              Murmansk1           723.188
       384   05 Jun 2027 04:42:32.310   05 Jun 2027 04:44:28.030           115.720                Novosib          3616.250
       385   05 Jun 2027 04:44:59.325   05 Jun 2027 04:45:34.232            34.907                Novosib          1090.844
       386   05 Jun 2027 04:46:25.656   05 Jun 2027 04:52:39.309           373.653                  Delhi         11676.656
       387   05 Jun 2027 06:20:56.163   05 Jun 2027 06:21:11.216            15.053              Murmansk2           470.406
       388   05 Jun 2027 06:21:22.730   05 Jun 2027 06:21:31.140             8.410                 Moscow           262.813
       389   05 Jun 2027 06:21:41.109   05 Jun 2027 06:22:05.798            24.689                 Moscow           771.531
       390   05 Jun 2027 06:38:14.560   05 Jun 2027 06:41:26.334           191.774               CapeTown          5992.938
       391   05 Jun 2027 07:41:10.852   05 Jun 2027 07:42:09.063            58.211                Anadyr1          1819.094
       392   05 Jun 2027 07:42:30.284   05 Jun 2027 07:42:40.499            10.215               Magadan1           319.219
       393   05 Jun 2027 07:42:43.451   05 Jun 2027 07:42:51.750             8.299                Anadyr2           259.344
       394   05 Jun 2027 07:43:05.119   05 Jun 2027 07:43:21.656            16.537               Magadan2           516.781
       395   05 Jun 2027 07:43:27.637   05 Jun 2027 07:43:41.031            13.394                Anadyr2           418.562
       396   05 Jun 2027 07:45:03.151   05 Jun 2027 07:45:14.477            11.326               Magadan1           353.938
       397   05 Jun 2027 07:45:55.175   05 Jun 2027 07:47:13.852            78.677                Anadyr1          2458.656
       398   05 Jun 2027 08:19:10.012   05 Jun 2027 08:22:17.760           187.748               CapeTown          5867.125
       399   05 Jun 2027 09:17:45.469   05 Jun 2027 09:19:50.483           125.014                Anadyr2          3906.687
       400   05 Jun 2027 09:20:12.150   05 Jun 2027 09:21:30.275            78.125               Magadan1          2441.406
       401   05 Jun 2027 10:48:00.012   05 Jun 2027 10:48:22.123            22.111               Magadan1           690.969
       402   05 Jun 2027 10:49:59.357   05 Jun 2027 10:50:11.406            12.049               Magadan1           376.531
       403   05 Jun 2027 10:50:11.406   05 Jun 2027 10:53:03.403           171.997               Magadan2          5374.906
       404   05 Jun 2027 10:54:32.086   05 Jun 2027 10:55:23.861            51.775               Magadan1          1617.969
       405   05 Jun 2027 10:55:23.861   05 Jun 2027 10:56:26.734            62.873               Magadan2          1964.781
       406   05 Jun 2027 10:57:16.936   05 Jun 2027 10:57:27.682            10.746                Irkutsk           335.812
       407   05 Jun 2027 10:57:50.811   05 Jun 2027 10:58:55.179            64.368                Irkutsk          2011.500
       408   05 Jun 2027 10:59:03.110   05 Jun 2027 10:59:07.401             4.291               Magadan1           134.094
       409   05 Jun 2027 10:59:11.396   05 Jun 2027 10:59:55.282            43.886                Norilsk          1371.438
       410   05 Jun 2027 11:34:03.493   05 Jun 2027 11:35:13.718            70.225            RioGallegos          2194.531
       411   05 Jun 2027 12:10:40.330   05 Jun 2027 12:11:57.986            77.656                Sumatra          2426.750
       412   05 Jun 2027 12:22:19.968   05 Jun 2027 12:24:09.735           109.767                Irkutsk          3430.219
       413   05 Jun 2027 12:35:06.561   05 Jun 2027 12:35:11.651             5.090                Irkutsk           159.062
       414   05 Jun 2027 12:36:49.316   05 Jun 2027 12:37:11.380            22.064                Norilsk           689.500
       415   05 Jun 2027 13:10:43.590   05 Jun 2027 13:11:05.094            21.504            RioGallegos           672.000
       416   05 Jun 2027 13:12:30.682   05 Jun 2027 13:15:44.162           193.480            RioGallegos          6046.250
       417   05 Jun 2027 13:45:02.656   05 Jun 2027 13:45:44.924            42.268                Sumatra          1320.875
       418   05 Jun 2027 13:53:31.251   05 Jun 2027 13:54:52.917            81.666                Sumatra          2552.062
       419   05 Jun 2027 13:59:49.680   05 Jun 2027 13:59:53.321             3.641                Novosib           113.781
       420   05 Jun 2027 14:00:03.545   05 Jun 2027 14:01:00.113            56.568                Irkutsk          1767.750
       421   05 Jun 2027 14:04:12.186   05 Jun 2027 14:04:56.150            43.964                Irkutsk          1373.875
       422   05 Jun 2027 15:29:48.867   05 Jun 2027 15:32:21.014           152.147                  Delhi          4754.594
       423   05 Jun 2027 15:34:18.268   05 Jun 2027 15:34:52.823            34.555                  Delhi          1079.844
       424   05 Jun 2027 15:35:03.019   05 Jun 2027 15:35:23.361            20.342                  Delhi           635.688
       425   05 Jun 2027 15:38:06.835   05 Jun 2027 15:40:20.392           133.557                Novosib          4173.656
       426   05 Jun 2027 15:41:54.056   05 Jun 2027 15:42:33.464            39.408                Norilsk          1231.500
       427   05 Jun 2027 15:42:51.906   05 Jun 2027 15:43:36.042            44.136                Novosib          1379.250
       428   05 Jun 2027 15:47:21.750   05 Jun 2027 15:47:30.512             8.762                Norilsk           273.812
       429   05 Jun 2027 15:50:03.401   05 Jun 2027 15:50:52.507            49.106                Norilsk          1534.562
       430   05 Jun 2027 15:51:51.036   05 Jun 2027 15:52:08.638            17.602                Norilsk           550.063
       431   05 Jun 2027 17:13:25.236   05 Jun 2027 17:14:28.151            62.915                 Moscow          1966.094
       432   05 Jun 2027 17:16:37.444   05 Jun 2027 17:17:08.044            30.600                 Moscow           956.250
       433   05 Jun 2027 17:17:34.744   05 Jun 2027 17:18:14.181            39.437              Murmansk2          1232.406
       434   05 Jun 2027 17:22:54.281   05 Jun 2027 17:27:03.175           248.894                Norilsk          7777.938
       435   05 Jun 2027 18:37:37.670   05 Jun 2027 18:37:46.531             8.861               CapeTown           276.906
       436   05 Jun 2027 18:52:09.555   05 Jun 2027 18:56:46.112           276.557                 Moscow          8642.406
       437   05 Jun 2027 19:04:15.302   05 Jun 2027 19:05:24.393            69.091              Murmansk2          2159.094
       438   05 Jun 2027 20:03:14.200   05 Jun 2027 20:05:06.719           112.519               CapeTown          3516.219
       439   05 Jun 2027 20:35:01.491   05 Jun 2027 20:41:05.638           364.147              Murmansk1         11379.594
       440   05 Jun 2027 22:19:18.963   05 Jun 2027 22:23:09.207           230.244                Anadyr2          7195.125
       441   05 Jun 2027 22:23:17.163   05 Jun 2027 22:24:11.283            54.120                Anadyr1          1691.250
       442   05 Jun 2027 22:24:46.338   05 Jun 2027 22:27:09.514           143.176               Magadan2          4474.250
       443   05 Jun 2027 22:30:31.910   05 Jun 2027 22:31:04.695            32.785               Magadan2          1024.531
       444   05 Jun 2027 23:14:31.550   05 Jun 2027 23:16:34.645           123.095            RioGallegos          3846.719
       445   05 Jun 2027 23:19:38.603   05 Jun 2027 23:20:28.871            50.268            RioGallegos          1570.875
       446   05 Jun 2027 23:55:05.055   05 Jun 2027 23:56:18.665            73.610                Anadyr1          2300.312
       447   05 Jun 2027 23:56:27.489   05 Jun 2027 23:56:35.310             7.821                Anadyr2           244.406
       448   05 Jun 2027 23:56:38.514   05 Jun 2027 23:56:44.359             5.845                Anadyr2           182.656
       449   05 Jun 2027 23:57:09.838   05 Jun 2027 23:58:42.696            92.858                Norilsk          2901.813
       450   05 Jun 2027 23:58:53.847   05 Jun 2027 23:59:06.770            12.923               Magadan1           403.844
       451   05 Jun 2027 23:59:41.943   06 Jun 2027 00:00:10.600            28.657                Norilsk           895.531
       452   06 Jun 2027 00:00:53.993   06 Jun 2027 00:01:40.508            46.515               Magadan2          1453.594
       453   06 Jun 2027 00:01:40.508   06 Jun 2027 00:01:50.589            10.081               Magadan1           315.031
       454   06 Jun 2027 00:01:54.273   06 Jun 2027 00:02:27.991            33.718               Magadan1          1053.687
       455   06 Jun 2027 00:03:55.726   06 Jun 2027 00:06:00.444           124.718                Irkutsk          3897.437
       456   06 Jun 2027 00:16:44.769   06 Jun 2027 00:16:45.647             0.878                Sumatra            27.438
       457   06 Jun 2027 00:17:08.524   06 Jun 2027 00:18:57.040           108.516                Sumatra          3391.125
       458   06 Jun 2027 00:56:09.572   06 Jun 2027 00:56:29.150            19.578            RioGallegos           611.812
       459   06 Jun 2027 00:58:37.147   06 Jun 2027 00:58:52.214            15.067            RioGallegos           470.844
       460   06 Jun 2027 00:59:47.491   06 Jun 2027 01:00:35.286            47.795            RioGallegos          1493.594
       461   06 Jun 2027 01:30:11.458   06 Jun 2027 01:30:26.426            14.968                Anadyr2           467.750
       462   06 Jun 2027 01:30:40.881   06 Jun 2027 01:31:22.577            41.696                Anadyr2          1303.000
       463   06 Jun 2027 01:31:51.864   06 Jun 2027 01:32:16.395            24.531                Anadyr1           766.594
       464   06 Jun 2027 01:32:58.575   06 Jun 2027 01:33:12.147            13.572                Anadyr1           424.125
       465   06 Jun 2027 01:33:19.713   06 Jun 2027 01:33:25.621             5.908                Anadyr1           184.625
       466   06 Jun 2027 01:33:31.656   06 Jun 2027 01:34:56.547            84.891                Norilsk          2652.844
       467   06 Jun 2027 01:35:25.394   06 Jun 2027 01:36:06.172            40.778               Magadan2          1274.313
       468   06 Jun 2027 01:36:55.676   06 Jun 2027 01:38:32.213            96.537                Irkutsk          3016.781
       469   06 Jun 2027 01:38:44.035   06 Jun 2027 01:39:08.145            24.110                Novosib           753.437
       470   06 Jun 2027 01:41:59.537   06 Jun 2027 01:42:41.424            41.887                Novosib          1308.969
       471   06 Jun 2027 01:46:40.018   06 Jun 2027 01:48:38.421           118.403                  Delhi          3700.094
       472   06 Jun 2027 01:56:00.589   06 Jun 2027 01:56:22.085            21.496                Sumatra           671.750
       473   06 Jun 2027 01:59:28.712   06 Jun 2027 02:01:05.731            97.019                Sumatra          3031.844
       474   06 Jun 2027 02:32:23.086   06 Jun 2027 02:32:49.183            26.097            RioGallegos           815.531
       475   06 Jun 2027 03:13:10.945   06 Jun 2027 03:13:12.523             1.578               Magadan1            49.313
       476   06 Jun 2027 03:13:39.784   06 Jun 2027 03:14:16.956            37.172               Magadan2          1161.625
       477   06 Jun 2027 03:16:20.728   06 Jun 2027 03:19:46.705           205.977                Irkutsk          6436.781
       478   06 Jun 2027 03:20:11.428   06 Jun 2027 03:23:53.638           222.210                  Delhi          6944.062
       479   06 Jun 2027 03:24:17.324   06 Jun 2027 03:24:29.247            11.923                Novosib           372.594
       480   06 Jun 2027 04:02:43.471   06 Jun 2027 04:07:42.453           298.982            RioGallegos          9343.188
       481   06 Jun 2027 04:51:34.793   06 Jun 2027 04:52:21.179            46.386                Irkutsk          1449.562
       482   06 Jun 2027 04:52:41.332   06 Jun 2027 04:53:40.441            59.109                Irkutsk          1847.156
