uniorb/output/strategy_4/Drop/Drop_KinoSat_111101.txt

KinoSat_111101
-------------------------
    Access    *     Start Time (UTCG)     *     Stop Time (UTCG)  *   Duration (s)        *       Station  *  Data (Mbytes)
         1   01 Jun 2027 04:02:58.843   01 Jun 2027 04:03:28.971            30.128               Magadan1           941.500
         2   01 Jun 2027 04:03:46.191   01 Jun 2027 04:04:47.319            61.128                Anadyr1          1910.250
         3   01 Jun 2027 05:40:07.460   01 Jun 2027 05:40:23.503            16.043               Magadan2           501.344
         4   01 Jun 2027 05:40:23.503   01 Jun 2027 05:43:00.149           156.646               Magadan1          4895.188
         5   01 Jun 2027 05:43:00.149   01 Jun 2027 05:44:15.401            75.252               Magadan2          2351.625
         6   01 Jun 2027 07:13:30.260   01 Jun 2027 07:13:58.880            28.620               Magadan1           894.375
         7   01 Jun 2027 07:14:02.138   01 Jun 2027 07:15:37.272            95.134                Anadyr2          2972.937
         8   01 Jun 2027 07:15:53.140   01 Jun 2027 07:16:03.513            10.373                Norilsk           324.156
         9   01 Jun 2027 07:16:06.375   01 Jun 2027 07:17:01.543            55.168                Novosib          1724.000
        10   01 Jun 2027 07:17:03.685   01 Jun 2027 07:17:54.797            51.112                Norilsk          1597.250
        11   01 Jun 2027 07:17:58.497   01 Jun 2027 07:18:36.567            38.070                Norilsk          1189.687
        12   01 Jun 2027 07:18:36.706   01 Jun 2027 07:18:52.902            16.196                Irkutsk           506.125
        13   01 Jun 2027 07:18:58.029   01 Jun 2027 07:19:16.411            18.382                Anadyr2           574.438
        14   01 Jun 2027 07:19:22.045   01 Jun 2027 07:20:22.385            60.340                Novosib          1885.625
        15   01 Jun 2027 07:21:50.716   01 Jun 2027 07:21:57.645             6.929                Norilsk           216.531
        16   01 Jun 2027 07:22:24.522   01 Jun 2027 07:22:43.464            18.942              Murmansk2           591.938
        17   01 Jun 2027 07:55:04.575   01 Jun 2027 07:57:18.586           134.011            RioGallegos          4187.844
        18   01 Jun 2027 08:51:14.257   01 Jun 2027 08:53:54.050           159.793               Magadan1          4993.531
        19   01 Jun 2027 08:54:10.367   01 Jun 2027 08:55:57.553           107.186                Irkutsk          3349.562
        20   01 Jun 2027 10:15:02.890   01 Jun 2027 10:16:17.709            74.819                  Delhi          2338.094
        21   01 Jun 2027 10:26:19.789   01 Jun 2027 10:26:47.744            27.955                Irkutsk           873.594
        22   01 Jun 2027 10:27:53.346   01 Jun 2027 10:29:12.877            79.531                Irkutsk          2485.344
        23   01 Jun 2027 10:29:24.192   01 Jun 2027 10:29:26.869             2.677              Murmansk2            83.656
        24   01 Jun 2027 10:29:34.868   01 Jun 2027 10:29:56.653            21.785                Novosib           680.781
        25   01 Jun 2027 10:30:05.679   01 Jun 2027 10:31:26.723            81.044                Irkutsk          2532.625
        26   01 Jun 2027 10:31:28.927   01 Jun 2027 10:31:35.636             6.709                Novosib           209.656
        27   01 Jun 2027 10:31:46.272   01 Jun 2027 10:32:21.443            35.171              Murmansk2          1099.094
        28   01 Jun 2027 10:32:21.443   01 Jun 2027 10:33:08.506            47.063              Murmansk1          1470.719
        29   01 Jun 2027 10:34:41.210   01 Jun 2027 10:35:17.954            36.744              Murmansk2          1148.250
        30   01 Jun 2027 11:12:34.801   01 Jun 2027 11:13:35.721            60.920            RioGallegos          1903.750
        31   01 Jun 2027 11:15:00.963   01 Jun 2027 11:15:28.210            27.247            RioGallegos           851.469
        32   01 Jun 2027 11:49:59.437   01 Jun 2027 11:52:38.612           159.175                  Delhi          4974.219
        33   01 Jun 2027 13:42:30.245   01 Jun 2027 13:42:47.586            17.341                 Moscow           541.906
        34   01 Jun 2027 13:42:54.326   01 Jun 2027 13:43:07.414            13.088                 Moscow           409.000
        35   01 Jun 2027 13:44:04.938   01 Jun 2027 13:46:51.842           166.904                Norilsk          5215.750
        36   01 Jun 2027 13:48:19.236   01 Jun 2027 13:48:22.305             3.069                Norilsk            95.906
        37   01 Jun 2027 13:49:18.726   01 Jun 2027 13:50:13.883            55.157              Murmansk1          1723.656
        38   01 Jun 2027 14:54:27.204   01 Jun 2027 14:55:28.215            61.011               CapeTown          1906.594
        39   01 Jun 2027 14:56:12.908   01 Jun 2027 14:57:39.909            87.001               CapeTown          2718.781
        40   01 Jun 2027 15:21:01.665   01 Jun 2027 15:21:29.340            27.675              Murmansk2           864.844
        41   01 Jun 2027 15:22:12.426   01 Jun 2027 15:22:13.561             1.135                 Moscow            35.469
        42   01 Jun 2027 15:22:35.140   01 Jun 2027 15:23:19.971            44.831              Murmansk1          1400.969
        43   01 Jun 2027 15:24:36.494   01 Jun 2027 15:24:44.219             7.725              Murmansk1           241.406
        44   01 Jun 2027 15:24:44.219   01 Jun 2027 15:24:53.364             9.145              Murmansk2           285.781
        45   01 Jun 2027 15:24:57.014   01 Jun 2027 15:25:37.155            40.141              Murmansk1          1254.406
        46   01 Jun 2027 15:30:35.299   01 Jun 2027 15:31:04.396            29.097                Anadyr2           909.281
        47   01 Jun 2027 15:32:13.841   01 Jun 2027 15:32:48.114            34.273                Anadyr1          1071.031
        48   01 Jun 2027 15:33:22.886   01 Jun 2027 15:33:42.038            19.152                Anadyr1           598.500
        49   01 Jun 2027 15:36:07.918   01 Jun 2027 15:37:01.591            53.673                Anadyr2          1677.281
        50   01 Jun 2027 15:37:28.664   01 Jun 2027 15:37:59.412            30.748                Anadyr2           960.875
        51   01 Jun 2027 16:33:20.695   01 Jun 2027 16:33:23.338             2.643               CapeTown            82.594
        52   01 Jun 2027 16:34:12.861   01 Jun 2027 16:34:25.647            12.786               CapeTown           399.562
        53   01 Jun 2027 16:35:03.746   01 Jun 2027 16:35:44.239            40.493               CapeTown          1265.406
        54   01 Jun 2027 16:56:01.116   01 Jun 2027 16:56:49.527            48.411              Murmansk1          1512.844
        55   01 Jun 2027 16:57:29.023   01 Jun 2027 16:58:22.674            53.651              Murmansk2          1676.594
        56   01 Jun 2027 16:58:53.720   01 Jun 2027 16:59:25.169            31.449              Murmansk1           982.781
        57   01 Jun 2027 17:07:08.417   01 Jun 2027 17:07:38.509            30.092                Anadyr1           940.375
        58   01 Jun 2027 17:08:18.562   01 Jun 2027 17:08:27.001             8.439                Anadyr1           263.719
        59   01 Jun 2027 17:08:50.931   01 Jun 2027 17:09:32.766            41.835               Magadan1          1307.344
        60   01 Jun 2027 17:10:43.405   01 Jun 2027 17:10:58.633            15.228               Magadan1           475.875
        61   01 Jun 2027 17:11:26.644   01 Jun 2027 17:11:47.372            20.728               Magadan2           647.750
        62   01 Jun 2027 17:11:55.497   01 Jun 2027 17:12:05.273             9.776               Magadan1           305.500
        63   01 Jun 2027 17:12:52.719   01 Jun 2027 17:13:06.787            14.068               Magadan1           439.625
        64   01 Jun 2027 17:13:31.099   01 Jun 2027 17:13:34.195             3.096                Anadyr1            96.750
        65   01 Jun 2027 17:13:42.667   01 Jun 2027 17:14:01.816            19.149                Anadyr2           598.406
        66   01 Jun 2027 17:15:07.139   01 Jun 2027 17:16:05.224            58.085               Magadan2          1815.156
        67   01 Jun 2027 18:40:02.758   01 Jun 2027 18:42:55.411           172.653                Anadyr2          5395.406
        68   01 Jun 2027 18:43:01.567   01 Jun 2027 18:43:11.426             9.859                Anadyr1           308.094
        69   01 Jun 2027 18:43:37.878   01 Jun 2027 18:43:56.652            18.774                Anadyr1           586.687
        70   01 Jun 2027 18:44:17.009   01 Jun 2027 18:45:16.247            59.238               Magadan2          1851.187
        71   01 Jun 2027 18:45:54.869   01 Jun 2027 18:46:02.266             7.397               Magadan1           231.156
        72   01 Jun 2027 18:46:02.266   01 Jun 2027 18:47:12.767            70.501               Magadan2          2203.156
        73   01 Jun 2027 18:51:08.641   01 Jun 2027 18:51:29.468            20.827               Magadan1           650.844
        74   01 Jun 2027 18:52:46.322   01 Jun 2027 18:53:18.608            32.286               Magadan2          1008.938
        75   01 Jun 2027 18:54:31.067   01 Jun 2027 18:54:54.474            23.407               Magadan1           731.469
        76   01 Jun 2027 19:36:20.706   01 Jun 2027 19:37:55.380            94.674            RioGallegos          2958.562
        77   01 Jun 2027 19:38:22.546   01 Jun 2027 19:38:49.700            27.154            RioGallegos           848.562
        78   01 Jun 2027 19:40:24.818   01 Jun 2027 19:41:40.112            75.294            RioGallegos          2352.937
        79   01 Jun 2027 20:17:20.737   01 Jun 2027 20:17:30.209             9.472                Anadyr2           296.000
        80   01 Jun 2027 20:17:40.931   01 Jun 2027 20:17:55.108            14.177                Anadyr2           443.031
        81   01 Jun 2027 20:18:02.508   01 Jun 2027 20:18:18.812            16.304                Norilsk           509.500
        82   01 Jun 2027 20:18:33.569   01 Jun 2027 20:19:10.196            36.627                Norilsk          1144.594
        83   01 Jun 2027 20:20:11.355   01 Jun 2027 20:21:42.841            91.486                Norilsk          2858.937
        84   01 Jun 2027 20:22:59.255   01 Jun 2027 20:23:51.638            52.383                Irkutsk          1636.969
        85   01 Jun 2027 20:24:11.389   01 Jun 2027 20:24:15.433             4.044                Irkutsk           126.375
        86   01 Jun 2027 20:25:15.639   01 Jun 2027 20:26:09.377            53.738                Irkutsk          1679.312
        87   01 Jun 2027 20:28:00.018   01 Jun 2027 20:28:18.127            18.109                Irkutsk           565.906
        88   01 Jun 2027 20:31:36.376   01 Jun 2027 20:31:44.561             8.185                Irkutsk           255.781
        89   01 Jun 2027 20:37:59.353   01 Jun 2027 20:40:14.384           135.031                Sumatra          4219.719
        90   01 Jun 2027 20:41:54.004   01 Jun 2027 20:42:48.311            54.307                Sumatra          1697.094
        91   01 Jun 2027 21:51:55.766   01 Jun 2027 21:52:10.572            14.806                Anadyr1           462.687
        92   01 Jun 2027 21:53:47.200   01 Jun 2027 21:54:55.818            68.618                Norilsk          2144.312
        93   01 Jun 2027 21:55:26.762   01 Jun 2027 21:56:14.527            47.765               Magadan1          1492.656
        94   01 Jun 2027 21:58:34.825   01 Jun 2027 21:59:13.425            38.600                Novosib          1206.250
        95   01 Jun 2027 22:01:29.372   01 Jun 2027 22:01:34.225             4.853                Irkutsk           151.656
        96   01 Jun 2027 22:01:37.107   01 Jun 2027 22:01:43.593             6.486               Magadan1           202.688
        97   01 Jun 2027 22:01:43.593   01 Jun 2027 22:02:02.609            19.016               Magadan2           594.250
        98   01 Jun 2027 22:03:28.940   01 Jun 2027 22:04:36.804            67.864                Novosib          2120.750
        99   01 Jun 2027 22:08:14.163   01 Jun 2027 22:08:22.988             8.825                Novosib           275.781
       100   01 Jun 2027 22:08:31.027   01 Jun 2027 22:10:08.311            97.284                  Delhi          3040.125
       101   01 Jun 2027 22:11:17.183   01 Jun 2027 22:12:22.313            65.130                  Delhi          2035.312
       102   01 Jun 2027 23:25:16.668   01 Jun 2027 23:25:56.090            39.422                Anadyr2          1231.938
       103   01 Jun 2027 23:27:48.777   01 Jun 2027 23:27:59.098            10.321                Anadyr2           322.531
       104   01 Jun 2027 23:28:01.642   01 Jun 2027 23:28:19.909            18.267                Anadyr2           570.844
       105   01 Jun 2027 23:29:47.259   01 Jun 2027 23:30:12.477            25.218                Norilsk           788.062
       106   01 Jun 2027 23:30:20.988   01 Jun 2027 23:31:43.198            82.210               Magadan1          2569.062
       107   01 Jun 2027 23:32:46.123   01 Jun 2027 23:34:26.696           100.573              Murmansk1          3142.906
       108   01 Jun 2027 23:34:55.157   01 Jun 2027 23:37:18.529           143.372              Murmansk1          4480.375
       109   01 Jun 2027 23:37:42.581   01 Jun 2027 23:37:58.799            16.218              Murmansk1           506.813
       110   01 Jun 2027 23:49:37.773   01 Jun 2027 23:49:45.452             7.679                  Delhi           239.969
       111   01 Jun 2027 23:51:02.011   01 Jun 2027 23:52:57.759           115.748                  Delhi          3617.125
       112   02 Jun 2027 00:58:34.506   02 Jun 2027 00:58:56.665            22.159                Anadyr1           692.469
       113   02 Jun 2027 00:58:59.216   02 Jun 2027 00:58:59.952             0.736                Anadyr2            23.000
       114   02 Jun 2027 00:59:25.846   02 Jun 2027 00:59:48.391            22.545                Anadyr2           704.531
       115   02 Jun 2027 01:00:28.388   02 Jun 2027 01:01:15.583            47.195                Anadyr1          1474.844
       116   02 Jun 2027 01:01:36.334   02 Jun 2027 01:01:37.633             1.299                Anadyr2            40.594
       117   02 Jun 2027 01:04:37.353   02 Jun 2027 01:06:48.113           130.760               Magadan2          4086.250
       118   02 Jun 2027 01:07:57.989   02 Jun 2027 01:09:15.190            77.201              Murmansk1          2412.531
       119   02 Jun 2027 01:10:18.961   02 Jun 2027 01:10:20.340             1.379              Murmansk2            43.094
       120   02 Jun 2027 01:11:05.974   02 Jun 2027 01:11:40.301            34.327                Irkutsk          1072.719
       121   02 Jun 2027 01:12:10.373   02 Jun 2027 01:12:19.160             8.787                 Moscow           274.594
       122   02 Jun 2027 01:12:30.047   02 Jun 2027 01:12:57.435            27.388                 Moscow           855.875
       123   02 Jun 2027 01:16:49.110   02 Jun 2027 01:16:57.911             8.801                 Moscow           275.031
       124   02 Jun 2027 01:17:22.996   02 Jun 2027 01:17:43.897            20.901                 Moscow           653.156
       125   02 Jun 2027 01:19:08.676   02 Jun 2027 01:21:00.301           111.625                 Moscow          3488.281
       126   02 Jun 2027 01:45:30.933   02 Jun 2027 01:46:03.036            32.103               CapeTown          1003.219
       127   02 Jun 2027 02:32:24.067   02 Jun 2027 02:34:59.273           155.206                Anadyr1          4850.187
       128   02 Jun 2027 02:36:32.975   02 Jun 2027 02:36:51.324            18.349               Magadan2           573.406
       129   02 Jun 2027 02:37:26.443   02 Jun 2027 02:37:35.198             8.755               Magadan1           273.594
       130   02 Jun 2027 02:37:35.198   02 Jun 2027 02:38:29.373            54.175               Magadan2          1692.969
       131   02 Jun 2027 02:41:34.242   02 Jun 2027 02:41:49.424            15.182                Norilsk           474.437
       132   02 Jun 2027 02:42:53.546   02 Jun 2027 02:42:55.941             2.395                Norilsk            74.844
       133   02 Jun 2027 02:43:53.138   02 Jun 2027 02:45:34.091           100.953              Murmansk1          3154.781
       134   02 Jun 2027 02:47:01.621   02 Jun 2027 02:47:50.765            49.144                Novosib          1535.750
       135   02 Jun 2027 02:56:01.148   02 Jun 2027 02:57:07.148            66.000                 Moscow          2062.500
       136   02 Jun 2027 04:14:03.565   02 Jun 2027 04:14:19.653            16.088               Magadan2           502.750
       137   02 Jun 2027 04:14:29.900   02 Jun 2027 04:17:47.212           197.312               Magadan1          6166.000
       138   02 Jun 2027 05:52:47.694   02 Jun 2027 05:54:24.176            96.482               Magadan1          3015.062
       139   02 Jun 2027 07:27:04.002   02 Jun 2027 07:27:53.343            49.341                Anadyr1          1541.906
       140   02 Jun 2027 07:28:15.013   02 Jun 2027 07:31:55.145           220.132               Magadan1          6879.125
       141   02 Jun 2027 09:04:41.092   02 Jun 2027 09:07:51.017           189.925                Irkutsk          5935.156
       142   02 Jun 2027 09:43:20.729   02 Jun 2027 09:43:40.967            20.238            RioGallegos           632.438
       143   02 Jun 2027 09:45:58.760   02 Jun 2027 09:46:53.588            54.828            RioGallegos          1713.375
       144   02 Jun 2027 10:17:39.973   02 Jun 2027 10:18:24.558            44.585                Sumatra          1393.281
       145   02 Jun 2027 10:20:26.200   02 Jun 2027 10:22:26.023           119.823                Sumatra          3744.469
       146   02 Jun 2027 10:38:40.867   02 Jun 2027 10:38:52.189            11.322                Irkutsk           353.813
       147   02 Jun 2027 10:39:43.146   02 Jun 2027 10:39:49.224             6.078                Irkutsk           189.937
       148   02 Jun 2027 10:40:42.575   02 Jun 2027 10:41:14.454            31.879                Norilsk           996.219
       149   02 Jun 2027 10:41:20.048   02 Jun 2027 10:41:21.087             1.039                Novosib            32.469
       150   02 Jun 2027 10:41:26.123   02 Jun 2027 10:41:36.497            10.374                Novosib           324.187
       151   02 Jun 2027 10:41:37.155   02 Jun 2027 10:42:11.773            34.618                Novosib          1081.812
       152   02 Jun 2027 10:42:27.235   02 Jun 2027 10:43:14.845            47.610                Norilsk          1487.813
       153   02 Jun 2027 10:43:32.312   02 Jun 2027 10:43:33.301             0.989                Novosib            30.906
       154   02 Jun 2027 10:43:40.534   02 Jun 2027 10:44:16.981            36.447                Novosib          1138.969
       155   02 Jun 2027 12:02:19.576   02 Jun 2027 12:04:27.634           128.058                  Delhi          4001.813
       156   02 Jun 2027 12:10:32.776   02 Jun 2027 12:11:35.206            62.430                Novosib          1950.938
       157   02 Jun 2027 12:13:59.114   02 Jun 2027 12:14:30.666            31.552                Novosib           986.000
       158   02 Jun 2027 12:19:58.448   02 Jun 2027 12:20:28.146            29.698                Norilsk           928.063
       159   02 Jun 2027 13:46:08.004   02 Jun 2027 13:50:23.469           255.465                 Moscow          7983.281
       160   02 Jun 2027 13:50:24.603   02 Jun 2027 13:51:43.882            79.279              Murmansk1          2477.469
       161   02 Jun 2027 13:53:50.914   02 Jun 2027 13:54:04.674            13.760              Murmansk1           430.000
       162   02 Jun 2027 13:55:11.574   02 Jun 2027 13:56:14.637            63.063                Norilsk          1970.719
       163   02 Jun 2027 14:07:19.734   02 Jun 2027 14:07:33.146            13.412                Anadyr1           419.125
       164   02 Jun 2027 14:07:33.146   02 Jun 2027 14:08:13.872            40.726                Anadyr2          1272.687
       165   02 Jun 2027 15:00:02.836   02 Jun 2027 15:02:05.849           123.013               CapeTown          3844.156
       166   02 Jun 2027 15:07:43.063   02 Jun 2027 15:09:20.573            97.510               CapeTown          3047.187
       167   02 Jun 2027 15:28:51.163   02 Jun 2027 15:29:07.468            16.305              Murmansk2           509.531
       168   02 Jun 2027 15:29:22.619   02 Jun 2027 15:29:22.839             0.220                 Moscow             6.875
       169   02 Jun 2027 15:30:48.863   02 Jun 2027 15:30:55.897             7.034              Murmansk2           219.812
       170   02 Jun 2027 15:31:09.036   02 Jun 2027 15:31:35.842            26.806              Murmansk1           837.688
       171   02 Jun 2027 15:36:36.283   02 Jun 2027 15:36:54.169            17.886              Murmansk1           558.937
       172   02 Jun 2027 15:40:25.935   02 Jun 2027 15:42:52.086           146.151                Anadyr2          4567.219
       173   02 Jun 2027 15:46:01.421   02 Jun 2027 15:46:19.283            17.862                Anadyr2           558.188
       174   02 Jun 2027 16:40:47.931   02 Jun 2027 16:41:14.076            26.145               CapeTown           817.031
       175   02 Jun 2027 16:45:36.969   02 Jun 2027 16:46:18.986            42.017               CapeTown          1313.031
       176   02 Jun 2027 17:07:21.954   02 Jun 2027 17:08:50.919            88.965              Murmansk1          2780.156
       177   02 Jun 2027 17:08:50.919   02 Jun 2027 17:09:34.856            43.937              Murmansk2          1373.031
       178   02 Jun 2027 17:12:33.614   02 Jun 2027 17:12:34.580             0.966              Murmansk1            30.188
       179   02 Jun 2027 17:13:43.841   02 Jun 2027 17:13:53.234             9.393              Murmansk2           293.531
       180   02 Jun 2027 17:16:08.434   02 Jun 2027 17:17:46.083            97.649                Anadyr1          3051.531
       181   02 Jun 2027 17:19:04.528   02 Jun 2027 17:20:50.242           105.714               Magadan1          3303.562
       182   02 Jun 2027 17:23:50.064   02 Jun 2027 17:23:56.376             6.312               Magadan1           197.250
       183   02 Jun 2027 17:24:07.505   02 Jun 2027 17:24:45.841            38.336               Magadan2          1198.000
       184   02 Jun 2027 17:28:43.251   02 Jun 2027 17:28:44.096             0.845               Magadan2            26.406
       185   02 Jun 2027 18:52:04.073   02 Jun 2027 18:55:45.000           220.927                Anadyr2          6903.969
       186   02 Jun 2027 18:55:52.776   02 Jun 2027 18:57:16.149            83.373               Magadan2          2605.406
       187   02 Jun 2027 18:57:16.149   02 Jun 2027 18:57:27.241            11.092               Magadan1           346.625
       188   02 Jun 2027 18:58:39.086   02 Jun 2027 18:58:56.887            17.801               Magadan1           556.281
       189   02 Jun 2027 18:59:50.318   02 Jun 2027 19:00:09.785            19.467               Magadan1           608.344
       190   02 Jun 2027 19:04:48.214   02 Jun 2027 19:05:13.494            25.280               Magadan1           790.000
       191   02 Jun 2027 19:47:38.710   02 Jun 2027 19:50:34.506           175.796            RioGallegos          5493.625
       192   02 Jun 2027 19:54:03.984   02 Jun 2027 19:54:56.257            52.273            RioGallegos          1633.531
       193   02 Jun 2027 20:30:00.033   02 Jun 2027 20:32:16.272           136.239                Norilsk          4257.469
       194   02 Jun 2027 20:32:59.342   02 Jun 2027 20:33:42.025            42.683                Norilsk          1333.844
       195   02 Jun 2027 20:34:41.328   02 Jun 2027 20:35:25.346            44.018                Irkutsk          1375.563
       196   02 Jun 2027 20:36:10.299   02 Jun 2027 20:37:52.718           102.419                Irkutsk          3200.594
       197   02 Jun 2027 20:49:12.191   02 Jun 2027 20:50:05.760            53.569                Sumatra          1674.031
       198   02 Jun 2027 20:51:54.480   02 Jun 2027 20:52:24.358            29.878                Sumatra           933.688
       199   02 Jun 2027 20:52:53.186   02 Jun 2027 20:54:16.303            83.117                Sumatra          2597.406
       200   02 Jun 2027 22:05:48.917   02 Jun 2027 22:07:07.309            78.392                Norilsk          2449.750
       201   02 Jun 2027 22:07:30.386   02 Jun 2027 22:07:46.406            16.020                Norilsk           500.625
       202   02 Jun 2027 22:08:16.138   02 Jun 2027 22:08:22.315             6.177                Norilsk           193.031
       203   02 Jun 2027 22:09:41.907   02 Jun 2027 22:10:52.264            70.357                Irkutsk          2198.656
       204   02 Jun 2027 22:10:55.715   02 Jun 2027 22:13:28.179           152.464                Novosib          4764.500
       205   02 Jun 2027 22:19:21.631   02 Jun 2027 22:20:21.197            59.566                  Delhi          1861.438
       206   02 Jun 2027 22:22:50.492   02 Jun 2027 22:25:04.947           134.455                  Delhi          4201.719
       207   02 Jun 2027 23:42:19.734   02 Jun 2027 23:42:55.845            36.111               Magadan1          1128.469
       208   02 Jun 2027 23:43:18.633   02 Jun 2027 23:43:26.893             8.260                Norilsk           258.125
       209   02 Jun 2027 23:43:35.991   02 Jun 2027 23:43:44.334             8.343                Norilsk           260.719
       210   02 Jun 2027 23:44:33.976   02 Jun 2027 23:46:26.766           112.790              Murmansk2          3524.688
       211   02 Jun 2027 23:47:22.520   02 Jun 2027 23:49:13.201           110.681              Murmansk1          3458.781
       212   02 Jun 2027 23:49:19.701   02 Jun 2027 23:49:44.245            24.544              Murmansk1           767.000
       213   02 Jun 2027 23:55:34.200   02 Jun 2027 23:56:08.172            33.972                  Delhi          1061.625
       214   03 Jun 2027 00:35:54.952   03 Jun 2027 00:35:58.571             3.619            RioGallegos           113.094
       215   03 Jun 2027 00:37:02.914   03 Jun 2027 00:37:51.105            48.191            RioGallegos          1505.969
       216   03 Jun 2027 01:10:16.715   03 Jun 2027 01:10:49.326            32.611                Anadyr2          1019.094
       217   03 Jun 2027 01:11:25.044   03 Jun 2027 01:11:49.129            24.085                Anadyr2           752.656
       218   03 Jun 2027 01:12:29.730   03 Jun 2027 01:13:02.669            32.939                Anadyr1          1029.344
       219   03 Jun 2027 01:16:08.022   03 Jun 2027 01:16:34.544            26.522                Anadyr2           828.813
       220   03 Jun 2027 01:17:05.778   03 Jun 2027 01:18:41.197            95.419               Magadan2          2981.844
       221   03 Jun 2027 01:19:55.251   03 Jun 2027 01:20:21.766            26.515               Magadan1           828.594
       222   03 Jun 2027 01:20:33.844   03 Jun 2027 01:21:16.578            42.734              Murmansk1          1335.437
       223   03 Jun 2027 01:21:45.227   03 Jun 2027 01:21:52.812             7.585                Novosib           237.031
       224   03 Jun 2027 01:22:07.227   03 Jun 2027 01:23:31.819            84.592              Murmansk2          2643.500
       225   03 Jun 2027 01:23:37.182   03 Jun 2027 01:23:53.032            15.850                Irkutsk           495.313
       226   03 Jun 2027 01:23:55.939   03 Jun 2027 01:24:16.984            21.045                 Moscow           657.656
       227   03 Jun 2027 01:29:08.343   03 Jun 2027 01:29:22.958            14.615                 Moscow           456.719
       228   03 Jun 2027 01:31:35.400   03 Jun 2027 01:32:12.724            37.324                  Delhi          1166.375
       229   03 Jun 2027 01:36:07.251   03 Jun 2027 01:36:27.477            20.226                  Delhi           632.063
       230   03 Jun 2027 01:49:11.453   03 Jun 2027 01:49:54.157            42.704               CapeTown          1334.500
       231   03 Jun 2027 01:53:48.509   03 Jun 2027 01:54:08.424            19.915               CapeTown           622.344
       232   03 Jun 2027 02:44:15.246   03 Jun 2027 02:46:14.858           119.612                Anadyr1          3737.875
       233   03 Jun 2027 02:47:47.261   03 Jun 2027 02:49:02.664            75.403               Magadan2          2356.344
       234   03 Jun 2027 02:51:56.005   03 Jun 2027 02:51:57.435             1.430               Magadan1            44.688
       235   03 Jun 2027 02:52:18.577   03 Jun 2027 02:52:31.834            13.257               Magadan1           414.281
       236   03 Jun 2027 02:53:16.597   03 Jun 2027 02:53:35.320            18.723                Norilsk           585.094
       237   03 Jun 2027 02:54:43.279   03 Jun 2027 02:54:48.194             4.915                Norilsk           153.594
       238   03 Jun 2027 02:55:22.623   03 Jun 2027 02:55:29.326             6.703                Norilsk           209.469
       239   03 Jun 2027 02:55:54.947   03 Jun 2027 02:57:35.840           100.893              Murmansk1          3152.906
       240   03 Jun 2027 02:59:07.496   03 Jun 2027 02:59:37.508            30.012                 Moscow           937.875
       241   03 Jun 2027 03:02:07.225   03 Jun 2027 03:02:27.294            20.069              Murmansk1           627.156
       242   03 Jun 2027 03:02:48.224   03 Jun 2027 03:04:10.017            81.793                Norilsk          2556.031
       243   03 Jun 2027 03:04:12.312   03 Jun 2027 03:04:48.165            35.853                Norilsk          1120.406
       244   03 Jun 2027 03:05:26.980   03 Jun 2027 03:08:39.447           192.467              Murmansk2          6014.594
       245   03 Jun 2027 03:08:43.298   03 Jun 2027 03:09:07.650            24.352                 Moscow           761.000
       246   03 Jun 2027 03:23:03.519   03 Jun 2027 03:25:21.030           137.511               CapeTown          4297.219
       247   03 Jun 2027 04:19:50.630   03 Jun 2027 04:21:44.345           113.715                Anadyr1          3553.594
       248   03 Jun 2027 04:21:46.623   03 Jun 2027 04:22:55.766            69.143                Anadyr2          2160.719
       249   03 Jun 2027 04:26:14.266   03 Jun 2027 04:26:32.210            17.944               Magadan1           560.750
       250   03 Jun 2027 04:26:38.381   03 Jun 2027 04:26:44.218             5.837               Magadan1           182.406
       251   03 Jun 2027 04:26:57.446   03 Jun 2027 04:29:15.529           138.083                Anadyr1          4315.094
       252   03 Jun 2027 04:29:19.470   03 Jun 2027 04:29:33.675            14.205               Magadan1           443.906
       253   03 Jun 2027 06:05:00.413   03 Jun 2027 06:06:26.954            86.541               Magadan2          2704.406
       254   03 Jun 2027 06:06:29.085   03 Jun 2027 06:07:05.800            36.715               Magadan2          1147.344
       255   03 Jun 2027 06:07:39.049   03 Jun 2027 06:07:44.448             5.399                Anadyr2           168.719
       256   03 Jun 2027 06:07:46.283   03 Jun 2027 06:08:08.162            21.879               Magadan2           683.719
       257   03 Jun 2027 07:36:53.964   03 Jun 2027 07:37:23.999            30.035               Magadan1           938.594
       258   03 Jun 2027 07:37:41.365   03 Jun 2027 07:37:53.510            12.145               Magadan1           379.531
       259   03 Jun 2027 07:38:05.205   03 Jun 2027 07:38:35.967            30.762               Magadan1           961.312
       260   03 Jun 2027 07:38:41.862   03 Jun 2027 07:39:16.288            34.426               Magadan1          1075.813
       261   03 Jun 2027 07:40:13.076   03 Jun 2027 07:40:29.149            16.073               Magadan1           502.281
       262   03 Jun 2027 07:40:44.977   03 Jun 2027 07:41:09.423            24.446               Magadan2           763.937
       263   03 Jun 2027 07:41:14.419   03 Jun 2027 07:42:25.055            70.636               Magadan1          2207.375
       264   03 Jun 2027 07:42:35.674   03 Jun 2027 07:42:55.255            19.581               Magadan1           611.906
       265   03 Jun 2027 07:43:26.567   03 Jun 2027 07:43:44.864            18.297               Magadan1           571.781
       266   03 Jun 2027 07:45:25.518   03 Jun 2027 07:45:50.070            24.552                Norilsk           767.250
       267   03 Jun 2027 08:18:47.510   03 Jun 2027 08:19:38.608            51.098            RioGallegos          1596.813
       268   03 Jun 2027 08:23:40.188   03 Jun 2027 08:24:00.950            20.762            RioGallegos           648.812
       269   03 Jun 2027 08:54:53.920   03 Jun 2027 08:56:12.190            78.270                Sumatra          2445.938
       270   03 Jun 2027 09:16:43.707   03 Jun 2027 09:16:56.420            12.713                Irkutsk           397.281
       271   03 Jun 2027 09:17:23.320   03 Jun 2027 09:18:01.226            37.906                Irkutsk          1184.563
       272   03 Jun 2027 09:18:56.460   03 Jun 2027 09:19:20.613            24.153                Irkutsk           754.781
       273   03 Jun 2027 09:19:43.186   03 Jun 2027 09:20:00.290            17.104                Irkutsk           534.500
       274   03 Jun 2027 09:55:39.986   03 Jun 2027 09:56:20.587            40.601            RioGallegos          1268.781
       275   03 Jun 2027 09:57:33.227   03 Jun 2027 09:58:04.653            31.426            RioGallegos           982.063
       276   03 Jun 2027 10:29:55.995   03 Jun 2027 10:31:32.388            96.393                Sumatra          3012.281
       277   03 Jun 2027 10:51:43.397   03 Jun 2027 10:52:23.637            40.240                Irkutsk          1257.500
       278   03 Jun 2027 10:52:59.338   03 Jun 2027 10:53:08.541             9.203                Novosib           287.594
       279   03 Jun 2027 10:53:38.891   03 Jun 2027 10:53:44.088             5.197                Novosib           162.406
       280   03 Jun 2027 10:54:00.194   03 Jun 2027 10:54:06.000             5.806                Irkutsk           181.437
       281   03 Jun 2027 10:54:18.829   03 Jun 2027 10:54:56.752            37.923                Novosib          1185.094
       282   03 Jun 2027 10:55:27.622   03 Jun 2027 10:55:37.197             9.575                Novosib           299.219
       283   03 Jun 2027 12:14:47.484   03 Jun 2027 12:18:15.865           208.381                  Delhi          6511.906
       284   03 Jun 2027 12:23:10.006   03 Jun 2027 12:23:15.123             5.117                Novosib           159.906
       285   03 Jun 2027 12:24:08.106   03 Jun 2027 12:24:37.598            29.492                Novosib           921.625
       286   03 Jun 2027 12:26:03.588   03 Jun 2027 12:26:31.587            27.999                Novosib           874.969
       287   03 Jun 2027 12:27:52.126   03 Jun 2027 12:27:58.372             6.246                Novosib           195.187
       288   03 Jun 2027 12:31:08.944   03 Jun 2027 12:31:20.461            11.517                Norilsk           359.906
       289   03 Jun 2027 12:35:06.341   03 Jun 2027 12:35:18.131            11.790                Norilsk           368.438
       290   03 Jun 2027 13:58:15.044   03 Jun 2027 14:00:08.516           113.472                 Moscow          3546.000
       291   03 Jun 2027 14:01:21.362   03 Jun 2027 14:02:39.061            77.699                 Moscow          2428.094
       292   03 Jun 2027 14:03:06.699   03 Jun 2027 14:05:15.598           128.899              Murmansk1          4028.094
       293   03 Jun 2027 14:07:11.259   03 Jun 2027 14:07:19.245             7.986              Murmansk2           249.563
       294   03 Jun 2027 14:08:12.884   03 Jun 2027 14:10:20.364           127.480                Norilsk          3983.750
       295   03 Jun 2027 14:18:02.140   03 Jun 2027 14:18:53.800            51.660                Anadyr2          1614.375
       296   03 Jun 2027 14:19:23.897   03 Jun 2027 14:20:15.540            51.643                Anadyr1          1613.844
       297   03 Jun 2027 14:21:29.153   03 Jun 2027 14:21:33.245             4.092                Anadyr2           127.875
       298   03 Jun 2027 14:21:58.888   03 Jun 2027 14:22:13.894            15.006                Anadyr2           468.937
       299   03 Jun 2027 15:17:35.209   03 Jun 2027 15:17:59.693            24.484               CapeTown           765.125
       300   03 Jun 2027 15:37:15.341   03 Jun 2027 15:38:14.135            58.794                 Moscow          1837.313
       301   03 Jun 2027 15:39:37.380   03 Jun 2027 15:40:04.461            27.081              Murmansk2           846.281
       302   03 Jun 2027 15:40:52.039   03 Jun 2027 15:41:09.388            17.349              Murmansk1           542.156
       303   03 Jun 2027 15:45:43.862   03 Jun 2027 15:45:50.675             6.813              Murmansk2           212.906
       304   03 Jun 2027 15:48:33.678   03 Jun 2027 15:48:55.242            21.564              Murmansk1           673.875
       305   03 Jun 2027 15:52:23.721   03 Jun 2027 15:55:14.193           170.472                Anadyr2          5327.250
       306   03 Jun 2027 16:48:53.603   03 Jun 2027 16:49:04.088            10.485               CapeTown           327.656
       307   03 Jun 2027 16:52:42.617   03 Jun 2027 16:52:53.655            11.038               CapeTown           344.938
       308   03 Jun 2027 16:54:26.418   03 Jun 2027 16:55:10.893            44.475               CapeTown          1389.844
       309   03 Jun 2027 17:20:12.936   03 Jun 2027 17:22:57.773           164.837              Murmansk1          5151.156
       310   03 Jun 2027 17:28:09.648   03 Jun 2027 17:29:21.291            71.643                Anadyr2          2238.844
       311   03 Jun 2027 17:30:19.826   03 Jun 2027 17:31:09.156            49.330                Anadyr2          1541.562
       312   03 Jun 2027 17:31:09.255   03 Jun 2027 17:32:50.137           100.882               Magadan2          3152.563
       313   03 Jun 2027 17:40:19.367   03 Jun 2027 17:40:23.906             4.539               Magadan1           141.844
       314   03 Jun 2027 17:40:23.906   03 Jun 2027 17:40:25.481             1.575               Magadan2            49.219
       315   03 Jun 2027 17:40:45.929   03 Jun 2027 17:40:57.858            11.929               Magadan1           372.781
       316   03 Jun 2027 19:04:05.256   03 Jun 2027 19:06:03.280           118.024                Anadyr1          3688.250
       317   03 Jun 2027 19:06:18.133   03 Jun 2027 19:07:58.119            99.986                Anadyr2          3124.562
       318   03 Jun 2027 19:08:18.208   03 Jun 2027 19:10:17.365           119.157               Magadan2          3723.656
       319   03 Jun 2027 19:15:07.645   03 Jun 2027 19:16:06.212            58.567               Magadan1          1830.219
       320   03 Jun 2027 19:59:11.497   03 Jun 2027 20:02:15.177           183.680            RioGallegos          5740.000
       321   03 Jun 2027 20:39:49.221   03 Jun 2027 20:40:20.397            31.176                Anadyr1           974.250
       322   03 Jun 2027 20:41:58.671   03 Jun 2027 20:42:18.313            19.642                Norilsk           613.813
       323   03 Jun 2027 20:42:21.222   03 Jun 2027 20:44:52.483           151.261               Magadan1          4726.906
       324   03 Jun 2027 20:45:09.882   03 Jun 2027 20:45:42.589            32.707                Norilsk          1022.094
       325   03 Jun 2027 20:46:28.024   03 Jun 2027 20:46:59.802            31.778                Irkutsk           993.063
       326   03 Jun 2027 20:47:05.742   03 Jun 2027 20:47:09.671             3.929                Irkutsk           122.781
       327   03 Jun 2027 20:48:10.217   03 Jun 2027 20:49:50.872           100.655                Irkutsk          3145.469
       328   03 Jun 2027 20:55:54.303   03 Jun 2027 20:56:44.770            50.467                Irkutsk          1577.094
       329   03 Jun 2027 21:00:38.370   03 Jun 2027 21:01:46.280            67.910                Sumatra          2122.188
       330   03 Jun 2027 21:06:18.151   03 Jun 2027 21:07:26.525            68.374                Sumatra          2136.688
       331   03 Jun 2027 22:19:17.325   03 Jun 2027 22:19:51.152            33.827               Magadan2          1057.094
       332   03 Jun 2027 22:21:31.211   03 Jun 2027 22:21:36.686             5.475               Magadan2           171.094
       333   03 Jun 2027 22:21:42.595   03 Jun 2027 22:22:14.201            31.606                Irkutsk           987.687
       334   03 Jun 2027 22:22:38.708   03 Jun 2027 22:23:26.928            48.220                Novosib          1506.875
       335   03 Jun 2027 22:23:57.315   03 Jun 2027 22:25:00.869            63.554                Novosib          1986.062
       336   03 Jun 2027 22:30:38.550   03 Jun 2027 22:31:50.046            71.496                  Delhi          2234.250
       337   03 Jun 2027 22:32:53.135   03 Jun 2027 22:33:28.184            35.049                  Delhi          1095.281
       338   03 Jun 2027 22:35:21.657   03 Jun 2027 22:36:59.202            97.545                  Delhi          3048.281
       339   03 Jun 2027 23:51:29.615   03 Jun 2027 23:51:44.147            14.532                Anadyr1           454.125
       340   03 Jun 2027 23:53:50.920   03 Jun 2027 23:54:51.919            60.999                Norilsk          1906.219
       341   03 Jun 2027 23:55:20.158   03 Jun 2027 23:56:24.568            64.410               Magadan1          2012.813
       342   03 Jun 2027 23:56:26.081   03 Jun 2027 23:58:27.266           121.185              Murmansk1          3787.031
       343   03 Jun 2027 23:58:40.919   03 Jun 2027 23:59:36.946            56.027                Novosib          1750.844
       344   03 Jun 2027 23:59:47.379   04 Jun 2027 00:00:07.007            19.628              Murmansk2           613.375
       345   04 Jun 2027 00:01:17.717   04 Jun 2027 00:02:37.608            79.891              Murmansk1          2496.594
       346   04 Jun 2027 00:13:56.360   04 Jun 2027 00:14:12.445            16.085                  Delhi           502.656
       347   04 Jun 2027 00:48:20.856   04 Jun 2027 00:48:54.372            33.516            RioGallegos          1047.375
       348   04 Jun 2027 01:21:59.639   04 Jun 2027 01:23:19.573            79.934                Anadyr2          2497.938
       349   04 Jun 2027 01:23:49.602   04 Jun 2027 01:24:31.071            41.469                Anadyr2          1295.906
       350   04 Jun 2027 01:27:40.167   04 Jun 2027 01:28:16.573            36.406               Magadan2          1137.687
       351   04 Jun 2027 01:28:32.623   04 Jun 2027 01:30:01.288            88.665               Magadan2          2770.781
       352   04 Jun 2027 01:30:01.288   04 Jun 2027 01:30:33.814            32.526               Magadan1          1016.438
       353   04 Jun 2027 01:31:59.368   04 Jun 2027 01:33:05.364            65.996              Murmansk1          2062.375
       354   04 Jun 2027 01:33:50.602   04 Jun 2027 01:34:58.583            67.981                Novosib          2124.406
       355   04 Jun 2027 01:38:13.881   04 Jun 2027 01:38:26.265            12.384                 Moscow           387.000
       356   04 Jun 2027 01:41:09.027   04 Jun 2027 01:41:13.903             4.876                 Moscow           152.375
       357   04 Jun 2027 01:41:35.888   04 Jun 2027 01:41:59.721            23.833                 Moscow           744.781
       358   04 Jun 2027 01:46:05.528   04 Jun 2027 01:46:15.343             9.815                 Moscow           306.719
       359   04 Jun 2027 01:47:06.863   04 Jun 2027 01:47:11.627             4.764                 Moscow           148.875
       360   04 Jun 2027 02:00:36.443   04 Jun 2027 02:01:30.926            54.483               CapeTown          1702.594
       361   04 Jun 2027 02:06:25.458   04 Jun 2027 02:06:31.773             6.315               CapeTown           197.344
       362   04 Jun 2027 02:06:32.155   04 Jun 2027 02:07:00.985            28.830               CapeTown           900.937
       363   04 Jun 2027 02:11:16.895   04 Jun 2027 02:11:20.552             3.657               CapeTown           114.281
       364   04 Jun 2027 02:56:07.974   04 Jun 2027 02:58:38.916           150.942                Anadyr1          4716.938
       365   04 Jun 2027 02:59:19.054   04 Jun 2027 02:59:25.825             6.771               Magadan2           211.594
       366   04 Jun 2027 03:00:08.152   04 Jun 2027 03:00:30.035            21.883               Magadan1           683.844
       367   04 Jun 2027 03:16:04.313   04 Jun 2027 03:16:36.764            32.451                Norilsk          1014.094
       368   04 Jun 2027 03:17:25.343   04 Jun 2027 03:17:32.614             7.271              Murmansk1           227.219
       369   04 Jun 2027 03:17:49.447   04 Jun 2027 03:18:38.163            48.716              Murmansk1          1522.375
       370   04 Jun 2027 03:35:13.072   04 Jun 2027 03:36:35.009            81.937               CapeTown          2560.531
       371   04 Jun 2027 03:36:41.838   04 Jun 2027 03:37:09.902            28.064               CapeTown           877.000
       372   04 Jun 2027 04:31:58.173   04 Jun 2027 04:35:06.312           188.139                Anadyr1          5879.344
       373   04 Jun 2027 04:35:29.900   04 Jun 2027 04:35:43.635            13.735                Anadyr1           429.219
       374   04 Jun 2027 04:38:20.296   04 Jun 2027 04:39:12.863            52.567               Magadan2          1642.719
       375   04 Jun 2027 04:39:31.338   04 Jun 2027 04:39:37.927             6.589                Anadyr1           205.906
       376   04 Jun 2027 04:40:04.044   04 Jun 2027 04:44:19.975           255.931               Magadan1          7997.844
       377   04 Jun 2027 06:15:32.603   04 Jun 2027 06:16:04.702            32.099                Anadyr2          1003.094
       378   04 Jun 2027 06:16:18.812   04 Jun 2027 06:16:29.285            10.473               Magadan2           327.281
       379   04 Jun 2027 06:16:30.007   04 Jun 2027 06:16:42.479            12.472               Magadan2           389.750
       380   04 Jun 2027 06:17:06.273   04 Jun 2027 06:17:27.539            21.266               Magadan1           664.562
       381   04 Jun 2027 06:17:39.790   04 Jun 2027 06:17:52.610            12.820                Anadyr2           400.625
       382   04 Jun 2027 06:18:27.033   04 Jun 2027 06:18:29.598             2.565               Magadan2            80.156
       383   04 Jun 2027 06:18:49.013   04 Jun 2027 06:19:06.613            17.600                Anadyr1           550.000
       384   04 Jun 2027 06:19:41.468   04 Jun 2027 06:20:19.997            38.529                Anadyr1          1204.031
       385   04 Jun 2027 07:49:42.572   04 Jun 2027 07:50:27.808            45.236               Magadan1          1413.625
       386   04 Jun 2027 07:50:39.379   04 Jun 2027 07:50:43.149             3.770               Magadan1           117.813
       387   04 Jun 2027 07:50:57.238   04 Jun 2027 07:52:10.161            72.923               Magadan2          2278.844
       388   04 Jun 2027 07:52:14.892   04 Jun 2027 07:52:41.334            26.442               Magadan1           826.312
       389   04 Jun 2027 07:52:47.483   04 Jun 2027 07:53:14.549            27.066               Magadan2           845.812
       390   04 Jun 2027 07:53:14.549   04 Jun 2027 07:54:25.252            70.703               Magadan1          2209.469
       391   04 Jun 2027 07:54:38.888   04 Jun 2027 07:55:28.252            49.364               Magadan1          1542.625
       392   04 Jun 2027 07:55:35.888   04 Jun 2027 07:55:43.709             7.821               Magadan2           244.406
       393   04 Jun 2027 07:59:29.327   04 Jun 2027 07:59:51.862            22.535              Murmansk1           704.219
       394   04 Jun 2027 08:30:43.767   04 Jun 2027 08:31:47.786            64.019            RioGallegos          2000.594
       395   04 Jun 2027 09:06:25.162   04 Jun 2027 09:07:03.182            38.020                Sumatra          1188.125
       396   04 Jun 2027 09:10:34.632   04 Jun 2027 09:12:17.548           102.916                Sumatra          3216.125
       397   04 Jun 2027 09:26:14.077   04 Jun 2027 09:27:12.431            58.354                Irkutsk          1823.562
       398   04 Jun 2027 09:27:28.954   04 Jun 2027 09:27:45.477            16.523                Irkutsk           516.344
       399   04 Jun 2027 09:28:13.731   04 Jun 2027 09:28:15.174             1.443                Irkutsk            45.094
       400   04 Jun 2027 09:28:20.561   04 Jun 2027 09:28:49.641            29.080                Irkutsk           908.750
       401   04 Jun 2027 09:29:31.850   04 Jun 2027 09:30:24.081            52.231                Novosib          1632.219
       402   04 Jun 2027 09:30:30.503   04 Jun 2027 09:30:49.426            18.923                Irkutsk           591.344
       403   04 Jun 2027 09:30:53.840   04 Jun 2027 09:31:52.704            58.864                Irkutsk          1839.500
       404   04 Jun 2027 10:17:42.756   04 Jun 2027 10:18:07.757            25.001            RioGallegos           781.281
       405   04 Jun 2027 10:42:19.698   04 Jun 2027 10:43:30.148            70.450                Sumatra          2201.563
       406   04 Jun 2027 11:04:11.912   04 Jun 2027 11:04:23.921            12.009                Irkutsk           375.281
       407   04 Jun 2027 11:05:16.163   04 Jun 2027 11:05:18.352             2.189                Norilsk            68.406
       408   04 Jun 2027 11:05:40.018   04 Jun 2027 11:05:40.875             0.857                Novosib            26.781
       409   04 Jun 2027 11:05:43.260   04 Jun 2027 11:05:46.143             2.883                Norilsk            90.094
       410   04 Jun 2027 11:06:08.122   04 Jun 2027 11:06:48.960            40.838                Irkutsk          1276.187
       411   04 Jun 2027 11:07:08.827   04 Jun 2027 11:07:21.251            12.424                Novosib           388.250
       412   04 Jun 2027 11:07:22.704   04 Jun 2027 11:07:31.346             8.642                Norilsk           270.063
       413   04 Jun 2027 11:07:37.110   04 Jun 2027 11:07:40.599             3.489                Novosib           109.031
       414   04 Jun 2027 12:27:25.246   04 Jun 2027 12:29:49.620           144.374                  Delhi          4511.688
       415   04 Jun 2027 12:30:49.445   04 Jun 2027 12:32:06.506            77.061                  Delhi          2408.156
       416   04 Jun 2027 12:37:31.776   04 Jun 2027 12:38:07.565            35.789                Novosib          1118.406
       417   04 Jun 2027 12:38:43.172   04 Jun 2027 12:39:43.018            59.846                Novosib          1870.187
       418   04 Jun 2027 14:10:25.271   04 Jun 2027 14:12:06.540           101.269                 Moscow          3164.656
       419   04 Jun 2027 14:13:22.815   04 Jun 2027 14:14:41.165            78.350                 Moscow          2448.437
       420   04 Jun 2027 14:15:08.089   04 Jun 2027 14:16:33.679            85.590              Murmansk1          2674.687
       421   04 Jun 2027 14:16:33.679   04 Jun 2027 14:17:43.437            69.758              Murmansk2          2179.938
       422   04 Jun 2027 14:17:59.600   04 Jun 2027 14:18:13.185            13.585              Murmansk2           424.531
       423   04 Jun 2027 14:21:41.353   04 Jun 2027 14:22:59.070            77.717                Norilsk          2428.656
       424   04 Jun 2027 14:23:08.977   04 Jun 2027 14:23:10.562             1.585                Norilsk            49.531
       425   04 Jun 2027 14:29:33.465   04 Jun 2027 14:29:36.480             3.015                Anadyr2            94.219
       426   04 Jun 2027 14:31:10.192   04 Jun 2027 14:33:28.540           138.348                Anadyr2          4323.375
       427   04 Jun 2027 15:23:45.716   04 Jun 2027 15:24:30.221            44.505               CapeTown          1390.781
       428   04 Jun 2027 15:50:07.682   04 Jun 2027 15:50:24.512            16.830                 Moscow           525.938
       429   04 Jun 2027 15:52:02.968   04 Jun 2027 15:53:11.381            68.413              Murmansk1          2137.906
       430   04 Jun 2027 15:54:00.178   04 Jun 2027 15:54:40.706            40.528              Murmansk2          1266.500
       431   04 Jun 2027 15:55:12.076   04 Jun 2027 15:56:42.051            89.975              Murmansk2          2811.719
       432   04 Jun 2027 16:04:22.316   04 Jun 2027 16:05:29.863            67.547                Anadyr1          2110.844
       433   04 Jun 2027 16:06:01.534   04 Jun 2027 16:07:01.587            60.053                Anadyr2          1876.656
       434   04 Jun 2027 17:05:40.565   04 Jun 2027 17:05:43.217             2.652               CapeTown            82.875
       435   04 Jun 2027 17:09:49.366   04 Jun 2027 17:10:18.455            29.089               CapeTown           909.031
       436   04 Jun 2027 17:33:12.866   04 Jun 2027 17:36:33.167           200.301              Murmansk2          6259.406
       437   04 Jun 2027 17:40:10.982   04 Jun 2027 17:41:18.008            67.026                Anadyr2          2094.562
       438   04 Jun 2027 17:42:49.900   04 Jun 2027 17:43:09.060            19.160               Magadan1           598.750
       439   04 Jun 2027 17:43:11.934   04 Jun 2027 17:44:44.816            92.882               Magadan2          2902.562
       440   04 Jun 2027 19:16:06.272   04 Jun 2027 19:18:04.849           118.577                Anadyr2          3705.531
       441   04 Jun 2027 19:18:16.288   04 Jun 2027 19:20:10.227           113.939                Anadyr1          3560.594
       442   04 Jun 2027 19:20:27.189   04 Jun 2027 19:21:26.633            59.444                Norilsk          1857.625
       443   04 Jun 2027 19:21:40.992   04 Jun 2027 19:22:12.471            31.479               Magadan2           983.719
       444   04 Jun 2027 19:22:12.471   04 Jun 2027 19:22:48.350            35.879               Magadan1          1121.219
       445   04 Jun 2027 19:24:18.272   04 Jun 2027 19:25:34.482            76.210               Magadan1          2381.563
       446   04 Jun 2027 20:10:52.139   04 Jun 2027 20:13:39.102           166.963            RioGallegos          5217.594
       447   04 Jun 2027 20:15:28.670   04 Jun 2027 20:16:22.687            54.017            RioGallegos          1688.031
       448   04 Jun 2027 20:52:35.696   04 Jun 2027 20:53:56.168            80.472                Anadyr2          2514.750
       449   04 Jun 2027 20:53:58.150   04 Jun 2027 20:56:19.683           141.533                Norilsk          4422.906
       450   04 Jun 2027 20:58:18.043   04 Jun 2027 20:59:12.462            54.419                Irkutsk          1700.594
       451   04 Jun 2027 21:12:14.030   04 Jun 2027 21:14:13.723           119.693                Sumatra          3740.406
       452   04 Jun 2027 21:14:42.149   04 Jun 2027 21:15:34.358            52.209                Sumatra          1631.531
       453   04 Jun 2027 22:29:52.717   04 Jun 2027 22:30:16.718            24.001                Norilsk           750.031
       454   04 Jun 2027 22:30:30.312   04 Jun 2027 22:31:59.088            88.776               Magadan1          2774.250
       455   04 Jun 2027 22:33:33.804   04 Jun 2027 22:33:48.751            14.947                Norilsk           467.094
       456   04 Jun 2027 22:34:00.335   04 Jun 2027 22:35:13.212            72.877                Novosib          2277.406
       457   04 Jun 2027 22:35:34.272   04 Jun 2027 22:35:53.124            18.852                Novosib           589.125
       458   04 Jun 2027 22:36:46.644   04 Jun 2027 22:37:27.876            41.232                Novosib          1288.500
       459   04 Jun 2027 22:42:08.478   04 Jun 2027 22:45:15.468           186.990                  Delhi          5843.437
       460   05 Jun 2027 00:01:51.692   05 Jun 2027 00:02:46.461            54.769                Anadyr1          1711.531
       461   05 Jun 2027 00:05:52.570   05 Jun 2027 00:06:05.600            13.030                Norilsk           407.187
       462   05 Jun 2027 00:06:11.848   05 Jun 2027 00:07:16.502            64.654               Magadan1          2020.438
       463   05 Jun 2027 00:07:16.502   05 Jun 2027 00:07:50.527            34.025               Magadan2          1063.281
       464   05 Jun 2027 00:08:20.815   05 Jun 2027 00:11:10.290           169.475              Murmansk2          5296.094
       465   05 Jun 2027 00:14:03.297   05 Jun 2027 00:15:51.592           108.295                 Moscow          3384.219
       466   05 Jun 2027 01:00:32.137   05 Jun 2027 01:01:46.120            73.983            RioGallegos          2311.969
       467   05 Jun 2027 01:33:43.409   05 Jun 2027 01:33:44.178             0.769                Anadyr2            24.031
       468   05 Jun 2027 01:34:00.754   05 Jun 2027 01:34:00.872             0.118                Anadyr1             3.688
       469   05 Jun 2027 01:34:34.090   05 Jun 2027 01:35:14.480            40.390                Anadyr2          1262.187
       470   05 Jun 2027 01:35:49.752   05 Jun 2027 01:36:28.589            38.837                Anadyr2          1213.656
       471   05 Jun 2027 01:36:57.206   05 Jun 2027 01:37:14.570            17.364                Anadyr2           542.625
       472   05 Jun 2027 01:39:08.963   05 Jun 2027 01:40:43.776            94.813               Magadan1          2962.906
       473   05 Jun 2027 01:41:12.576   05 Jun 2027 01:41:21.011             8.435               Magadan1           263.594
       474   05 Jun 2027 01:41:56.244   05 Jun 2027 01:42:03.157             6.913               Magadan1           216.031
       475   05 Jun 2027 01:42:06.310   05 Jun 2027 01:42:06.432             0.122                Norilsk             3.813
       476   05 Jun 2027 01:42:35.372   05 Jun 2027 01:42:57.218            21.846               Magadan1           682.688
       477   05 Jun 2027 01:44:00.525   05 Jun 2027 01:45:56.569           116.044              Murmansk1          3626.375
       478   05 Jun 2027 01:46:13.498   05 Jun 2027 01:46:20.091             6.593              Murmansk1           206.031
       479   05 Jun 2027 01:47:27.643   05 Jun 2027 01:48:32.766            65.123                 Moscow          2035.094
       480   05 Jun 2027 01:58:16.387   05 Jun 2027 01:58:20.111             3.724                 Moscow           116.375
       481   05 Jun 2027 01:59:26.693   05 Jun 2027 01:59:31.038             4.345                 Moscow           135.781
       482   05 Jun 2027 02:12:08.749   05 Jun 2027 02:12:39.458            30.709               CapeTown           959.656
