uniorb/output/strategy_4/Drop/Drop_KinoSat_111910.txt

KinoSat_111910
-------------------------
    Access    *     Start Time (UTCG)     *     Stop Time (UTCG)  *   Duration (s)        *       Station  *  Data (Mbytes)
         1   01 Jun 2027 03:51:51.240   01 Jun 2027 03:53:15.320            84.080                 Moscow          2627.500
         2   01 Jun 2027 03:53:21.835   01 Jun 2027 03:56:42.660           200.825                Novosib          6275.781
         3   01 Jun 2027 03:57:26.322   01 Jun 2027 03:57:34.532             8.210                Norilsk           256.562
         4   01 Jun 2027 03:58:28.280   01 Jun 2027 04:01:03.126           154.846                  Delhi          4838.937
         5   01 Jun 2027 05:30:18.874   01 Jun 2027 05:32:45.712           146.838                Norilsk          4588.688
         6   01 Jun 2027 05:32:51.675   01 Jun 2027 05:33:53.174            61.499                 Moscow          1921.844
         7   01 Jun 2027 05:34:02.039   01 Jun 2027 05:35:07.545            65.506              Murmansk2          2047.062
         8   01 Jun 2027 05:35:45.209   01 Jun 2027 05:38:50.795           185.586                 Moscow          5799.563
         9   01 Jun 2027 05:50:34.965   01 Jun 2027 05:53:59.923           204.958               CapeTown          6404.937
        10   01 Jun 2027 05:59:58.648   01 Jun 2027 06:02:13.240           134.592               CapeTown          4206.000
        11   01 Jun 2027 06:54:38.629   01 Jun 2027 06:56:27.167           108.538                Anadyr2          3391.813
        12   01 Jun 2027 06:57:26.055   01 Jun 2027 06:58:22.224            56.169               Magadan1          1755.281
        13   01 Jun 2027 07:05:42.894   01 Jun 2027 07:08:53.394           190.500                 Moscow          5953.125
        14   01 Jun 2027 07:11:02.571   01 Jun 2027 07:11:33.943            31.372                 Moscow           980.375
        15   01 Jun 2027 07:11:43.686   01 Jun 2027 07:11:50.883             7.197                 Moscow           224.906
        16   01 Jun 2027 07:27:01.416   01 Jun 2027 07:29:19.430           138.014               CapeTown          4312.938
        17   01 Jun 2027 07:31:31.646   01 Jun 2027 07:32:03.435            31.789               CapeTown           993.406
        18   01 Jun 2027 08:29:54.116   01 Jun 2027 08:33:10.456           196.340                Anadyr2          6135.625
        19   01 Jun 2027 08:33:35.773   01 Jun 2027 08:34:16.345            40.572                Anadyr2          1267.875
        20   01 Jun 2027 10:03:45.249   01 Jun 2027 10:04:37.858            52.609                Anadyr1          1644.031
        21   01 Jun 2027 10:05:27.155   01 Jun 2027 10:06:16.694            49.539               Magadan1          1548.094
        22   01 Jun 2027 10:06:16.694   01 Jun 2027 10:07:24.172            67.478               Magadan2          2108.688
        23   01 Jun 2027 10:07:27.439   01 Jun 2027 10:11:04.851           217.412                Anadyr2          6794.125
        24   01 Jun 2027 11:39:52.182   01 Jun 2027 11:46:13.743           381.561               Magadan2         11923.781
        25   01 Jun 2027 14:02:23.975   01 Jun 2027 14:07:37.992           314.017            RioGallegos          9813.031
        26   01 Jun 2027 14:35:17.957   01 Jun 2027 14:41:46.529           388.572                Sumatra         12142.875
        27   01 Jun 2027 14:51:11.921   01 Jun 2027 14:56:29.266           317.345                Irkutsk          9917.031
        28   01 Jun 2027 16:21:37.071   01 Jun 2027 16:25:16.145           219.074                  Delhi          6846.062
        29   01 Jun 2027 16:29:45.979   01 Jun 2027 16:33:36.253           230.274                Novosib          7196.062
        30   01 Jun 2027 16:37:17.110   01 Jun 2027 16:37:19.255             2.145                Norilsk            67.031
        31   01 Jun 2027 19:44:42.272   01 Jun 2027 19:45:03.022            20.750              Murmansk1           648.437
        32   01 Jun 2027 19:47:32.844   01 Jun 2027 19:49:37.156           124.312              Murmansk2          3884.750
        33   01 Jun 2027 19:51:00.798   01 Jun 2027 19:51:51.138            50.340              Murmansk1          1573.125
        34   01 Jun 2027 20:52:49.375   01 Jun 2027 20:59:02.690           373.315               CapeTown         11666.094
        35   02 Jun 2027 01:42:29.453   02 Jun 2027 01:42:29.802             0.349            RioGallegos            10.906
        36   02 Jun 2027 01:45:47.402   02 Jun 2027 01:46:01.605            14.203            RioGallegos           443.844
        37   02 Jun 2027 01:46:24.467   02 Jun 2027 01:47:34.827            70.360            RioGallegos          2198.750
        38   02 Jun 2027 02:20:54.264   02 Jun 2027 02:22:21.022            86.758                Norilsk          2711.187
        39   02 Jun 2027 02:24:40.995   02 Jun 2027 02:25:33.273            52.278                Norilsk          1633.688
        40   02 Jun 2027 02:25:50.901   02 Jun 2027 02:26:57.877            66.976                Novosib          2093.000
        41   02 Jun 2027 02:27:20.459   02 Jun 2027 02:27:37.293            16.834                Irkutsk           526.063
        42   02 Jun 2027 02:27:38.375   02 Jun 2027 02:27:41.473             3.098                Novosib            96.813
        43   02 Jun 2027 02:28:04.652   02 Jun 2027 02:28:31.660            27.008                Novosib           844.000
        44   02 Jun 2027 02:30:13.246   02 Jun 2027 02:30:25.819            12.573                Irkutsk           392.906
        45   02 Jun 2027 02:30:59.969   02 Jun 2027 02:31:26.026            26.057                Irkutsk           814.281
        46   02 Jun 2027 02:36:34.325   02 Jun 2027 02:38:29.690           115.365                  Delhi          3605.156
        47   02 Jun 2027 02:42:06.485   02 Jun 2027 02:46:55.032           288.547                Sumatra          9017.094
        48   02 Jun 2027 04:03:09.786   02 Jun 2027 04:03:50.069            40.283              Murmansk2          1258.844
        49   02 Jun 2027 04:03:50.069   02 Jun 2027 04:03:59.948             9.879              Murmansk1           308.719
        50   02 Jun 2027 04:04:08.779   02 Jun 2027 04:04:39.937            31.158              Murmansk1           973.687
        51   02 Jun 2027 04:04:54.412   02 Jun 2027 04:05:14.552            20.140              Murmansk1           629.375
        52   02 Jun 2027 04:05:36.843   02 Jun 2027 04:05:52.003            15.160              Murmansk1           473.750
        53   02 Jun 2027 04:05:55.020   02 Jun 2027 04:06:22.672            27.652                Norilsk           864.125
        54   02 Jun 2027 04:06:24.404   02 Jun 2027 04:07:26.600            62.196              Murmansk1          1943.625
        55   02 Jun 2027 04:07:43.003   02 Jun 2027 04:09:37.812           114.809                Irkutsk          3587.781
        56   02 Jun 2027 04:09:48.647   02 Jun 2027 04:09:51.501             2.854                Novosib            89.188
        57   02 Jun 2027 04:10:09.603   02 Jun 2027 04:12:03.304           113.701                Novosib          3553.156
        58   02 Jun 2027 04:12:24.315   02 Jun 2027 04:12:30.059             5.744                Novosib           179.500
        59   02 Jun 2027 05:43:13.693   02 Jun 2027 05:43:53.981            40.288                Norilsk          1259.000
        60   02 Jun 2027 05:44:11.646   02 Jun 2027 05:45:45.530            93.884                Novosib          2933.875
        61   02 Jun 2027 05:47:50.529   02 Jun 2027 05:51:01.365           190.836                 Moscow          5963.625
        62   02 Jun 2027 06:02:22.179   02 Jun 2027 06:06:44.173           261.994               CapeTown          8187.312
        63   02 Jun 2027 06:08:31.761   02 Jun 2027 06:09:40.877            69.116               CapeTown          2159.875
        64   02 Jun 2027 06:09:49.808   02 Jun 2027 06:10:04.641            14.833               CapeTown           463.531
        65   02 Jun 2027 06:10:39.579   02 Jun 2027 06:11:39.862            60.283               CapeTown          1883.844
        66   02 Jun 2027 06:12:51.058   02 Jun 2027 06:14:41.339           110.281               CapeTown          3446.281
        67   02 Jun 2027 07:05:23.084   02 Jun 2027 07:06:13.464            50.380               Magadan1          1574.375
        68   02 Jun 2027 07:06:28.366   02 Jun 2027 07:09:07.640           159.274               Magadan1          4977.312
        69   02 Jun 2027 07:09:07.640   02 Jun 2027 07:09:29.111            21.471               Magadan2           670.969
        70   02 Jun 2027 07:18:29.352   02 Jun 2027 07:18:51.581            22.229                Norilsk           694.656
        71   02 Jun 2027 07:20:24.825   02 Jun 2027 07:21:29.023            64.198              Murmansk2          2006.188
        72   02 Jun 2027 07:25:58.423   02 Jun 2027 07:26:21.807            23.384                 Moscow           730.750
        73   02 Jun 2027 07:42:50.452   02 Jun 2027 07:45:53.015           182.563               CapeTown          5705.094
        74   02 Jun 2027 08:41:53.642   02 Jun 2027 08:45:09.548           195.906                Anadyr2          6122.063
        75   02 Jun 2027 10:16:19.560   02 Jun 2027 10:17:24.876            65.316               Magadan1          2041.125
        76   02 Jun 2027 10:17:24.876   02 Jun 2027 10:19:24.982           120.106               Magadan2          3753.313
        77   02 Jun 2027 10:19:26.689   02 Jun 2027 10:20:15.369            48.680                Anadyr2          1521.250
        78   02 Jun 2027 10:20:46.237   02 Jun 2027 10:21:21.075            34.838               Magadan2          1088.688
        79   02 Jun 2027 10:21:32.428   02 Jun 2027 10:22:10.251            37.823                Irkutsk          1181.969
        80   02 Jun 2027 10:28:04.966   02 Jun 2027 10:28:11.809             6.843              Murmansk2           213.844
        81   02 Jun 2027 10:58:37.451   02 Jun 2027 10:59:09.299            31.848            RioGallegos           995.250
        82   02 Jun 2027 11:00:39.375   02 Jun 2027 11:00:52.866            13.491            RioGallegos           421.594
        83   02 Jun 2027 11:02:55.224   02 Jun 2027 11:03:41.426            46.202            RioGallegos          1443.812
        84   02 Jun 2027 11:50:51.412   02 Jun 2027 11:51:11.781            20.369               Magadan2           636.531
        85   02 Jun 2027 11:51:11.781   02 Jun 2027 11:55:08.953           237.172               Magadan1          7411.625
        86   02 Jun 2027 11:56:00.692   02 Jun 2027 11:57:11.335            70.643                Irkutsk          2207.594
        87   02 Jun 2027 11:57:26.331   02 Jun 2027 11:58:05.812            39.481                Irkutsk          1233.781
        88   02 Jun 2027 11:58:11.334   02 Jun 2027 11:58:38.487            27.153                Novosib           848.531
        89   02 Jun 2027 11:58:47.563   02 Jun 2027 11:59:34.469            46.906                Norilsk          1465.812
        90   02 Jun 2027 12:03:55.266   02 Jun 2027 12:04:06.049            10.783                Norilsk           336.969
        91   02 Jun 2027 12:04:45.275   02 Jun 2027 12:05:39.733            54.458              Murmansk2          1701.813
        92   02 Jun 2027 12:40:39.829   02 Jun 2027 12:42:42.027           122.198            RioGallegos          3818.688
        93   02 Jun 2027 13:11:13.288   02 Jun 2027 13:11:48.170            34.882                Sumatra          1090.062
        94   02 Jun 2027 13:15:26.052   02 Jun 2027 13:17:16.159           110.107                Sumatra          3440.844
        95   02 Jun 2027 13:25:03.866   02 Jun 2027 13:26:05.110            61.244                Novosib          1913.875
        96   02 Jun 2027 13:26:27.622   02 Jun 2027 13:27:33.669            66.047                Irkutsk          2063.969
        97   02 Jun 2027 13:34:47.692   02 Jun 2027 13:34:49.442             1.750                Irkutsk            54.688
        98   02 Jun 2027 13:37:40.365   02 Jun 2027 13:38:09.791            29.426                Norilsk           919.563
        99   02 Jun 2027 13:39:50.266   02 Jun 2027 13:40:03.129            12.863                Norilsk           401.969
       100   02 Jun 2027 13:41:37.610   02 Jun 2027 13:42:12.129            34.519              Murmansk2          1078.719
       101   02 Jun 2027 14:13:39.751   02 Jun 2027 14:17:49.546           249.795            RioGallegos          7806.094
       102   02 Jun 2027 14:49:39.365   02 Jun 2027 14:51:18.887            99.522                Sumatra          3110.062
       103   02 Jun 2027 15:02:58.916   02 Jun 2027 15:05:47.253           168.337                Novosib          5260.531
       104   02 Jun 2027 15:06:36.361   02 Jun 2027 15:06:47.934            11.573                Irkutsk           361.656
       105   02 Jun 2027 16:37:16.078   02 Jun 2027 16:38:34.282            78.204                 Moscow          2443.875
       106   02 Jun 2027 16:40:40.983   02 Jun 2027 16:41:41.132            60.149              Murmansk1          1879.656
       107   02 Jun 2027 16:44:25.303   02 Jun 2027 16:47:24.765           179.462                Norilsk          5608.187
       108   02 Jun 2027 16:48:51.313   02 Jun 2027 16:50:11.128            79.815                Norilsk          2494.219
       109   02 Jun 2027 18:00:20.597   02 Jun 2027 18:00:33.332            12.735               CapeTown           397.969
       110   02 Jun 2027 18:01:15.147   02 Jun 2027 18:01:32.408            17.261               CapeTown           539.406
       111   02 Jun 2027 18:14:27.244   02 Jun 2027 18:14:59.017            31.773                 Moscow           992.906
       112   02 Jun 2027 18:15:57.749   02 Jun 2027 18:19:31.185           213.436                 Moscow          6669.875
       113   02 Jun 2027 18:31:46.130   02 Jun 2027 18:32:22.915            36.785                Anadyr1          1149.531
       114   02 Jun 2027 18:35:23.606   02 Jun 2027 18:35:36.824            13.218                Anadyr1           413.062
       115   02 Jun 2027 18:39:40.139   02 Jun 2027 18:40:27.388            47.249                Anadyr1          1476.531
       116   02 Jun 2027 19:26:43.523   02 Jun 2027 19:28:46.420           122.897               CapeTown          3840.531
       117   02 Jun 2027 19:37:35.265   02 Jun 2027 19:38:42.374            67.109               CapeTown          2097.156
       118   02 Jun 2027 19:56:50.801   02 Jun 2027 19:57:58.912            68.111              Murmansk1          2128.469
       119   02 Jun 2027 19:59:04.387   02 Jun 2027 20:02:22.576           198.189              Murmansk2          6193.406
       120   02 Jun 2027 20:02:47.045   02 Jun 2027 20:05:22.362           155.317              Murmansk1          4853.656
       121   02 Jun 2027 21:06:08.341   02 Jun 2027 21:09:18.938           190.597               CapeTown          5956.156
       122   02 Jun 2027 21:44:56.145   02 Jun 2027 21:46:10.082            73.937                Anadyr2          2310.531
       123   02 Jun 2027 21:47:53.316   02 Jun 2027 21:48:05.403            12.087               Magadan1           377.719
       124   02 Jun 2027 21:49:25.515   02 Jun 2027 21:49:37.349            11.834               Magadan1           369.812
       125   02 Jun 2027 21:50:37.720   02 Jun 2027 21:50:48.431            10.711               Magadan1           334.719
       126   02 Jun 2027 21:53:28.187   02 Jun 2027 21:53:42.506            14.319               Magadan2           447.469
       127   02 Jun 2027 21:54:22.548   02 Jun 2027 21:54:32.956            10.408               Magadan1           325.250
       128   02 Jun 2027 23:19:06.321   02 Jun 2027 23:24:32.667           326.346                Anadyr1         10198.313
       129   02 Jun 2027 23:24:37.566   02 Jun 2027 23:26:26.418           108.852               Magadan1          3401.625
       130   02 Jun 2027 23:26:32.274   02 Jun 2027 23:26:32.807             0.533                Norilsk            16.656
       131   02 Jun 2027 23:26:41.406   02 Jun 2027 23:27:05.331            23.925               Magadan1           747.656
       132   02 Jun 2027 23:27:53.842   02 Jun 2027 23:29:17.883            84.041                Irkutsk          2626.281
       133   02 Jun 2027 23:31:39.656   02 Jun 2027 23:32:58.353            78.697                Irkutsk          2459.281
       134   02 Jun 2027 23:43:04.150   02 Jun 2027 23:43:38.451            34.301                Sumatra          1071.906
       135   02 Jun 2027 23:44:07.560   02 Jun 2027 23:44:09.328             1.768                Sumatra            55.250
       136   02 Jun 2027 23:45:50.095   02 Jun 2027 23:46:50.033            59.938                Sumatra          1873.063
       137   03 Jun 2027 00:15:28.349   03 Jun 2027 00:16:05.352            37.003            RioGallegos          1156.344
       138   03 Jun 2027 00:23:15.913   03 Jun 2027 00:23:52.201            36.288            RioGallegos          1134.000
       139   03 Jun 2027 00:54:32.409   03 Jun 2027 00:54:41.837             9.428                Anadyr1           294.625
       140   03 Jun 2027 00:54:49.075   03 Jun 2027 00:55:36.287            47.212                Anadyr2          1475.375
       141   03 Jun 2027 00:56:56.215   03 Jun 2027 00:58:49.760           113.545                Norilsk          3548.281
       142   03 Jun 2027 00:59:15.633   03 Jun 2027 01:00:22.253            66.620               Magadan2          2081.875
       143   03 Jun 2027 01:00:56.371   03 Jun 2027 01:02:25.642            89.271                Irkutsk          2789.719
       144   03 Jun 2027 01:02:41.072   03 Jun 2027 01:03:47.435            66.363                Irkutsk          2073.844
       145   03 Jun 2027 01:14:39.520   03 Jun 2027 01:17:05.100           145.580                Sumatra          4549.375
       146   03 Jun 2027 01:51:47.263   03 Jun 2027 01:51:58.422            11.159            RioGallegos           348.719
       147   03 Jun 2027 01:53:41.917   03 Jun 2027 01:54:11.530            29.613            RioGallegos           925.406
       148   03 Jun 2027 01:54:31.437   03 Jun 2027 01:55:07.108            35.671            RioGallegos          1114.719
       149   03 Jun 2027 02:00:54.529   03 Jun 2027 02:01:00.932             6.403            RioGallegos           200.094
       150   03 Jun 2027 02:30:01.244   03 Jun 2027 02:30:21.245            20.001                Anadyr2           625.031
       151   03 Jun 2027 02:31:18.870   03 Jun 2027 02:31:21.665             2.795                Anadyr1            87.344
       152   03 Jun 2027 02:32:34.124   03 Jun 2027 02:32:45.839            11.715                Anadyr1           366.094
       153   03 Jun 2027 02:32:56.705   03 Jun 2027 02:34:43.640           106.935                Norilsk          3341.719
       154   03 Jun 2027 02:36:22.736   03 Jun 2027 02:37:06.776            44.040              Murmansk1          1376.250
       155   03 Jun 2027 02:37:09.704   03 Jun 2027 02:38:48.487            98.783                Irkutsk          3086.969
       156   03 Jun 2027 02:41:57.294   03 Jun 2027 02:42:17.692            20.398                Irkutsk           637.437
       157   03 Jun 2027 02:45:33.725   03 Jun 2027 02:45:54.730            21.005                Irkutsk           656.406
       158   03 Jun 2027 02:46:29.274   03 Jun 2027 02:47:06.782            37.508                  Delhi          1172.125
       159   03 Jun 2027 02:52:16.334   03 Jun 2027 02:53:43.950            87.616                  Delhi          2738.000
       160   03 Jun 2027 03:27:08.762   03 Jun 2027 03:28:26.060            77.298            RioGallegos          2415.562
       161   03 Jun 2027 03:33:01.060   03 Jun 2027 03:34:08.360            67.300            RioGallegos          2103.125
       162   03 Jun 2027 04:16:38.901   03 Jun 2027 04:18:22.910           104.009                Novosib          3250.281
       163   03 Jun 2027 04:18:23.822   03 Jun 2027 04:18:41.591            17.769                Norilsk           555.281
       164   03 Jun 2027 04:18:43.410   03 Jun 2027 04:20:55.117           131.707                Irkutsk          4115.844
       165   03 Jun 2027 04:21:02.713   03 Jun 2027 04:21:11.162             8.449              Murmansk2           264.031
       166   03 Jun 2027 04:21:13.092   03 Jun 2027 04:26:45.179           332.087                  Delhi         10377.719
       167   03 Jun 2027 04:28:06.638   03 Jun 2027 04:30:36.727           150.089                  Delhi          4690.281
       168   03 Jun 2027 05:55:58.537   03 Jun 2027 05:57:10.021            71.484                Novosib          2233.875
       169   03 Jun 2027 05:57:25.022   03 Jun 2027 05:58:52.375            87.353                 Moscow          2729.781
       170   03 Jun 2027 06:01:31.268   03 Jun 2027 06:03:08.699            97.431                 Moscow          3044.719
       171   03 Jun 2027 06:14:14.579   03 Jun 2027 06:17:13.900           179.321               CapeTown          5603.781
       172   03 Jun 2027 06:18:29.171   03 Jun 2027 06:20:14.790           105.619               CapeTown          3300.594
       173   03 Jun 2027 07:17:23.120   03 Jun 2027 07:18:58.427            95.307                Anadyr1          2978.344
       174   03 Jun 2027 07:22:54.592   03 Jun 2027 07:23:15.798            21.206                Anadyr2           662.687
       175   03 Jun 2027 07:32:23.127   03 Jun 2027 07:32:37.029            13.902              Murmansk2           434.438
       176   03 Jun 2027 07:33:05.382   03 Jun 2027 07:33:22.493            17.111                 Moscow           534.719
       177   03 Jun 2027 07:52:21.837   03 Jun 2027 07:56:51.677           269.840               CapeTown          8432.500
       178   03 Jun 2027 08:52:29.452   03 Jun 2027 08:52:45.001            15.549               Magadan2           485.906
       179   03 Jun 2027 08:52:50.860   03 Jun 2027 08:53:09.463            18.603               Magadan2           581.344
       180   03 Jun 2027 08:53:10.357   03 Jun 2027 08:54:42.034            91.677                Anadyr1          2864.906
       181   03 Jun 2027 08:54:48.739   03 Jun 2027 08:55:29.931            41.192               Magadan2          1287.250
       182   03 Jun 2027 08:55:49.522   03 Jun 2027 08:56:51.157            61.635                Anadyr2          1926.094
       183   03 Jun 2027 09:38:46.233   03 Jun 2027 09:38:54.603             8.370            RioGallegos           261.562
       184   03 Jun 2027 10:27:59.689   03 Jun 2027 10:28:21.576            21.887               Magadan2           683.969
       185   03 Jun 2027 10:28:31.124   03 Jun 2027 10:29:21.478            50.354               Magadan1          1573.563
       186   03 Jun 2027 10:29:28.961   03 Jun 2027 10:31:25.266           116.305               Magadan2          3634.531
       187   03 Jun 2027 10:32:08.773   03 Jun 2027 10:32:27.259            18.486                Norilsk           577.687
       188   03 Jun 2027 10:32:50.752   03 Jun 2027 10:33:03.668            12.916               Magadan1           403.625
       189   03 Jun 2027 10:33:05.810   03 Jun 2027 10:34:44.546            98.736               Magadan2          3085.500
       190   03 Jun 2027 10:35:22.278   03 Jun 2027 10:36:04.719            42.441                Norilsk          1326.281
       191   03 Jun 2027 11:10:22.878   03 Jun 2027 11:10:35.310            12.432            RioGallegos           388.500
       192   03 Jun 2027 11:11:11.716   03 Jun 2027 11:11:46.083            34.367            RioGallegos          1073.969
       193   03 Jun 2027 11:48:13.709   03 Jun 2027 11:49:42.228            88.519                Sumatra          2766.219
       194   03 Jun 2027 12:03:55.107   03 Jun 2027 12:05:35.628           100.521               Magadan2          3141.281
       195   03 Jun 2027 12:06:32.519   03 Jun 2027 12:09:29.314           176.795               Magadan1          5524.844
       196   03 Jun 2027 13:29:27.096   03 Jun 2027 13:29:49.003            21.907                Sumatra           684.594
       197   03 Jun 2027 13:35:07.537   03 Jun 2027 13:35:26.390            18.853                Irkutsk           589.156
       198   03 Jun 2027 13:37:14.212   03 Jun 2027 13:40:07.170           172.958                Irkutsk          5404.937
       199   03 Jun 2027 14:26:57.661   03 Jun 2027 14:30:37.424           219.763            RioGallegos          6867.594
       200   03 Jun 2027 15:13:02.360   03 Jun 2027 15:13:40.214            37.854                Novosib          1182.937
       201   03 Jun 2027 15:13:44.634   03 Jun 2027 15:14:53.764            69.130                  Delhi          2160.312
       202   03 Jun 2027 15:18:05.446   03 Jun 2027 15:18:12.590             7.144                Novosib           223.250
       203   03 Jun 2027 15:20:29.080   03 Jun 2027 15:21:05.615            36.535                Novosib          1141.719
       204   03 Jun 2027 15:21:37.863   03 Jun 2027 15:21:54.535            16.672                Norilsk           521.000
       205   03 Jun 2027 15:22:20.929   03 Jun 2027 15:23:03.064            42.135                Norilsk          1316.719
       206   03 Jun 2027 16:49:16.155   03 Jun 2027 16:52:08.987           172.832                 Moscow          5401.000
       207   03 Jun 2027 16:55:01.213   03 Jun 2027 16:56:24.612            83.399                 Moscow          2606.219
       208   03 Jun 2027 16:57:09.446   03 Jun 2027 17:03:11.869           362.423                Norilsk         11325.719
       209   03 Jun 2027 18:26:55.645   03 Jun 2027 18:28:00.345            64.700                 Moscow          2021.875
       210   03 Jun 2027 18:29:57.528   03 Jun 2027 18:30:51.193            53.665              Murmansk1          1677.031
       211   03 Jun 2027 18:39:39.531   03 Jun 2027 18:39:47.649             8.118              Murmansk2           253.687
       212   03 Jun 2027 18:51:05.937   03 Jun 2027 18:52:02.965            57.028                Anadyr1          1782.125
       213   03 Jun 2027 19:38:50.543   03 Jun 2027 19:41:21.694           151.151               CapeTown          4723.469
       214   03 Jun 2027 20:09:30.017   03 Jun 2027 20:11:07.917            97.900              Murmansk1          3059.375
       215   03 Jun 2027 20:11:13.163   03 Jun 2027 20:14:05.993           172.830              Murmansk2          5400.938
       216   03 Jun 2027 20:14:22.247   03 Jun 2027 20:15:13.719            51.472              Murmansk1          1608.500
       217   03 Jun 2027 20:16:57.135   03 Jun 2027 20:17:19.025            21.890              Murmansk2           684.063
       218   03 Jun 2027 21:55:15.536   03 Jun 2027 21:57:02.100           106.564                Anadyr2          3330.125
       219   03 Jun 2027 21:57:09.254   03 Jun 2027 21:58:51.886           102.632                Anadyr1          3207.250
       220   03 Jun 2027 21:58:54.336   03 Jun 2027 22:02:35.845           221.509               Magadan2          6922.156
       221   03 Jun 2027 22:06:02.367   03 Jun 2027 22:06:28.512            26.145               Magadan1           817.031
       222   03 Jun 2027 22:51:53.261   03 Jun 2027 22:54:08.134           134.873            RioGallegos          4214.781
       223   03 Jun 2027 22:56:19.861   03 Jun 2027 22:56:23.418             3.557            RioGallegos           111.156
       224   03 Jun 2027 23:31:06.379   03 Jun 2027 23:32:30.532            84.153                Anadyr1          2629.781
       225   03 Jun 2027 23:32:32.318   03 Jun 2027 23:33:49.291            76.973                Anadyr2          2405.406
       226   03 Jun 2027 23:33:59.699   03 Jun 2027 23:35:11.715            72.016               Magadan1          2250.500
       227   03 Jun 2027 23:35:14.959   03 Jun 2027 23:36:02.219            47.260               Magadan2          1476.875
       228   03 Jun 2027 23:36:18.471   03 Jun 2027 23:36:33.846            15.375                Norilsk           480.469
       229   03 Jun 2027 23:37:45.743   03 Jun 2027 23:38:10.008            24.265               Magadan2           758.281
       230   03 Jun 2027 23:38:18.386   03 Jun 2027 23:38:54.172            35.786                Irkutsk          1118.313
       231   03 Jun 2027 23:39:16.101   03 Jun 2027 23:39:29.064            12.963                Irkutsk           405.094
       232   03 Jun 2027 23:39:57.710   03 Jun 2027 23:40:26.546            28.836                Irkutsk           901.125
       233   03 Jun 2027 23:42:04.453   03 Jun 2027 23:42:32.067            27.614                Irkutsk           862.938
       234   03 Jun 2027 23:53:36.266   03 Jun 2027 23:55:29.260           112.994                Sumatra          3531.062
       235   03 Jun 2027 23:58:36.676   03 Jun 2027 23:59:17.569            40.893                Sumatra          1277.906
       236   04 Jun 2027 00:29:53.698   04 Jun 2027 00:29:57.810             4.112            RioGallegos           128.500
       237   04 Jun 2027 00:34:30.419   04 Jun 2027 00:35:26.227            55.808            RioGallegos          1744.000
       238   04 Jun 2027 01:06:26.604   04 Jun 2027 01:06:57.518            30.914                Anadyr1           966.063
       239   04 Jun 2027 01:08:04.703   04 Jun 2027 01:08:42.180            37.477                Anadyr1          1171.156
       240   04 Jun 2027 01:08:58.128   04 Jun 2027 01:10:52.060           113.932                Norilsk          3560.375
       241   04 Jun 2027 01:11:04.893   04 Jun 2027 01:11:51.136            46.243               Magadan1          1445.094
       242   04 Jun 2027 01:12:55.073   04 Jun 2027 01:15:59.688           184.615                Irkutsk          5769.219
       243   04 Jun 2027 01:24:26.894   04 Jun 2027 01:24:52.584            25.690                  Delhi           802.812
       244   04 Jun 2027 01:26:15.705   04 Jun 2027 01:28:08.172           112.467                  Delhi          3514.594
       245   04 Jun 2027 01:29:46.771   04 Jun 2027 01:31:09.930            83.159                Sumatra          2598.719
       246   04 Jun 2027 02:12:24.204   04 Jun 2027 02:12:41.281            17.077            RioGallegos           533.656
       247   04 Jun 2027 02:42:22.573   04 Jun 2027 02:43:10.470            47.897                Anadyr1          1496.781
       248   04 Jun 2027 02:44:59.100   04 Jun 2027 02:45:40.865            41.765                Norilsk          1305.156
       249   04 Jun 2027 02:46:09.547   04 Jun 2027 02:46:38.445            28.898                Norilsk           903.062
       250   04 Jun 2027 02:47:59.510   04 Jun 2027 02:49:09.930            70.420              Murmansk1          2200.625
       251   04 Jun 2027 02:49:16.568   04 Jun 2027 02:50:36.159            79.591                Irkutsk          2487.219
       252   04 Jun 2027 02:51:35.963   04 Jun 2027 02:51:49.923            13.960                Irkutsk           436.250
       253   04 Jun 2027 02:56:09.170   04 Jun 2027 02:56:57.860            48.690                  Delhi          1521.563
       254   04 Jun 2027 03:01:49.473   04 Jun 2027 03:03:05.108            75.635                  Delhi          2363.594
       255   04 Jun 2027 03:37:56.448   04 Jun 2027 03:39:31.601            95.153            RioGallegos          2973.531
       256   04 Jun 2027 04:28:27.717   04 Jun 2027 04:28:40.446            12.729                Norilsk           397.781
       257   04 Jun 2027 04:29:00.702   04 Jun 2027 04:30:08.301            67.599                Irkutsk          2112.469
       258   04 Jun 2027 04:30:18.005   04 Jun 2027 04:32:05.790           107.785                Irkutsk          3368.281
       259   04 Jun 2027 04:33:37.430   04 Jun 2027 04:38:28.524           291.094                  Delhi          9096.687
       260   04 Jun 2027 06:08:30.229   04 Jun 2027 06:08:30.972             0.743                Novosib            23.219
       261   04 Jun 2027 06:09:26.283   04 Jun 2027 06:09:51.728            25.445                 Moscow           795.156
       262   04 Jun 2027 06:10:01.885   04 Jun 2027 06:10:27.806            25.921                 Moscow           810.031
       263   04 Jun 2027 06:12:40.826   04 Jun 2027 06:12:57.262            16.436                 Moscow           513.625
       264   04 Jun 2027 06:26:12.037   04 Jun 2027 06:29:25.520           193.483               CapeTown          6046.344
       265   04 Jun 2027 07:29:17.984   04 Jun 2027 07:30:07.696            49.712                Anadyr1          1553.500
       266   04 Jun 2027 07:30:16.737   04 Jun 2027 07:31:11.801            55.064                Anadyr1          1720.750
       267   04 Jun 2027 07:33:05.465   04 Jun 2027 07:33:29.940            24.475               Magadan2           764.844
       268   04 Jun 2027 08:05:25.432   04 Jun 2027 08:09:28.522           243.090               CapeTown          7596.562
       269   04 Jun 2027 09:05:12.808   04 Jun 2027 09:05:27.013            14.205                Anadyr2           443.906
       270   04 Jun 2027 09:05:32.394   04 Jun 2027 09:05:44.933            12.539               Magadan2           391.844
       271   04 Jun 2027 09:05:46.555   04 Jun 2027 09:07:50.209           123.654                Anadyr1          3864.188
       272   04 Jun 2027 09:08:09.642   04 Jun 2027 09:09:30.576            80.934               Magadan2          2529.188
       273   04 Jun 2027 10:39:31.575   04 Jun 2027 10:40:29.568            57.993               Magadan2          1812.281
       274   04 Jun 2027 10:40:35.028   04 Jun 2027 10:40:45.679            10.651               Magadan2           332.844
       275   04 Jun 2027 10:41:02.236   04 Jun 2027 10:41:16.682            14.446               Magadan2           451.438
       276   04 Jun 2027 10:41:16.682   04 Jun 2027 10:41:18.398             1.716               Magadan1            53.625
       277   04 Jun 2027 10:42:49.832   04 Jun 2027 10:44:10.807            80.975                Norilsk          2530.469
       278   04 Jun 2027 10:44:27.982   04 Jun 2027 10:44:52.198            24.216                Norilsk           756.750
       279   04 Jun 2027 10:45:20.119   04 Jun 2027 10:45:37.757            17.638                Norilsk           551.187
       280   04 Jun 2027 10:45:39.803   04 Jun 2027 10:46:06.414            26.611                Norilsk           831.594
       281   04 Jun 2027 10:46:15.979   04 Jun 2027 10:46:20.875             4.896                Novosib           153.000
       282   04 Jun 2027 10:46:23.559   04 Jun 2027 10:46:34.853            11.294                Norilsk           352.937
       283   04 Jun 2027 10:46:35.933   04 Jun 2027 10:46:46.160            10.227                Norilsk           319.594
       284   04 Jun 2027 10:47:13.490   04 Jun 2027 10:48:06.664            53.174                Norilsk          1661.687
       285   04 Jun 2027 11:22:11.563   04 Jun 2027 11:23:02.448            50.885            RioGallegos          1590.156
       286   04 Jun 2027 11:59:06.352   04 Jun 2027 12:01:04.666           118.314                Sumatra          3697.312
       287   04 Jun 2027 12:13:14.427   04 Jun 2027 12:13:42.363            27.936                Novosib           873.000
       288   04 Jun 2027 12:17:25.100   04 Jun 2027 12:20:38.271           193.171               Magadan1          6036.594
       289   04 Jun 2027 13:32:48.777   04 Jun 2027 13:35:43.425           174.648                Sumatra          5457.750
       290   04 Jun 2027 13:41:00.498   04 Jun 2027 13:41:32.033            31.535                Sumatra           985.469
       291   04 Jun 2027 13:47:55.635   04 Jun 2027 13:48:23.633            27.998                Irkutsk           874.937
       292   04 Jun 2027 13:52:29.520   04 Jun 2027 13:52:47.715            18.195                Irkutsk           568.594
       293   04 Jun 2027 13:55:00.867   04 Jun 2027 13:55:19.106            18.239                Irkutsk           569.969
       294   04 Jun 2027 14:01:33.882   04 Jun 2027 14:02:14.289            40.407                Norilsk          1262.719
       295   04 Jun 2027 15:17:23.804   04 Jun 2027 15:18:16.834            53.030                  Delhi          1657.187
       296   04 Jun 2027 15:19:46.446   04 Jun 2027 15:22:29.661           163.215                  Delhi          5100.469
       297   04 Jun 2027 15:25:31.825   04 Jun 2027 15:26:45.103            73.278                Novosib          2289.937
       298   04 Jun 2027 15:29:27.445   04 Jun 2027 15:30:04.298            36.853                Norilsk          1151.656
       299   04 Jun 2027 15:30:26.138   04 Jun 2027 15:30:58.042            31.904                Novosib           997.000
       300   04 Jun 2027 15:32:25.677   04 Jun 2027 15:34:32.111           126.434                Novosib          3951.062
       301   04 Jun 2027 17:01:19.175   04 Jun 2027 17:02:31.328            72.153                 Moscow          2254.781
       302   04 Jun 2027 17:04:36.628   04 Jun 2027 17:04:37.226             0.598                 Moscow            18.687
       303   04 Jun 2027 17:04:49.787   04 Jun 2027 17:05:38.010            48.223              Murmansk2          1506.969
       304   04 Jun 2027 17:06:12.162   04 Jun 2027 17:06:57.423            45.261              Murmansk1          1414.406
       305   04 Jun 2027 17:09:58.422   04 Jun 2027 17:14:18.038           259.616                Norilsk          8113.000
       306   04 Jun 2027 18:39:29.393   04 Jun 2027 18:41:25.734           116.341                 Moscow          3635.656
       307   04 Jun 2027 18:42:17.843   04 Jun 2027 18:45:44.078           206.235              Murmansk2          6444.844
       308   04 Jun 2027 19:51:00.631   04 Jun 2027 19:53:26.154           145.523               CapeTown          4547.594
       309   04 Jun 2027 20:22:13.262   04 Jun 2027 20:26:42.526           269.264              Murmansk2          8414.500
       310   04 Jun 2027 20:27:51.792   04 Jun 2027 20:28:19.455            27.663              Murmansk1           864.469
       311   04 Jun 2027 22:07:17.308   04 Jun 2027 22:11:08.064           230.756                Anadyr2          7211.125
       312   04 Jun 2027 22:11:11.899   04 Jun 2027 22:11:36.119            24.220                Anadyr1           756.875
       313   04 Jun 2027 22:11:39.214   04 Jun 2027 22:14:39.884           180.670               Magadan2          5645.938
       314   04 Jun 2027 22:16:42.441   04 Jun 2027 22:17:04.591            22.150               Magadan1           692.187
       315   04 Jun 2027 22:17:40.364   04 Jun 2027 22:17:54.043            13.679               Magadan1           427.469
       316   04 Jun 2027 22:18:30.012   04 Jun 2027 22:18:38.458             8.446               Magadan1           263.938
       317   04 Jun 2027 22:20:29.421   04 Jun 2027 22:20:53.925            24.504               Magadan1           765.750
       318   04 Jun 2027 23:03:02.294   04 Jun 2027 23:05:26.663           144.369            RioGallegos          4511.531
       319   04 Jun 2027 23:08:04.769   04 Jun 2027 23:08:23.932            19.163            RioGallegos           598.844
       320   04 Jun 2027 23:43:05.982   04 Jun 2027 23:44:25.145            79.163                Anadyr1          2473.844
       321   04 Jun 2027 23:44:30.871   04 Jun 2027 23:44:52.915            22.044                Anadyr2           688.875
       322   04 Jun 2027 23:45:10.943   04 Jun 2027 23:45:27.651            16.708                Norilsk           522.125
       323   04 Jun 2027 23:45:31.578   04 Jun 2027 23:46:14.343            42.765               Magadan1          1336.406
       324   04 Jun 2027 23:46:14.343   04 Jun 2027 23:47:03.339            48.996               Magadan2          1531.125
       325   04 Jun 2027 23:48:17.236   04 Jun 2027 23:48:36.413            19.177                Norilsk           599.281
       326   04 Jun 2027 23:49:16.381   04 Jun 2027 23:49:38.039            21.658               Magadan2           676.813
       327   04 Jun 2027 23:49:48.230   04 Jun 2027 23:50:12.487            24.257               Magadan2           758.031
       328   04 Jun 2027 23:50:25.567   04 Jun 2027 23:50:52.081            26.514                Irkutsk           828.563
       329   04 Jun 2027 23:51:10.550   04 Jun 2027 23:51:17.935             7.385               Magadan1           230.781
       330   04 Jun 2027 23:51:58.303   04 Jun 2027 23:52:26.052            27.749                Irkutsk           867.156
       331   04 Jun 2027 23:53:11.728   04 Jun 2027 23:53:17.040             5.312                Irkutsk           166.000
       332   05 Jun 2027 00:04:41.644   05 Jun 2027 00:05:08.009            26.365                Sumatra           823.906
       333   05 Jun 2027 00:06:17.043   05 Jun 2027 00:07:44.925            87.882                Sumatra          2746.312
       334   05 Jun 2027 00:11:04.216   05 Jun 2027 00:12:21.866            77.650                Sumatra          2426.563
       335   05 Jun 2027 00:38:42.942   05 Jun 2027 00:38:52.018             9.076            RioGallegos           283.625
       336   05 Jun 2027 00:39:56.438   05 Jun 2027 00:40:09.808            13.370            RioGallegos           417.813
       337   05 Jun 2027 00:43:48.185   05 Jun 2027 00:43:56.771             8.586            RioGallegos           268.312
       338   05 Jun 2027 00:45:08.359   05 Jun 2027 00:45:21.560            13.201            RioGallegos           412.531
       339   05 Jun 2027 01:18:19.647   05 Jun 2027 01:18:42.303            22.656                Anadyr2           708.000
       340   05 Jun 2027 01:19:25.443   05 Jun 2027 01:20:04.198            38.755                Anadyr2          1211.094
       341   05 Jun 2027 01:20:04.198   05 Jun 2027 01:20:31.575            27.377                Anadyr1           855.531
       342   05 Jun 2027 01:20:52.603   05 Jun 2027 01:21:06.667            14.064                Anadyr2           439.500
       343   05 Jun 2027 01:21:13.498   05 Jun 2027 01:21:30.469            16.971                Anadyr1           530.344
       344   05 Jun 2027 01:21:36.056   05 Jun 2027 01:22:54.336            78.280                Norilsk          2446.250
       345   05 Jun 2027 01:22:56.302   05 Jun 2027 01:23:19.250            22.948               Magadan1           717.125
       346   05 Jun 2027 01:23:24.135   05 Jun 2027 01:24:35.101            70.966               Magadan2          2217.687
       347   05 Jun 2027 01:24:54.880   05 Jun 2027 01:27:16.477           141.597                Irkutsk          4424.906
       348   05 Jun 2027 01:37:02.950   05 Jun 2027 01:37:08.755             5.805                  Delhi           181.406
       349   05 Jun 2027 01:37:47.465   05 Jun 2027 01:37:53.646             6.181                  Delhi           193.156
       350   05 Jun 2027 01:38:54.888   05 Jun 2027 01:39:06.674            11.786                Sumatra           368.313
       351   05 Jun 2027 01:40:57.881   05 Jun 2027 01:41:45.750            47.869                  Delhi          1495.906
       352   05 Jun 2027 01:46:28.257   05 Jun 2027 01:47:32.349            64.092                Sumatra          2002.875
       353   05 Jun 2027 01:48:42.227   05 Jun 2027 01:49:48.291            66.064                Sumatra          2064.500
       354   05 Jun 2027 02:24:31.211   05 Jun 2027 02:24:47.043            15.832            RioGallegos           494.750
       355   05 Jun 2027 02:53:13.127   05 Jun 2027 02:54:01.184            48.057                Anadyr2          1501.781
       356   05 Jun 2027 02:56:30.440   05 Jun 2027 02:56:33.864             3.424                Anadyr2           107.000
       357   05 Jun 2027 02:57:01.426   05 Jun 2027 02:58:06.280            64.854                Norilsk          2026.687
       358   05 Jun 2027 02:58:34.345   05 Jun 2027 02:58:51.401            17.056                Norilsk           533.000
       359   05 Jun 2027 02:59:46.458   05 Jun 2027 03:00:45.896            59.438              Murmansk2          1857.437
       360   05 Jun 2027 03:01:06.052   05 Jun 2027 03:02:33.976            87.924               Magadan2          2747.625
       361   05 Jun 2027 03:02:46.107   05 Jun 2027 03:03:05.571            19.464                Novosib           608.250
       362   05 Jun 2027 03:03:34.681   05 Jun 2027 03:04:28.540            53.859                Novosib          1683.094
       363   05 Jun 2027 03:04:47.062   05 Jun 2027 03:08:24.885           217.823                Irkutsk          6806.969
       364   05 Jun 2027 03:08:51.777   05 Jun 2027 03:08:59.491             7.714                Novosib           241.062
       365   05 Jun 2027 03:09:53.199   05 Jun 2027 03:09:57.090             3.891                Norilsk           121.594
       366   05 Jun 2027 03:11:01.193   05 Jun 2027 03:11:25.476            24.283                Irkutsk           758.844
       367   05 Jun 2027 03:50:16.396   05 Jun 2027 03:55:27.479           311.083            RioGallegos          9721.344
       368   05 Jun 2027 04:41:27.829   05 Jun 2027 04:44:59.325           211.496                Novosib          6609.250
       369   05 Jun 2027 04:46:25.656   05 Jun 2027 04:50:54.536           268.880                  Delhi          8402.500
       370   05 Jun 2027 06:21:00.374   05 Jun 2027 06:21:16.408            16.034                 Moscow           501.063
       371   05 Jun 2027 06:22:40.123   05 Jun 2027 06:22:45.779             5.656                 Moscow           176.750
       372   05 Jun 2027 06:38:14.560   05 Jun 2027 06:41:26.334           191.774               CapeTown          5992.938
       373   05 Jun 2027 07:41:10.852   05 Jun 2027 07:42:09.063            58.211                Anadyr1          1819.094
       374   05 Jun 2027 07:42:30.284   05 Jun 2027 07:42:40.499            10.215               Magadan2           319.219
       375   05 Jun 2027 07:42:43.451   05 Jun 2027 07:42:51.750             8.299                Anadyr2           259.344
       376   05 Jun 2027 07:43:05.119   05 Jun 2027 07:43:21.656            16.537               Magadan1           516.781
       377   05 Jun 2027 07:43:27.637   05 Jun 2027 07:43:41.031            13.394                Anadyr2           418.562
       378   05 Jun 2027 07:44:41.010   05 Jun 2027 07:45:55.175            74.165                Anadyr2          2317.656
       379   05 Jun 2027 08:19:10.012   05 Jun 2027 08:22:17.760           187.748               CapeTown          5867.125
       380   05 Jun 2027 09:17:45.960   05 Jun 2027 09:17:59.450            13.490               Magadan1           421.563
       381   05 Jun 2027 09:18:21.545   05 Jun 2027 09:18:46.779            25.234               Magadan2           788.562
       382   05 Jun 2027 09:19:02.039   05 Jun 2027 09:19:09.190             7.151               Magadan2           223.469
       383   05 Jun 2027 09:19:35.144   05 Jun 2027 09:20:12.150            37.006               Magadan1          1156.438
       384   05 Jun 2027 09:20:22.451   05 Jun 2027 09:21:17.316            54.865                Anadyr2          1714.531
       385   05 Jun 2027 10:05:35.027   05 Jun 2027 10:05:51.144            16.117            RioGallegos           503.656
       386   05 Jun 2027 10:49:36.258   05 Jun 2027 10:49:59.357            23.099               Magadan1           721.844
       387   05 Jun 2027 10:53:03.403   05 Jun 2027 10:54:32.086            88.683               Magadan2          2771.344
       388   05 Jun 2027 10:54:39.370   05 Jun 2027 10:54:44.364             4.994                Irkutsk           156.062
       389   05 Jun 2027 10:55:01.104   05 Jun 2027 10:55:23.861            22.757               Magadan1           711.156
       390   05 Jun 2027 10:56:15.539   05 Jun 2027 10:56:31.586            16.047                Irkutsk           501.469
       391   05 Jun 2027 10:57:16.945   05 Jun 2027 10:57:56.404            39.459                Norilsk          1233.094
       392   05 Jun 2027 10:58:04.249   05 Jun 2027 10:58:08.356             4.107                Norilsk           128.344
       393   05 Jun 2027 10:58:36.781   05 Jun 2027 10:58:55.212            18.431                Norilsk           575.969
       394   05 Jun 2027 10:59:03.110   05 Jun 2027 10:59:07.401             4.291               Magadan1           134.094
       395   05 Jun 2027 10:59:11.396   05 Jun 2027 10:59:55.282            43.886                Norilsk          1371.438
       396   05 Jun 2027 11:34:03.493   05 Jun 2027 11:35:13.718            70.225            RioGallegos          2194.531
       397   05 Jun 2027 12:11:57.986   05 Jun 2027 12:13:04.160            66.174                Sumatra          2067.937
       398   05 Jun 2027 12:22:19.968   05 Jun 2027 12:24:09.735           109.767                Irkutsk          3430.219
       399   05 Jun 2027 12:32:43.592   05 Jun 2027 12:33:02.332            18.740                Novosib           585.625
       400   05 Jun 2027 12:36:12.701   05 Jun 2027 12:36:15.560             2.859                Norilsk            89.344
       401   05 Jun 2027 12:37:44.548   05 Jun 2027 12:38:07.838            23.290              Murmansk1           727.813
       402   05 Jun 2027 13:10:43.590   05 Jun 2027 13:11:05.094            21.504            RioGallegos           672.000
       403   05 Jun 2027 13:12:30.682   05 Jun 2027 13:15:44.162           193.480            RioGallegos          6046.250
       404   05 Jun 2027 13:45:02.656   05 Jun 2027 13:45:44.924            42.268                Sumatra          1320.875
       405   05 Jun 2027 13:51:47.146   05 Jun 2027 13:53:31.251           104.105                Sumatra          3253.281
       406   05 Jun 2027 13:59:49.680   05 Jun 2027 14:01:00.190            70.510                Novosib          2203.438
       407   05 Jun 2027 14:04:12.186   05 Jun 2027 14:04:56.150            43.964                Irkutsk          1373.875
       408   05 Jun 2027 15:29:48.867   05 Jun 2027 15:32:21.014           152.147                  Delhi          4754.594
       409   05 Jun 2027 15:34:18.268   05 Jun 2027 15:34:52.823            34.555                  Delhi          1079.844
       410   05 Jun 2027 15:35:03.019   05 Jun 2027 15:35:23.361            20.342                  Delhi           635.688
       411   05 Jun 2027 15:37:36.916   05 Jun 2027 15:39:49.164           132.248                  Delhi          4132.750
       412   05 Jun 2027 15:41:54.056   05 Jun 2027 15:43:00.762            66.706                Norilsk          2084.563
       413   05 Jun 2027 15:43:36.042   05 Jun 2027 15:43:53.866            17.824                Novosib           557.000
       414   05 Jun 2027 15:45:58.335   05 Jun 2027 15:46:22.152            23.817                Norilsk           744.281
       415   05 Jun 2027 15:46:51.694   05 Jun 2027 15:47:21.750            30.056                Norilsk           939.250
       416   05 Jun 2027 17:13:25.236   05 Jun 2027 17:14:28.151            62.915                 Moscow          1966.094
       417   05 Jun 2027 17:16:37.444   05 Jun 2027 17:17:08.044            30.600                 Moscow           956.250
       418   05 Jun 2027 17:17:34.744   05 Jun 2027 17:19:26.181           111.437              Murmansk2          3482.406
       419   05 Jun 2027 17:22:54.281   05 Jun 2027 17:25:44.650           170.369                Norilsk          5324.031
       420   05 Jun 2027 17:25:46.014   05 Jun 2027 17:27:03.175            77.161                Norilsk          2411.281
       421   05 Jun 2027 18:52:09.555   05 Jun 2027 18:56:46.112           276.557                 Moscow          8642.406
       422   05 Jun 2027 20:03:14.200   05 Jun 2027 20:05:06.719           112.519               CapeTown          3516.219
       423   05 Jun 2027 20:07:37.659   05 Jun 2027 20:07:55.376            17.717               CapeTown           553.656
       424   05 Jun 2027 20:35:01.491   05 Jun 2027 20:41:05.638           364.147              Murmansk1         11379.594
       425   05 Jun 2027 22:19:18.963   05 Jun 2027 22:23:09.207           230.244                Anadyr2          7195.125
       426   05 Jun 2027 22:23:17.163   05 Jun 2027 22:24:39.826            82.663                Anadyr1          2583.219
       427   05 Jun 2027 22:24:46.338   05 Jun 2027 22:27:09.514           143.176               Magadan2          4474.250
       428   05 Jun 2027 23:14:31.550   05 Jun 2027 23:16:47.904           136.354            RioGallegos          4261.062
       429   05 Jun 2027 23:19:38.603   05 Jun 2027 23:20:28.871            50.268            RioGallegos          1570.875
       430   05 Jun 2027 23:55:05.055   05 Jun 2027 23:56:18.665            73.610                Anadyr1          2300.312
       431   05 Jun 2027 23:56:27.489   05 Jun 2027 23:56:38.514            11.025                Anadyr2           344.531
       432   05 Jun 2027 23:56:44.359   05 Jun 2027 23:57:20.425            36.066                Anadyr1          1127.063
       433   05 Jun 2027 23:57:34.545   05 Jun 2027 23:59:06.770            92.225               Magadan1          2882.031
       434   06 Jun 2027 00:00:10.600   06 Jun 2027 00:00:33.942            23.342                Norilsk           729.438
       435   06 Jun 2027 00:01:05.853   06 Jun 2027 00:01:40.508            34.655               Magadan1          1082.969
       436   06 Jun 2027 00:01:44.395   06 Jun 2027 00:02:51.173            66.778                Irkutsk          2086.812
       437   06 Jun 2027 00:06:18.569   06 Jun 2027 00:06:33.735            15.166                Irkutsk           473.937
       438   06 Jun 2027 00:10:27.006   06 Jun 2027 00:11:09.974            42.968                Irkutsk          1342.750
       439   06 Jun 2027 00:16:03.296   06 Jun 2027 00:18:57.040           173.744                Sumatra          5429.500
       440   06 Jun 2027 00:56:09.572   06 Jun 2027 00:56:29.150            19.578            RioGallegos           611.812
       441   06 Jun 2027 00:57:41.077   06 Jun 2027 00:58:37.147            56.070            RioGallegos          1752.187
       442   06 Jun 2027 01:30:11.458   06 Jun 2027 01:30:26.015            14.557                Anadyr1           454.906
       443   06 Jun 2027 01:30:26.426   06 Jun 2027 01:30:40.881            14.455                Anadyr2           451.719
       444   06 Jun 2027 01:31:22.577   06 Jun 2027 01:32:04.106            41.529                Anadyr2          1297.781
       445   06 Jun 2027 01:32:36.703   06 Jun 2027 01:32:58.575            21.872                Anadyr2           683.500
       446   06 Jun 2027 01:33:19.713   06 Jun 2027 01:33:32.425            12.712                Anadyr1           397.250
       447   06 Jun 2027 01:33:42.772   06 Jun 2027 01:34:47.151            64.379               Magadan1          2011.844
       448   06 Jun 2027 01:34:49.866   06 Jun 2027 01:34:56.547             6.681                Norilsk           208.781
       449   06 Jun 2027 01:35:25.394   06 Jun 2027 01:36:06.172            40.778               Magadan2          1274.313
       450   06 Jun 2027 01:36:55.676   06 Jun 2027 01:39:47.450           171.774                Irkutsk          5367.938
       451   06 Jun 2027 01:48:38.421   06 Jun 2027 01:49:15.942            37.521                  Delhi          1172.531
       452   06 Jun 2027 01:50:18.649   06 Jun 2027 01:51:19.165            60.516                  Delhi          1891.125
       453   06 Jun 2027 01:53:24.090   06 Jun 2027 01:56:00.589           156.499                Sumatra          4890.594
       454   06 Jun 2027 03:13:39.784   06 Jun 2027 03:14:16.956            37.172               Magadan2          1161.625
       455   06 Jun 2027 03:16:20.728   06 Jun 2027 03:18:26.460           125.732                Irkutsk          3929.125
       456   06 Jun 2027 03:18:35.247   06 Jun 2027 03:19:33.374            58.127                Norilsk          1816.469
       457   06 Jun 2027 03:19:46.678   06 Jun 2027 03:20:36.120            49.442                Novosib          1545.063
       458   06 Jun 2027 03:20:40.247   06 Jun 2027 03:20:59.866            19.619                Irkutsk           613.094
       459   06 Jun 2027 03:21:23.175   06 Jun 2027 03:22:00.920            37.745                Norilsk          1179.531
       460   06 Jun 2027 03:22:25.955   06 Jun 2027 03:23:14.033            48.078                Novosib          1502.438
       461   06 Jun 2027 03:23:20.339   06 Jun 2027 03:23:53.638            33.299                  Delhi          1040.594
       462   06 Jun 2027 03:29:01.723   06 Jun 2027 03:29:24.229            22.506                  Delhi           703.313
       463   06 Jun 2027 04:02:43.471   06 Jun 2027 04:07:42.453           298.982            RioGallegos          9343.188
       464   06 Jun 2027 04:52:43.139   06 Jun 2027 04:53:40.441            57.302                Irkutsk          1790.688
       465   06 Jun 2027 04:54:49.443   06 Jun 2027 04:55:57.052            67.609                Norilsk          2112.781
       466   06 Jun 2027 04:55:58.045   06 Jun 2027 04:57:27.790            89.745                Novosib          2804.531
       467   06 Jun 2027 04:59:58.702   06 Jun 2027 05:02:43.595           164.893                  Delhi          5152.906
       468   06 Jun 2027 06:31:07.304   06 Jun 2027 06:31:08.245             0.941                 Moscow            29.406
       469   06 Jun 2027 06:38:04.260   06 Jun 2027 06:38:04.526             0.266                 Moscow             8.313
       470   06 Jun 2027 06:50:22.313   06 Jun 2027 06:52:57.742           155.429               CapeTown          4857.156
       471   06 Jun 2027 07:53:00.923   06 Jun 2027 07:54:10.194            69.271                Anadyr2          2164.719
       472   06 Jun 2027 07:54:25.853   06 Jun 2027 07:54:28.145             2.292               Magadan2            71.625
       473   06 Jun 2027 07:55:13.558   06 Jun 2027 07:55:38.516            24.958                Anadyr2           779.937
       474   06 Jun 2027 08:04:28.290   06 Jun 2027 08:05:18.346            50.056                 Moscow          1564.250
       475   06 Jun 2027 09:29:35.847   06 Jun 2027 09:29:46.514            10.667               Magadan2           333.344
       476   06 Jun 2027 09:30:30.756   06 Jun 2027 09:31:03.477            32.721               Magadan1          1022.531
       477   06 Jun 2027 09:31:14.295   06 Jun 2027 09:31:44.672            30.377                Anadyr2           949.281
       478   06 Jun 2027 09:31:50.243   06 Jun 2027 09:31:54.172             3.929                Anadyr2           122.781
       479   06 Jun 2027 09:32:17.223   06 Jun 2027 09:33:29.277            72.054               Magadan2          2251.688
       480   06 Jun 2027 11:05:01.194   06 Jun 2027 11:05:44.588            43.394               Magadan2          1356.062
       481   06 Jun 2027 11:06:15.217   06 Jun 2027 11:06:50.153            34.936                Irkutsk          1091.750
       482   06 Jun 2027 11:06:59.130   06 Jun 2027 11:08:14.856            75.726                Norilsk          2366.437
