uniorb/output/strategy_4/Drop/Drop_KinoSat_110109.txt

KinoSat_110109
-------------------------
    Access    *     Start Time (UTCG)     *     Stop Time (UTCG)  *   Duration (s)        *       Station  *  Data (Mbytes)
         1   01 Jun 2027 03:30:25.765   01 Jun 2027 03:30:28.821             3.056                Norilsk           382.000
         2   01 Jun 2027 03:30:32.299   01 Jun 2027 03:31:39.081            66.782                Norilsk          8347.750
         3   01 Jun 2027 03:32:01.655   01 Jun 2027 03:32:26.875            25.220                Norilsk          3152.500
         4   01 Jun 2027 03:32:42.347   01 Jun 2027 03:33:50.972            68.625                Novosib          8578.125
         5   01 Jun 2027 03:33:57.976   01 Jun 2027 03:35:32.475            94.499              Murmansk1         11812.375
         6   01 Jun 2027 03:36:08.136   01 Jun 2027 03:36:20.440            12.304              Murmansk1          1538.000
         7   01 Jun 2027 03:38:37.592   01 Jun 2027 03:39:07.148            29.556                Norilsk          3694.500
         8   01 Jun 2027 04:14:04.648   01 Jun 2027 04:14:35.938            31.290            RioGallegos          3911.250
         9   01 Jun 2027 04:44:56.291   01 Jun 2027 04:46:56.786           120.495                Sumatra         15061.875
        10   01 Jun 2027 05:07:46.528   01 Jun 2027 05:08:03.676            17.148                Irkutsk          2143.500
        11   01 Jun 2027 05:08:14.968   01 Jun 2027 05:08:51.497            36.529              Murmansk2          4566.125
        12   01 Jun 2027 05:08:56.710   01 Jun 2027 05:09:45.104            48.394                Norilsk          6049.250
        13   01 Jun 2027 05:10:06.426   01 Jun 2027 05:10:11.540             5.114                Irkutsk           639.250
        14   01 Jun 2027 05:10:15.030   01 Jun 2027 05:10:34.074            19.044              Murmansk1          2380.500
        15   01 Jun 2027 05:11:40.632   01 Jun 2027 05:12:20.329            39.697                Novosib          4962.125
        16   01 Jun 2027 05:12:28.197   01 Jun 2027 05:12:31.209             3.012                Novosib           376.500
        17   01 Jun 2027 06:29:45.465   01 Jun 2027 06:33:11.994           206.529                  Delhi         25816.125
        18   01 Jun 2027 06:44:14.557   01 Jun 2027 06:44:45.557            31.000              Murmansk1          3875.000
        19   01 Jun 2027 06:44:56.497   01 Jun 2027 06:45:24.125            27.628                Norilsk          3453.500
        20   01 Jun 2027 06:45:45.287   01 Jun 2027 06:47:33.925           108.638                Novosib         13579.750
        21   01 Jun 2027 09:29:27.495   01 Jun 2027 09:32:38.274           190.779               CapeTown         23847.375
        22   01 Jun 2027 10:16:58.748   01 Jun 2027 10:17:53.055            54.307                Anadyr2          6788.375
        23   01 Jun 2027 11:52:19.450   01 Jun 2027 11:52:34.621            15.171               Magadan1          1896.375
        24   01 Jun 2027 13:21:26.071   01 Jun 2027 13:22:44.089            78.018               Magadan1          9752.250
        25   01 Jun 2027 15:05:00.369   01 Jun 2027 15:05:17.197            16.828                Irkutsk          2103.500
        26   01 Jun 2027 15:15:48.055   01 Jun 2027 15:23:30.791           462.736                Sumatra         57842.000
        27   01 Jun 2027 16:41:11.534   01 Jun 2027 16:43:37.096           145.562                Novosib         18195.250
        28   01 Jun 2027 16:45:49.836   01 Jun 2027 16:46:00.875            11.039                  Delhi          1379.875
        29   01 Jun 2027 16:50:32.786   01 Jun 2027 16:54:57.539           264.753                  Delhi         33094.125
        30   01 Jun 2027 18:27:48.047   01 Jun 2027 18:28:18.739            30.692                  Delhi          1519.876
        31   02 Jun 2027 04:57:18.274   02 Jun 2027 04:58:59.540           101.266                Sumatra         12658.250
        32   02 Jun 2027 05:11:10.502   02 Jun 2027 05:11:55.585            45.083                  Delhi          5635.375
        33   02 Jun 2027 05:22:48.941   02 Jun 2027 05:25:37.955           169.014                 Moscow         21126.750
        34   02 Jun 2027 05:26:06.904   02 Jun 2027 05:29:54.379           227.475              Murmansk2         28434.375
        35   02 Jun 2027 06:48:33.401   02 Jun 2027 06:50:23.527           110.126                  Delhi         13765.750
        36   02 Jun 2027 06:50:49.618   02 Jun 2027 06:53:48.776           179.158                Novosib         22394.750
        37   02 Jun 2027 06:53:52.222   02 Jun 2027 06:54:22.776            30.554                 Moscow          3819.250
        38   02 Jun 2027 06:58:56.462   02 Jun 2027 07:02:06.481           190.019                 Moscow         23752.375
        39   02 Jun 2027 07:02:34.356   02 Jun 2027 07:05:39.336           184.980              Murmansk2         23122.500
        40   02 Jun 2027 08:28:26.530   02 Jun 2027 08:29:55.941            89.411                 Moscow         11176.375
        41   02 Jun 2027 08:32:00.806   02 Jun 2027 08:33:24.837            84.031              Murmansk2         10503.875
        42   02 Jun 2027 08:33:24.837   02 Jun 2027 08:35:24.305           119.468              Murmansk1         14933.500
        43   02 Jun 2027 08:35:40.477   02 Jun 2027 08:38:00.170           139.693                 Moscow         17461.625
        44   02 Jun 2027 08:38:13.381   02 Jun 2027 08:41:36.681           203.300              Murmansk1         25412.500
        45   02 Jun 2027 08:44:42.729   02 Jun 2027 08:50:12.411           329.682                Anadyr1         41210.250
        46   02 Jun 2027 11:58:47.041   02 Jun 2027 12:01:14.647           147.606               Magadan2         18450.750
        47   02 Jun 2027 12:07:10.491   02 Jun 2027 12:07:25.550            15.059               Magadan1          1882.375
        48   02 Jun 2027 13:33:26.710   02 Jun 2027 13:33:43.236            16.526               Magadan1          2065.750
        49   02 Jun 2027 13:35:12.193   02 Jun 2027 13:36:43.988            91.795               Magadan2         11474.375
        50   02 Jun 2027 15:14:46.410   02 Jun 2027 15:18:30.727           224.317                Irkutsk         28039.625
        51   02 Jun 2027 15:29:13.126   02 Jun 2027 15:34:09.339           296.213                Sumatra         37026.625
        52   02 Jun 2027 16:57:17.661   02 Jun 2027 17:04:56.576           458.915                  Delhi         57364.375
        53   02 Jun 2027 20:07:42.229   02 Jun 2027 20:10:26.789           164.560                 Moscow         20570.000
        54   02 Jun 2027 22:02:28.794   02 Jun 2027 22:02:45.848            17.054               CapeTown          2131.750
        55   02 Jun 2027 22:05:00.320   02 Jun 2027 22:06:51.437           111.117               CapeTown          3471.875
        56   03 Jun 2027 03:58:39.310   03 Jun 2027 03:59:14.571            35.261              Murmansk2          4407.625
        57   03 Jun 2027 05:09:49.662   03 Jun 2027 05:11:35.893           106.231                Sumatra         13278.875
        58   03 Jun 2027 05:21:57.663   03 Jun 2027 05:22:35.900            38.237                  Delhi          4779.625
        59   03 Jun 2027 05:24:16.622   03 Jun 2027 05:26:30.360           133.738                  Delhi         16717.250
        60   03 Jun 2027 05:34:41.250   03 Jun 2027 05:35:23.939            42.689              Murmansk1          5336.125
        61   03 Jun 2027 05:35:29.608   03 Jun 2027 05:36:17.610            48.002                Novosib          6000.250
        62   03 Jun 2027 05:36:46.836   03 Jun 2027 05:37:45.679            58.843                 Moscow          7355.375
        63   03 Jun 2027 05:38:00.071   03 Jun 2027 05:41:53.139           233.068              Murmansk2         29133.500
        64   03 Jun 2027 07:03:42.116   03 Jun 2027 07:05:37.205           115.089                Novosib         14386.125
        65   03 Jun 2027 07:10:26.990   03 Jun 2027 07:10:54.000            27.010                Novosib          3376.250
        66   03 Jun 2027 07:11:23.815   03 Jun 2027 07:11:49.673            25.858                Norilsk          3232.250
        67   03 Jun 2027 07:12:03.953   03 Jun 2027 07:14:09.581           125.628                 Moscow         15703.500
        68   03 Jun 2027 07:14:19.993   03 Jun 2027 07:17:40.513           200.520              Murmansk1         25065.000
        69   03 Jun 2027 08:18:26.200   03 Jun 2027 08:23:08.755           282.555               CapeTown         35319.375
        70   03 Jun 2027 08:40:25.284   03 Jun 2027 08:40:51.968            26.684                 Moscow          3335.500
        71   03 Jun 2027 08:44:02.526   03 Jun 2027 08:45:24.152            81.626              Murmansk2         10203.250
        72   03 Jun 2027 08:45:24.152   03 Jun 2027 08:47:26.428           122.276              Murmansk1         15284.500
        73   03 Jun 2027 08:47:27.191   03 Jun 2027 08:49:57.845           150.654                 Moscow         18831.750
        74   03 Jun 2027 08:50:13.867   03 Jun 2027 08:53:38.370           204.503              Murmansk1         25562.875
        75   03 Jun 2027 08:56:23.312   03 Jun 2027 08:59:41.245           197.933                Anadyr1         24741.625
        76   03 Jun 2027 12:09:50.150   03 Jun 2027 12:11:15.706            85.556               Magadan1         10694.500
        77   03 Jun 2027 12:14:18.943   03 Jun 2027 12:14:36.349            17.406               Magadan1          2175.750
        78   03 Jun 2027 12:18:27.103   03 Jun 2027 12:19:21.621            54.518               Magadan2          6814.750
        79   03 Jun 2027 13:45:27.745   03 Jun 2027 13:45:39.641            11.896               Magadan1          1487.000
        80   03 Jun 2027 13:51:18.916   03 Jun 2027 13:53:16.677           117.761               Magadan2         14720.125
        81   03 Jun 2027 14:40:04.927   03 Jun 2027 14:40:58.317            53.390            RioGallegos          6673.750
        82   03 Jun 2027 15:30:39.043   03 Jun 2027 15:32:51.019           131.976                Irkutsk         16497.000
        83   03 Jun 2027 15:39:03.832   03 Jun 2027 15:41:33.471           149.639                Sumatra         18704.875
        84   03 Jun 2027 15:44:45.360   03 Jun 2027 15:45:16.960            31.600                Sumatra          3950.000
        85   03 Jun 2027 15:48:28.561   03 Jun 2027 15:51:19.078           170.517                Sumatra         21314.625
        86   03 Jun 2027 17:03:00.236   03 Jun 2027 17:03:14.723            14.487                Novosib          1810.875
        87   03 Jun 2027 17:08:54.493   03 Jun 2027 17:15:31.178           396.685                  Delhi         49585.625
        88   03 Jun 2027 20:14:29.007   03 Jun 2027 20:17:00.459           151.452                 Moscow         18931.500
        89   03 Jun 2027 20:20:34.815   03 Jun 2027 20:23:27.771           172.956                 Moscow          8579.500
        90   04 Jun 2027 05:22:34.764   04 Jun 2027 05:24:25.159           110.395                Sumatra         13799.375
        91   04 Jun 2027 05:28:55.462   04 Jun 2027 05:30:19.703            84.241                  Delhi         10530.125
        92   04 Jun 2027 05:31:26.941   04 Jun 2027 05:31:35.616             8.675                  Delhi          1084.375
        93   04 Jun 2027 05:36:32.279   04 Jun 2027 05:38:30.502           118.223                  Delhi         14777.875
        94   04 Jun 2027 05:46:51.533   04 Jun 2027 05:47:34.738            43.205              Murmansk2          5400.625
        95   04 Jun 2027 05:47:38.204   04 Jun 2027 05:48:26.472            48.268                Novosib          6033.500
        96   04 Jun 2027 05:48:43.247   04 Jun 2027 05:49:52.565            69.318                 Moscow          8664.750
        97   04 Jun 2027 05:50:02.260   04 Jun 2027 05:53:52.330           230.070              Murmansk1         28758.750
        98   04 Jun 2027 07:13:29.518   04 Jun 2027 07:14:22.458            52.940                 Moscow          6617.500
        99   04 Jun 2027 07:22:28.733   04 Jun 2027 07:22:56.954            28.221              Murmansk2          3527.625
       100   04 Jun 2027 07:23:53.328   04 Jun 2027 07:24:15.720            22.392                Norilsk          2799.000
       101   04 Jun 2027 07:24:45.526   04 Jun 2027 07:26:12.182            86.656                 Moscow         10832.000
       102   04 Jun 2027 07:26:20.332   04 Jun 2027 07:29:41.843           201.511              Murmansk2         25188.875
       103   04 Jun 2027 08:29:14.460   04 Jun 2027 08:36:37.618           443.158               CapeTown         55394.750
       104   04 Jun 2027 08:56:04.203   04 Jun 2027 08:57:24.640            80.437              Murmansk2         10054.625
       105   04 Jun 2027 08:57:24.640   04 Jun 2027 08:59:20.743           116.103              Murmansk1         14512.875
       106   04 Jun 2027 08:59:46.657   04 Jun 2027 09:01:54.344           127.687                 Moscow         15960.875
       107   04 Jun 2027 09:02:15.847   04 Jun 2027 09:05:39.985           204.138              Murmansk1         25517.250
       108   04 Jun 2027 09:08:10.218   04 Jun 2027 09:15:58.950           468.732                Anadyr2         58591.500
       109   04 Jun 2027 10:10:13.882   04 Jun 2027 10:12:20.706           126.824               CapeTown         15853.000
       110   04 Jun 2027 10:43:25.302   04 Jun 2027 10:43:53.699            28.397                Anadyr2          3549.625
       111   04 Jun 2027 10:55:26.539   04 Jun 2027 10:55:30.605             4.066                Anadyr1           508.250
       112   04 Jun 2027 12:21:46.469   04 Jun 2027 12:23:07.970            81.501               Magadan2         10187.625
       113   04 Jun 2027 12:26:51.263   04 Jun 2027 12:31:13.732           262.469               Magadan2         32808.625
       114   04 Jun 2027 14:50:14.916   04 Jun 2027 14:54:16.790           241.874            RioGallegos         30234.250
       115   04 Jun 2027 15:44:52.301   04 Jun 2027 15:46:41.025           108.724                Irkutsk         13590.500
       116   04 Jun 2027 15:50:52.200   04 Jun 2027 15:53:46.737           174.537                Sumatra         21817.125
       117   04 Jun 2027 17:12:57.691   04 Jun 2027 17:15:33.228           155.537                Novosib         19442.125
       118   04 Jun 2027 17:20:37.787   04 Jun 2027 17:26:42.399           364.612                  Delhi         45576.500
       119   04 Jun 2027 20:26:36.114   04 Jun 2027 20:27:25.907            49.793                 Moscow          6224.125
       120   04 Jun 2027 20:29:16.010   04 Jun 2027 20:31:26.398           130.388                 Moscow          5753.500
       121   05 Jun 2027 05:40:24.530   05 Jun 2027 05:41:28.926            64.396                Sumatra          8049.500
       122   05 Jun 2027 05:42:51.195   05 Jun 2027 05:43:06.533            15.338                  Delhi          1917.250
       123   05 Jun 2027 05:44:07.995   05 Jun 2027 05:45:58.654           110.659                  Delhi         13832.375
       124   05 Jun 2027 05:58:41.958   05 Jun 2027 06:00:22.703           100.745                Novosib         12593.125
       125   05 Jun 2027 06:00:49.616   05 Jun 2027 06:01:58.752            69.136                 Moscow          8642.000
       126   05 Jun 2027 06:02:22.788   05 Jun 2027 06:05:51.902           209.114              Murmansk2         26139.250
       127   05 Jun 2027 07:25:24.456   05 Jun 2027 07:25:45.713            21.257                 Moscow          2657.125
       128   05 Jun 2027 07:36:30.704   05 Jun 2027 07:38:14.268           103.564                 Moscow         12945.500
       129   05 Jun 2027 07:38:17.401   05 Jun 2027 07:41:43.311           205.910              Murmansk2         25738.750
       130   05 Jun 2027 08:40:31.359   05 Jun 2027 08:49:35.448           544.089               CapeTown         68011.125
       131   05 Jun 2027 09:04:33.657   05 Jun 2027 09:04:47.598            13.941                 Moscow          1742.625
       132   05 Jun 2027 09:08:05.799   05 Jun 2027 09:10:55.834           170.035              Murmansk2         21254.375
       133   05 Jun 2027 09:11:02.406   05 Jun 2027 09:12:10.261            67.855                 Moscow          8481.875
       134   05 Jun 2027 09:12:44.930   05 Jun 2027 09:16:38.189           233.259              Murmansk1         29157.375
       135   05 Jun 2027 09:17:38.381   05 Jun 2027 09:17:41.497             3.116              Murmansk2           389.500
       136   05 Jun 2027 09:20:00.922   05 Jun 2027 09:28:40.939           520.017                Anadyr1         65002.125
       137   05 Jun 2027 10:16:09.132   05 Jun 2027 10:22:30.497           381.365               CapeTown         47670.625
       138   05 Jun 2027 11:00:15.316   05 Jun 2027 11:01:13.424            58.108                Anadyr1          7263.500
       139   05 Jun 2027 12:33:43.872   05 Jun 2027 12:34:45.389            61.517               Magadan2          7689.625
       140   05 Jun 2027 12:39:04.451   05 Jun 2027 12:41:44.741           160.290               Magadan1         20036.250
       141   05 Jun 2027 12:43:51.131   05 Jun 2027 12:44:44.454            53.323               Magadan1          6665.375
       142   05 Jun 2027 15:03:07.322   05 Jun 2027 15:05:34.385           147.063            RioGallegos         18382.875
       143   05 Jun 2027 15:06:21.154   05 Jun 2027 15:06:50.123            28.969            RioGallegos          3621.125
       144   05 Jun 2027 15:49:05.792   05 Jun 2027 15:50:39.168            93.376                Irkutsk         11672.000
       145   05 Jun 2027 15:58:01.361   05 Jun 2027 15:58:37.957            36.596                Irkutsk          4574.500
       146   05 Jun 2027 16:02:46.483   05 Jun 2027 16:05:53.863           187.380                Sumatra         23422.500
       147   05 Jun 2027 17:24:55.619   05 Jun 2027 17:25:51.654            56.035                Novosib          7004.375
       148   05 Jun 2027 17:27:48.034   05 Jun 2027 17:29:54.457           126.423                Novosib         15802.875
       149   05 Jun 2027 17:32:26.129   05 Jun 2027 17:38:09.024           342.895                  Delhi         42861.875
       150   05 Jun 2027 20:38:25.414   05 Jun 2027 20:39:10.929            45.515                 Moscow          5689.375
       151   05 Jun 2027 20:41:28.069   05 Jun 2027 20:43:21.360           113.291                 Moscow          5699.750
       152   06 Jun 2027 04:35:19.043   06 Jun 2027 04:36:23.925            64.882              Murmansk1          8110.250
       153   06 Jun 2027 05:53:03.347   06 Jun 2027 05:55:21.127           137.780                  Delhi         17222.500
       154   06 Jun 2027 05:56:05.278   06 Jun 2027 05:57:48.655           103.377                  Delhi         12922.125
       155   06 Jun 2027 06:10:48.501   06 Jun 2027 06:11:38.661            50.160              Murmansk1          6270.000
       156   06 Jun 2027 06:11:55.800   06 Jun 2027 06:12:17.472            21.672                Novosib          2709.000
       157   06 Jun 2027 06:12:52.955   06 Jun 2027 06:14:04.337            71.382                 Moscow          8922.750
       158   06 Jun 2027 06:14:09.905   06 Jun 2027 06:17:51.825           221.920              Murmansk1         27740.000
       159   06 Jun 2027 07:47:19.843   06 Jun 2027 07:47:27.211             7.368              Murmansk2           921.000
       160   06 Jun 2027 07:47:35.231   06 Jun 2027 07:50:15.802           160.571                 Moscow         20071.375
       161   06 Jun 2027 07:50:16.261   06 Jun 2027 07:53:44.886           208.625              Murmansk1         26078.125
       162   06 Jun 2027 08:52:10.523   06 Jun 2027 09:02:17.762           607.239               CapeTown         75904.875
       163   06 Jun 2027 09:16:52.018   06 Jun 2027 09:17:20.546            28.528                 Moscow          3566.000
       164   06 Jun 2027 09:20:07.282   06 Jun 2027 09:23:59.582           232.300              Murmansk1         29037.500
       165   06 Jun 2027 09:24:45.371   06 Jun 2027 09:28:28.403           223.032              Murmansk2         27879.000
       166   06 Jun 2027 09:29:39.995   06 Jun 2027 09:29:42.852             2.857              Murmansk1           357.125
       167   06 Jun 2027 09:31:54.172   06 Jun 2027 09:41:17.981           563.809                Anadyr2         70476.125
       168   06 Jun 2027 11:17:00.744   06 Jun 2027 11:17:14.006            13.262                Anadyr2          1657.750
       169   06 Jun 2027 12:44:43.011   06 Jun 2027 12:44:59.027            16.016                Anadyr1          2002.000
       170   06 Jun 2027 12:45:42.167   06 Jun 2027 12:48:18.711           156.544               Magadan2         19568.000
       171   06 Jun 2027 12:50:00.617   06 Jun 2027 12:52:01.214           120.597               Magadan1         15074.625
       172   06 Jun 2027 14:25:58.770   06 Jun 2027 14:26:16.001            17.231               Magadan1          2153.875
       173   06 Jun 2027 14:29:35.540   06 Jun 2027 14:31:08.728            93.188               Magadan1         11648.500
       174   06 Jun 2027 15:13:18.080   06 Jun 2027 15:15:37.375           139.295            RioGallegos         17411.875
       175   06 Jun 2027 16:01:02.994   06 Jun 2027 16:02:13.448            70.454                Irkutsk          8806.750
       176   06 Jun 2027 16:03:56.691   06 Jun 2027 16:06:05.105           128.414                Irkutsk         16051.750
       177   06 Jun 2027 16:14:46.388   06 Jun 2027 16:17:14.712           148.324                Sumatra         18540.500
       178   06 Jun 2027 17:39:52.478   06 Jun 2027 17:41:49.739           117.261                Novosib         14657.625
       179   06 Jun 2027 17:44:18.673   06 Jun 2027 17:47:49.291           210.618                  Delhi         26327.250
       180   06 Jun 2027 17:52:51.981   06 Jun 2027 17:53:49.891            57.910                  Delhi          7238.750
       181   06 Jun 2027 20:50:24.962   06 Jun 2027 20:50:59.717            34.755                 Moscow          4344.375
       182   06 Jun 2027 20:51:29.353   06 Jun 2027 20:53:36.842           127.489                 Moscow         15936.125
       183   06 Jun 2027 21:17:44.026   06 Jun 2027 21:19:45.236           121.210               CapeTown          3549.500
       184   07 Jun 2027 03:11:13.182   07 Jun 2027 03:15:32.075           258.893              Murmansk2         32361.625
       185   07 Jun 2027 04:20:48.437   07 Jun 2027 04:22:48.613           120.176                Sumatra         15022.000
       186   07 Jun 2027 04:28:27.871   07 Jun 2027 04:30:29.206           121.335                Sumatra         15166.875
       187   07 Jun 2027 04:45:53.041   07 Jun 2027 04:46:04.448            11.407              Murmansk2          1425.875
       188   07 Jun 2027 04:47:12.119   07 Jun 2027 04:47:20.207             8.088              Murmansk2          1011.000
       189   07 Jun 2027 04:47:25.851   07 Jun 2027 04:48:45.294            79.443                Novosib          9930.375
       190   07 Jun 2027 04:48:50.822   07 Jun 2027 04:49:22.090            31.268                 Moscow          3908.500
       191   07 Jun 2027 04:49:46.525   07 Jun 2027 04:54:15.942           269.417              Murmansk2         33677.125
       192   07 Jun 2027 06:09:44.002   07 Jun 2027 06:17:25.600           461.598                  Delhi         57699.750
       193   07 Jun 2027 06:23:03.521   07 Jun 2027 06:23:30.225            26.704              Murmansk2          3338.000
       194   07 Jun 2027 06:23:47.985   07 Jun 2027 06:24:10.427            22.442                Novosib          2805.250
       195   07 Jun 2027 06:24:24.497   07 Jun 2027 06:26:09.375           104.878                 Moscow         13109.750
       196   07 Jun 2027 06:26:44.360   07 Jun 2027 06:29:52.066           187.706              Murmansk2         23463.250
       197   07 Jun 2027 07:49:22.687   07 Jun 2027 07:49:44.416            21.729                 Moscow          2716.125
       198   07 Jun 2027 07:52:41.537   07 Jun 2027 07:53:02.694            21.157                 Moscow          2644.625
       199   07 Jun 2027 07:53:47.223   07 Jun 2027 07:55:20.083            92.860                 Moscow         11607.500
       200   07 Jun 2027 07:58:01.191   07 Jun 2027 08:02:16.726           255.535                 Moscow         31941.875
       201   07 Jun 2027 08:02:28.275   07 Jun 2027 08:05:46.542           198.267              Murmansk2         24783.375
       202   07 Jun 2027 09:06:33.647   07 Jun 2027 09:14:49.612           495.965               CapeTown         61995.625
       203   07 Jun 2027 09:32:08.604   07 Jun 2027 09:33:19.863            71.259              Murmansk1          8907.375
       204   07 Jun 2027 09:33:32.953   07 Jun 2027 09:34:59.705            86.752                 Moscow         10844.000
       205   07 Jun 2027 09:36:52.337   07 Jun 2027 09:40:54.101           241.764              Murmansk1         30220.500
       206   07 Jun 2027 09:41:41.657   07 Jun 2027 09:41:44.014             2.357              Murmansk2           294.625
       207   07 Jun 2027 09:43:49.266   07 Jun 2027 09:52:29.745           520.479                Anadyr1         65059.875
       208   07 Jun 2027 11:19:26.400   07 Jun 2027 11:19:38.875            12.475                Anadyr2          1559.375
       209   07 Jun 2027 11:23:40.506   07 Jun 2027 11:24:53.088            72.582                Anadyr1          9072.750
       210   07 Jun 2027 12:57:41.203   07 Jun 2027 13:00:18.747           157.544               Magadan2         19693.000
       211   07 Jun 2027 13:04:26.181   07 Jun 2027 13:07:15.390           169.209               Magadan1         21151.125
       212   07 Jun 2027 14:53:54.338   07 Jun 2027 14:54:59.761            65.423                Sumatra          8177.875
       213   07 Jun 2027 15:25:13.549   07 Jun 2027 15:26:53.737           100.188            RioGallegos         12523.500
       214   07 Jun 2027 16:15:20.540   07 Jun 2027 16:16:07.729            47.189                Irkutsk          5898.625
       215   07 Jun 2027 16:17:58.966   07 Jun 2027 16:20:09.011           130.045                Irkutsk         16255.625
       216   07 Jun 2027 16:26:51.922   07 Jun 2027 16:28:26.690            94.768                Sumatra         11846.000
       217   07 Jun 2027 16:34:34.006   07 Jun 2027 16:36:35.099           121.093                Sumatra         15136.625
       218   07 Jun 2027 17:53:00.704   07 Jun 2027 17:53:46.380            45.676                Novosib          5709.500
       219   07 Jun 2027 17:56:14.909   07 Jun 2027 17:58:37.335           142.426                  Delhi         17803.250
       220   07 Jun 2027 21:02:25.259   07 Jun 2027 21:04:01.911            96.652                 Moscow         12081.500
       221   07 Jun 2027 21:05:42.503   07 Jun 2027 21:06:03.517            21.014                 Moscow          2626.750
       222   07 Jun 2027 21:12:00.480   07 Jun 2027 21:13:58.669           118.189                 Moscow         14773.625
       223   07 Jun 2027 21:30:30.078   07 Jun 2027 21:31:27.756            57.678               CapeTown          7209.750
       224   08 Jun 2027 02:59:27.510   08 Jun 2027 03:01:34.818           127.308                Sumatra          3929.250
       225   08 Jun 2027 03:23:02.182   08 Jun 2027 03:24:55.459           113.277              Murmansk2         14159.625
       226   08 Jun 2027 04:32:56.895   08 Jun 2027 04:34:08.084            71.189                Sumatra          8898.625
       227   08 Jun 2027 04:35:46.909   08 Jun 2027 04:37:37.617           110.708                Sumatra         13838.500
       228   08 Jun 2027 04:59:15.632   08 Jun 2027 05:01:34.191           138.559                 Moscow         17319.875
       229   08 Jun 2027 05:01:41.274   08 Jun 2027 05:06:13.203           271.929              Murmansk1         33991.125
       230   08 Jun 2027 06:24:56.417   08 Jun 2027 06:29:11.566           255.149                  Delhi         31893.625
       231   08 Jun 2027 06:29:25.629   08 Jun 2027 06:30:05.768            40.139                 Moscow          5017.375
       232   08 Jun 2027 06:35:00.267   08 Jun 2027 06:38:13.908           193.641                 Moscow         24205.125
       233   08 Jun 2027 06:38:40.976   08 Jun 2027 06:41:52.582           191.606              Murmansk1         23950.750
       234   08 Jun 2027 08:04:42.332   08 Jun 2027 08:06:13.194            90.862                 Moscow         11357.750
       235   08 Jun 2027 08:09:50.188   08 Jun 2027 08:14:16.980           266.792                 Moscow         33349.000
       236   08 Jun 2027 08:14:34.536   08 Jun 2027 08:17:48.248           193.712              Murmansk1         24214.000
       237   08 Jun 2027 09:19:57.894   08 Jun 2027 09:27:13.414           435.520               CapeTown         54440.000
       238   08 Jun 2027 09:44:32.057   08 Jun 2027 09:45:08.056            35.999              Murmansk1          4499.875
       239   08 Jun 2027 09:45:34.693   08 Jun 2027 09:48:09.662           154.969                 Moscow         19371.125
       240   08 Jun 2027 09:48:53.913   08 Jun 2027 09:52:49.908           235.995              Murmansk1         29499.375
       241   08 Jun 2027 09:53:43.340   08 Jun 2027 09:53:44.918             1.578              Murmansk2           197.250
       242   08 Jun 2027 09:55:45.728   08 Jun 2027 10:02:15.744           390.016                Anadyr1         48752.000
       243   08 Jun 2027 13:09:40.865   08 Jun 2027 13:10:09.290            28.425               Magadan1          3553.125
       244   08 Jun 2027 13:10:26.642   08 Jun 2027 13:16:47.434           380.792               Magadan2         47599.000
       245   08 Jun 2027 15:04:54.643   08 Jun 2027 15:08:22.864           208.221                Sumatra         26027.625
       246   08 Jun 2027 15:13:14.839   08 Jun 2027 15:13:43.223            28.384                Sumatra          3548.000
       247   08 Jun 2027 16:28:48.409   08 Jun 2027 16:29:54.556            66.147                Irkutsk          8268.375
       248   08 Jun 2027 16:39:03.439   08 Jun 2027 16:39:04.085             0.646                Sumatra            80.750
       249   08 Jun 2027 16:40:04.054   08 Jun 2027 16:42:15.915           131.861                  Delhi         16482.625
       250   08 Jun 2027 18:00:54.654   08 Jun 2027 18:01:19.007            24.353                Novosib          3044.125
       251   08 Jun 2027 18:02:37.192   08 Jun 2027 18:04:12.550            95.358                Novosib         11919.750
       252   08 Jun 2027 18:08:14.553   08 Jun 2027 18:11:27.183           192.630                  Delhi         24078.750
       253   08 Jun 2027 18:17:51.121   08 Jun 2027 18:19:02.315            71.194                  Delhi          8899.250
       254   08 Jun 2027 19:42:26.899   08 Jun 2027 19:44:24.776           117.877                 Moscow         14734.625
       255   08 Jun 2027 21:38:21.398   08 Jun 2027 21:39:50.151            88.753               CapeTown         11094.125
       256   08 Jun 2027 21:46:12.041   08 Jun 2027 21:46:55.930            43.889               CapeTown          5486.125
       257   09 Jun 2027 03:10:18.832   09 Jun 2027 03:10:40.801            21.969                Sumatra           892.750
       258   09 Jun 2027 03:35:24.409   09 Jun 2027 03:36:44.031            79.622                Novosib          9952.750
       259   09 Jun 2027 03:36:45.440   09 Jun 2027 03:37:18.809            33.369                Norilsk          4171.125
       260   09 Jun 2027 04:45:11.656   09 Jun 2027 04:45:38.752            27.096                Sumatra          3387.000
       261   09 Jun 2027 04:47:11.892   09 Jun 2027 04:49:34.110           142.218                Sumatra         17777.250
       262   09 Jun 2027 05:10:48.559   09 Jun 2027 05:11:21.870            33.311              Murmansk2          4163.875
       263   09 Jun 2027 05:11:36.447   09 Jun 2027 05:12:46.191            69.744                Novosib          8718.000
       264   09 Jun 2027 05:12:51.849   09 Jun 2027 05:13:44.330            52.481                 Moscow          6560.125
       265   09 Jun 2027 05:14:28.128   09 Jun 2027 05:18:11.010           222.882              Murmansk1         27860.250
       266   09 Jun 2027 06:36:54.033   09 Jun 2027 06:38:42.675           108.642                  Delhi         13580.250
       267   09 Jun 2027 06:39:04.703   09 Jun 2027 06:41:36.468           151.765                Novosib         18970.625
       268   09 Jun 2027 06:46:59.090   09 Jun 2027 06:47:41.767            42.677              Murmansk1          5334.625
       269   09 Jun 2027 06:47:48.165   09 Jun 2027 06:50:17.953           149.788                 Moscow         18723.500
       270   09 Jun 2027 06:50:36.955   09 Jun 2027 06:53:53.355           196.400              Murmansk2         24550.000
       271   09 Jun 2027 08:16:42.437   09 Jun 2027 08:18:10.583            88.146                 Moscow         11018.250
       272   09 Jun 2027 08:20:14.096   09 Jun 2027 08:21:36.233            82.137              Murmansk1         10267.125
       273   09 Jun 2027 08:21:36.233   09 Jun 2027 08:23:27.830           111.597              Murmansk2         13949.625
       274   09 Jun 2027 08:23:48.071   09 Jun 2027 08:26:16.478           148.407                 Moscow         18550.875
       275   09 Jun 2027 08:26:23.583   09 Jun 2027 08:29:49.982           206.399              Murmansk1         25799.875
       276   09 Jun 2027 08:33:29.517   09 Jun 2027 08:37:17.516           227.999                Anadyr2         28499.875
       277   09 Jun 2027 09:32:53.842   09 Jun 2027 09:36:41.325           227.483               CapeTown         28435.375
       278   09 Jun 2027 11:46:31.710   09 Jun 2027 11:48:36.616           124.906               Magadan2         15613.250
       279   09 Jun 2027 13:21:41.059   09 Jun 2027 13:22:59.233            78.174               Magadan1          9771.750
       280   09 Jun 2027 15:05:05.132   09 Jun 2027 15:05:41.062            35.930                Irkutsk          4491.250
       281   09 Jun 2027 15:16:02.397   09 Jun 2027 15:23:43.769           461.372                Sumatra         57671.500
       282   09 Jun 2027 16:41:27.257   09 Jun 2027 16:44:01.835           154.578                Novosib         19322.250
       283   09 Jun 2027 16:46:04.009   09 Jun 2027 16:46:31.629            27.620                  Delhi          3452.500
       284   09 Jun 2027 16:50:39.288   09 Jun 2027 16:55:12.190           272.902                  Delhi         34112.750
       285   09 Jun 2027 19:53:55.814   09 Jun 2027 19:55:35.925           100.111                 Moscow         12513.875
       286   09 Jun 2027 21:31:13.307   09 Jun 2027 21:31:58.669            45.362                 Moscow          5670.250
       287   09 Jun 2027 21:50:29.972   09 Jun 2027 21:53:00.966           150.994               CapeTown         18787.750
       288   10 Jun 2027 04:57:33.813   10 Jun 2027 04:59:14.035           100.222                Sumatra         12527.750
       289   10 Jun 2027 05:11:22.701   10 Jun 2027 05:12:10.813            48.112                  Delhi          6014.000
       290   10 Jun 2027 05:23:05.152   10 Jun 2027 05:25:53.085           167.933                 Moscow         20991.625
       291   10 Jun 2027 05:26:22.368   10 Jun 2027 05:30:09.323           226.955              Murmansk1         28369.375
       292   10 Jun 2027 06:48:48.097   10 Jun 2027 06:50:38.214           110.117                  Delhi         13764.625
       293   10 Jun 2027 06:51:05.572   10 Jun 2027 06:53:00.615           115.043                Novosib         14380.375
       294   10 Jun 2027 06:53:26.322   10 Jun 2027 06:54:03.254            36.932                Novosib          4616.500
       295   10 Jun 2027 06:54:06.633   10 Jun 2027 06:54:40.665            34.032                 Moscow          4254.000
       296   10 Jun 2027 06:59:10.620   10 Jun 2027 07:02:21.528           190.908                 Moscow         23863.500
       297   10 Jun 2027 07:02:48.921   10 Jun 2027 07:05:54.341           185.420              Murmansk1         23177.500
       298   10 Jun 2027 08:28:41.776   10 Jun 2027 08:30:10.794            89.018                 Moscow         11127.250
       299   10 Jun 2027 08:32:15.830   10 Jun 2027 08:35:38.810           202.980              Murmansk1         25372.500
       300   10 Jun 2027 08:35:58.800   10 Jun 2027 08:38:15.122           136.322                 Moscow         17040.250
       301   10 Jun 2027 08:38:28.088   10 Jun 2027 08:41:51.707           203.619              Murmansk1         25452.375
       302   10 Jun 2027 08:44:57.156   10 Jun 2027 08:50:29.994           332.838                Anadyr1         41604.750
       303   10 Jun 2027 10:29:10.958   10 Jun 2027 10:29:53.995            43.037                Anadyr1          5379.625
       304   10 Jun 2027 11:59:02.681   10 Jun 2027 12:01:34.952           152.271               Magadan2         19033.875
       305   10 Jun 2027 12:07:25.270   10 Jun 2027 12:07:40.423            15.153               Magadan1          1894.125
       306   10 Jun 2027 13:33:41.713   10 Jun 2027 13:35:27.279           105.566               Magadan2         13195.750
       307   10 Jun 2027 15:17:20.595   10 Jun 2027 15:18:57.136            96.541                Irkutsk         12067.625
       308   10 Jun 2027 15:27:36.568   10 Jun 2027 15:34:23.090           406.522                Sumatra         50815.250
       309   10 Jun 2027 16:57:32.062   10 Jun 2027 17:05:09.188           457.126                  Delhi         57140.750
       310   10 Jun 2027 20:07:56.864   10 Jun 2027 20:10:42.500           165.636                 Moscow         20704.500
       311   10 Jun 2027 22:02:44.130   10 Jun 2027 22:05:15.201           151.071               CapeTown          4220.625
       312   11 Jun 2027 03:58:55.608   11 Jun 2027 03:59:30.337            34.729              Murmansk2          4341.125
       313   11 Jun 2027 05:10:05.433   11 Jun 2027 05:11:50.777           105.344                Sumatra         13168.000
       314   11 Jun 2027 05:22:07.039   11 Jun 2027 05:22:50.303            43.264                  Delhi          5408.000
       315   11 Jun 2027 05:24:31.749   11 Jun 2027 05:26:45.292           133.543                  Delhi         16692.875
       316   11 Jun 2027 05:34:59.590   11 Jun 2027 05:35:38.862            39.272              Murmansk2          4909.000
       317   11 Jun 2027 05:35:41.885   11 Jun 2027 05:36:33.225            51.340                Novosib          6417.500
       318   11 Jun 2027 05:37:03.652   11 Jun 2027 05:38:00.789            57.137                 Moscow          7142.125
       319   11 Jun 2027 05:38:15.493   11 Jun 2027 05:42:08.096           232.603              Murmansk1         29075.375
       320   11 Jun 2027 07:03:58.304   11 Jun 2027 07:07:10.279           191.975                Novosib         23996.875
       321   11 Jun 2027 07:11:39.256   11 Jun 2027 07:12:06.394            27.138                Norilsk          3392.250
       322   11 Jun 2027 07:12:18.492   11 Jun 2027 07:14:24.619           126.127                 Moscow         15765.875
       323   11 Jun 2027 07:14:34.969   11 Jun 2027 07:17:55.521           200.552              Murmansk2         25069.000
       324   11 Jun 2027 08:18:39.037   11 Jun 2027 08:23:26.249           287.212               CapeTown         35901.500
       325   11 Jun 2027 08:40:40.232   11 Jun 2027 08:41:06.887            26.655                 Moscow          3331.875
       326   11 Jun 2027 08:44:17.551   11 Jun 2027 08:47:41.316           203.765              Murmansk1         25470.625
       327   11 Jun 2027 08:47:42.538   11 Jun 2027 08:48:11.539            29.001                 Moscow          3625.125
       328   11 Jun 2027 08:49:00.459   11 Jun 2027 08:53:53.395           292.936              Murmansk2         36617.000
       329   11 Jun 2027 08:56:37.930   11 Jun 2027 08:57:46.512            68.582                Anadyr1          8572.750
       330   11 Jun 2027 10:41:03.513   11 Jun 2027 10:41:14.818            11.305                Anadyr2          1413.125
       331   11 Jun 2027 10:42:35.476   11 Jun 2027 10:43:28.629            53.153                Anadyr2          6644.125
       332   11 Jun 2027 12:10:05.030   11 Jun 2027 12:11:31.252            86.222               Magadan1         10777.750
       333   11 Jun 2027 12:18:38.937   11 Jun 2027 12:19:36.523            57.586               Magadan1          7198.250
       334   11 Jun 2027 13:45:42.752   11 Jun 2027 13:45:54.303            11.551               Magadan2          1443.875
       335   11 Jun 2027 13:53:31.679   11 Jun 2027 13:54:49.505            77.826               Magadan1          9728.250
       336   11 Jun 2027 14:39:01.971   11 Jun 2027 14:39:12.804            10.833            RioGallegos          1354.125
       337   11 Jun 2027 14:39:52.658   11 Jun 2027 14:41:22.475            89.817            RioGallegos         11227.125
       338   11 Jun 2027 15:26:11.095   11 Jun 2027 15:27:15.030            63.935                Irkutsk          7991.875
       339   11 Jun 2027 15:31:15.211   11 Jun 2027 15:35:00.419           225.208                Irkutsk         28151.000
       340   11 Jun 2027 15:41:48.796   11 Jun 2027 15:45:31.040           222.244                Sumatra         27780.500
       341   11 Jun 2027 17:09:09.057   11 Jun 2027 17:15:44.961           395.904                  Delhi         49488.000
       342   11 Jun 2027 20:14:43.923   11 Jun 2027 20:16:00.817            76.894                 Moscow          9611.750
       343   11 Jun 2027 20:17:15.806   11 Jun 2027 20:19:47.878           152.072                 Moscow         11779.375
       344   12 Jun 2027 05:22:50.903   12 Jun 2027 05:24:38.818           107.915                Sumatra         13489.375
       345   12 Jun 2027 05:29:10.416   12 Jun 2027 05:30:33.546            83.130                  Delhi         10391.250
       346   12 Jun 2027 05:34:28.758   12 Jun 2027 05:36:47.327           138.569                  Delhi         17321.125
       347   12 Jun 2027 05:47:09.724   12 Jun 2027 05:47:52.055            42.331              Murmansk1          5291.375
       348   12 Jun 2027 05:47:55.516   12 Jun 2027 05:50:07.669           132.153                 Moscow         16519.125
       349   12 Jun 2027 05:50:16.814   12 Jun 2027 05:54:07.294           230.480              Murmansk1         28810.000
       350   12 Jun 2027 07:13:44.371   12 Jun 2027 07:14:36.958            52.587                 Moscow          6573.375
       351   12 Jun 2027 07:22:43.352   12 Jun 2027 07:23:14.149            30.797              Murmansk1          3849.625
       352   12 Jun 2027 07:25:04.015   12 Jun 2027 07:26:27.212            83.197                 Moscow         10399.625
       353   12 Jun 2027 07:26:35.338   12 Jun 2027 07:29:56.856           201.518              Murmansk1         25189.750
       354   12 Jun 2027 08:29:28.319   12 Jun 2027 08:36:54.040           445.721               CapeTown         55715.125
       355   12 Jun 2027 08:56:19.228   12 Jun 2027 08:57:31.837            72.609              Murmansk1          9076.125
       356   12 Jun 2027 08:57:31.837   12 Jun 2027 08:59:35.650           123.813              Murmansk2         15476.625
       357   12 Jun 2027 09:00:02.085   12 Jun 2027 09:02:09.250           127.165                 Moscow         15895.625
       358   12 Jun 2027 09:02:30.596   12 Jun 2027 09:05:55.009           204.413              Murmansk2         25551.625
       359   12 Jun 2027 09:08:24.944   12 Jun 2027 09:16:14.893           469.949                Anadyr1         58743.625
       360   12 Jun 2027 10:10:29.043   12 Jun 2027 10:12:35.739           126.696               CapeTown         15837.000
       361   12 Jun 2027 10:43:40.277   12 Jun 2027 10:44:08.291            28.014                Anadyr2          3501.750
       362   12 Jun 2027 10:45:15.819   12 Jun 2027 10:45:57.832            42.013                Anadyr1          5251.625
       363   12 Jun 2027 12:22:01.377   12 Jun 2027 12:23:22.276            80.899               Magadan2         10112.375
       364   12 Jun 2027 12:27:05.940   12 Jun 2027 12:31:33.753           267.813               Magadan2         33476.625
       365   12 Jun 2027 14:50:53.988   12 Jun 2027 14:54:44.033           230.045            RioGallegos         28755.625
       366   12 Jun 2027 15:45:08.180   12 Jun 2027 15:46:55.922           107.742                Irkutsk         13467.750
       367   12 Jun 2027 15:51:07.004   12 Jun 2027 15:54:01.931           174.927                Sumatra         21865.875
       368   12 Jun 2027 17:13:12.613   12 Jun 2027 17:15:48.562           155.949                Novosib         19493.625
       369   12 Jun 2027 17:20:52.471   12 Jun 2027 17:26:56.541           364.070                  Delhi         45508.750
       370   12 Jun 2027 20:26:58.079   12 Jun 2027 20:27:40.362            42.283                 Moscow          5285.375
       371   12 Jun 2027 20:36:31.734   12 Jun 2027 20:38:37.842           126.108                 Moscow          2237.750
       372   13 Jun 2027 05:38:15.355   13 Jun 2027 05:38:19.220             3.865                Sumatra           483.125
       373   13 Jun 2027 05:40:04.760   13 Jun 2027 05:40:39.392            34.632                Sumatra          4329.000
       374   13 Jun 2027 05:41:11.745   13 Jun 2027 05:43:05.351           113.606                  Delhi         14200.750
       375   13 Jun 2027 05:48:58.605   13 Jun 2027 05:50:51.209           112.604                  Delhi         14075.500
       376   13 Jun 2027 05:59:00.866   13 Jun 2027 06:00:37.605            96.739                Novosib         12092.375
       377   13 Jun 2027 06:01:04.132   13 Jun 2027 06:02:13.845            69.713                 Moscow          8714.125
       378   13 Jun 2027 06:02:37.527   13 Jun 2027 06:06:06.875           209.348              Murmansk2         26168.500
       379   13 Jun 2027 07:25:39.365   13 Jun 2027 07:27:28.960           109.595                 Moscow         13699.375
       380   13 Jun 2027 07:36:46.341   13 Jun 2027 07:38:29.289           102.948                 Moscow         12868.500
       381   13 Jun 2027 07:38:31.993   13 Jun 2027 07:41:58.328           206.335              Murmansk2         25791.875
       382   13 Jun 2027 08:40:45.591   13 Jun 2027 08:49:51.455           545.864               CapeTown         68233.000
       383   13 Jun 2027 09:04:48.389   13 Jun 2027 09:05:02.274            13.885                 Moscow          1735.625
       384   13 Jun 2027 09:08:20.823   13 Jun 2027 09:11:10.370           169.547              Murmansk2         21193.375
       385   13 Jun 2027 09:11:16.126   13 Jun 2027 09:12:25.779            69.653                 Moscow          8706.625
       386   13 Jun 2027 09:13:01.178   13 Jun 2027 09:14:48.965           107.787              Murmansk1         13473.375
       387   13 Jun 2027 09:14:48.965   13 Jun 2027 09:16:52.752           123.787              Murmansk2         15473.375
       388   13 Jun 2027 09:17:53.114   13 Jun 2027 09:17:56.521             3.407              Murmansk1           425.875
       389   13 Jun 2027 09:20:15.717   13 Jun 2027 09:28:56.763           521.046                Anadyr2         65130.750
       390   13 Jun 2027 10:18:13.485   13 Jun 2027 10:22:45.554           272.069               CapeTown         34008.625
       391   13 Jun 2027 12:33:58.803   13 Jun 2027 12:34:20.746            21.943               Magadan1          2742.875
       392   13 Jun 2027 12:39:18.419   13 Jun 2027 12:41:57.746           159.327               Magadan1         19915.875
       393   13 Jun 2027 12:44:07.903   13 Jun 2027 12:44:21.389            13.486               Magadan1          1685.750
       394   13 Jun 2027 14:14:29.872   13 Jun 2027 14:16:32.868           122.996               Magadan2         15374.500
       395   13 Jun 2027 15:03:22.859   13 Jun 2027 15:05:42.571           139.712            RioGallegos         17464.000
       396   13 Jun 2027 15:06:42.874   13 Jun 2027 15:07:04.626            21.752            RioGallegos          2719.000
       397   13 Jun 2027 15:49:20.697   13 Jun 2027 15:50:53.432            92.735                Irkutsk         11591.875
       398   13 Jun 2027 15:58:16.917   13 Jun 2027 15:58:52.886            35.969                Irkutsk          4496.125
       399   13 Jun 2027 16:03:01.408   13 Jun 2027 16:06:08.934           187.526                Sumatra         23440.750
       400   13 Jun 2027 17:28:03.294   13 Jun 2027 17:30:09.182           125.888                Novosib         15736.000
       401   13 Jun 2027 17:32:40.911   13 Jun 2027 17:42:09.222           568.311                  Delhi         59553.500
