uniorb/output/strategy_4/Drop/Drop_KinoSat_110205.txt

KinoSat_110205
-------------------------
    Access    *     Start Time (UTCG)     *     Stop Time (UTCG)  *   Duration (s)        *       Station  *  Data (Mbytes)
         1   01 Jun 2027 04:03:56.980   01 Jun 2027 04:04:17.094            20.114                Norilsk          2514.250
         2   01 Jun 2027 04:04:22.881   01 Jun 2027 04:04:57.183            34.302                Novosib          4287.750
         3   01 Jun 2027 04:04:58.733   01 Jun 2027 04:05:18.842            20.109                Norilsk          2513.625
         4   01 Jun 2027 04:05:33.103   01 Jun 2027 04:06:57.442            84.339                Norilsk         10542.375
         5   01 Jun 2027 04:07:16.458   01 Jun 2027 04:07:49.102            32.644              Murmansk2          4080.500
         6   01 Jun 2027 04:08:04.106   01 Jun 2027 04:08:24.765            20.659              Murmansk2          2582.375
         7   01 Jun 2027 04:08:24.765   01 Jun 2027 04:09:02.507            37.742              Murmansk1          4717.750
         8   01 Jun 2027 04:09:08.102   01 Jun 2027 04:09:21.441            13.339                Norilsk          1667.375
         9   01 Jun 2027 04:12:05.329   01 Jun 2027 04:12:52.572            47.243                Norilsk          5905.375
        10   01 Jun 2027 04:12:56.020   01 Jun 2027 04:13:03.882             7.862                Norilsk           982.750
        11   01 Jun 2027 04:43:55.913   01 Jun 2027 04:45:04.359            68.446            RioGallegos          8555.750
        12   01 Jun 2027 05:20:28.976   01 Jun 2027 05:22:58.611           149.635                Sumatra         18704.375
        13   01 Jun 2027 05:32:44.541   01 Jun 2027 05:33:44.173            59.632                  Delhi          7454.000
        14   01 Jun 2027 05:41:42.375   01 Jun 2027 05:43:52.014           129.639                Irkutsk         16204.875
        15   01 Jun 2027 07:02:58.043   01 Jun 2027 07:05:02.027           123.984                  Delhi         15498.000
        16   01 Jun 2027 07:18:07.894   01 Jun 2027 07:18:42.370            34.476                 Moscow          4309.500
        17   01 Jun 2027 07:18:54.173   01 Jun 2027 07:19:48.350            54.177                 Moscow          6772.125
        18   01 Jun 2027 07:20:22.385   01 Jun 2027 07:21:14.896            52.511                Novosib          6563.875
        19   01 Jun 2027 08:54:58.053   01 Jun 2027 08:55:41.038            42.985              Murmansk2          5373.125
        20   01 Jun 2027 08:55:41.038   01 Jun 2027 08:57:13.684            92.646              Murmansk1         11580.750
        21   01 Jun 2027 08:57:20.276   01 Jun 2027 08:58:37.952            77.676                 Moscow          9709.500
        22   01 Jun 2027 10:00:37.806   01 Jun 2027 10:02:44.244           126.438               CapeTown         15804.750
        23   01 Jun 2027 10:05:03.314   01 Jun 2027 10:05:46.750            43.436               CapeTown          5429.500
        24   01 Jun 2027 10:41:02.103   01 Jun 2027 10:42:28.932            86.829                Anadyr2         10853.625
        25   01 Jun 2027 10:45:25.723   01 Jun 2027 10:45:43.287            17.564                Anadyr1          2195.500
        26   01 Jun 2027 12:18:23.094   01 Jun 2027 12:18:23.616             0.522                Anadyr2            65.250
        27   01 Jun 2027 12:18:31.478   01 Jun 2027 12:19:54.500            83.022                Anadyr1         10377.750
        28   01 Jun 2027 12:20:31.397   01 Jun 2027 12:24:03.906           212.509               Magadan2         26563.625
        29   01 Jun 2027 13:54:57.906   01 Jun 2027 13:55:35.035            37.129               Magadan2          4641.125
        30   01 Jun 2027 13:58:04.089   01 Jun 2027 13:58:20.076            15.987               Magadan1          1998.375
        31   01 Jun 2027 13:59:38.019   01 Jun 2027 13:59:54.841            16.822               Magadan2          2102.750
        32   01 Jun 2027 14:52:25.150   01 Jun 2027 14:55:37.764           192.614            RioGallegos         24076.750
        33   01 Jun 2027 15:35:16.298   01 Jun 2027 15:39:27.084           250.786                Irkutsk         31348.250
        34   01 Jun 2027 15:49:48.004   01 Jun 2027 15:53:08.668           200.664                Sumatra         25083.000
        35   01 Jun 2027 17:11:34.782   01 Jun 2027 17:15:15.223           220.441                Novosib         26027.251
        36   02 Jun 2027 04:20:33.088   02 Jun 2027 04:20:36.197             3.109                Irkutsk           388.625
        37   02 Jun 2027 04:20:37.372   02 Jun 2027 04:22:12.016            94.644                Norilsk         11830.500
        38   02 Jun 2027 05:30:33.800   02 Jun 2027 05:30:55.466            21.666                Sumatra          2708.250
        39   02 Jun 2027 05:32:46.183   02 Jun 2027 05:34:57.423           131.240                Sumatra         16405.000
        40   02 Jun 2027 05:38:50.950   02 Jun 2027 05:41:20.783           149.833                  Delhi         18729.125
        41   02 Jun 2027 05:54:51.939   02 Jun 2027 05:55:13.507            21.568                Novosib          2696.000
        42   02 Jun 2027 05:55:59.286   02 Jun 2027 05:58:03.040           123.754                Novosib         15469.250
        43   02 Jun 2027 05:58:40.175   02 Jun 2027 05:59:04.004            23.829                 Moscow          2978.625
        44   02 Jun 2027 05:59:04.651   02 Jun 2027 06:03:27.565           262.914              Murmansk1         32864.250
        45   02 Jun 2027 07:22:15.105   02 Jun 2027 07:26:02.262           227.157                  Delhi         28394.625
        46   02 Jun 2027 07:31:55.466   02 Jun 2027 07:35:36.000           220.534                 Moscow         27566.750
        47   02 Jun 2027 07:35:51.001   02 Jun 2027 07:39:10.599           199.598              Murmansk1         24949.750
        48   02 Jun 2027 09:01:59.286   02 Jun 2027 09:04:38.942           159.656                 Moscow         19957.000
        49   02 Jun 2027 09:05:42.594   02 Jun 2027 09:07:00.641            78.047              Murmansk1          9755.875
        50   02 Jun 2027 09:07:06.652   02 Jun 2027 09:11:33.138           266.486                 Moscow         33310.750
        51   02 Jun 2027 09:11:41.609   02 Jun 2027 09:14:23.822           162.213              Murmansk1         20276.625
        52   02 Jun 2027 10:57:37.265   02 Jun 2027 10:57:43.391             6.126                Anadyr1           765.750
        53   02 Jun 2027 12:31:31.830   02 Jun 2027 12:36:01.493           269.663               Magadan1         33707.875
        54   02 Jun 2027 14:06:58.194   02 Jun 2027 14:08:45.550           107.356               Magadan2         13419.500
        55   02 Jun 2027 15:03:24.871   02 Jun 2027 15:03:41.062            16.191            RioGallegos          2023.875
        56   02 Jun 2027 15:05:30.256   02 Jun 2027 15:07:05.739            95.483            RioGallegos         11935.375
        57   02 Jun 2027 15:47:03.226   02 Jun 2027 15:50:05.915           182.689                Irkutsk         22836.125
        58   02 Jun 2027 16:04:12.904   02 Jun 2027 16:05:04.040            51.136                Sumatra          6392.000
        59   02 Jun 2027 16:08:12.578   02 Jun 2027 16:08:27.777            15.199                Sumatra          1899.875
        60   02 Jun 2027 16:10:26.624   02 Jun 2027 16:12:21.742           115.118                Sumatra         14389.750
        61   02 Jun 2027 17:22:41.662   02 Jun 2027 17:25:38.697           177.035                Novosib         22129.375
        62   02 Jun 2027 17:31:11.391   02 Jun 2027 17:34:42.399           211.008                  Delhi         26376.000
        63   02 Jun 2027 19:07:39.377   02 Jun 2027 19:08:40.088            60.711                  Delhi          7588.875
        64   02 Jun 2027 19:10:09.010   02 Jun 2027 19:10:28.586            19.576                  Delhi          2447.000
        65   02 Jun 2027 20:36:07.773   02 Jun 2027 20:38:17.977           130.204                 Moscow         16275.500
        66   02 Jun 2027 21:09:18.938   02 Jun 2027 21:09:57.656            38.718               CapeTown          1584.125
        67   03 Jun 2027 05:42:58.201   03 Jun 2027 05:44:24.298            86.097                Sumatra         10762.125
        68   03 Jun 2027 05:50:37.610   03 Jun 2027 05:53:30.609           172.999                  Delhi         21624.875
        69   03 Jun 2027 06:08:10.970   03 Jun 2027 06:11:12.394           181.424                 Moscow         22678.000
        70   03 Jun 2027 06:11:15.193   03 Jun 2027 06:15:25.979           250.786              Murmansk1         31348.250
        71   03 Jun 2027 07:36:35.807   03 Jun 2027 07:39:20.900           165.093                Novosib         20636.625
        72   03 Jun 2027 07:39:40.043   03 Jun 2027 07:40:01.740            21.697                 Moscow          2712.125
        73   03 Jun 2027 07:44:42.921   03 Jun 2027 07:47:39.412           176.491                 Moscow         22061.375
        74   03 Jun 2027 07:47:52.861   03 Jun 2027 07:51:11.616           198.755              Murmansk2         24844.375
        75   03 Jun 2027 09:13:58.365   03 Jun 2027 09:15:24.457            86.092                 Moscow         10761.500
        76   03 Jun 2027 09:15:57.501   03 Jun 2027 09:16:47.822            50.321              Murmansk2          6290.125
        77   03 Jun 2027 09:17:43.692   03 Jun 2027 09:19:36.937           113.245              Murmansk2         14155.625
        78   03 Jun 2027 09:19:40.128   03 Jun 2027 09:23:31.496           231.368                 Moscow         28921.000
        79   03 Jun 2027 09:23:32.851   03 Jun 2027 09:27:09.074           216.223              Murmansk2         27027.875
        80   03 Jun 2027 09:30:08.455   03 Jun 2027 09:33:39.565           211.110                Anadyr1         26388.750
        81   03 Jun 2027 11:04:58.377   03 Jun 2027 11:05:51.843            53.466                Anadyr1          6683.250
        82   03 Jun 2027 12:43:25.607   03 Jun 2027 12:45:51.691           146.084               Magadan1         18260.500
        83   03 Jun 2027 12:47:31.590   03 Jun 2027 12:47:59.943            28.353               Magadan2          3544.125
        84   03 Jun 2027 12:51:53.040   03 Jun 2027 12:54:24.411           151.371               Magadan2         18921.375
        85   03 Jun 2027 15:11:26.894   03 Jun 2027 15:15:35.089           248.195            RioGallegos         31024.375
        86   03 Jun 2027 16:00:11.685   03 Jun 2027 16:03:07.274           175.589                Irkutsk         21948.625
        87   03 Jun 2027 16:14:51.809   03 Jun 2027 16:17:05.016           133.207                Sumatra         16650.875
        88   03 Jun 2027 17:34:35.966   03 Jun 2027 17:36:31.046           115.080                Novosib         14385.000
        89   03 Jun 2027 17:42:42.174   03 Jun 2027 17:46:35.684           233.510                  Delhi         29188.750
        90   03 Jun 2027 20:45:44.250   03 Jun 2027 20:46:52.243            67.993              Murmansk1          8499.125
        91   03 Jun 2027 20:48:03.328   03 Jun 2027 20:49:41.728            98.400                 Moscow         12300.000
        92   03 Jun 2027 21:19:50.781   03 Jun 2027 21:21:59.502           128.721               CapeTown          4805.875
        93   04 Jun 2027 03:08:44.435   04 Jun 2027 03:09:43.237            58.802                Novosib          7350.250
        94   04 Jun 2027 03:09:50.311   04 Jun 2027 03:12:02.914           132.603                Norilsk         16575.375
        95   04 Jun 2027 04:18:39.030   04 Jun 2027 04:23:07.611           268.581                Sumatra         33572.625
        96   04 Jun 2027 04:44:30.844   04 Jun 2027 04:46:09.293            98.449                Novosib         12306.125
        97   04 Jun 2027 04:46:16.570   04 Jun 2027 04:49:36.650           200.080                Norilsk         25010.000
        98   04 Jun 2027 04:49:38.120   04 Jun 2027 04:52:03.527           145.407              Murmansk1         18175.875
        99   04 Jun 2027 06:03:43.002   04 Jun 2027 06:15:13.985           690.983                  Delhi         86372.875
       100   04 Jun 2027 06:15:15.239   04 Jun 2027 06:15:46.817            31.578                 Moscow          3947.250
       101   04 Jun 2027 06:15:47.753   04 Jun 2027 06:16:20.587            32.834              Murmansk1          4104.250
       102   04 Jun 2027 06:20:11.843   04 Jun 2027 06:23:19.811           187.968                 Moscow         23496.000
       103   04 Jun 2027 06:23:25.156   04 Jun 2027 06:27:24.845           239.689              Murmansk1         29961.125
       104   04 Jun 2027 07:49:31.836   04 Jun 2027 07:51:28.534           116.698                Novosib         14587.250
       105   04 Jun 2027 07:55:40.284   04 Jun 2027 07:56:17.082            36.798                Novosib          4599.750
       106   04 Jun 2027 07:57:11.619   04 Jun 2027 07:58:02.034            50.415                Norilsk          6301.875
       107   04 Jun 2027 07:58:29.219   04 Jun 2027 08:03:12.813           283.594              Murmansk2         35449.250
       108   04 Jun 2027 09:07:14.888   04 Jun 2027 09:09:11.765           116.877               CapeTown         14609.625
       109   04 Jun 2027 09:25:56.527   04 Jun 2027 09:26:35.308            38.781                 Moscow          4847.625
       110   04 Jun 2027 09:29:44.955   04 Jun 2027 09:31:07.396            82.441              Murmansk2         10305.125
       111   04 Jun 2027 09:31:14.827   04 Jun 2027 09:35:28.820           253.993                 Moscow         31749.125
       112   04 Jun 2027 09:35:28.841   04 Jun 2027 09:39:10.716           221.875              Murmansk2         27734.375
       113   04 Jun 2027 09:41:51.197   04 Jun 2027 09:48:57.166           425.969                Anadyr1         53246.125
       114   04 Jun 2027 10:43:39.560   04 Jun 2027 10:45:51.681           132.121               CapeTown         16515.125
       115   04 Jun 2027 11:21:44.569   04 Jun 2027 11:21:56.452            11.883                Anadyr2          1485.375
       116   04 Jun 2027 12:55:20.976   04 Jun 2027 12:57:04.887           103.911               Magadan1         12988.875
       117   04 Jun 2027 13:00:14.667   04 Jun 2027 13:00:34.207            19.540               Magadan2          2442.500
       118   04 Jun 2027 13:02:50.754   04 Jun 2027 13:06:48.633           237.879               Magadan1         29734.875
       119   04 Jun 2027 15:23:12.832   04 Jun 2027 15:27:30.869           258.037            RioGallegos         32254.625
       120   04 Jun 2027 16:10:46.009   04 Jun 2027 16:12:38.662           112.653                Irkutsk         14081.625
       121   04 Jun 2027 16:24:31.758   04 Jun 2027 16:27:09.929           158.171                Sumatra         19771.375
       122   04 Jun 2027 17:46:31.815   04 Jun 2027 17:48:52.364           140.549                Novosib         17568.625
       123   04 Jun 2027 17:54:21.050   04 Jun 2027 17:55:52.938            91.888                  Delhi         11486.000
       124   04 Jun 2027 17:58:14.828   04 Jun 2027 17:58:32.590            17.762                  Delhi          2220.250
       125   04 Jun 2027 20:56:38.013   04 Jun 2027 20:56:56.617            18.604              Murmansk2          2325.500
       126   04 Jun 2027 21:00:00.203   04 Jun 2027 21:01:17.948            77.745                 Moscow          9718.125
       127   04 Jun 2027 21:02:37.221   04 Jun 2027 21:04:43.401           126.180                 Moscow         15772.500
       128   04 Jun 2027 21:24:21.233   04 Jun 2027 21:25:25.820            64.587               CapeTown          7871.250
       129   05 Jun 2027 03:20:50.765   05 Jun 2027 03:21:50.478            59.713                Novosib          7464.125
       130   05 Jun 2027 03:21:52.691   05 Jun 2027 03:25:44.339           231.648                Norilsk         28956.000
       131   05 Jun 2027 03:25:56.586   05 Jun 2027 03:26:06.456             9.870              Murmansk2          1233.750
       132   05 Jun 2027 04:30:26.064   05 Jun 2027 04:33:16.399           170.335                Sumatra         21291.875
       133   05 Jun 2027 04:56:39.701   05 Jun 2027 04:57:56.237            76.536                 Moscow          9567.000
       134   05 Jun 2027 04:58:01.805   05 Jun 2027 04:58:12.113            10.308                Novosib          1288.500
       135   05 Jun 2027 04:58:21.051   05 Jun 2027 05:01:38.347           197.296                Norilsk         24662.000
       136   05 Jun 2027 05:02:01.104   05 Jun 2027 05:03:58.414           117.310              Murmansk2         14663.750
       137   05 Jun 2027 06:22:04.171   05 Jun 2027 06:27:14.290           310.119                  Delhi         38764.875
       138   05 Jun 2027 06:27:14.331   05 Jun 2027 06:27:46.121            31.790              Murmansk2          3973.750
       139   05 Jun 2027 06:27:49.990   05 Jun 2027 06:28:12.292            22.302                 Moscow          2787.750
       140   05 Jun 2027 06:32:11.350   05 Jun 2027 06:33:57.356           106.006                Novosib         13250.750
       141   05 Jun 2027 06:34:02.267   05 Jun 2027 06:34:40.513            38.246                Norilsk          4780.750
       142   05 Jun 2027 06:34:48.983   05 Jun 2027 06:39:24.120           275.137              Murmansk1         34392.125
       143   05 Jun 2027 08:09:13.461   05 Jun 2027 08:13:25.842           252.381                Norilsk         31547.625
       144   05 Jun 2027 08:13:32.293   05 Jun 2027 08:15:14.159           101.866              Murmansk2         12733.250
       145   05 Jun 2027 09:19:43.357   05 Jun 2027 09:22:28.315           164.958               CapeTown         20619.750
       146   05 Jun 2027 09:41:46.357   05 Jun 2027 09:43:44.576           118.219              Murmansk2         14777.375
       147   05 Jun 2027 09:43:53.563   05 Jun 2027 09:44:57.909            64.346                 Moscow          8043.250
       148   05 Jun 2027 09:46:27.907   05 Jun 2027 09:47:56.614            88.707              Murmansk2         11088.375
       149   05 Jun 2027 09:47:56.614   05 Jun 2027 09:51:12.274           195.660              Murmansk1         24457.500
       150   05 Jun 2027 09:53:39.325   05 Jun 2027 10:01:43.414           484.089                Anadyr1         60511.125
       151   05 Jun 2027 10:55:59.767   05 Jun 2027 11:01:04.722           304.955               CapeTown         38119.375
       152   05 Jun 2027 11:20:18.026   05 Jun 2027 11:23:39.452           201.426              Murmansk1         25178.250
       153   05 Jun 2027 11:23:39.452   05 Jun 2027 11:27:00.554           201.102              Murmansk2         25137.750
       154   05 Jun 2027 11:28:57.242   05 Jun 2027 11:41:07.014           729.772                Anadyr1         91221.500
       155   05 Jun 2027 13:04:49.667   05 Jun 2027 13:06:25.324            95.657                Anadyr1         11957.125
       156   05 Jun 2027 13:07:17.596   05 Jun 2027 13:11:58.873           281.277               Magadan2         35159.625
       157   05 Jun 2027 15:35:02.262   05 Jun 2027 15:40:39.436           337.174            RioGallegos         42146.750
       158   05 Jun 2027 15:42:25.166   05 Jun 2027 15:44:30.275           125.109            RioGallegos         15638.625
       159   05 Jun 2027 16:36:21.867   05 Jun 2027 16:39:21.314           179.447                Sumatra         22430.875
       160   05 Jun 2027 17:58:28.935   05 Jun 2027 17:59:43.206            74.271                Novosib          9283.875
       161   05 Jun 2027 18:06:05.889   05 Jun 2027 18:08:19.394           133.505                  Delhi         16688.125
       162   05 Jun 2027 19:44:39.574   05 Jun 2027 19:45:15.371            35.797                 Moscow          4474.625
       163   05 Jun 2027 21:14:33.796   05 Jun 2027 21:17:01.977           148.181                 Moscow         18522.625
       164   05 Jun 2027 21:36:05.884   05 Jun 2027 21:38:50.966           165.082               CapeTown         20635.250
       165   06 Jun 2027 03:32:46.683   06 Jun 2027 03:37:05.644           258.961              Murmansk2         32370.125
       166   06 Jun 2027 04:42:19.112   06 Jun 2027 04:45:24.736           185.624                Sumatra         23203.000
       167   06 Jun 2027 05:08:46.112   06 Jun 2027 05:10:25.317            99.205                 Moscow         12400.625
       168   06 Jun 2027 05:10:27.063   06 Jun 2027 05:13:40.140           193.077                Norilsk         24134.625
       169   06 Jun 2027 05:14:03.232   06 Jun 2027 05:15:53.979           110.747              Murmansk2         13843.375
       170   06 Jun 2027 06:34:25.286   06 Jun 2027 06:39:11.241           285.955                  Delhi         35744.375
       171   06 Jun 2027 06:39:12.588   06 Jun 2027 06:39:35.607            23.019                 Moscow          2877.375
       172   06 Jun 2027 06:39:48.714   06 Jun 2027 06:40:40.092            51.378                Novosib          6422.250
       173   06 Jun 2027 06:44:32.607   06 Jun 2027 06:45:53.161            80.554                Novosib         10069.250
       174   06 Jun 2027 06:45:56.410   06 Jun 2027 06:47:32.413            96.003                 Moscow         12000.375
       175   06 Jun 2027 06:47:42.566   06 Jun 2027 06:51:23.776           221.210              Murmansk1         27651.250
       176   06 Jun 2027 08:20:48.354   06 Jun 2027 08:25:22.865           274.511                Norilsk         34313.875
       177   06 Jun 2027 08:25:44.731   06 Jun 2027 08:27:15.636            90.905              Murmansk2         11363.125
       178   06 Jun 2027 09:32:04.398   06 Jun 2027 09:35:20.813           196.415               CapeTown         24551.875
       179   06 Jun 2027 09:53:47.859   06 Jun 2027 09:55:39.147           111.288              Murmansk1         13911.000
       180   06 Jun 2027 09:55:59.284   06 Jun 2027 09:59:19.511           200.227                 Moscow         25028.375
       181   06 Jun 2027 09:59:37.565   06 Jun 2027 10:01:29.953           112.388              Murmansk2         14048.500
       182   06 Jun 2027 10:01:29.953   06 Jun 2027 10:03:13.718           103.765              Murmansk1         12970.625
       183   06 Jun 2027 10:05:30.816   06 Jun 2027 10:14:23.860           533.044                Anadyr2         66630.500
       184   06 Jun 2027 11:07:20.763   06 Jun 2027 11:12:59.214           338.451               CapeTown         42306.375
       185   06 Jun 2027 11:30:15.147   06 Jun 2027 11:31:24.755            69.608              Murmansk1          8701.000
       186   06 Jun 2027 11:34:49.384   06 Jun 2027 11:38:58.316           248.932              Murmansk2         31116.500
       187   06 Jun 2027 11:43:35.537   06 Jun 2027 11:51:19.044           463.507                Anadyr2         57938.375
       188   06 Jun 2027 13:19:15.247   06 Jun 2027 13:23:59.159           283.912               Magadan1         35489.000
       189   06 Jun 2027 15:05:43.622   06 Jun 2027 15:06:39.788            56.166                Irkutsk          7020.750
       190   06 Jun 2027 15:18:01.364   06 Jun 2027 15:19:23.980            82.616                Sumatra         10327.000
       191   06 Jun 2027 15:46:54.347   06 Jun 2027 15:49:49.688           175.341            RioGallegos         21917.625
       192   06 Jun 2027 16:34:36.775   06 Jun 2027 16:36:07.327            90.552                Irkutsk         11319.000
       193   06 Jun 2027 16:43:03.143   06 Jun 2027 16:43:28.438            25.295                Novosib          3161.875
       194   06 Jun 2027 16:48:17.766   06 Jun 2027 16:51:24.567           186.801                Sumatra         23350.125
       195   06 Jun 2027 18:13:22.485   06 Jun 2027 18:15:14.035           111.550                Novosib         13943.750
       196   06 Jun 2027 18:17:55.487   06 Jun 2027 18:20:38.336           162.849                  Delhi         20356.125
       197   06 Jun 2027 19:49:01.429   06 Jun 2027 19:50:26.949            85.520                 Moscow         10690.000
       198   06 Jun 2027 21:28:46.156   06 Jun 2027 21:31:14.149           147.993                 Moscow         18499.125
       199   06 Jun 2027 21:49:10.223   06 Jun 2027 21:50:58.036           107.813               CapeTown         11675.750
       200   07 Jun 2027 03:44:55.053   07 Jun 2027 03:49:17.798           262.745                Norilsk         32843.125
       201   07 Jun 2027 04:54:17.809   07 Jun 2027 04:56:54.018           156.209                Sumatra         19526.125
       202   07 Jun 2027 05:20:55.249   07 Jun 2027 05:25:42.004           286.755                Norilsk         35844.375
       203   07 Jun 2027 05:25:51.668   07 Jun 2027 05:27:50.194           118.526              Murmansk2         14815.750
       204   07 Jun 2027 06:46:31.383   07 Jun 2027 06:51:04.585           273.202                  Delhi         34150.250
       205   07 Jun 2027 06:51:08.140   07 Jun 2027 06:51:57.838            49.698                 Moscow          6212.250
       206   07 Jun 2027 06:56:18.942   07 Jun 2027 06:56:39.514            20.572                Novosib          2571.500
       207   07 Jun 2027 06:56:57.402   07 Jun 2027 06:59:37.797           160.395                 Moscow         20049.375
       208   07 Jun 2027 06:59:48.291   07 Jun 2027 07:03:23.769           215.478              Murmansk2         26934.750
       209   07 Jun 2027 08:32:29.236   07 Jun 2027 08:35:47.992           198.756                 Moscow         24844.500
       210   07 Jun 2027 08:36:07.483   07 Jun 2027 08:39:17.205           189.722              Murmansk2         23715.250
       211   07 Jun 2027 09:38:43.083   07 Jun 2027 09:47:59.728           556.645               CapeTown         69580.625
       212   07 Jun 2027 10:02:53.497   07 Jun 2027 10:03:11.347            17.850                 Moscow          2231.250
       213   07 Jun 2027 10:05:39.473   07 Jun 2027 10:07:07.067            87.594              Murmansk2         10949.250
       214   07 Jun 2027 10:07:07.067   07 Jun 2027 10:09:21.626           134.559              Murmansk1         16819.875
       215   07 Jun 2027 10:10:29.250   07 Jun 2027 10:13:17.324           168.074              Murmansk2         21009.250
       216   07 Jun 2027 10:13:17.324   07 Jun 2027 10:15:14.991           117.667              Murmansk1         14708.375
       217   07 Jun 2027 10:17:24.617   07 Jun 2027 10:26:59.608           574.991                Anadyr2         71873.875
       218   07 Jun 2027 11:20:22.169   07 Jun 2027 11:24:48.707           266.538               CapeTown         33317.250
       219   07 Jun 2027 11:46:22.047   07 Jun 2027 11:47:12.135            50.088              Murmansk2          6261.000
       220   07 Jun 2027 11:47:12.135   07 Jun 2027 11:50:54.828           222.693              Murmansk1         27836.625
       221   07 Jun 2027 11:55:49.163   07 Jun 2027 11:59:55.857           246.694                Anadyr1         30836.750
       222   07 Jun 2027 12:00:25.753   07 Jun 2027 12:01:26.499            60.746               Magadan2          7593.250
       223   07 Jun 2027 13:31:13.738   07 Jun 2027 13:33:50.700           156.962               Magadan2         19620.250
       224   07 Jun 2027 13:33:50.700   07 Jun 2027 13:35:59.889           129.189               Magadan1         16148.625
       225   07 Jun 2027 15:27:50.150   07 Jun 2027 15:34:28.494           398.344                Sumatra         49793.000
       226   07 Jun 2027 16:47:27.364   07 Jun 2027 16:49:13.736           106.372                Novosib         13296.500
       227   07 Jun 2027 17:00:19.253   07 Jun 2027 17:01:40.396            81.143                Sumatra         10142.875
       228   07 Jun 2027 17:08:04.827   07 Jun 2027 17:09:59.023           114.196                Sumatra         14274.500
       229   07 Jun 2027 18:27:15.821   07 Jun 2027 18:29:04.023           108.202                Novosib         13525.250
       230   07 Jun 2027 18:29:49.105   07 Jun 2027 18:32:46.237           177.132                  Delhi         22141.500
       231   07 Jun 2027 20:02:39.428   07 Jun 2027 20:04:08.653            89.225                 Moscow         11153.125
       232   07 Jun 2027 21:47:31.938   07 Jun 2027 21:48:49.203            77.265                 Moscow          9658.125
       233   07 Jun 2027 22:05:05.543   07 Jun 2027 22:05:14.841             9.298               CapeTown           579.124
       234   08 Jun 2027 03:56:47.641   08 Jun 2027 04:01:11.622           263.981                Norilsk         32997.625
       235   08 Jun 2027 05:06:22.110   08 Jun 2027 05:08:05.725           103.615                Sumatra         12951.875
       236   08 Jun 2027 05:17:03.367   08 Jun 2027 05:19:05.894           122.527                  Delhi         15315.875
       237   08 Jun 2027 05:31:18.303   08 Jun 2027 05:32:16.284            57.981                Irkutsk          7247.625
       238   08 Jun 2027 05:32:37.760   08 Jun 2027 05:34:17.427            99.667                Novosib         12458.375
       239   08 Jun 2027 05:34:31.688   08 Jun 2027 05:34:57.935            26.247                 Moscow          3280.875
       240   08 Jun 2027 05:35:22.101   08 Jun 2027 05:39:47.020           264.919              Murmansk2         33114.875
       241   08 Jun 2027 06:58:34.151   08 Jun 2027 07:02:53.858           259.707                  Delhi         32463.375
       242   08 Jun 2027 07:03:00.922   08 Jun 2027 07:03:39.094            38.172                 Moscow          4771.500
       243   08 Jun 2027 07:08:20.029   08 Jun 2027 07:09:39.725            79.696                Novosib          9962.000
       244   08 Jun 2027 07:09:42.288   08 Jun 2027 07:11:42.651           120.363                 Moscow         15045.375
       245   08 Jun 2027 07:11:51.888   08 Jun 2027 07:15:24.061           212.173              Murmansk1         26521.625
       246   08 Jun 2027 08:38:13.669   08 Jun 2027 08:38:32.753            19.084                 Moscow          2385.500
       247   08 Jun 2027 08:39:00.978   08 Jun 2027 08:40:16.049            75.071                 Moscow          9383.875
       248   08 Jun 2027 08:43:27.281   08 Jun 2027 08:47:48.698           261.417                 Moscow         32677.125
       249   08 Jun 2027 08:47:57.894   08 Jun 2027 08:51:18.849           200.955              Murmansk2         25119.375
       250   08 Jun 2027 09:52:53.344   08 Jun 2027 10:00:29.046           455.702               CapeTown         56962.750
       251   08 Jun 2027 10:17:51.086   08 Jun 2027 10:19:14.081            82.995              Murmansk1         10374.375
       252   08 Jun 2027 10:19:25.358   08 Jun 2027 10:21:31.852           126.494                 Moscow         15811.750
       253   08 Jun 2027 10:22:30.854   08 Jun 2027 10:24:45.065           134.211              Murmansk1         16776.375
       254   08 Jun 2027 10:24:45.065   08 Jun 2027 10:27:16.054           150.989              Murmansk2         18873.625
       255   08 Jun 2027 10:29:31.801   08 Jun 2027 10:33:58.572           266.771                Anadyr2         33346.375
       256   08 Jun 2027 10:34:26.078   08 Jun 2027 10:34:33.410             7.332                Anadyr1           916.500
       257   08 Jun 2027 12:06:20.322   08 Jun 2027 12:06:52.432            32.110                Anadyr2          4013.750
       258   08 Jun 2027 12:09:03.862   08 Jun 2027 12:11:54.315           170.453               Magadan1         21306.625
       259   08 Jun 2027 13:43:12.930   08 Jun 2027 13:43:56.049            43.119               Magadan2          5389.875
       260   08 Jun 2027 13:43:56.049   08 Jun 2027 13:43:56.951             0.902               Magadan1           112.750
       261   08 Jun 2027 13:46:08.487   08 Jun 2027 13:46:59.295            50.808               Magadan2          6351.000
       262   08 Jun 2027 14:41:14.360   08 Jun 2027 14:42:44.457            90.097            RioGallegos         11262.125
       263   08 Jun 2027 15:23:48.303   08 Jun 2027 15:24:18.118            29.815                Irkutsk          3726.875
       264   08 Jun 2027 15:28:15.749   08 Jun 2027 15:30:46.219           150.470                Irkutsk         18808.750
       265   08 Jun 2027 15:38:43.785   08 Jun 2027 15:41:33.825           170.040                Sumatra         21255.000
       266   08 Jun 2027 16:59:13.997   08 Jun 2027 17:01:25.827           131.830                Novosib         16478.750
       267   08 Jun 2027 17:04:59.756   08 Jun 2027 17:05:04.472             4.716                Novosib           589.500
       268   08 Jun 2027 17:08:40.270   08 Jun 2027 17:09:17.879            37.609                Novosib          4701.125
       269   08 Jun 2027 17:12:51.621   08 Jun 2027 17:14:48.830           117.209                  Delhi         14651.125
       270   08 Jun 2027 18:36:09.239   08 Jun 2027 18:37:41.102            91.863                Novosib         11482.875
       271   08 Jun 2027 18:41:46.316   08 Jun 2027 18:43:53.610           127.294                  Delhi         15911.750
       272   08 Jun 2027 20:12:36.566   08 Jun 2027 20:17:01.414           264.848                 Moscow         31754.000
       273   09 Jun 2027 04:08:39.249   09 Jun 2027 04:10:18.949            99.700              Murmansk1         12462.500
       274   09 Jun 2027 05:18:32.269   09 Jun 2027 05:19:33.992            61.723                Sumatra          7715.375
       275   09 Jun 2027 05:26:19.245   09 Jun 2027 05:26:42.155            22.910                Sumatra          2863.750
       276   09 Jun 2027 05:27:24.583   09 Jun 2027 05:29:22.018           117.435                  Delhi         14679.375
       277   09 Jun 2027 05:44:26.352   09 Jun 2027 05:47:09.318           162.966                 Moscow         20370.750
       278   09 Jun 2027 05:47:17.135   09 Jun 2027 05:51:44.420           267.285              Murmansk2         33410.625
       279   09 Jun 2027 07:12:49.176   09 Jun 2027 07:15:17.796           148.620                Novosib         18577.500
       280   09 Jun 2027 07:20:33.380   09 Jun 2027 07:23:47.005           193.625                 Moscow         24203.125
       281   09 Jun 2027 07:23:47.797   09 Jun 2027 07:27:24.631           216.834              Murmansk1         27104.250
       282   09 Jun 2027 08:50:14.242   09 Jun 2027 08:51:39.136            84.894                 Moscow         10611.750
       283   09 Jun 2027 08:55:16.508   09 Jun 2027 08:59:48.715           272.207                 Moscow         34025.875
       284   09 Jun 2027 08:59:59.452   09 Jun 2027 09:03:20.537           201.085              Murmansk2         25135.625
       285   09 Jun 2027 09:07:54.592   09 Jun 2027 09:09:26.002            91.410                Anadyr2         11426.250
       286   09 Jun 2027 10:06:02.269   09 Jun 2027 10:12:50.789           408.520               CapeTown         51065.000
       287   09 Jun 2027 10:29:52.755   09 Jun 2027 10:31:01.336            68.581              Murmansk2          8572.625
       288   09 Jun 2027 10:31:26.662   09 Jun 2027 10:33:13.570           106.908                 Moscow         13363.500
       289   09 Jun 2027 10:34:32.364   09 Jun 2027 10:36:45.066           132.702              Murmansk2         16587.750
       290   09 Jun 2027 10:36:45.066   09 Jun 2027 10:39:16.836           151.770              Murmansk1         18971.250
       291   09 Jun 2027 10:41:16.869   09 Jun 2027 10:45:13.272           236.403                Anadyr2         29550.375
       292   09 Jun 2027 12:19:54.760   09 Jun 2027 12:20:47.458            52.698               Magadan2          6587.250
       293   09 Jun 2027 12:21:52.031   09 Jun 2027 12:24:18.816           146.785               Magadan2         18348.125
       294   09 Jun 2027 13:58:19.072   09 Jun 2027 13:59:53.220            94.148               Magadan2         11768.500
       295   09 Jun 2027 14:52:38.920   09 Jun 2027 14:53:17.975            39.055            RioGallegos          4881.875
       296   09 Jun 2027 15:35:30.856   09 Jun 2027 15:39:41.959           251.103                Irkutsk         31387.875
       297   09 Jun 2027 15:49:58.523   09 Jun 2027 15:53:23.494           204.971                Sumatra         25621.375
       298   09 Jun 2027 15:56:21.737   09 Jun 2027 15:58:46.116           144.379                Sumatra         18047.375
       299   09 Jun 2027 17:14:33.730   09 Jun 2027 17:15:30.148            56.418                Novosib          7052.250
       300   09 Jun 2027 17:20:06.910   09 Jun 2027 17:23:07.906           180.996                  Delhi         22624.500
       301   09 Jun 2027 18:55:11.898   09 Jun 2027 18:55:18.157             6.259                  Delhi           782.375
       302   09 Jun 2027 18:56:58.827   09 Jun 2027 18:58:49.491           110.664                  Delhi         13833.000
       303   09 Jun 2027 20:24:28.526   09 Jun 2027 20:25:45.564            77.038                 Moscow          9629.750
       304   09 Jun 2027 21:56:46.034   09 Jun 2027 21:56:56.763            10.729              Murmansk2          1341.125
       305   09 Jun 2027 21:59:58.428   09 Jun 2027 22:00:26.292            27.864                 Moscow          1407.876
       306   10 Jun 2027 04:20:47.916   10 Jun 2027 04:20:51.028             3.112                Irkutsk           389.000
       307   10 Jun 2027 04:20:52.848   10 Jun 2027 04:22:26.856            94.008                Norilsk         11751.000
       308   10 Jun 2027 05:30:48.977   10 Jun 2027 05:31:09.852            20.875                Sumatra          2609.375
       309   10 Jun 2027 05:33:00.701   10 Jun 2027 05:35:12.156           131.455                Sumatra         16431.875
       310   10 Jun 2027 05:39:05.500   10 Jun 2027 05:41:35.803           150.303                  Delhi         18787.875
       311   10 Jun 2027 05:56:20.194   10 Jun 2027 05:58:17.855           117.661                Novosib         14707.625
       312   10 Jun 2027 05:58:56.928   10 Jun 2027 05:59:18.962            22.034                 Moscow          2754.250
       313   10 Jun 2027 05:59:19.122   10 Jun 2027 06:03:42.352           263.230              Murmansk1         32903.750
       314   10 Jun 2027 07:22:29.731   10 Jun 2027 07:26:16.666           226.935                  Delhi         28366.875
       315   10 Jun 2027 07:26:22.718   10 Jun 2027 07:28:06.891           104.173                Novosib         13021.625
       316   10 Jun 2027 07:32:13.160   10 Jun 2027 07:35:50.882           217.722                 Moscow         27215.250
       317   10 Jun 2027 07:36:09.094   10 Jun 2027 07:39:25.438           196.344              Murmansk2         24543.000
       318   10 Jun 2027 09:02:14.105   10 Jun 2027 09:04:36.233           142.128                 Moscow         17766.000
       319   10 Jun 2027 09:05:57.246   10 Jun 2027 09:07:15.398            78.152              Murmansk1          9769.000
       320   10 Jun 2027 09:07:21.326   10 Jun 2027 09:11:47.946           266.620                 Moscow         33327.500
       321   10 Jun 2027 09:11:59.489   10 Jun 2027 09:13:26.944            87.455              Murmansk1         10931.875
       322   10 Jun 2027 11:00:47.970   10 Jun 2027 11:02:47.929           119.959                Anadyr1         14994.875
       323   10 Jun 2027 12:32:23.359   10 Jun 2027 12:37:14.466           291.107               Magadan2         36388.375
       324   10 Jun 2027 15:00:00.267   10 Jun 2027 15:00:10.269            10.002            RioGallegos          1250.250
       325   10 Jun 2027 15:03:33.634   10 Jun 2027 15:03:55.892            22.258            RioGallegos          2782.250
       326   10 Jun 2027 15:47:17.846   10 Jun 2027 15:51:38.073           260.227                Irkutsk         32528.375
       327   10 Jun 2027 16:04:29.745   10 Jun 2027 16:05:18.987            49.242                Sumatra          6155.250
       328   10 Jun 2027 16:08:27.626   10 Jun 2027 16:08:41.320            13.694                Sumatra          1711.750
       329   10 Jun 2027 16:10:41.086   10 Jun 2027 16:12:36.964           115.878                Sumatra         14484.750
       330   10 Jun 2027 17:22:56.365   10 Jun 2027 17:27:26.427           270.062                Novosib         33757.750
       331   10 Jun 2027 17:31:25.620   10 Jun 2027 17:34:57.201           211.581                  Delhi         26447.625
       332   10 Jun 2027 19:10:24.858   10 Jun 2027 19:10:43.230            18.372                  Delhi          2296.500
       333   10 Jun 2027 20:36:22.501   10 Jun 2027 20:38:32.030           129.529                 Moscow         15204.375
       334   11 Jun 2027 05:43:13.526   11 Jun 2027 05:44:38.683            85.157                Sumatra         10644.625
       335   11 Jun 2027 05:50:52.256   11 Jun 2027 05:53:45.566           173.310                  Delhi         21663.750
       336   11 Jun 2027 06:08:30.659   11 Jun 2027 06:11:27.335           176.676                 Moscow         22084.500
       337   11 Jun 2027 06:11:43.247   11 Jun 2027 06:15:40.775           237.528              Murmansk1         29691.000
       338   11 Jun 2027 07:36:51.473   11 Jun 2027 07:40:01.362           189.889                Novosib         23736.125
       339   11 Jun 2027 07:44:57.597   11 Jun 2027 07:47:54.287           176.690                 Moscow         22086.250
       340   11 Jun 2027 07:48:10.930   11 Jun 2027 07:51:26.459           195.529              Murmansk1         24441.125
       341   11 Jun 2027 09:14:13.171   11 Jun 2027 09:15:49.603            96.432                 Moscow         12054.000
       342   11 Jun 2027 09:17:58.351   11 Jun 2027 09:19:51.501           113.150              Murmansk2         14143.750
       343   11 Jun 2027 09:19:54.970   11 Jun 2027 09:23:46.289           231.319                 Moscow         28914.875
       344   11 Jun 2027 09:23:49.320   11 Jun 2027 09:26:16.334           147.014              Murmansk2         18376.750
       345   11 Jun 2027 09:26:16.334   11 Jun 2027 09:27:23.932            67.598              Murmansk1          8449.750
       346   11 Jun 2027 09:30:22.889   11 Jun 2027 09:35:38.259           315.370                Anadyr1         39421.250
       347   11 Jun 2027 11:05:13.174   11 Jun 2027 11:06:06.329            53.155                Anadyr2          6644.375
       348   11 Jun 2027 12:43:40.330   11 Jun 2027 12:47:46.972           246.642               Magadan1         30830.250
       349   11 Jun 2027 14:19:13.766   11 Jun 2027 14:19:39.973            26.207               Magadan1          3275.875
       350   11 Jun 2027 14:22:32.070   11 Jun 2027 14:24:06.106            94.036               Magadan2         11754.500
       351   11 Jun 2027 15:11:41.430   11 Jun 2027 15:15:49.957           248.527            RioGallegos         31065.875
       352   11 Jun 2027 16:00:27.020   11 Jun 2027 16:03:22.753           175.733                Irkutsk         21966.625
       353   11 Jun 2027 16:15:07.003   11 Jun 2027 16:17:20.079           133.076                Sumatra         16634.500
       354   11 Jun 2027 17:34:50.701   11 Jun 2027 17:36:46.276           115.575                Novosib         14446.875
       355   11 Jun 2027 17:42:56.570   11 Jun 2027 17:46:50.564           233.994                  Delhi         29249.250
       356   11 Jun 2027 20:46:00.772   11 Jun 2027 20:47:06.424            65.652              Murmansk1          8206.500
       357   11 Jun 2027 20:48:18.082   11 Jun 2027 20:49:56.009            97.927                 Moscow         12240.875
       358   11 Jun 2027 22:48:58.908   11 Jun 2027 22:50:50.915           112.007               CapeTown          1839.750
       359   12 Jun 2027 03:08:59.382   12 Jun 2027 03:09:58.178            58.796                Novosib          7349.500
       360   12 Jun 2027 03:09:59.134   12 Jun 2027 03:12:08.454           129.320                Norilsk         16165.000
       361   12 Jun 2027 04:18:53.578   12 Jun 2027 04:23:22.735           269.157                Sumatra         33644.625
       362   12 Jun 2027 04:44:45.188   12 Jun 2027 04:46:24.164            98.976                Novosib         12372.000
       363   12 Jun 2027 04:46:31.458   12 Jun 2027 04:49:51.507           200.049                Norilsk         25006.125
       364   12 Jun 2027 04:49:53.856   12 Jun 2027 04:52:18.250           144.394              Murmansk2         18049.250
       365   12 Jun 2027 06:05:51.769   12 Jun 2027 06:15:28.842           577.073                  Delhi         72134.125
       366   12 Jun 2027 06:15:29.783   12 Jun 2027 06:16:27.113            57.330                 Moscow          7166.250
       367   12 Jun 2027 06:20:27.984   12 Jun 2027 06:23:34.743           186.759                 Moscow         23344.875
       368   12 Jun 2027 06:23:41.900   12 Jun 2027 06:27:39.649           237.749              Murmansk2         29718.625
       369   12 Jun 2027 07:49:47.726   12 Jun 2027 07:51:43.951           116.225                Novosib         14528.125
       370   12 Jun 2027 07:55:56.133   12 Jun 2027 07:56:31.390            35.257                Novosib          4407.125
       371   12 Jun 2027 07:57:26.255   12 Jun 2027 07:59:57.665           151.410                Norilsk         18926.250
       372   12 Jun 2027 08:00:06.688   12 Jun 2027 08:03:27.660           200.972              Murmansk1         25121.500
       373   12 Jun 2027 09:07:30.554   12 Jun 2027 09:09:28.250           117.696               CapeTown         14712.000
       374   12 Jun 2027 09:26:11.322   12 Jun 2027 09:26:49.277            37.955                 Moscow          4744.375
       375   12 Jun 2027 09:29:59.610   12 Jun 2027 09:31:57.611           118.001              Murmansk1         14750.125
       376   12 Jun 2027 09:32:02.037   12 Jun 2027 09:35:43.595           221.558                 Moscow         27694.750
       377   12 Jun 2027 09:35:50.994   12 Jun 2027 09:39:25.574           214.580              Murmansk1         26822.500
       378   12 Jun 2027 09:42:05.759   12 Jun 2027 09:49:12.856           427.097                Anadyr2         53387.125
       379   12 Jun 2027 10:43:54.606   12 Jun 2027 10:47:41.715           227.109               CapeTown         28388.625
       380   12 Jun 2027 11:20:41.656   12 Jun 2027 11:21:59.565            77.909                Anadyr2          9738.625
       381   12 Jun 2027 12:55:35.725   12 Jun 2027 13:00:29.946           294.221               Magadan2         36777.625
       382   12 Jun 2027 14:34:34.701   12 Jun 2027 14:36:07.004            92.303               Magadan2         11537.875
       383   12 Jun 2027 15:23:27.440   12 Jun 2027 15:24:01.304            33.864            RioGallegos          4233.000
       384   12 Jun 2027 15:26:22.761   12 Jun 2027 15:27:45.773            83.012            RioGallegos         10376.500
       385   12 Jun 2027 16:11:00.720   12 Jun 2027 16:13:40.314           159.594                Irkutsk         19949.250
       386   12 Jun 2027 16:24:46.362   12 Jun 2027 16:29:26.846           280.484                Sumatra         35060.500
       387   12 Jun 2027 17:54:35.561   12 Jun 2027 17:58:47.549           251.988                  Delhi         31498.500
       388   12 Jun 2027 20:56:52.855   12 Jun 2027 20:57:11.238            18.383              Murmansk2          2297.875
       389   12 Jun 2027 20:57:44.279   12 Jun 2027 20:58:38.727            54.448              Murmansk2          6806.000
       390   12 Jun 2027 21:00:14.980   12 Jun 2027 21:01:32.340            77.360                 Moscow          9670.000
       391   12 Jun 2027 21:33:34.015   12 Jun 2027 21:33:57.666            23.651               CapeTown          2956.375
       392   13 Jun 2027 03:21:06.975   13 Jun 2027 03:22:05.408            58.433                Novosib          7304.125
       393   13 Jun 2027 03:22:10.674   13 Jun 2027 03:27:25.683           315.009              Murmansk1         39376.125
       394   13 Jun 2027 04:30:40.721   13 Jun 2027 04:33:31.419           170.698                Sumatra         21337.250
       395   13 Jun 2027 04:56:53.885   13 Jun 2027 04:58:11.681            77.796                 Moscow          9724.500
       396   13 Jun 2027 04:58:16.639   13 Jun 2027 04:58:26.985            10.346                Novosib          1293.250
       397   13 Jun 2027 04:58:35.965   13 Jun 2027 05:01:53.204           197.239                Norilsk         24654.875
       398   13 Jun 2027 05:01:54.751   13 Jun 2027 05:04:13.150           138.399              Murmansk1         17299.875
       399   13 Jun 2027 06:22:18.879   13 Jun 2027 06:27:29.097           310.218                  Delhi         38777.250
       400   13 Jun 2027 06:27:29.210   13 Jun 2027 06:28:01.729            32.519              Murmansk1          4064.875
       401   13 Jun 2027 06:28:07.699   13 Jun 2027 06:28:28.688            20.989                 Moscow          2623.625
       402   13 Jun 2027 06:32:42.768   13 Jun 2027 06:35:41.366           178.598                 Moscow         22324.750
       403   13 Jun 2027 06:36:02.988   13 Jun 2027 06:39:38.933           215.945              Murmansk1         26993.125
       404   13 Jun 2027 08:09:28.096   13 Jun 2027 08:13:40.645           252.549                Norilsk         31568.625
       405   13 Jun 2027 08:13:47.540   13 Jun 2027 08:15:29.009           101.469              Murmansk1         12683.625
       406   13 Jun 2027 09:19:58.855   13 Jun 2027 09:22:44.194           165.339               CapeTown         20667.375
       407   13 Jun 2027 09:42:01.014   13 Jun 2027 09:43:46.381           105.367              Murmansk1         13170.875
       408   13 Jun 2027 09:44:08.380   13 Jun 2027 09:45:11.677            63.297                 Moscow          7912.125
       409   13 Jun 2027 09:46:42.923   13 Jun 2027 09:51:27.131           284.208              Murmansk1         35526.000
       410   13 Jun 2027 09:53:53.963   13 Jun 2027 10:01:58.987           485.024                Anadyr2         60628.000
       411   13 Jun 2027 10:56:14.714   13 Jun 2027 11:01:19.495           304.781               CapeTown         38097.625
       412   13 Jun 2027 11:19:43.538   13 Jun 2027 11:27:15.364           451.826              Murmansk2         56478.250
       413   13 Jun 2027 11:29:12.061   13 Jun 2027 11:41:22.104           730.043                Anadyr2         91255.375
       414   13 Jun 2027 13:05:04.517   13 Jun 2027 13:06:11.476            66.959                Anadyr2          8369.875
       415   13 Jun 2027 13:07:32.371   13 Jun 2027 13:12:40.597           308.226               Magadan2         38528.250
       416   13 Jun 2027 15:35:16.925   13 Jun 2027 15:40:53.829           336.904            RioGallegos         42113.000
       417   13 Jun 2027 16:22:55.332   13 Jun 2027 16:24:51.606           116.274                Irkutsk         14534.250
       418   13 Jun 2027 16:36:36.575   13 Jun 2027 16:39:36.279           179.704                Sumatra         22463.000
       419   13 Jun 2027 17:58:43.717   13 Jun 2027 17:59:57.615            73.898                Novosib          9237.250
       420   13 Jun 2027 18:06:20.497   13 Jun 2027 18:08:34.602           134.105                  Delhi         16763.125
       421   13 Jun 2027 19:44:54.896   13 Jun 2027 19:45:31.091            36.195                 Moscow          4524.375
       422   13 Jun 2027 21:14:49.587   13 Jun 2027 21:16:59.500           129.913                 Moscow         16239.125
       423   13 Jun 2027 21:36:20.705   13 Jun 2027 21:39:05.934           165.229               CapeTown         17518.250
