uniorb/output/strategy_4/Drop/Drop_KinoSat_112010.txt

KinoSat_112010
-------------------------
    Access    *     Start Time (UTCG)     *     Stop Time (UTCG)  *   Duration (s)        *       Station  *  Data (Mbytes)
         1   01 Jun 2027 03:47:08.155   01 Jun 2027 03:48:06.603            58.448                Norilsk          1826.500
         2   01 Jun 2027 03:48:12.319   01 Jun 2027 03:49:27.077            74.758                Norilsk          2336.188
         3   01 Jun 2027 03:49:35.721   01 Jun 2027 03:50:44.730            69.009              Murmansk2          2156.531
         4   01 Jun 2027 03:50:50.910   01 Jun 2027 03:51:24.606            33.696                Novosib          1053.000
         5   01 Jun 2027 03:51:28.686   01 Jun 2027 03:51:51.442            22.756                Norilsk           711.125
         6   01 Jun 2027 03:51:55.760   01 Jun 2027 03:53:53.138           117.378                Norilsk          3668.063
         7   01 Jun 2027 03:54:07.391   01 Jun 2027 03:55:41.780            94.389                Irkutsk          2949.656
         8   01 Jun 2027 03:55:51.198   01 Jun 2027 03:56:26.362            35.164                  Delhi          1098.875
         9   01 Jun 2027 04:01:03.126   01 Jun 2027 04:01:44.263            41.137                  Delhi          1285.531
        10   01 Jun 2027 04:34:47.763   01 Jun 2027 04:38:28.503           220.740            RioGallegos          6898.125
        11   01 Jun 2027 05:25:04.383   01 Jun 2027 05:26:05.204            60.821              Murmansk2          1900.656
        12   01 Jun 2027 05:26:22.976   01 Jun 2027 05:29:15.250           172.274                Norilsk          5383.562
        13   01 Jun 2027 05:29:16.148   01 Jun 2027 05:30:36.331            80.183                Novosib          2505.719
        14   01 Jun 2027 07:03:13.623   01 Jun 2027 07:03:45.937            32.314              Murmansk1          1009.812
        15   01 Jun 2027 07:03:49.456   01 Jun 2027 07:04:54.269            64.813                 Moscow          2025.406
        16   01 Jun 2027 07:05:07.933   01 Jun 2027 07:05:42.894            34.961                 Moscow          1092.531
        17   01 Jun 2027 07:05:49.148   01 Jun 2027 07:07:55.211           126.063              Murmansk1          3939.469
        18   01 Jun 2027 07:08:53.394   01 Jun 2027 07:09:17.391            23.997                 Moscow           749.906
        19   01 Jun 2027 07:22:17.527   01 Jun 2027 07:25:14.104           176.577               CapeTown          5518.031
        20   01 Jun 2027 07:29:19.430   01 Jun 2027 07:31:31.646           132.216               CapeTown          4131.750
        21   01 Jun 2027 08:26:06.026   01 Jun 2027 08:29:54.116           228.090                Anadyr2          7127.813
        22   01 Jun 2027 09:57:55.340   01 Jun 2027 09:58:33.787            38.447                Anadyr1          1201.469
        23   01 Jun 2027 10:01:36.113   01 Jun 2027 10:03:45.249           129.136                Anadyr1          4035.500
        24   01 Jun 2027 10:04:59.165   01 Jun 2027 10:07:27.439           148.274                Anadyr2          4633.563
        25   01 Jun 2027 11:32:29.763   01 Jun 2027 11:33:07.384            37.621               Magadan1          1175.656
        26   01 Jun 2027 11:33:21.865   01 Jun 2027 11:33:46.023            24.158               Magadan2           754.937
        27   01 Jun 2027 11:36:51.858   01 Jun 2027 11:42:30.531           338.673               Magadan1         10583.531
        28   01 Jun 2027 14:33:08.628   01 Jun 2027 14:35:17.957           129.329                Sumatra          4041.531
        29   01 Jun 2027 14:44:46.450   01 Jun 2027 14:51:11.921           385.471                Irkutsk         12045.969
        30   01 Jun 2027 16:14:57.009   01 Jun 2027 16:21:37.071           400.062                  Delhi         12501.938
        31   01 Jun 2027 16:24:45.563   01 Jun 2027 16:29:45.979           300.416                Novosib          9388.000
        32   01 Jun 2027 19:37:32.855   01 Jun 2027 19:44:31.877           419.022                 Moscow         13094.437
        33   01 Jun 2027 20:50:21.752   01 Jun 2027 20:52:49.375           147.623               CapeTown          4613.219
        34   01 Jun 2027 21:20:08.773   01 Jun 2027 21:24:38.344           269.571              Murmansk1          8424.094
        35   02 Jun 2027 02:35:40.014   02 Jun 2027 02:42:06.485           386.471                Sumatra         12077.219
        36   02 Jun 2027 03:59:39.140   02 Jun 2027 04:01:18.719            99.579                Irkutsk          3111.844
        37   02 Jun 2027 04:01:19.363   02 Jun 2027 04:01:38.428            19.065                Norilsk           595.781
        38   02 Jun 2027 04:01:46.951   02 Jun 2027 04:02:21.863            34.912                 Moscow          1091.000
        39   02 Jun 2027 04:02:35.918   02 Jun 2027 04:07:14.452           278.534                Irkutsk          8704.187
        40   02 Jun 2027 04:07:23.979   02 Jun 2027 04:09:31.142           127.163                Novosib          3973.844
        41   02 Jun 2027 04:09:56.719   02 Jun 2027 04:16:25.324           388.605                  Delhi         12143.906
        42   02 Jun 2027 04:47:50.242   02 Jun 2027 04:49:34.120           103.878            RioGallegos          3246.188
        43   02 Jun 2027 05:38:57.260   02 Jun 2027 05:42:43.432           226.172                Novosib          7067.875
        44   02 Jun 2027 07:15:59.499   02 Jun 2027 07:18:51.834           172.335                 Moscow          5385.469
        45   02 Jun 2027 07:19:35.487   02 Jun 2027 07:20:07.886            32.399                 Moscow          1012.469
        46   02 Jun 2027 07:20:36.461   02 Jun 2027 07:22:31.687           115.226                 Moscow          3600.813
        47   02 Jun 2027 07:39:35.924   02 Jun 2027 07:42:50.452           194.528               CapeTown          6079.000
        48   02 Jun 2027 08:38:06.761   02 Jun 2027 08:39:34.544            87.783                Anadyr1          2743.219
        49   02 Jun 2027 10:09:45.376   02 Jun 2027 10:09:52.541             7.165                Anadyr2           223.906
        50   02 Jun 2027 10:14:16.116   02 Jun 2027 10:14:52.880            36.764                Anadyr1          1148.875
        51   02 Jun 2027 10:16:19.560   02 Jun 2027 10:17:24.876            65.316               Magadan2          2041.125
        52   02 Jun 2027 11:45:15.640   02 Jun 2027 11:47:04.298           108.658               Magadan2          3395.563
        53   02 Jun 2027 11:48:37.889   02 Jun 2027 11:50:51.412           133.523               Magadan2          4172.594
        54   02 Jun 2027 11:51:11.781   02 Jun 2027 11:54:43.367           211.586               Magadan2          6612.062
        55   02 Jun 2027 11:55:02.737   02 Jun 2027 11:55:26.485            23.748                Norilsk           742.125
        56   02 Jun 2027 12:02:15.732   02 Jun 2027 12:02:57.023            41.291              Murmansk1          1290.344
        57   02 Jun 2027 12:31:08.578   02 Jun 2027 12:31:30.359            21.781            RioGallegos           680.656
        58   02 Jun 2027 12:34:39.929   02 Jun 2027 12:36:59.032           139.103            RioGallegos          4346.969
        59   02 Jun 2027 13:08:39.315   02 Jun 2027 13:09:09.563            30.248                Sumatra           945.250
        60   02 Jun 2027 13:14:33.345   02 Jun 2027 13:15:26.052            52.707                Sumatra          1647.094
        61   02 Jun 2027 13:18:21.776   02 Jun 2027 13:19:23.180            61.404                Irkutsk          1918.875
        62   02 Jun 2027 13:21:31.573   02 Jun 2027 13:22:40.668            69.095                Irkutsk          2159.219
        63   02 Jun 2027 13:24:23.768   02 Jun 2027 13:24:33.422             9.654                Norilsk           301.687
        64   02 Jun 2027 13:25:40.495   02 Jun 2027 13:25:54.768            14.273                Irkutsk           446.031
        65   02 Jun 2027 13:32:20.944   02 Jun 2027 13:32:45.593            24.649                Norilsk           770.281
        66   02 Jun 2027 13:35:34.997   02 Jun 2027 13:36:00.648            25.651                Norilsk           801.594
        67   02 Jun 2027 13:37:47.919   02 Jun 2027 13:38:31.859            43.940              Murmansk1          1373.125
        68   02 Jun 2027 14:07:43.903   02 Jun 2027 14:10:36.632           172.729            RioGallegos          5397.781
        69   02 Jun 2027 14:13:03.352   02 Jun 2027 14:13:39.751            36.399            RioGallegos          1137.469
        70   02 Jun 2027 14:41:58.580   02 Jun 2027 14:49:39.365           460.785                Sumatra         14399.531
        71   02 Jun 2027 14:51:18.887   02 Jun 2027 14:51:31.546            12.659                Sumatra           395.594
        72   02 Jun 2027 14:58:42.813   02 Jun 2027 15:05:35.895           413.082                Irkutsk         12908.813
        73   02 Jun 2027 16:27:20.310   02 Jun 2027 16:35:28.554           488.244                  Delhi         15257.625
        74   02 Jun 2027 16:35:50.456   02 Jun 2027 16:42:55.557           425.101                Novosib         13284.406
        75   02 Jun 2027 19:50:14.361   02 Jun 2027 19:55:59.082           344.721                 Moscow         10772.531
        76   02 Jun 2027 19:55:59.845   02 Jun 2027 19:57:46.596           106.751              Murmansk2          3335.969
        77   02 Jun 2027 21:01:11.580   02 Jun 2027 21:06:08.341           296.761               CapeTown          9273.781
        78   02 Jun 2027 21:33:23.279   02 Jun 2027 21:36:08.918           165.639              Murmansk1          5176.219
        79   03 Jun 2027 00:09:41.628   03 Jun 2027 00:10:04.516            22.888            RioGallegos           715.250
        80   03 Jun 2027 00:12:01.369   03 Jun 2027 00:12:48.507            47.138            RioGallegos          1473.062
        81   03 Jun 2027 00:18:01.234   03 Jun 2027 00:18:17.475            16.241            RioGallegos           507.531
        82   03 Jun 2027 00:50:51.840   03 Jun 2027 00:51:36.421            44.581                Anadyr1          1393.156
        83   03 Jun 2027 00:51:56.756   03 Jun 2027 00:51:58.355             1.599                Anadyr2            49.969
        84   03 Jun 2027 00:52:17.940   03 Jun 2027 00:52:38.771            20.831                Anadyr1           650.969
        85   03 Jun 2027 00:53:01.403   03 Jun 2027 00:53:33.968            32.565                Norilsk          1017.656
        86   03 Jun 2027 00:53:39.281   03 Jun 2027 00:53:39.756             0.475                Norilsk            14.844
        87   03 Jun 2027 00:53:50.229   03 Jun 2027 00:54:56.331            66.102               Magadan2          2065.688
        88   03 Jun 2027 00:55:34.428   03 Jun 2027 00:56:14.796            40.368               Magadan2          1261.500
        89   03 Jun 2027 00:56:57.220   03 Jun 2027 00:57:30.199            32.979               Magadan1          1030.594
        90   03 Jun 2027 00:57:39.664   03 Jun 2027 00:58:54.405            74.741                Irkutsk          2335.656
        91   03 Jun 2027 00:59:19.928   03 Jun 2027 00:59:53.946            34.018                Novosib          1063.062
        92   03 Jun 2027 01:00:25.554   03 Jun 2027 01:00:56.804            31.250                Novosib           976.562
        93   03 Jun 2027 01:04:02.774   03 Jun 2027 01:04:09.398             6.624                Novosib           207.000
        94   03 Jun 2027 01:11:02.724   03 Jun 2027 01:13:36.380           153.656                Sumatra          4801.750
        95   03 Jun 2027 01:44:55.582   03 Jun 2027 01:45:05.182             9.600            RioGallegos           300.000
        96   03 Jun 2027 01:48:13.652   03 Jun 2027 01:48:33.491            19.839            RioGallegos           619.969
        97   03 Jun 2027 01:49:01.600   03 Jun 2027 01:50:05.267            63.667            RioGallegos          1989.594
        98   03 Jun 2027 01:55:19.370   03 Jun 2027 01:55:28.923             9.553            RioGallegos           298.531
        99   03 Jun 2027 02:25:38.624   03 Jun 2027 02:26:16.261            37.637                Anadyr1          1176.156
       100   03 Jun 2027 02:27:57.754   03 Jun 2027 02:27:59.004             1.250                Anadyr1            39.063
       101   03 Jun 2027 02:28:59.316   03 Jun 2027 02:30:26.857            87.541                Norilsk          2735.656
       102   03 Jun 2027 02:32:52.274   03 Jun 2027 02:35:19.169           146.895                Irkutsk          4590.469
       103   03 Jun 2027 02:38:05.947   03 Jun 2027 02:38:10.334             4.387                Novosib           137.094
       104   03 Jun 2027 02:38:28.308   03 Jun 2027 02:38:32.715             4.407                Novosib           137.719
       105   03 Jun 2027 02:38:48.487   03 Jun 2027 02:39:25.649            37.162                Irkutsk          1161.312
       106   03 Jun 2027 02:44:00.282   03 Jun 2027 02:44:39.618            39.336                Novosib          1229.250
       107   03 Jun 2027 02:48:20.830   03 Jun 2027 02:57:07.138           526.308                Sumatra         16447.125
       108   03 Jun 2027 04:11:55.125   03 Jun 2027 04:13:15.406            80.281                Irkutsk          2508.781
       109   03 Jun 2027 04:13:26.829   03 Jun 2027 04:18:43.410           316.581                Irkutsk          9893.156
       110   03 Jun 2027 04:19:30.147   03 Jun 2027 04:20:45.025            74.878                Novosib          2339.938
       111   03 Jun 2027 04:21:24.589   03 Jun 2027 04:21:25.141             0.552                Novosib            17.250
       112   03 Jun 2027 04:26:45.179   03 Jun 2027 04:28:06.638            81.459                  Delhi          2545.594
       113   03 Jun 2027 05:50:54.171   03 Jun 2027 05:54:43.515           229.344                Novosib          7167.000
       114   03 Jun 2027 05:56:04.850   03 Jun 2027 05:57:05.019            60.169                 Moscow          1880.281
       115   03 Jun 2027 05:57:05.334   03 Jun 2027 05:57:25.022            19.688                 Moscow           615.250
       116   03 Jun 2027 06:10:53.537   03 Jun 2027 06:13:49.397           175.860               CapeTown          5495.625
       117   03 Jun 2027 06:18:04.616   03 Jun 2027 06:18:29.171            24.555               CapeTown           767.344
       118   03 Jun 2027 07:14:40.670   03 Jun 2027 07:16:02.560            81.890                Anadyr1          2559.063
       119   03 Jun 2027 07:25:57.650   03 Jun 2027 07:26:20.288            22.638                Norilsk           707.438
       120   03 Jun 2027 07:26:49.093   03 Jun 2027 07:26:58.393             9.300                Norilsk           290.625
       121   03 Jun 2027 07:28:04.081   03 Jun 2027 07:28:19.016            14.935              Murmansk1           466.719
       122   03 Jun 2027 07:28:25.429   03 Jun 2027 07:28:41.441            16.012              Murmansk1           500.375
       123   03 Jun 2027 07:33:22.493   03 Jun 2027 07:33:29.106             6.613                 Moscow           206.656
       124   03 Jun 2027 07:46:54.857   03 Jun 2027 07:48:40.563           105.706               CapeTown          3303.313
       125   03 Jun 2027 07:51:59.219   03 Jun 2027 07:52:21.837            22.618               CapeTown           706.812
       126   03 Jun 2027 08:48:48.116   03 Jun 2027 08:49:17.609            29.493               Magadan1           921.656
       127   03 Jun 2027 08:49:27.221   03 Jun 2027 08:49:51.352            24.131               Magadan2           754.094
       128   03 Jun 2027 08:50:07.094   03 Jun 2027 08:51:28.239            81.145                Anadyr1          2535.781
       129   03 Jun 2027 08:51:38.139   03 Jun 2027 08:52:29.452            51.313               Magadan1          1603.531
       130   03 Jun 2027 08:52:51.614   03 Jun 2027 08:53:10.357            18.743                Anadyr2           585.719
       131   03 Jun 2027 10:24:01.414   03 Jun 2027 10:25:40.824            99.410               Magadan2          3106.563
       132   03 Jun 2027 10:26:40.886   03 Jun 2027 10:27:59.689            78.803               Magadan1          2462.594
       133   03 Jun 2027 10:28:21.576   03 Jun 2027 10:28:31.124             9.548               Magadan2           298.375
       134   03 Jun 2027 10:29:21.478   03 Jun 2027 10:31:25.266           123.788               Magadan1          3868.375
       135   03 Jun 2027 11:57:43.571   03 Jun 2027 12:03:55.107           371.536               Magadan2         11610.500
       136   03 Jun 2027 13:37:04.422   03 Jun 2027 13:37:14.212             9.790                Irkutsk           305.937
       137   03 Jun 2027 13:38:02.246   03 Jun 2027 13:38:04.119             1.873                Novosib            58.531
       138   03 Jun 2027 13:38:23.464   03 Jun 2027 13:39:03.003            39.539                Novosib          1235.594
       139   03 Jun 2027 13:40:07.170   03 Jun 2027 13:42:00.256           113.086                Irkutsk          3533.938
       140   03 Jun 2027 14:20:24.537   03 Jun 2027 14:26:57.661           393.124            RioGallegos         12285.125
       141   03 Jun 2027 14:54:47.969   03 Jun 2027 15:02:37.635           469.666                Sumatra         14677.063
       142   03 Jun 2027 15:10:36.601   03 Jun 2027 15:17:04.425           387.824                Irkutsk         12119.500
       143   03 Jun 2027 16:40:36.619   03 Jun 2027 16:46:26.098           349.479                  Delhi         10921.219
       144   03 Jun 2027 16:49:00.835   03 Jun 2027 16:54:19.087           318.252                Novosib          9945.375
       145   03 Jun 2027 20:03:52.928   03 Jun 2027 20:06:56.938           184.010                 Moscow          5750.312
       146   03 Jun 2027 20:07:47.555   03 Jun 2027 20:09:30.017           102.462              Murmansk1          3201.938
       147   03 Jun 2027 21:12:31.908   03 Jun 2027 21:19:50.781           438.873               CapeTown         13714.781
       148   03 Jun 2027 23:36:25.774   03 Jun 2027 23:37:33.103            67.329                Irkutsk          2104.031
       149   04 Jun 2027 00:21:31.426   04 Jun 2027 00:24:54.696           203.270            RioGallegos          6352.188
       150   04 Jun 2027 00:30:39.148   04 Jun 2027 00:30:59.523            20.375            RioGallegos           636.719
       151   04 Jun 2027 01:02:48.587   04 Jun 2027 01:03:46.667            58.080                Anadyr1          1815.000
       152   04 Jun 2027 01:04:15.881   04 Jun 2027 01:04:39.640            23.759                Anadyr2           742.469
       153   04 Jun 2027 01:05:02.575   04 Jun 2027 01:07:04.462           121.887                Norilsk          3808.969
       154   04 Jun 2027 01:07:23.482   04 Jun 2027 01:07:30.958             7.476               Magadan2           233.625
       155   04 Jun 2027 01:07:44.093   04 Jun 2027 01:08:56.549            72.456               Magadan2          2264.250
       156   04 Jun 2027 01:09:09.919   04 Jun 2027 01:10:14.255            64.336                Irkutsk          2010.500
       157   04 Jun 2027 01:13:05.942   04 Jun 2027 01:13:16.271            10.329                Novosib           322.781
       158   04 Jun 2027 01:13:20.135   04 Jun 2027 01:14:43.145            83.010                Novosib          2594.063
       159   04 Jun 2027 01:22:52.589   04 Jun 2027 01:25:50.349           177.760                Sumatra          5555.000
       160   04 Jun 2027 02:06:24.340   04 Jun 2027 02:06:34.335             9.995            RioGallegos           312.344
       161   04 Jun 2027 02:07:03.083   04 Jun 2027 02:07:07.150             4.067            RioGallegos           127.094
       162   04 Jun 2027 02:37:26.029   04 Jun 2027 02:38:00.476            34.447                Anadyr1          1076.469
       163   04 Jun 2027 02:38:17.644   04 Jun 2027 02:39:03.228            45.584                Anadyr1          1424.500
       164   04 Jun 2027 02:41:01.823   04 Jun 2027 02:42:16.911            75.088                Norilsk          2346.500
       165   04 Jun 2027 02:44:55.923   04 Jun 2027 02:47:21.776           145.853                Irkutsk          4557.906
       166   04 Jun 2027 02:50:36.159   04 Jun 2027 02:51:02.748            26.589                Irkutsk           830.906
       167   04 Jun 2027 02:52:40.238   04 Jun 2027 02:53:04.274            24.036                Irkutsk           751.125
       168   04 Jun 2027 02:56:57.860   04 Jun 2027 02:58:47.177           109.317                  Delhi          3416.156
       169   04 Jun 2027 03:01:22.176   04 Jun 2027 03:08:00.808           398.632                Sumatra         12457.250
       170   04 Jun 2027 04:23:11.214   04 Jun 2027 04:24:12.665            61.451                Irkutsk          1920.344
       171   04 Jun 2027 04:24:28.050   04 Jun 2027 04:29:00.702           272.652                Irkutsk          8520.375
       172   04 Jun 2027 06:04:42.897   04 Jun 2027 06:05:35.608            52.711                 Moscow          1647.219
       173   04 Jun 2027 06:05:53.846   04 Jun 2027 06:06:02.474             8.628              Murmansk2           269.625
       174   04 Jun 2027 06:06:05.522   04 Jun 2027 06:06:10.414             4.892                 Moscow           152.875
       175   04 Jun 2027 06:06:21.632   04 Jun 2027 06:06:48.110            26.478                 Moscow           827.437
       176   04 Jun 2027 06:09:11.155   04 Jun 2027 06:09:26.283            15.128                 Moscow           472.750
       177   04 Jun 2027 06:09:51.728   04 Jun 2027 06:10:01.885            10.157                 Moscow           317.406
       178   04 Jun 2027 06:10:32.598   04 Jun 2027 06:11:04.868            32.270                 Moscow          1008.438
       179   04 Jun 2027 06:22:37.724   04 Jun 2027 06:24:53.530           135.806               CapeTown          4243.937
       180   04 Jun 2027 07:25:45.257   04 Jun 2027 07:26:16.498            31.241                Anadyr1           976.281
       181   04 Jun 2027 07:26:17.846   04 Jun 2027 07:26:59.490            41.644                Anadyr2          1301.375
       182   04 Jun 2027 07:27:13.275   04 Jun 2027 07:27:17.995             4.720               Magadan1           147.500
       183   04 Jun 2027 07:28:02.942   04 Jun 2027 07:28:36.153            33.211                Anadyr2          1037.844
       184   04 Jun 2027 07:29:17.984   04 Jun 2027 07:30:07.696            49.712                Anadyr2          1553.500
       185   04 Jun 2027 07:37:36.657   04 Jun 2027 07:37:59.530            22.873                Norilsk           714.781
       186   04 Jun 2027 07:38:17.858   04 Jun 2027 07:38:28.145            10.287                Norilsk           321.469
       187   04 Jun 2027 07:40:01.088   04 Jun 2027 07:40:07.176             6.088              Murmansk2           190.250
       188   04 Jun 2027 07:40:15.545   04 Jun 2027 07:40:52.994            37.449                 Moscow          1170.281
       189   04 Jun 2027 07:59:24.351   04 Jun 2027 08:05:25.432           361.081               CapeTown         11283.781
       190   04 Jun 2027 08:59:56.102   04 Jun 2027 09:00:21.991            25.889               Magadan2           809.031
       191   04 Jun 2027 09:00:31.146   04 Jun 2027 09:01:03.358            32.212               Magadan1          1006.625
       192   04 Jun 2027 09:01:05.902   04 Jun 2027 09:01:12.760             6.858               Magadan2           214.313
       193   04 Jun 2027 09:01:53.619   04 Jun 2027 09:03:37.412           103.793               Magadan2          3243.531
       194   04 Jun 2027 09:04:23.431   04 Jun 2027 09:04:35.125            11.694               Magadan1           365.438
       195   04 Jun 2027 09:05:44.933   04 Jun 2027 09:06:33.190            48.257               Magadan1          1508.031
       196   04 Jun 2027 09:47:45.945   04 Jun 2027 09:48:06.777            20.832            RioGallegos           651.000
       197   04 Jun 2027 10:35:14.612   04 Jun 2027 10:35:36.100            21.488               Magadan2           671.500
       198   04 Jun 2027 10:35:37.743   04 Jun 2027 10:37:33.904           116.161               Magadan1          3630.031
       199   04 Jun 2027 10:38:24.051   04 Jun 2027 10:39:31.575            67.524               Magadan2          2110.125
       200   04 Jun 2027 10:40:29.568   04 Jun 2027 10:40:35.028             5.460               Magadan2           170.625
       201   04 Jun 2027 10:40:45.679   04 Jun 2027 10:41:02.236            16.557               Magadan2           517.406
       202   04 Jun 2027 10:41:14.752   04 Jun 2027 10:41:16.820             2.068                Norilsk            64.625
       203   04 Jun 2027 10:41:18.398   04 Jun 2027 10:43:24.930           126.532               Magadan1          3954.125
       204   04 Jun 2027 12:06:47.038   04 Jun 2027 12:07:52.004            64.966                Irkutsk          2030.187
       205   04 Jun 2027 12:08:01.956   04 Jun 2027 12:08:06.174             4.218                Irkutsk           131.812
       206   04 Jun 2027 12:09:34.745   04 Jun 2027 12:10:20.992            46.247                Irkutsk          1445.219
       207   04 Jun 2027 12:10:30.155   04 Jun 2027 12:17:25.100           414.945               Magadan1         12967.031
       208   04 Jun 2027 13:52:16.159   04 Jun 2027 13:52:38.263            22.104                Norilsk           690.750
       209   04 Jun 2027 13:56:01.529   04 Jun 2027 13:56:05.038             3.509                Novosib           109.656
       210   04 Jun 2027 13:57:45.389   04 Jun 2027 13:57:57.440            12.051                Norilsk           376.594
       211   04 Jun 2027 13:58:24.832   04 Jun 2027 13:59:26.407            61.575                Norilsk          1924.219
       212   04 Jun 2027 14:33:14.683   04 Jun 2027 14:41:06.738           472.055            RioGallegos         14751.719
       213   04 Jun 2027 15:08:08.555   04 Jun 2027 15:13:11.538           302.983                Sumatra          9468.219
       214   04 Jun 2027 15:24:03.766   04 Jun 2027 15:28:10.565           246.799                Irkutsk          7712.469
       215   04 Jun 2027 17:02:57.658   04 Jun 2027 17:04:59.387           121.729                Novosib          3804.031
       216   04 Jun 2027 17:06:07.248   04 Jun 2027 17:06:57.896            50.648                Norilsk          1582.750
       217   04 Jun 2027 19:46:49.880   04 Jun 2027 19:49:21.219           151.339               CapeTown          4729.344
       218   04 Jun 2027 20:16:39.163   04 Jun 2027 20:17:51.051            71.888              Murmansk1          2246.500
       219   04 Jun 2027 20:18:16.733   04 Jun 2027 20:22:13.262           236.529              Murmansk2          7391.531
       220   04 Jun 2027 20:23:09.848   04 Jun 2027 20:25:32.890           143.042              Murmansk1          4470.062
       221   04 Jun 2027 21:25:25.820   04 Jun 2027 21:30:33.918           308.098               CapeTown          9628.063
       222   04 Jun 2027 22:09:01.751   04 Jun 2027 22:09:37.753            36.002               Magadan1          1125.062
       223   04 Jun 2027 23:39:15.237   04 Jun 2027 23:43:58.414           283.177                Anadyr2          8849.281
       224   04 Jun 2027 23:44:21.958   04 Jun 2027 23:44:49.402            27.444                Norilsk           857.625
       225   04 Jun 2027 23:44:58.345   04 Jun 2027 23:46:14.343            75.998               Magadan2          2374.937
       226   04 Jun 2027 23:47:03.339   04 Jun 2027 23:47:09.451             6.112               Magadan1           191.000
       227   04 Jun 2027 23:47:17.370   04 Jun 2027 23:48:10.993            53.623                Irkutsk          1675.719
       228   04 Jun 2027 23:49:15.849   04 Jun 2027 23:50:25.567            69.718                Irkutsk          2178.688
       229   04 Jun 2027 23:52:26.052   04 Jun 2027 23:52:30.014             3.962                Irkutsk           123.813
       230   05 Jun 2027 00:05:08.009   05 Jun 2027 00:06:17.043            69.034                Sumatra          2157.312
       231   05 Jun 2027 00:33:23.937   05 Jun 2027 00:35:34.577           130.640            RioGallegos          4082.500
       232   05 Jun 2027 00:36:45.846   05 Jun 2027 00:37:01.903            16.057            RioGallegos           501.781
       233   05 Jun 2027 00:38:52.018   05 Jun 2027 00:39:56.438            64.420            RioGallegos          2013.125
       234   05 Jun 2027 01:14:44.427   05 Jun 2027 01:15:22.087            37.660                Anadyr1          1176.875
       235   05 Jun 2027 01:16:40.284   05 Jun 2027 01:17:21.201            40.917                Anadyr2          1278.656
       236   05 Jun 2027 01:17:24.157   05 Jun 2027 01:18:20.390            56.233                Norilsk          1757.281
       237   05 Jun 2027 01:18:28.818   05 Jun 2027 01:19:07.717            38.899               Magadan2          1215.594
       238   05 Jun 2027 01:19:14.369   05 Jun 2027 01:19:28.560            14.191               Magadan2           443.469
       239   05 Jun 2027 01:20:27.320   05 Jun 2027 01:20:49.124            21.804               Magadan1           681.375
       240   05 Jun 2027 01:21:01.939   05 Jun 2027 01:21:22.015            20.076               Magadan2           627.375
       241   05 Jun 2027 01:21:34.439   05 Jun 2027 01:23:00.137            85.698                Irkutsk          2678.063
       242   05 Jun 2027 01:24:08.804   05 Jun 2027 01:24:35.376            26.572                Novosib           830.375
       243   05 Jun 2027 01:25:05.143   05 Jun 2027 01:25:12.052             6.909                Novosib           215.906
       244   05 Jun 2027 01:25:56.331   05 Jun 2027 01:26:38.434            42.103                Novosib          1315.719
       245   05 Jun 2027 01:34:48.407   05 Jun 2027 01:37:42.256           173.849                Sumatra          5432.781
       246   05 Jun 2027 02:13:03.554   05 Jun 2027 02:14:42.380            98.826            RioGallegos          3088.313
       247   05 Jun 2027 02:53:04.321   05 Jun 2027 02:53:48.882            44.561                Norilsk          1392.531
       248   05 Jun 2027 02:54:04.183   05 Jun 2027 02:54:44.124            39.941               Magadan1          1248.156
       249   05 Jun 2027 02:56:55.768   05 Jun 2027 02:57:24.890            29.122              Murmansk2           910.062
       250   05 Jun 2027 02:57:45.606   05 Jun 2027 02:58:57.538            71.932                Novosib          2247.875
       251   05 Jun 2027 02:59:04.287   05 Jun 2027 02:59:40.123            35.836                Irkutsk          1119.875
       252   05 Jun 2027 03:00:20.012   05 Jun 2027 03:01:47.552            87.540                Norilsk          2735.625
       253   05 Jun 2027 03:01:50.273   05 Jun 2027 03:02:46.107            55.834                Novosib          1744.812
       254   05 Jun 2027 03:03:05.571   05 Jun 2027 03:03:34.681            29.110                Novosib           909.688
       255   05 Jun 2027 03:03:57.745   05 Jun 2027 03:04:47.062            49.317                Irkutsk          1541.156
       256   05 Jun 2027 03:05:29.436   05 Jun 2027 03:06:27.598            58.162                  Delhi          1817.563
       257   05 Jun 2027 03:15:29.396   05 Jun 2027 03:17:47.512           138.116                Sumatra          4316.125
       258   05 Jun 2027 03:45:42.205   05 Jun 2027 03:47:43.614           121.409            RioGallegos          3794.031
       259   05 Jun 2027 03:48:38.252   05 Jun 2027 03:50:16.396            98.144            RioGallegos          3067.000
       260   05 Jun 2027 04:35:24.288   05 Jun 2027 04:38:42.361           198.073                Irkutsk          6189.781
       261   05 Jun 2027 04:39:02.320   05 Jun 2027 04:40:13.117            70.797                Irkutsk          2212.406
       262   05 Jun 2027 04:40:59.142   05 Jun 2027 04:46:25.656           326.514                  Delhi         10203.563
       263   05 Jun 2027 06:16:06.456   05 Jun 2027 06:16:20.383            13.927                 Moscow           435.219
       264   05 Jun 2027 06:16:50.274   05 Jun 2027 06:17:15.451            25.177              Murmansk1           786.781
       265   05 Jun 2027 06:17:49.995   05 Jun 2027 06:18:13.028            23.033              Murmansk1           719.781
       266   05 Jun 2027 06:20:33.738   05 Jun 2027 06:21:00.374            26.636                 Moscow           832.375
       267   05 Jun 2027 06:34:27.254   05 Jun 2027 06:37:20.567           173.313               CapeTown          5416.031
       268   05 Jun 2027 07:37:37.532   05 Jun 2027 07:38:05.121            27.589                Anadyr2           862.156
       269   05 Jun 2027 07:38:14.039   05 Jun 2027 07:38:37.585            23.546               Magadan2           735.812
       270   05 Jun 2027 07:39:06.031   05 Jun 2027 07:39:09.008             2.977               Magadan1            93.031
       271   05 Jun 2027 07:39:09.008   05 Jun 2027 07:39:18.454             9.446               Magadan2           295.187
       272   05 Jun 2027 07:40:02.873   05 Jun 2027 07:40:37.498            34.625                Anadyr1          1082.031
       273   05 Jun 2027 07:42:09.063   05 Jun 2027 07:42:43.451            34.388                Anadyr1          1074.625
       274   05 Jun 2027 07:51:58.659   05 Jun 2027 07:52:22.041            23.382              Murmansk2           730.688
       275   05 Jun 2027 08:12:03.433   05 Jun 2027 08:14:35.019           151.586               CapeTown          4737.063
       276   05 Jun 2027 08:17:25.498   05 Jun 2027 08:19:10.012           104.514               CapeTown          3266.063
       277   05 Jun 2027 09:11:56.282   05 Jun 2027 09:12:55.816            59.534               Magadan1          1860.437
       278   05 Jun 2027 09:13:21.813   05 Jun 2027 09:13:55.601            33.788               Magadan2          1055.875
       279   05 Jun 2027 09:14:16.661   05 Jun 2027 09:14:34.970            18.309               Magadan1           572.156
       280   05 Jun 2027 09:15:06.832   05 Jun 2027 09:17:39.052           152.220                Anadyr2          4756.875
       281   05 Jun 2027 10:47:03.807   05 Jun 2027 10:48:00.012            56.205               Magadan2          1756.406
       282   05 Jun 2027 10:48:22.123   05 Jun 2027 10:49:36.258            74.135               Magadan1          2316.719
       283   05 Jun 2027 10:49:36.258   05 Jun 2027 10:49:59.357            23.099               Magadan2           721.844
       284   05 Jun 2027 10:53:03.403   05 Jun 2027 10:54:32.086            88.683               Magadan1          2771.344
       285   05 Jun 2027 10:54:48.639   05 Jun 2027 10:54:52.338             3.699                Norilsk           115.594
       286   05 Jun 2027 10:55:01.104   05 Jun 2027 10:55:23.861            22.757               Magadan2           711.156
       287   05 Jun 2027 11:30:39.724   05 Jun 2027 11:30:49.273             9.549            RioGallegos           298.406
       288   05 Jun 2027 11:31:26.750   05 Jun 2027 11:32:01.359            34.609            RioGallegos          1081.531
       289   05 Jun 2027 12:09:20.759   05 Jun 2027 12:10:20.680            59.921                Sumatra          1872.531
       290   05 Jun 2027 12:18:37.973   05 Jun 2027 12:20:47.342           129.369                Irkutsk          4042.781
       291   05 Jun 2027 12:21:57.698   05 Jun 2027 12:22:51.559            53.861                Novosib          1683.156
       292   05 Jun 2027 12:23:26.231   05 Jun 2027 12:29:55.852           389.621               Magadan1         12175.656
       293   05 Jun 2027 13:55:04.442   05 Jun 2027 13:55:22.961            18.519                Irkutsk           578.719
       294   05 Jun 2027 13:57:25.856   05 Jun 2027 13:57:37.300            11.444                Irkutsk           357.625
       295   05 Jun 2027 14:01:00.113   05 Jun 2027 14:01:41.111            40.998                Irkutsk          1281.187
       296   05 Jun 2027 14:06:34.270   05 Jun 2027 14:06:49.730            15.460                Norilsk           483.125
       297   05 Jun 2027 14:46:19.225   05 Jun 2027 14:52:32.061           372.836            RioGallegos         11651.125
       298   05 Jun 2027 15:34:52.201   05 Jun 2027 15:37:15.309           143.108                Novosib          4472.125
       299   05 Jun 2027 17:09:24.810   05 Jun 2027 17:10:49.784            84.974                 Moscow          2655.438
       300   05 Jun 2027 17:11:46.562   05 Jun 2027 17:12:13.390            26.828                 Moscow           838.375
       301   05 Jun 2027 17:14:25.209   05 Jun 2027 17:14:46.313            21.104              Murmansk1           659.500
       302   05 Jun 2027 17:16:52.924   05 Jun 2027 17:18:23.945            91.021                Norilsk          2844.406
       303   05 Jun 2027 17:20:27.392   05 Jun 2027 17:22:18.820           111.428                Norilsk          3482.125
       304   05 Jun 2027 18:24:22.656   05 Jun 2027 18:24:54.207            31.551               CapeTown           985.969
       305   05 Jun 2027 18:34:23.762   05 Jun 2027 18:34:27.925             4.163               CapeTown           130.094
       306   05 Jun 2027 18:46:48.092   05 Jun 2027 18:47:49.894            61.802                 Moscow          1931.313
       307   05 Jun 2027 18:49:56.075   05 Jun 2027 18:51:25.676            89.601              Murmansk1          2800.031
       308   05 Jun 2027 18:51:43.697   05 Jun 2027 18:52:09.555            25.858                 Moscow           808.063
       309   05 Jun 2027 18:53:15.099   05 Jun 2027 18:54:04.638            49.539              Murmansk1          1548.094
       310   05 Jun 2027 18:54:45.495   05 Jun 2027 18:54:46.478             0.983              Murmansk2            30.719
       311   05 Jun 2027 18:57:40.946   05 Jun 2027 18:59:00.876            79.930              Murmansk1          2497.812
       312   05 Jun 2027 19:58:55.337   05 Jun 2027 20:00:27.414            92.077               CapeTown          2877.406
       313   05 Jun 2027 20:01:54.535   05 Jun 2027 20:03:11.453            76.918               CapeTown          2403.688
       314   05 Jun 2027 20:29:16.405   05 Jun 2027 20:30:53.420            97.015              Murmansk2          3031.719
       315   05 Jun 2027 20:31:38.119   05 Jun 2027 20:35:01.491           203.372              Murmansk1          6355.375
       316   05 Jun 2027 20:35:08.608   05 Jun 2027 20:37:30.432           141.824              Murmansk2          4432.000
       317   05 Jun 2027 22:15:23.588   05 Jun 2027 22:17:20.098           116.510                Anadyr1          3640.937
       318   05 Jun 2027 22:17:43.644   05 Jun 2027 22:20:55.836           192.192               Magadan1          6006.000
       319   05 Jun 2027 22:21:04.511   05 Jun 2027 22:21:17.028            12.517               Magadan1           391.156
       320   05 Jun 2027 22:23:19.056   05 Jun 2027 22:23:27.217             8.161               Magadan2           255.031
       321   05 Jun 2027 22:25:35.534   05 Jun 2027 22:25:44.535             9.001               Magadan1           281.281
       322   05 Jun 2027 22:25:53.627   05 Jun 2027 22:26:09.860            16.233               Magadan1           507.281
       323   05 Jun 2027 22:27:09.514   05 Jun 2027 22:27:13.360             3.846               Magadan1           120.187
       324   05 Jun 2027 23:12:58.913   05 Jun 2027 23:14:31.550            92.637            RioGallegos          2894.906
       325   05 Jun 2027 23:51:15.572   05 Jun 2027 23:55:32.017           256.445                Anadyr2          8013.906
       326   05 Jun 2027 23:56:00.982   05 Jun 2027 23:56:51.567            50.585                Norilsk          1580.781
       327   05 Jun 2027 23:57:01.025   05 Jun 2027 23:57:50.904            49.879               Magadan2          1558.719
       328   05 Jun 2027 23:58:38.315   05 Jun 2027 23:58:53.847            15.532               Magadan2           485.375
       329   05 Jun 2027 23:59:51.058   06 Jun 2027 00:00:43.698            52.640                Irkutsk          1645.000
       330   06 Jun 2027 00:03:55.726   06 Jun 2027 00:05:10.213            74.487                Irkutsk          2327.719
       331   06 Jun 2027 00:14:27.921   06 Jun 2027 00:16:01.078            93.157                Sumatra          2911.156
       332   06 Jun 2027 00:45:18.596   06 Jun 2027 00:46:05.539            46.943            RioGallegos          1466.969
       333   06 Jun 2027 00:49:10.250   06 Jun 2027 00:50:17.321            67.071            RioGallegos          2095.969
       334   06 Jun 2027 01:26:39.255   06 Jun 2027 01:26:44.019             4.764                Anadyr2           148.875
       335   06 Jun 2027 01:26:55.248   06 Jun 2027 01:27:20.797            25.549                Anadyr1           798.406
       336   06 Jun 2027 01:28:08.677   06 Jun 2027 01:28:40.633            31.956                Anadyr1           998.625
       337   06 Jun 2027 01:28:40.633   06 Jun 2027 01:29:22.525            41.892                Anadyr2          1309.125
       338   06 Jun 2027 01:29:43.561   06 Jun 2027 01:31:54.996           131.435               Magadan1          4107.344
       339   06 Jun 2027 01:33:04.656   06 Jun 2027 01:36:02.370           177.714                Irkutsk          5553.562
       340   06 Jun 2027 01:46:49.940   06 Jun 2027 01:48:38.261           108.321                Sumatra          3385.031
       341   06 Jun 2027 01:49:57.852   06 Jun 2027 01:52:40.027           162.175                Sumatra          5067.969
       342   06 Jun 2027 03:09:12.353   06 Jun 2027 03:11:15.410           123.057               Magadan1          3845.531
       343   06 Jun 2027 03:11:29.897   06 Jun 2027 03:11:48.589            18.692               Magadan2           584.125
       344   06 Jun 2027 03:12:55.965   06 Jun 2027 03:13:27.643            31.678                Irkutsk           989.937
       345   06 Jun 2027 03:13:43.830   06 Jun 2027 03:14:43.343            59.513                Irkutsk          1859.781
       346   06 Jun 2027 03:15:54.700   06 Jun 2027 03:18:31.168           156.468                Novosib          4889.625
       347   06 Jun 2027 03:19:21.027   06 Jun 2027 03:20:14.865            53.838                  Delhi          1682.438
       348   06 Jun 2027 03:22:47.192   06 Jun 2027 03:23:20.339            33.147                  Delhi          1035.844
       349   06 Jun 2027 03:58:43.909   06 Jun 2027 04:02:43.471           239.562            RioGallegos          7486.313
       350   06 Jun 2027 04:49:00.527   06 Jun 2027 04:49:42.430            41.903                 Moscow          1309.469
       351   06 Jun 2027 04:49:50.628   06 Jun 2027 04:52:43.139           172.511                Irkutsk          5390.969
       352   06 Jun 2027 04:53:26.850   06 Jun 2027 04:59:58.702           391.852                  Delhi         12245.375
       353   06 Jun 2027 06:26:03.912   06 Jun 2027 06:26:12.790             8.878                Norilsk           277.438
       354   06 Jun 2027 06:26:17.651   06 Jun 2027 06:26:56.699            39.048                Norilsk          1220.250
       355   06 Jun 2027 06:27:00.055   06 Jun 2027 06:27:57.175            57.120                Norilsk          1785.000
       356   06 Jun 2027 06:28:43.223   06 Jun 2027 06:28:48.596             5.373              Murmansk2           167.906
       357   06 Jun 2027 06:29:06.472   06 Jun 2027 06:29:37.261            30.789              Murmansk2           962.156
       358   06 Jun 2027 06:30:40.017   06 Jun 2027 06:31:07.304            27.287                 Moscow           852.719
       359   06 Jun 2027 06:46:21.907   06 Jun 2027 06:47:26.329            64.422               CapeTown          2013.187
       360   06 Jun 2027 06:49:32.897   06 Jun 2027 06:49:56.479            23.582               CapeTown           736.938
       361   06 Jun 2027 07:49:38.426   06 Jun 2027 07:50:13.560            35.134                Anadyr1          1097.938
       362   06 Jun 2027 07:50:19.950   06 Jun 2027 07:50:27.821             7.871                Anadyr2           245.969
       363   06 Jun 2027 07:50:31.417   06 Jun 2027 07:50:53.496            22.079               Magadan1           689.969
       364   06 Jun 2027 07:50:56.229   06 Jun 2027 07:51:03.222             6.993               Magadan2           218.531
       365   06 Jun 2027 07:51:22.123   06 Jun 2027 07:52:02.263            40.140                Anadyr2          1254.375
       366   06 Jun 2027 08:05:18.346   06 Jun 2027 08:06:11.815            53.469                 Moscow          1670.906
       367   06 Jun 2027 08:31:24.617   06 Jun 2027 08:32:58.376            93.759               CapeTown          2929.969
       368   06 Jun 2027 09:25:35.178   06 Jun 2027 09:25:43.722             8.544               Magadan2           267.000
       369   06 Jun 2027 09:25:57.254   06 Jun 2027 09:26:44.544            47.290               Magadan2          1477.813
       370   06 Jun 2027 09:26:48.022   06 Jun 2027 09:27:54.637            66.615                Anadyr1          2081.719
       371   06 Jun 2027 09:28:02.963   06 Jun 2027 09:28:18.406            15.443               Magadan2           482.594
       372   06 Jun 2027 09:28:22.023   06 Jun 2027 09:29:35.847            73.824               Magadan1          2307.000
       373   06 Jun 2027 11:00:27.904   06 Jun 2027 11:01:15.100            47.196               Magadan2          1474.875
       374   06 Jun 2027 11:01:17.686   06 Jun 2027 11:05:01.194           223.508               Magadan2          6984.625
       375   06 Jun 2027 11:05:01.194   06 Jun 2027 11:05:24.524            23.330               Magadan1           729.063
       376   06 Jun 2027 11:05:44.588   06 Jun 2027 11:07:21.913            97.325               Magadan1          3041.406
       377   06 Jun 2027 12:19:49.299   06 Jun 2027 12:21:40.401           111.102                Sumatra          3471.937
       378   06 Jun 2027 12:30:32.038   06 Jun 2027 12:31:52.874            80.836                Irkutsk          2526.125
       379   06 Jun 2027 12:36:38.174   06 Jun 2027 12:41:21.258           283.084               Magadan1          8846.375
       380   06 Jun 2027 13:53:51.693   06 Jun 2027 13:55:56.156           124.463                Sumatra          3889.469
       381   06 Jun 2027 14:01:37.664   06 Jun 2027 14:02:34.727            57.063                Sumatra          1783.219
       382   06 Jun 2027 14:07:27.072   06 Jun 2027 14:08:15.100            48.028                Irkutsk          1500.875
       383   06 Jun 2027 14:08:45.556   06 Jun 2027 14:09:02.678            17.122                Irkutsk           535.062
       384   06 Jun 2027 14:09:21.026   06 Jun 2027 14:12:39.534           198.508                Irkutsk          6203.375
       385   06 Jun 2027 14:59:54.980   06 Jun 2027 15:03:29.395           214.415            RioGallegos          6700.469
       386   06 Jun 2027 15:45:38.342   06 Jun 2027 15:46:33.026            54.684                Novosib          1708.875
       387   06 Jun 2027 15:50:11.906   06 Jun 2027 15:50:48.559            36.653                Novosib          1145.406
       388   06 Jun 2027 15:53:06.300   06 Jun 2027 15:55:22.605           136.305                Novosib          4259.531
       389   06 Jun 2027 17:24:44.958   06 Jun 2027 17:24:45.723             0.765                 Moscow            23.906
       390   06 Jun 2027 17:25:27.445   06 Jun 2027 17:25:55.427            27.982              Murmansk2           874.438
       391   06 Jun 2027 17:27:40.897   06 Jun 2027 17:27:56.494            15.597              Murmansk1           487.406
       392   06 Jun 2027 17:29:39.021   06 Jun 2027 17:32:17.830           158.809                Norilsk          4962.781
       393   06 Jun 2027 17:32:59.847   06 Jun 2027 17:33:31.103            31.256                Norilsk           976.750
       394   06 Jun 2027 17:34:40.904   06 Jun 2027 17:35:49.430            68.526                Norilsk          2141.438
       395   06 Jun 2027 18:59:18.770   06 Jun 2027 19:01:03.004           104.234                 Moscow          3257.313
       396   06 Jun 2027 19:02:15.196   06 Jun 2027 19:02:22.668             7.472              Murmansk1           233.500
       397   06 Jun 2027 19:02:42.772   06 Jun 2027 19:04:08.270            85.498              Murmansk2          2671.812
       398   06 Jun 2027 19:04:40.517   06 Jun 2027 19:04:57.942            17.425                 Moscow           544.531
       399   06 Jun 2027 19:06:06.237   06 Jun 2027 19:06:39.806            33.569              Murmansk2          1049.031
       400   06 Jun 2027 19:11:17.444   06 Jun 2027 19:11:32.248            14.804              Murmansk2           462.625
       401   06 Jun 2027 19:12:01.018   06 Jun 2027 19:12:33.507            32.489              Murmansk2          1015.281
       402   06 Jun 2027 20:11:03.723   06 Jun 2027 20:13:43.636           159.913               CapeTown          4997.281
       403   06 Jun 2027 20:41:57.322   06 Jun 2027 20:44:21.967           144.645              Murmansk1          4520.156
       404   06 Jun 2027 20:44:41.078   06 Jun 2027 20:47:56.619           195.541              Murmansk2          6110.656
       405   06 Jun 2027 20:47:57.143   06 Jun 2027 20:49:26.414            89.271              Murmansk1          2789.719
       406   06 Jun 2027 22:27:25.447   06 Jun 2027 22:27:35.161             9.714                Anadyr1           303.563
       407   06 Jun 2027 22:27:35.161   06 Jun 2027 22:29:20.398           105.237                Anadyr2          3288.656
       408   06 Jun 2027 22:29:43.407   06 Jun 2027 22:32:57.800           194.393               Magadan2          6074.781
       409   06 Jun 2027 22:33:29.527   06 Jun 2027 22:33:38.326             8.799               Magadan1           274.969
       410   06 Jun 2027 22:37:47.197   06 Jun 2027 22:37:54.180             6.983               Magadan1           218.219
       411   06 Jun 2027 22:37:54.180   06 Jun 2027 22:38:05.316            11.136               Magadan2           348.000
       412   06 Jun 2027 22:38:58.207   06 Jun 2027 22:39:22.616            24.409               Magadan2           762.781
       413   06 Jun 2027 23:23:35.485   06 Jun 2027 23:26:10.327           154.842            RioGallegos          4838.812
       414   06 Jun 2027 23:28:05.436   06 Jun 2027 23:28:27.193            21.757            RioGallegos           679.906
       415   07 Jun 2027 00:03:15.476   07 Jun 2027 00:04:45.414            89.938                Anadyr1          2810.563
       416   07 Jun 2027 00:04:48.599   07 Jun 2027 00:05:16.119            27.520                Anadyr2           860.000
       417   07 Jun 2027 00:05:20.825   07 Jun 2027 00:06:53.231            92.406                Norilsk          2887.688
       418   07 Jun 2027 00:07:37.846   07 Jun 2027 00:07:57.026            19.180               Magadan1           599.375
       419   07 Jun 2027 00:08:11.880   07 Jun 2027 00:08:22.664            10.784                Norilsk           337.000
       420   07 Jun 2027 00:08:29.858   07 Jun 2027 00:08:36.458             6.600                Norilsk           206.250
       421   07 Jun 2027 00:08:38.197   07 Jun 2027 00:08:49.863            11.666               Magadan2           364.562
       422   07 Jun 2027 00:09:09.895   07 Jun 2027 00:09:20.895            11.000               Magadan2           343.750
       423   07 Jun 2027 00:09:24.555   07 Jun 2027 00:10:06.496            41.941               Magadan1          1310.656
       424   07 Jun 2027 00:10:17.759   07 Jun 2027 00:11:06.199            48.440                Irkutsk          1513.750
       425   07 Jun 2027 00:12:17.623   07 Jun 2027 00:12:46.966            29.343                Irkutsk           916.969
       426   07 Jun 2027 00:14:35.955   07 Jun 2027 00:14:51.304            15.349                Irkutsk           479.656
       427   07 Jun 2027 00:15:50.023   07 Jun 2027 00:17:05.348            75.325                Irkutsk          2353.906
       428   07 Jun 2027 00:25:18.637   07 Jun 2027 00:27:14.394           115.757                Sumatra          3617.406
       429   07 Jun 2027 01:02:11.795   07 Jun 2027 01:03:02.192            50.397            RioGallegos          1574.906
       430   07 Jun 2027 01:09:19.444   07 Jun 2027 01:09:42.918            23.474            RioGallegos           733.563
       431   07 Jun 2027 01:38:32.989   07 Jun 2027 01:38:44.330            11.341                Anadyr1           354.406
       432   07 Jun 2027 01:38:59.251   07 Jun 2027 01:39:05.991             6.740                Anadyr1           210.625
       433   07 Jun 2027 01:40:02.890   07 Jun 2027 01:40:40.630            37.740                Anadyr1          1179.375
       434   07 Jun 2027 01:41:05.834   07 Jun 2027 01:41:23.796            17.962                Anadyr2           561.313
       435   07 Jun 2027 01:41:23.796   07 Jun 2027 01:41:28.305             4.509                Anadyr1           140.906
       436   07 Jun 2027 01:41:43.130   07 Jun 2027 01:42:01.978            18.848                Anadyr1           589.000
       437   07 Jun 2027 01:42:09.634   07 Jun 2027 01:43:11.520            61.886                Norilsk          1933.938
       438   07 Jun 2027 01:43:22.553   07 Jun 2027 01:43:47.107            24.554               Magadan1           767.312
       439   07 Jun 2027 01:44:49.845   07 Jun 2027 01:45:00.822            10.977               Magadan2           343.031
       440   07 Jun 2027 01:45:03.910   07 Jun 2027 01:48:13.009           189.099                Irkutsk          5909.344
       441   07 Jun 2027 01:56:28.654   07 Jun 2027 01:56:35.240             6.586                  Delhi           205.813
       442   07 Jun 2027 01:57:34.099   07 Jun 2027 01:58:05.620            31.521                  Delhi           985.031
       443   07 Jun 2027 01:58:57.257   07 Jun 2027 02:01:53.002           175.745                Sumatra          5492.031
       444   07 Jun 2027 02:38:31.770   07 Jun 2027 02:38:48.794            17.024            RioGallegos           532.000
       445   07 Jun 2027 02:39:05.870   07 Jun 2027 02:39:34.691            28.821            RioGallegos           900.656
       446   07 Jun 2027 02:44:17.408   07 Jun 2027 02:45:18.831            61.423            RioGallegos          1919.469
       447   07 Jun 2027 03:21:24.382   07 Jun 2027 03:21:29.348             4.966               Magadan1           155.187
       448   07 Jun 2027 03:21:29.348   07 Jun 2027 03:23:15.704           106.356               Magadan2          3323.625
       449   07 Jun 2027 03:26:19.973   07 Jun 2027 03:28:54.401           154.428                Irkutsk          4825.875
       450   07 Jun 2027 03:31:03.303   07 Jun 2027 03:32:42.289            98.986                Irkutsk          3093.313
       451   07 Jun 2027 04:10:14.013   07 Jun 2027 04:10:29.753            15.740            RioGallegos           491.875
       452   07 Jun 2027 04:14:38.849   07 Jun 2027 04:15:27.879            49.030            RioGallegos          1532.188
       453   07 Jun 2027 04:58:34.618   07 Jun 2027 05:00:46.973           132.355                Irkutsk          4136.094
       454   07 Jun 2027 05:01:22.106   07 Jun 2027 05:01:42.643            20.537                Irkutsk           641.781
       455   07 Jun 2027 05:01:59.071   07 Jun 2027 05:03:49.866           110.795                Irkutsk          3462.344
       456   07 Jun 2027 05:06:05.427   07 Jun 2027 05:13:29.125           443.698                  Delhi         13865.563
       457   07 Jun 2027 06:39:38.184   07 Jun 2027 06:40:19.891            41.707                 Moscow          1303.344
       458   07 Jun 2027 06:40:36.916   07 Jun 2027 06:40:43.477             6.561              Murmansk1           205.031
       459   07 Jun 2027 06:40:50.864   07 Jun 2027 06:40:56.640             5.776              Murmansk1           180.500
       460   07 Jun 2027 06:41:24.393   07 Jun 2027 06:42:09.033            44.640              Murmansk1          1395.000
       461   07 Jun 2027 06:44:53.270   07 Jun 2027 06:45:07.319            14.049                 Moscow           439.031
       462   07 Jun 2027 06:58:21.604   07 Jun 2027 06:59:14.862            53.258               CapeTown          1664.313
       463   07 Jun 2027 07:01:35.324   07 Jun 2027 07:02:08.758            33.434               CapeTown          1044.813
       464   07 Jun 2027 07:05:19.067   07 Jun 2027 07:07:23.940           124.873               CapeTown          3902.281
       465   07 Jun 2027 08:01:32.138   07 Jun 2027 08:02:21.460            49.322                Anadyr2          1541.312
       466   07 Jun 2027 08:02:48.643   07 Jun 2027 08:02:55.478             6.835               Magadan1           213.594
       467   07 Jun 2027 08:03:12.668   07 Jun 2027 08:03:52.450            39.782               Magadan1          1243.187
       468   07 Jun 2027 08:06:11.031   07 Jun 2027 08:06:54.407            43.376                Anadyr2          1355.500
       469   07 Jun 2027 09:37:42.589   07 Jun 2027 09:38:16.117            33.528                Anadyr2          1047.750
       470   07 Jun 2027 09:38:21.436   07 Jun 2027 09:38:57.002            35.566               Magadan1          1111.437
       471   07 Jun 2027 09:39:29.943   07 Jun 2027 09:40:19.526            49.583               Magadan2          1549.469
       472   07 Jun 2027 09:41:46.513   07 Jun 2027 09:42:56.151            69.638               Magadan1          2176.187
       473   07 Jun 2027 11:09:47.166   07 Jun 2027 11:10:48.354            61.188               Magadan1          1912.125
       474   07 Jun 2027 11:13:00.286   07 Jun 2027 11:13:26.577            26.291               Magadan2           821.594
       475   07 Jun 2027 11:14:21.479   07 Jun 2027 11:16:49.034           147.555               Magadan2          4611.094
       476   07 Jun 2027 11:17:41.321   07 Jun 2027 11:17:55.900            14.579                Norilsk           455.594
       477   07 Jun 2027 11:18:09.667   07 Jun 2027 11:18:59.475            49.808                Irkutsk          1556.500
       478   07 Jun 2027 11:19:07.558   07 Jun 2027 11:19:29.201            21.643                Norilsk           676.344
       479   07 Jun 2027 11:54:16.725   07 Jun 2027 11:55:29.638            72.913            RioGallegos          2278.531
       480   07 Jun 2027 12:30:53.383   07 Jun 2027 12:32:42.757           109.374                Sumatra          3417.938
       481   07 Jun 2027 12:42:29.251   07 Jun 2027 12:43:51.748            82.497                Irkutsk          2578.031
       482   07 Jun 2027 12:44:35.212   07 Jun 2027 12:45:25.414            50.202                Irkutsk          1568.812
