uniorb/output/strategy_4/Drop/Drop_KinoSat_111705.txt

KinoSat_111705
-------------------------
    Access    *     Start Time (UTCG)     *     Stop Time (UTCG)  *   Duration (s)        *       Station  *  Data (Mbytes)
         1   01 Jun 2027 03:10:34.036   01 Jun 2027 03:11:18.661            44.625              Murmansk1          1394.531
         2   01 Jun 2027 03:11:22.595   01 Jun 2027 03:11:58.720            36.125              Murmansk1          1128.906
         3   01 Jun 2027 03:12:02.781   01 Jun 2027 03:14:08.060           125.279                Novosib          3914.969
         4   01 Jun 2027 03:14:25.796   01 Jun 2027 03:15:21.896            56.100                Novosib          1753.125
         5   01 Jun 2027 03:16:18.133   01 Jun 2027 03:16:54.183            36.050                  Delhi          1126.562
         6   01 Jun 2027 03:18:35.848   01 Jun 2027 03:18:42.236             6.388                Novosib           199.625
         7   01 Jun 2027 03:20:03.806   01 Jun 2027 03:20:50.098            46.292                  Delhi          1446.625
         8   01 Jun 2027 04:49:45.213   01 Jun 2027 04:50:30.644            45.431                Novosib          1419.719
         9   01 Jun 2027 04:50:40.111   01 Jun 2027 04:54:11.507           211.396              Murmansk1          6606.125
        10   01 Jun 2027 04:54:20.563   01 Jun 2027 04:55:02.198            41.635              Murmansk1          1301.094
        11   01 Jun 2027 04:55:22.892   01 Jun 2027 04:57:32.891           129.999                 Moscow          4062.469
        12   01 Jun 2027 05:10:03.241   01 Jun 2027 05:10:35.853            32.612               CapeTown          1019.125
        13   01 Jun 2027 05:10:53.422   01 Jun 2027 05:11:57.106            63.684               CapeTown          1990.125
        14   01 Jun 2027 06:13:58.128   01 Jun 2027 06:14:32.247            34.119               Magadan2          1066.219
        15   01 Jun 2027 06:14:58.854   01 Jun 2027 06:16:49.682           110.828               Magadan1          3463.375
        16   01 Jun 2027 06:17:00.072   01 Jun 2027 06:17:48.633            48.561               Magadan1          1517.531
        17   01 Jun 2027 06:18:54.318   01 Jun 2027 06:18:58.770             4.452               Magadan2           139.125
        18   01 Jun 2027 06:25:28.257   01 Jun 2027 06:29:12.255           223.998              Murmansk1          6999.937
        19   01 Jun 2027 07:47:44.931   01 Jun 2027 07:48:44.326            59.395                Anadyr1          1856.094
        20   01 Jun 2027 07:49:16.204   01 Jun 2027 07:50:49.119            92.915               Magadan2          2903.594
        21   01 Jun 2027 07:51:14.437   01 Jun 2027 07:51:52.422            37.985               Magadan2          1187.031
        22   01 Jun 2027 07:52:32.162   01 Jun 2027 07:53:05.277            33.115                Anadyr2          1034.844
        23   01 Jun 2027 09:22:55.620   01 Jun 2027 09:23:30.517            34.897                Anadyr2          1090.531
        24   01 Jun 2027 09:24:07.433   01 Jun 2027 09:25:00.055            52.622               Magadan1          1644.438
        25   01 Jun 2027 09:25:26.894   01 Jun 2027 09:30:35.692           308.798                Anadyr1          9649.938
        26   01 Jun 2027 10:58:58.765   01 Jun 2027 11:02:29.235           210.470               Magadan1          6577.187
        27   01 Jun 2027 11:02:29.235   01 Jun 2027 11:02:44.022            14.787               Magadan2           462.094
        28   01 Jun 2027 11:04:47.770   01 Jun 2027 11:05:25.908            38.138               Magadan2          1191.812
        29   01 Jun 2027 11:06:09.026   01 Jun 2027 11:06:39.533            30.507                Novosib           953.344
        30   01 Jun 2027 13:21:14.259   01 Jun 2027 13:25:30.952           256.693            RioGallegos          8021.656
        31   01 Jun 2027 13:56:51.180   01 Jun 2027 13:59:27.447           156.267                Sumatra          4883.344
        32   01 Jun 2027 14:12:46.663   01 Jun 2027 14:14:40.630           113.967                Irkutsk          3561.469
        33   01 Jun 2027 15:52:02.114   01 Jun 2027 15:53:18.500            76.386                Norilsk          2387.063
        34   01 Jun 2027 15:55:44.864   01 Jun 2027 15:55:47.541             2.677                Norilsk            83.656
        35   01 Jun 2027 15:56:30.283   01 Jun 2027 15:57:35.301            65.018                Norilsk          2031.813
        36   01 Jun 2027 17:22:05.041   01 Jun 2027 17:22:15.519            10.478                 Moscow           327.437
        37   01 Jun 2027 17:22:57.215   01 Jun 2027 17:23:41.515            44.300                 Moscow          1384.375
        38   01 Jun 2027 17:25:18.001   01 Jun 2027 17:25:35.401            17.400              Murmansk1           543.750
        39   01 Jun 2027 17:26:02.949   01 Jun 2027 17:27:01.131            58.182                 Moscow          1818.187
        40   01 Jun 2027 17:27:41.349   01 Jun 2027 17:29:16.703            95.354              Murmansk2          2979.813
        41   01 Jun 2027 17:40:29.030   01 Jun 2027 17:40:44.471            15.441                Anadyr1           482.531
        42   01 Jun 2027 18:34:23.016   01 Jun 2027 18:36:28.110           125.094               CapeTown          3909.187
        43   01 Jun 2027 18:37:29.300   01 Jun 2027 18:37:37.424             8.124               CapeTown           253.875
        44   01 Jun 2027 18:42:29.126   01 Jun 2027 18:42:46.288            17.162               CapeTown           536.313
        45   01 Jun 2027 19:04:27.857   01 Jun 2027 19:05:14.311            46.454              Murmansk2          1451.688
        46   01 Jun 2027 19:05:33.061   01 Jun 2027 19:10:21.884           288.823              Murmansk1          9025.719
        47   01 Jun 2027 19:11:13.961   01 Jun 2027 19:11:51.372            37.411              Murmansk1          1169.094
        48   01 Jun 2027 19:22:04.266   01 Jun 2027 19:22:08.622             4.356               Magadan1           136.125
        49   01 Jun 2027 19:22:48.127   01 Jun 2027 19:23:08.423            20.296               Magadan1           634.250
        50   01 Jun 2027 20:13:35.692   01 Jun 2027 20:17:13.935           218.243               CapeTown          6820.094
        51   01 Jun 2027 20:51:36.663   01 Jun 2027 20:51:47.660            10.997                Anadyr1           343.656
        52   01 Jun 2027 20:51:53.823   01 Jun 2027 20:52:16.958            23.135                Anadyr1           722.969
        53   01 Jun 2027 20:53:06.550   01 Jun 2027 20:54:04.390            57.840                Anadyr2          1807.500
        54   01 Jun 2027 20:54:20.256   01 Jun 2027 20:54:48.787            28.531               Magadan1           891.594
        55   01 Jun 2027 20:55:06.443   01 Jun 2027 20:55:41.532            35.089               Magadan2          1096.531
        56   01 Jun 2027 20:55:47.218   01 Jun 2027 20:56:04.814            17.596               Magadan2           549.875
        57   01 Jun 2027 20:56:38.642   01 Jun 2027 20:57:23.687            45.045               Magadan2          1407.656
        58   01 Jun 2027 22:26:46.070   01 Jun 2027 22:31:36.165           290.095                Anadyr2          9065.469
        59   01 Jun 2027 22:31:50.976   01 Jun 2027 22:34:17.056           146.080               Magadan2          4565.000
        60   01 Jun 2027 22:34:25.719   01 Jun 2027 22:34:59.272            33.553               Magadan2          1048.531
        61   01 Jun 2027 22:35:26.363   01 Jun 2027 22:37:17.540           111.177                Irkutsk          3474.281
        62   01 Jun 2027 22:50:56.538   01 Jun 2027 22:51:49.452            52.914                Sumatra          1653.563
        63   01 Jun 2027 23:20:52.587   01 Jun 2027 23:22:14.833            82.246            RioGallegos          2570.188
        64   01 Jun 2027 23:22:34.943   01 Jun 2027 23:22:55.147            20.204            RioGallegos           631.375
        65   01 Jun 2027 23:22:57.664   01 Jun 2027 23:23:26.298            28.634            RioGallegos           894.813
        66   02 Jun 2027 00:02:12.454   02 Jun 2027 00:03:41.370            88.916                Anadyr1          2778.625
        67   02 Jun 2027 00:03:41.370   02 Jun 2027 00:04:09.171            27.801                Anadyr2           868.781
        68   02 Jun 2027 00:04:36.476   02 Jun 2027 00:06:19.476           103.000                Norilsk          3218.750
        69   02 Jun 2027 00:06:20.672   02 Jun 2027 00:06:30.287             9.615               Magadan2           300.469
        70   02 Jun 2027 00:06:47.619   02 Jun 2027 00:06:57.121             9.502               Magadan2           296.937
        71   02 Jun 2027 00:08:36.774   02 Jun 2027 00:09:43.577            66.803                Irkutsk          2087.594
        72   02 Jun 2027 00:11:58.184   02 Jun 2027 00:12:42.680            44.496                Novosib          1390.500
        73   02 Jun 2027 00:13:26.731   02 Jun 2027 00:13:50.006            23.275                Novosib           727.344
        74   02 Jun 2027 00:22:19.428   02 Jun 2027 00:22:58.790            39.362                Sumatra          1230.062
        75   02 Jun 2027 00:28:57.500   02 Jun 2027 00:30:58.575           121.075                Sumatra          3783.594
        76   02 Jun 2027 01:01:54.393   02 Jun 2027 01:02:18.610            24.217            RioGallegos           756.781
        77   02 Jun 2027 01:36:35.451   02 Jun 2027 01:36:51.022            15.571                Anadyr1           486.594
        78   02 Jun 2027 01:37:31.358   02 Jun 2027 01:38:07.876            36.518                Anadyr1          1141.187
        79   02 Jun 2027 01:38:24.479   02 Jun 2027 01:38:42.675            18.196                Anadyr2           568.625
        80   02 Jun 2027 01:38:50.753   02 Jun 2027 01:38:56.370             5.617                Anadyr1           175.531
        81   02 Jun 2027 01:40:36.645   02 Jun 2027 01:42:18.663           102.018                Norilsk          3188.063
        82   02 Jun 2027 01:44:08.416   02 Jun 2027 01:45:30.542            82.126              Murmansk1          2566.437
        83   02 Jun 2027 01:45:35.887   02 Jun 2027 01:46:22.240            46.353                Irkutsk          1448.531
        84   02 Jun 2027 01:46:59.164   02 Jun 2027 01:47:29.836            30.672                Novosib           958.500
        85   02 Jun 2027 01:48:17.019   02 Jun 2027 01:49:05.499            48.480                Novosib          1515.000
        86   02 Jun 2027 01:51:53.976   02 Jun 2027 01:53:37.028           103.052                  Delhi          3220.375
        87   02 Jun 2027 02:33:18.716   02 Jun 2027 02:34:22.238            63.522            RioGallegos          1985.063
        88   02 Jun 2027 02:34:40.450   02 Jun 2027 02:34:55.161            14.711            RioGallegos           459.719
        89   02 Jun 2027 02:35:27.329   02 Jun 2027 02:35:51.965            24.636            RioGallegos           769.875
        90   02 Jun 2027 02:36:16.871   02 Jun 2027 02:37:42.713            85.842            RioGallegos          2682.563
        91   02 Jun 2027 03:23:51.573   02 Jun 2027 03:24:36.375            44.802                Irkutsk          1400.063
        92   02 Jun 2027 03:25:34.766   02 Jun 2027 03:27:57.122           142.356                Novosib          4448.625
        93   02 Jun 2027 03:28:01.094   02 Jun 2027 03:28:35.753            34.659              Murmansk1          1083.094
        94   02 Jun 2027 03:28:56.284   02 Jun 2027 03:29:22.178            25.894                Norilsk           809.187
        95   02 Jun 2027 03:29:29.086   02 Jun 2027 03:30:40.868            71.782                 Moscow          2243.187
        96   02 Jun 2027 03:30:51.234   02 Jun 2027 03:32:13.646            82.412                Novosib          2575.375
        97   02 Jun 2027 03:51:04.935   02 Jun 2027 03:51:20.881            15.946               CapeTown           498.313
        98   02 Jun 2027 05:02:28.704   02 Jun 2027 05:04:06.325            97.621                Novosib          3050.656
        99   02 Jun 2027 05:06:14.306   02 Jun 2027 05:08:37.980           143.674                 Moscow          4489.812
       100   02 Jun 2027 05:21:55.115   02 Jun 2027 05:25:37.934           222.819               CapeTown          6963.094
       101   02 Jun 2027 06:18:33.625   02 Jun 2027 06:19:07.565            33.940                Anadyr1          1060.625
       102   02 Jun 2027 06:21:08.700   02 Jun 2027 06:22:29.377            80.677               Magadan1          2521.156
       103   02 Jun 2027 06:25:01.793   02 Jun 2027 06:26:26.548            84.755                Anadyr2          2648.594
       104   02 Jun 2027 06:26:41.214   02 Jun 2027 06:28:09.797            88.583                Anadyr2          2768.219
       105   02 Jun 2027 06:30:31.324   02 Jun 2027 06:31:02.018            30.694               Magadan2           959.188
       106   02 Jun 2027 08:02:08.986   02 Jun 2027 08:03:36.399            87.413                Anadyr1          2731.656
       107   02 Jun 2027 08:03:42.213   02 Jun 2027 08:07:07.253           205.040               Magadan1          6407.500
       108   02 Jun 2027 08:13:59.861   02 Jun 2027 08:14:02.590             2.729                 Moscow            85.281
       109   02 Jun 2027 09:35:23.629   02 Jun 2027 09:35:36.210            12.581               Magadan1           393.156
       110   02 Jun 2027 09:35:51.775   02 Jun 2027 09:37:06.379            74.604                Anadyr2          2331.375
       111   02 Jun 2027 09:37:44.255   02 Jun 2027 09:39:12.111            87.856               Magadan2          2745.500
       112   02 Jun 2027 09:39:38.365   02 Jun 2027 09:40:28.072            49.707                Irkutsk          1553.344
       113   02 Jun 2027 09:40:36.714   02 Jun 2027 09:40:37.881             1.167                Irkutsk            36.469
       114   02 Jun 2027 09:40:43.961   02 Jun 2027 09:41:04.130            20.169               Magadan2           630.281
       115   02 Jun 2027 09:41:10.115   02 Jun 2027 09:41:14.924             4.809                Anadyr1           150.281
       116   02 Jun 2027 09:41:33.605   02 Jun 2027 09:42:00.932            27.327                Irkutsk           853.969
       117   02 Jun 2027 09:42:12.664   02 Jun 2027 09:42:20.245             7.581                Norilsk           236.906
       118   02 Jun 2027 09:42:24.733   02 Jun 2027 09:42:55.647            30.914                Norilsk           966.063
       119   02 Jun 2027 10:18:42.645   02 Jun 2027 10:18:43.502             0.857            RioGallegos            26.781
       120   02 Jun 2027 10:19:01.504   02 Jun 2027 10:19:13.825            12.321            RioGallegos           385.031
       121   02 Jun 2027 10:19:23.171   02 Jun 2027 10:20:06.009            42.838            RioGallegos          1338.688
       122   02 Jun 2027 10:56:02.300   02 Jun 2027 10:57:10.216            67.916                Sumatra          2122.375
       123   02 Jun 2027 11:11:29.144   02 Jun 2027 11:15:07.864           218.720               Magadan1          6835.000
       124   02 Jun 2027 11:15:23.794   02 Jun 2027 11:15:26.979             3.185                Novosib            99.531
       125   02 Jun 2027 11:15:36.161   02 Jun 2027 11:16:22.450            46.289                Irkutsk          1446.531
       126   02 Jun 2027 11:16:42.653   02 Jun 2027 11:17:29.011            46.358                Irkutsk          1448.688
       127   02 Jun 2027 11:17:38.372   02 Jun 2027 11:17:52.574            14.202                Novosib           443.813
       128   02 Jun 2027 11:17:57.193   02 Jun 2027 11:18:20.808            23.615                Norilsk           737.969
       129   02 Jun 2027 11:18:33.436   02 Jun 2027 11:19:22.124            48.688                Norilsk          1521.500
       130   02 Jun 2027 11:53:45.338   02 Jun 2027 11:54:04.954            19.616            RioGallegos           613.000
       131   02 Jun 2027 11:57:12.935   02 Jun 2027 11:58:11.510            58.575            RioGallegos          1830.469
       132   02 Jun 2027 12:28:20.736   02 Jun 2027 12:28:30.984            10.248                Sumatra           320.250
       133   02 Jun 2027 12:31:28.861   02 Jun 2027 12:32:28.899            60.038                Sumatra          1876.188
       134   02 Jun 2027 12:42:45.502   02 Jun 2027 12:43:51.417            65.915                Irkutsk          2059.844
       135   02 Jun 2027 12:44:35.138   02 Jun 2027 12:45:29.276            54.138                Novosib          1691.812
       136   02 Jun 2027 12:46:58.356   02 Jun 2027 12:47:50.237            51.881                Norilsk          1621.281
       137   02 Jun 2027 13:34:29.555   02 Jun 2027 13:37:15.111           165.556            RioGallegos          5173.625
       138   02 Jun 2027 14:15:35.790   02 Jun 2027 14:17:18.251           102.461                  Delhi          3201.906
       139   02 Jun 2027 14:20:39.968   02 Jun 2027 14:20:55.869            15.901                Novosib           496.906
       140   02 Jun 2027 14:24:32.378   02 Jun 2027 14:25:53.229            80.851                Novosib          2526.594
       141   02 Jun 2027 14:26:09.652   02 Jun 2027 14:27:41.628            91.976                Norilsk          2874.250
       142   02 Jun 2027 15:56:56.028   02 Jun 2027 15:59:32.794           156.766                 Moscow          4898.937
       143   02 Jun 2027 16:00:24.193   02 Jun 2027 16:02:08.754           104.561              Murmansk1          3267.531
       144   02 Jun 2027 16:04:45.863   02 Jun 2027 16:09:01.809           255.946                Norilsk          7998.313
       145   02 Jun 2027 16:09:42.206   02 Jun 2027 16:10:33.911            51.705                Norilsk          1615.781
       146   02 Jun 2027 17:34:32.896   02 Jun 2027 17:35:08.919            36.023                 Moscow          1125.719
       147   02 Jun 2027 17:37:35.880   02 Jun 2027 17:38:23.712            47.832              Murmansk2          1494.750
       148   02 Jun 2027 17:38:50.845   02 Jun 2027 17:39:43.155            52.310              Murmansk1          1634.687
       149   02 Jun 2027 17:41:57.399   02 Jun 2027 17:42:08.603            11.204              Murmansk1           350.125
       150   02 Jun 2027 17:51:22.442   02 Jun 2027 17:52:14.296            51.854                Anadyr1          1620.437
       151   02 Jun 2027 17:53:53.977   02 Jun 2027 17:54:00.891             6.914                Anadyr1           216.063
       152   02 Jun 2027 17:55:37.753   02 Jun 2027 17:55:52.825            15.072                Anadyr1           471.000
       153   02 Jun 2027 17:56:09.191   02 Jun 2027 17:56:14.661             5.470                Anadyr1           170.938
       154   02 Jun 2027 17:59:30.143   02 Jun 2027 17:59:50.474            20.331                Anadyr1           635.344
       155   02 Jun 2027 18:46:29.627   02 Jun 2027 18:47:39.102            69.475               CapeTown          2171.094
       156   02 Jun 2027 18:50:23.402   02 Jun 2027 18:50:39.624            16.222               CapeTown           506.938
       157   02 Jun 2027 18:54:17.498   02 Jun 2027 18:54:49.640            32.142               CapeTown          1004.437
       158   02 Jun 2027 18:55:13.144   02 Jun 2027 18:55:21.881             8.737               CapeTown           273.031
       159   02 Jun 2027 19:17:06.691   02 Jun 2027 19:21:20.589           253.898              Murmansk2          7934.313
       160   02 Jun 2027 19:21:21.999   02 Jun 2027 19:22:00.876            38.877              Murmansk2          1214.906
       161   02 Jun 2027 19:30:13.431   02 Jun 2027 19:31:19.218            65.787               Magadan2          2055.844
       162   02 Jun 2027 19:33:26.833   02 Jun 2027 19:33:31.419             4.586               Magadan2           143.313
       163   02 Jun 2027 19:33:34.482   02 Jun 2027 19:33:48.167            13.685               Magadan2           427.656
       164   02 Jun 2027 19:36:02.074   02 Jun 2027 19:36:26.277            24.203               Magadan1           756.344
       165   02 Jun 2027 21:02:55.274   02 Jun 2027 21:07:11.964           256.690                Anadyr2          8021.562
       166   02 Jun 2027 21:07:21.456   02 Jun 2027 21:08:06.035            44.579                Anadyr2          1393.094
       167   02 Jun 2027 21:08:19.641   02 Jun 2027 21:10:05.591           105.950               Magadan1          3310.938
       168   02 Jun 2027 21:13:37.023   02 Jun 2027 21:13:46.859             9.836               Magadan2           307.375
       169   02 Jun 2027 21:14:08.028   02 Jun 2027 21:15:23.495            75.467               Magadan2          2358.344
       170   02 Jun 2027 21:59:41.988   02 Jun 2027 22:01:48.545           126.557            RioGallegos          3954.906
       171   02 Jun 2027 22:38:46.077   02 Jun 2027 22:40:01.714            75.637                Anadyr1          2363.656
       172   02 Jun 2027 22:40:09.205   02 Jun 2027 22:40:46.848            37.643                Anadyr2          1176.344
       173   02 Jun 2027 22:40:54.397   02 Jun 2027 22:42:33.730            99.333                Norilsk          3104.156
       174   02 Jun 2027 22:44:00.821   02 Jun 2027 22:44:22.352            21.531               Magadan1           672.844
       175   02 Jun 2027 22:44:44.277   02 Jun 2027 22:44:50.724             6.447               Magadan2           201.469
       176   02 Jun 2027 22:45:54.353   02 Jun 2027 22:46:07.549            13.196               Magadan1           412.375
       177   02 Jun 2027 22:46:25.568   02 Jun 2027 22:47:24.891            59.323                Irkutsk          1853.844
       178   02 Jun 2027 22:48:34.729   02 Jun 2027 22:49:00.651            25.922                Irkutsk           810.062
       179   02 Jun 2027 22:51:14.529   02 Jun 2027 22:51:30.465            15.936                Irkutsk           498.000
       180   02 Jun 2027 23:01:22.988   02 Jun 2027 23:03:17.766           114.778                Sumatra          3586.813
       181   02 Jun 2027 23:04:16.629   02 Jun 2027 23:06:11.557           114.928                Sumatra          3591.500
       182   03 Jun 2027 00:15:49.553   03 Jun 2027 00:16:05.261            15.708                Anadyr2           490.875
       183   03 Jun 2027 00:16:38.257   03 Jun 2027 00:18:21.677           103.420                Norilsk          3231.875
       184   03 Jun 2027 00:18:31.986   03 Jun 2027 00:18:50.102            18.116               Magadan2           566.125
       185   03 Jun 2027 00:19:38.257   03 Jun 2027 00:20:09.444            31.187               Magadan1           974.594
       186   03 Jun 2027 00:20:35.254   03 Jun 2027 00:21:42.781            67.527                Irkutsk          2110.219
       187   03 Jun 2027 00:21:59.752   03 Jun 2027 00:22:15.344            15.592                Novosib           487.250
       188   03 Jun 2027 00:23:18.376   03 Jun 2027 00:23:26.445             8.069                Novosib           252.156
       189   03 Jun 2027 00:24:26.164   03 Jun 2027 00:24:41.590            15.426                Novosib           482.063
       190   03 Jun 2027 00:24:46.597   03 Jun 2027 00:25:07.112            20.515                Novosib           641.094
       191   03 Jun 2027 00:25:57.968   03 Jun 2027 00:26:28.299            30.331                Irkutsk           947.844
       192   03 Jun 2027 00:27:07.230   03 Jun 2027 00:27:26.505            19.275                Novosib           602.344
       193   03 Jun 2027 00:32:23.717   03 Jun 2027 00:33:56.435            92.718                  Delhi          2897.438
       194   03 Jun 2027 00:39:54.186   03 Jun 2027 00:40:09.821            15.635                Sumatra           488.594
       195   03 Jun 2027 01:09:11.844   03 Jun 2027 01:09:33.348            21.504            RioGallegos           672.000
       196   03 Jun 2027 01:13:15.135   03 Jun 2027 01:13:46.042            30.907            RioGallegos           965.844
       197   03 Jun 2027 01:17:32.461   03 Jun 2027 01:18:15.889            43.428            RioGallegos          1357.125
       198   03 Jun 2027 01:48:19.791   03 Jun 2027 01:48:46.146            26.355                Anadyr2           823.594
       199   03 Jun 2027 01:49:23.928   03 Jun 2027 01:49:40.000            16.072                Anadyr1           502.250
       200   03 Jun 2027 01:50:07.533   03 Jun 2027 01:50:26.064            18.531                Anadyr2           579.094
       201   03 Jun 2027 01:50:47.618   03 Jun 2027 01:50:54.167             6.549                Anadyr2           204.656
       202   03 Jun 2027 01:51:00.733   03 Jun 2027 01:51:19.433            18.700                Anadyr1           584.375
       203   03 Jun 2027 01:52:38.949   03 Jun 2027 01:54:16.562            97.613                Norilsk          3050.406
       204   03 Jun 2027 01:55:42.679   03 Jun 2027 01:56:36.952            54.273              Murmansk1          1696.031
       205   03 Jun 2027 01:56:38.855   03 Jun 2027 01:58:24.564           105.709                Irkutsk          3303.406
       206   03 Jun 2027 02:01:55.548   03 Jun 2027 02:02:00.138             4.590                Irkutsk           143.438
       207   03 Jun 2027 02:02:26.895   03 Jun 2027 02:03:31.110            64.215                Irkutsk          2006.719
       208   03 Jun 2027 02:13:55.432   03 Jun 2027 02:15:56.715           121.283                  Delhi          3790.094
       209   03 Jun 2027 02:45:34.041   03 Jun 2027 02:46:48.487            74.446            RioGallegos          2326.437
       210   03 Jun 2027 02:47:10.286   03 Jun 2027 02:48:13.126            62.840            RioGallegos          1963.750
       211   03 Jun 2027 03:37:52.968   03 Jun 2027 03:39:51.786           118.818                Irkutsk          3713.063
       212   03 Jun 2027 03:40:35.988   03 Jun 2027 03:41:14.407            38.419              Murmansk1          1200.594
       213   03 Jun 2027 05:14:29.984   03 Jun 2027 05:14:47.246            17.262                Novosib           539.438
       214   03 Jun 2027 05:15:48.444   03 Jun 2027 05:16:13.228            24.784                 Moscow           774.500
       215   03 Jun 2027 05:17:01.484   03 Jun 2027 05:17:08.884             7.400                 Moscow           231.250
       216   03 Jun 2027 05:18:23.863   03 Jun 2027 05:18:52.523            28.660                 Moscow           895.625
       217   03 Jun 2027 05:33:52.034   03 Jun 2027 05:36:39.885           167.851               CapeTown          5245.344
       218   03 Jun 2027 06:36:56.696   03 Jun 2027 06:37:40.469            43.773                Anadyr1          1367.906
       219   03 Jun 2027 06:37:42.015   03 Jun 2027 06:38:33.444            51.429                Anadyr2          1607.156
       220   03 Jun 2027 06:38:39.140   03 Jun 2027 06:39:13.548            34.408                Anadyr1          1075.250
       221   03 Jun 2027 06:40:13.976   03 Jun 2027 06:40:23.097             9.121                Anadyr1           285.031
       222   03 Jun 2027 06:41:25.534   03 Jun 2027 06:41:31.796             6.262                Anadyr2           195.688
       223   03 Jun 2027 07:12:58.312   03 Jun 2027 07:14:38.322           100.010               CapeTown          3125.312
       224   03 Jun 2027 08:12:41.143   03 Jun 2027 08:13:15.379            34.236                Anadyr1          1069.875
       225   03 Jun 2027 08:13:19.358   03 Jun 2027 08:14:01.240            41.882               Magadan1          1308.813
       226   03 Jun 2027 08:14:16.792   03 Jun 2027 08:15:36.969            80.177                Anadyr1          2505.531
       227   03 Jun 2027 08:15:49.492   03 Jun 2027 08:17:01.854            72.362               Magadan2          2261.313
       228   03 Jun 2027 08:59:39.238   03 Jun 2027 09:00:00.824            21.586            RioGallegos           674.562
       229   03 Jun 2027 09:47:24.580   03 Jun 2027 09:47:57.565            32.985               Magadan1          1030.781
       230   03 Jun 2027 09:48:25.653   03 Jun 2027 09:48:29.413             3.760               Magadan1           117.500
       231   03 Jun 2027 09:48:33.866   03 Jun 2027 09:48:52.216            18.350               Magadan1           573.437
       232   03 Jun 2027 09:49:47.254   03 Jun 2027 09:51:11.631            84.377               Magadan1          2636.781
       233   03 Jun 2027 09:52:14.796   03 Jun 2027 09:53:04.938            50.142               Magadan1          1566.937
       234   03 Jun 2027 09:53:05.836   03 Jun 2027 09:53:06.653             0.817               Magadan2            25.531
       235   03 Jun 2027 09:53:26.072   03 Jun 2027 09:53:33.525             7.453                Irkutsk           232.906
       236   03 Jun 2027 09:53:57.952   03 Jun 2027 09:54:51.119            53.167               Magadan2          1661.469
       237   03 Jun 2027 10:29:52.412   03 Jun 2027 10:30:25.568            33.156            RioGallegos          1036.125
       238   03 Jun 2027 11:06:51.859   03 Jun 2027 11:08:48.928           117.069                Sumatra          3658.406
       239   03 Jun 2027 11:24:55.529   03 Jun 2027 11:26:02.451            66.922               Magadan1          2091.312
       240   03 Jun 2027 11:26:11.328   03 Jun 2027 11:26:58.125            46.797                Irkutsk          1462.406
       241   03 Jun 2027 11:27:21.935   03 Jun 2027 11:28:12.100            50.165                Novosib          1567.656
       242   03 Jun 2027 11:28:30.873   03 Jun 2027 11:28:41.481            10.608                Irkutsk           331.500
       243   03 Jun 2027 11:28:56.621   03 Jun 2027 11:29:29.850            33.229                Novosib          1038.406
       244   03 Jun 2027 11:29:45.039   03 Jun 2027 11:29:58.802            13.763                Norilsk           430.094
       245   03 Jun 2027 11:30:04.958   03 Jun 2027 11:30:07.675             2.717                Irkutsk            84.906
       246   03 Jun 2027 11:30:08.354   03 Jun 2027 11:30:15.415             7.061                Novosib           220.656
       247   03 Jun 2027 11:30:16.596   03 Jun 2027 11:30:46.068            29.472                Novosib           921.000
       248   03 Jun 2027 12:06:01.163   03 Jun 2027 12:07:23.507            82.344            RioGallegos          2573.250
       249   03 Jun 2027 12:40:27.678   03 Jun 2027 12:41:01.835            34.157                Sumatra          1067.406
       250   03 Jun 2027 12:48:48.231   03 Jun 2027 12:48:57.586             9.355                Sumatra           292.344
       251   03 Jun 2027 12:49:42.017   03 Jun 2027 12:49:44.042             2.025                  Delhi            63.281
       252   03 Jun 2027 12:53:25.859   03 Jun 2027 12:54:43.432            77.573                  Delhi          2424.156
       253   03 Jun 2027 12:55:10.256   03 Jun 2027 12:55:53.941            43.685                Irkutsk          1365.156
       254   03 Jun 2027 12:57:25.562   03 Jun 2027 12:58:08.387            42.825                Novosib          1338.281
       255   03 Jun 2027 12:59:05.503   03 Jun 2027 13:00:06.935            61.432                Irkutsk          1919.750
       256   03 Jun 2027 14:25:01.721   03 Jun 2027 14:25:25.275            23.554                  Delhi           736.062
       257   03 Jun 2027 14:26:32.400   03 Jun 2027 14:27:27.291            54.891                  Delhi          1715.344
       258   03 Jun 2027 14:29:41.719   03 Jun 2027 14:29:54.701            12.982                  Delhi           405.687
       259   03 Jun 2027 14:32:30.239   03 Jun 2027 14:33:29.159            58.920                  Delhi          1841.250
       260   03 Jun 2027 14:33:41.329   03 Jun 2027 14:36:31.605           170.276                Novosib          5321.125
       261   03 Jun 2027 14:37:05.205   03 Jun 2027 14:37:20.814            15.609                Norilsk           487.781
       262   03 Jun 2027 14:38:28.424   03 Jun 2027 14:39:39.323            70.899                Norilsk          2215.594
       263   03 Jun 2027 16:08:58.705   03 Jun 2027 16:11:58.594           179.889                 Moscow          5621.531
       264   03 Jun 2027 16:12:29.189   03 Jun 2027 16:13:42.780            73.591              Murmansk2          2299.719
       265   03 Jun 2027 16:17:34.370   03 Jun 2027 16:22:08.701           274.331                Norilsk          8572.844
       266   03 Jun 2027 17:47:06.022   03 Jun 2027 17:48:28.494            82.472                 Moscow          2577.250
       267   03 Jun 2027 17:49:55.911   03 Jun 2027 17:51:44.781           108.870              Murmansk1          3402.187
       268   03 Jun 2027 17:52:43.493   03 Jun 2027 17:52:59.015            15.522              Murmansk1           485.062
       269   03 Jun 2027 17:53:14.208   03 Jun 2027 17:53:40.243            26.035              Murmansk1           813.594
       270   03 Jun 2027 18:03:19.022   03 Jun 2027 18:03:25.846             6.824                Anadyr1           213.250
       271   03 Jun 2027 18:04:05.326   03 Jun 2027 18:04:45.338            40.012                Anadyr2          1250.375
       272   03 Jun 2027 18:08:42.424   03 Jun 2027 18:09:15.010            32.586                Anadyr2          1018.312
       273   03 Jun 2027 18:09:52.113   03 Jun 2027 18:10:25.339            33.226                Anadyr2          1038.313
       274   03 Jun 2027 18:58:39.261   03 Jun 2027 19:00:21.097           101.836               CapeTown          3182.375
       275   03 Jun 2027 19:29:49.499   03 Jun 2027 19:35:35.380           345.881              Murmansk1         10808.781
       276   03 Jun 2027 21:14:56.958   03 Jun 2027 21:18:42.308           225.350                Anadyr1          7042.187
       277   03 Jun 2027 21:18:59.691   03 Jun 2027 21:20:58.379           118.688               Magadan1          3709.000
       278   03 Jun 2027 21:21:07.137   03 Jun 2027 21:21:42.041            34.904               Magadan2          1090.750
       279   03 Jun 2027 21:22:02.819   03 Jun 2027 21:22:26.920            24.101               Magadan2           753.156
       280   03 Jun 2027 21:24:16.127   03 Jun 2027 21:24:45.774            29.647               Magadan2           926.469
       281   03 Jun 2027 21:25:12.683   03 Jun 2027 21:25:28.190            15.507               Magadan2           484.594
       282   03 Jun 2027 21:25:44.007   03 Jun 2027 21:26:00.416            16.409               Magadan1           512.781
       283   03 Jun 2027 21:26:00.416   03 Jun 2027 21:26:52.406            51.990               Magadan2          1624.687
       284   03 Jun 2027 22:10:46.970   03 Jun 2027 22:13:28.735           161.765            RioGallegos          5055.156
       285   03 Jun 2027 22:50:45.631   03 Jun 2027 22:52:47.976           122.345                Anadyr1          3823.281
       286   03 Jun 2027 22:52:51.783   03 Jun 2027 22:54:23.958            92.175                Norilsk          2880.469
       287   03 Jun 2027 22:54:52.115   03 Jun 2027 22:55:02.032             9.917               Magadan2           309.906
       288   03 Jun 2027 22:55:31.680   03 Jun 2027 22:56:02.118            30.438               Magadan2           951.188
       289   03 Jun 2027 22:57:16.028   03 Jun 2027 22:57:55.368            39.340                Norilsk          1229.375
       290   03 Jun 2027 22:59:32.216   03 Jun 2027 23:00:08.108            35.892                Irkutsk          1121.625
       291   03 Jun 2027 23:04:06.100   03 Jun 2027 23:04:20.818            14.718                Irkutsk           459.938
       292   03 Jun 2027 23:12:26.247   03 Jun 2027 23:12:26.818             0.571                Sumatra            17.844
       293   03 Jun 2027 23:14:20.507   03 Jun 2027 23:15:15.536            55.029                Sumatra          1719.656
       294   03 Jun 2027 23:16:10.278   03 Jun 2027 23:16:45.878            35.600                Sumatra          1112.500
       295   03 Jun 2027 23:18:39.804   03 Jun 2027 23:20:01.913            82.109                Sumatra          2565.906
       296   03 Jun 2027 23:53:07.315   03 Jun 2027 23:53:15.486             8.171            RioGallegos           255.344
       297   04 Jun 2027 00:25:59.756   04 Jun 2027 00:26:16.876            17.120                Anadyr1           535.000
       298   04 Jun 2027 00:26:18.161   04 Jun 2027 00:26:57.709            39.548                Anadyr2          1235.875
       299   04 Jun 2027 00:27:59.936   04 Jun 2027 00:28:49.674            49.738                Anadyr1          1554.312
       300   04 Jun 2027 00:28:56.328   04 Jun 2027 00:30:23.846            87.518                Norilsk          2734.938
       301   04 Jun 2027 00:30:35.308   04 Jun 2027 00:31:01.673            26.365               Magadan1           823.906
       302   04 Jun 2027 00:31:06.278   04 Jun 2027 00:31:41.044            34.766               Magadan2          1086.437
       303   04 Jun 2027 00:32:34.851   04 Jun 2027 00:33:35.515            60.664                Irkutsk          1895.750
       304   04 Jun 2027 00:33:42.283   04 Jun 2027 00:35:26.028           103.745                Novosib          3242.031
       305   04 Jun 2027 00:42:42.178   04 Jun 2027 00:43:52.894            70.716                  Delhi          2209.875
       306   04 Jun 2027 00:44:35.254   04 Jun 2027 00:44:46.893            11.639                  Delhi           363.719
       307   04 Jun 2027 00:49:16.730   04 Jun 2027 00:49:26.654             9.924                  Delhi           310.125
       308   04 Jun 2027 00:54:19.743   04 Jun 2027 00:54:44.889            25.146                Sumatra           785.812
       309   04 Jun 2027 00:55:19.159   04 Jun 2027 00:56:20.181            61.022                Sumatra          1906.937
       310   04 Jun 2027 01:27:07.412   04 Jun 2027 01:27:33.217            25.805            RioGallegos           806.406
       311   04 Jun 2027 01:31:29.701   04 Jun 2027 01:32:06.559            36.858            RioGallegos          1151.812
       312   04 Jun 2027 02:00:42.984   04 Jun 2027 02:01:13.667            30.683                Anadyr2           958.844
       313   04 Jun 2027 02:02:06.671   04 Jun 2027 02:02:40.110            33.439                Anadyr2          1044.969
       314   04 Jun 2027 02:04:41.188   04 Jun 2027 02:06:05.187            83.999                Norilsk          2624.969
       315   04 Jun 2027 02:07:28.573   04 Jun 2027 02:09:17.457           108.884              Murmansk2          3402.625
       316   04 Jun 2027 02:09:29.770   04 Jun 2027 02:11:20.836           111.066                Novosib          3470.813
       317   04 Jun 2027 02:19:41.231   04 Jun 2027 02:20:05.537            24.306                  Delhi           759.562
       318   04 Jun 2027 02:25:34.071   04 Jun 2027 02:27:42.498           128.427                  Delhi          4013.344
       319   04 Jun 2027 02:57:53.217   04 Jun 2027 02:59:51.402           118.185            RioGallegos          3693.281
       320   04 Jun 2027 03:02:20.091   04 Jun 2027 03:03:03.595            43.504            RioGallegos          1359.500
       321   04 Jun 2027 03:46:56.116   04 Jun 2027 03:48:46.250           110.134                Irkutsk          3441.688
       322   04 Jun 2027 03:51:26.011   04 Jun 2027 03:51:29.085             3.074              Murmansk1            96.063
       323   04 Jun 2027 03:51:34.873   04 Jun 2027 03:51:42.163             7.290                Norilsk           227.812
       324   04 Jun 2027 03:52:03.497   04 Jun 2027 03:52:25.665            22.168                Norilsk           692.750
       325   04 Jun 2027 03:52:39.634   04 Jun 2027 03:53:37.772            58.138                 Moscow          1816.813
       326   04 Jun 2027 03:55:17.759   04 Jun 2027 03:55:49.098            31.339                Novosib           979.344
       327   04 Jun 2027 03:56:14.634   04 Jun 2027 03:56:49.405            34.771                  Delhi          1086.594
       328   04 Jun 2027 03:58:52.618   04 Jun 2027 04:00:27.526            94.908                  Delhi          2965.875
       329   04 Jun 2027 05:25:24.038   04 Jun 2027 05:25:48.714            24.676                Novosib           771.125
       330   04 Jun 2027 05:27:24.282   04 Jun 2027 05:27:57.569            33.287              Murmansk2          1040.219
       331   04 Jun 2027 05:28:23.459   04 Jun 2027 05:28:58.518            35.059                 Moscow          1095.594
       332   04 Jun 2027 05:29:08.855   04 Jun 2027 05:29:20.992            12.137                 Moscow           379.281
       333   04 Jun 2027 05:30:32.178   04 Jun 2027 05:30:49.086            16.908                 Moscow           528.375
       334   04 Jun 2027 05:31:35.693   04 Jun 2027 05:31:41.587             5.894                 Moscow           184.187
       335   04 Jun 2027 05:45:53.992   04 Jun 2027 05:48:20.668           146.676               CapeTown          4583.625
       336   04 Jun 2027 06:48:49.660   04 Jun 2027 06:49:43.323            53.663                Anadyr2          1676.969
       337   04 Jun 2027 06:49:52.515   04 Jun 2027 06:50:03.386            10.871               Magadan1           339.719
       338   04 Jun 2027 06:50:06.134   04 Jun 2027 06:50:54.144            48.010                Anadyr1          1500.312
       339   04 Jun 2027 06:51:04.181   04 Jun 2027 06:51:16.414            12.233               Magadan2           382.281
       340   04 Jun 2027 06:51:45.338   04 Jun 2027 06:52:05.669            20.331                Anadyr2           635.344
       341   04 Jun 2027 06:52:20.223   04 Jun 2027 06:53:26.166            65.943                Anadyr1          2060.719
       342   04 Jun 2027 07:26:36.012   04 Jun 2027 07:29:20.095           164.083               CapeTown          5127.594
       343   04 Jun 2027 08:25:12.889   04 Jun 2027 08:25:22.402             9.513                Anadyr1           297.281
       344   04 Jun 2027 08:25:24.018   04 Jun 2027 08:25:34.798            10.780                Anadyr2           336.875
       345   04 Jun 2027 08:25:47.905   04 Jun 2027 08:26:25.910            38.005                Anadyr2          1187.656
       346   04 Jun 2027 08:26:41.038   04 Jun 2027 08:26:43.402             2.364               Magadan1            73.875
       347   04 Jun 2027 08:27:22.232   04 Jun 2027 08:29:01.625            99.393               Magadan1          3106.031
       348   04 Jun 2027 09:57:16.163   04 Jun 2027 09:57:37.636            21.473               Magadan1           671.031
       349   04 Jun 2027 09:59:25.035   04 Jun 2027 10:00:31.041            66.006               Magadan2          2062.688
       350   04 Jun 2027 10:00:45.948   04 Jun 2027 10:00:51.765             5.817               Magadan1           181.781
       351   04 Jun 2027 10:01:36.356   04 Jun 2027 10:01:52.836            16.480               Magadan2           515.000
       352   04 Jun 2027 10:02:49.163   04 Jun 2027 10:03:13.560            24.397                Norilsk           762.406
       353   04 Jun 2027 10:03:26.862   04 Jun 2027 10:04:16.239            49.377                Irkutsk          1543.031
       354   04 Jun 2027 10:04:50.309   04 Jun 2027 10:05:25.371            35.062                Anadyr2          1095.687
       355   04 Jun 2027 10:05:33.211   04 Jun 2027 10:05:53.174            19.963               Magadan2           623.844
       356   04 Jun 2027 10:06:01.466   04 Jun 2027 10:06:09.534             8.068                Norilsk           252.125
       357   04 Jun 2027 10:06:10.660   04 Jun 2027 10:06:46.186            35.526               Magadan1          1110.187
       358   04 Jun 2027 10:07:03.998   04 Jun 2027 10:07:05.107             1.109                Norilsk            34.656
       359   04 Jun 2027 10:41:43.994   04 Jun 2027 10:43:01.172            77.178            RioGallegos          2411.812
       360   04 Jun 2027 11:18:04.765   04 Jun 2027 11:18:08.285             3.520                Sumatra           110.000
       361   04 Jun 2027 11:19:45.439   04 Jun 2027 11:20:42.680            57.241                Sumatra          1788.781
       362   04 Jun 2027 11:38:01.424   04 Jun 2027 11:38:38.415            36.991                Irkutsk          1155.969
       363   04 Jun 2027 11:39:03.610   04 Jun 2027 11:39:35.281            31.671                Irkutsk           989.719
       364   04 Jun 2027 11:39:47.065   04 Jun 2027 11:40:38.235            51.170                Irkutsk          1599.063
       365   04 Jun 2027 11:40:49.825   04 Jun 2027 11:41:09.289            19.464                Novosib           608.250
       366   04 Jun 2027 11:41:39.317   04 Jun 2027 11:41:46.823             7.506                Norilsk           234.562
       367   04 Jun 2027 11:41:53.354   04 Jun 2027 11:42:32.578            39.224                Irkutsk          1225.750
       368   04 Jun 2027 11:42:46.508   04 Jun 2027 11:43:35.810            49.302                Novosib          1540.687
       369   04 Jun 2027 12:18:21.330   04 Jun 2027 12:18:21.582             0.252            RioGallegos             7.875
       370   04 Jun 2027 12:18:47.026   04 Jun 2027 12:19:27.860            40.834            RioGallegos          1276.063
       371   04 Jun 2027 12:52:40.783   04 Jun 2027 12:54:27.452           106.669                Sumatra          3333.406
       372   04 Jun 2027 13:02:30.411   04 Jun 2027 13:02:38.102             7.691                Sumatra           240.344
       373   04 Jun 2027 13:07:40.315   04 Jun 2027 13:08:46.759            66.444                Irkutsk          2076.375
       374   04 Jun 2027 13:09:36.664   04 Jun 2027 13:10:33.635            56.971                Novosib          1780.344
       375   04 Jun 2027 13:12:48.108   04 Jun 2027 13:13:50.017            61.909                Norilsk          1934.656
       376   04 Jun 2027 14:37:25.907   04 Jun 2027 14:39:01.484            95.577                  Delhi          2986.781
       377   04 Jun 2027 14:41:44.353   04 Jun 2027 14:42:44.402            60.049                  Delhi          1876.531
       378   04 Jun 2027 14:45:23.117   04 Jun 2027 14:47:20.608           117.491                  Delhi          3671.594
       379   04 Jun 2027 14:49:11.947   04 Jun 2027 14:50:40.910            88.963                Novosib          2780.094
       380   04 Jun 2027 14:53:56.190   04 Jun 2027 14:54:25.027            28.837                Norilsk           901.156
       381   04 Jun 2027 16:21:04.408   04 Jun 2027 16:24:27.632           203.224                 Moscow          6350.750
       382   04 Jun 2027 16:25:19.182   04 Jun 2027 16:25:44.710            25.528              Murmansk1           797.750
       383   04 Jun 2027 16:29:29.427   04 Jun 2027 16:31:08.377            98.950              Murmansk1          3092.187
       384   04 Jun 2027 16:31:40.739   04 Jun 2027 16:34:54.177           193.438                Norilsk          6044.938
       385   04 Jun 2027 17:41:26.206   04 Jun 2027 17:42:01.633            35.427               CapeTown          1107.094
       386   04 Jun 2027 17:59:45.430   04 Jun 2027 18:04:35.424           289.994                 Moscow          9062.313
       387   04 Jun 2027 18:20:31.079   04 Jun 2027 18:20:53.403            22.324                Anadyr1           697.625
       388   04 Jun 2027 18:25:30.977   04 Jun 2027 18:25:57.640            26.663                Anadyr2           833.219
       389   04 Jun 2027 19:10:52.307   04 Jun 2027 19:12:22.016            89.709               CapeTown          2803.406
       390   04 Jun 2027 19:42:37.210   04 Jun 2027 19:48:45.381           368.171              Murmansk2         11505.344
       391   04 Jun 2027 20:01:57.590   04 Jun 2027 20:02:30.259            32.669               Magadan1          1020.906
       392   04 Jun 2027 21:26:58.534   04 Jun 2027 21:30:55.733           237.199                Anadyr1          7412.469
       393   04 Jun 2027 21:31:04.734   04 Jun 2027 21:33:57.637           172.903               Magadan1          5403.219
       394   04 Jun 2027 21:33:57.637   04 Jun 2027 21:34:07.692            10.055               Magadan2           314.219
       395   04 Jun 2027 21:34:13.359   04 Jun 2027 21:35:17.026            63.667               Magadan2          1989.594
       396   04 Jun 2027 22:22:14.672   04 Jun 2027 22:24:12.758           118.086            RioGallegos          3690.188
       397   04 Jun 2027 22:24:36.798   04 Jun 2027 22:25:09.234            32.436            RioGallegos          1013.625
       398   04 Jun 2027 22:28:34.382   04 Jun 2027 22:29:05.058            30.676            RioGallegos           958.625
       399   04 Jun 2027 23:02:44.666   04 Jun 2027 23:03:50.363            65.697                Anadyr2          2053.031
       400   04 Jun 2027 23:03:55.908   04 Jun 2027 23:04:21.584            25.676                Anadyr1           802.375
       401   04 Jun 2027 23:04:50.422   04 Jun 2027 23:06:25.615            95.193                Norilsk          2974.781
       402   04 Jun 2027 23:06:28.534   04 Jun 2027 23:06:53.912            25.378               Magadan1           793.063
       403   04 Jun 2027 23:06:53.912   04 Jun 2027 23:07:00.919             7.007               Magadan2           218.969
       404   04 Jun 2027 23:07:55.838   04 Jun 2027 23:08:14.902            19.064               Magadan2           595.750
       405   04 Jun 2027 23:09:25.960   04 Jun 2027 23:10:21.526            55.566                Irkutsk          1736.438
       406   04 Jun 2027 23:11:51.007   04 Jun 2027 23:12:46.527            55.520                Irkutsk          1735.000
       407   04 Jun 2027 23:19:01.896   04 Jun 2027 23:19:39.349            37.453                Irkutsk          1170.406
       408   04 Jun 2027 23:23:46.583   04 Jun 2027 23:24:21.772            35.189                Sumatra          1099.656
       409   04 Jun 2027 23:28:30.915   04 Jun 2027 23:29:59.252            88.337                Sumatra          2760.531
       410   05 Jun 2027 00:04:23.544   05 Jun 2027 00:05:03.660            40.116            RioGallegos          1253.625
       411   05 Jun 2027 00:37:51.621   05 Jun 2027 00:40:02.773           131.152                Anadyr1          4098.500
       412   05 Jun 2027 00:40:53.896   05 Jun 2027 00:41:06.698            12.802                Norilsk           400.063
       413   05 Jun 2027 00:41:21.771   05 Jun 2027 00:42:34.313            72.542               Magadan2          2266.937
       414   05 Jun 2027 00:42:37.639   05 Jun 2027 00:42:55.355            17.716               Magadan2           553.625
       415   05 Jun 2027 00:43:42.611   05 Jun 2027 00:44:05.271            22.660               Magadan2           708.125
       416   05 Jun 2027 00:44:35.441   05 Jun 2027 00:45:31.763            56.322                Irkutsk          1760.062
       417   05 Jun 2027 00:45:44.935   05 Jun 2027 00:45:52.498             7.563                Novosib           236.344
       418   05 Jun 2027 00:46:06.486   05 Jun 2027 00:46:39.255            32.769                Novosib          1024.031
       419   05 Jun 2027 00:50:24.078   05 Jun 2027 00:50:25.076             0.998                Irkutsk            31.188
       420   05 Jun 2027 00:50:30.306   05 Jun 2027 00:50:48.500            18.194                Novosib           568.563
       421   05 Jun 2027 00:50:49.961   05 Jun 2027 00:52:08.053            78.092                Novosib          2440.375
       422   05 Jun 2027 00:57:06.847   05 Jun 2027 00:57:21.489            14.642                  Delhi           457.563
       423   05 Jun 2027 00:58:56.939   05 Jun 2027 01:00:24.319            87.380                Sumatra          2730.625
       424   05 Jun 2027 01:36:48.588   05 Jun 2027 01:37:37.995            49.407            RioGallegos          1543.969
       425   05 Jun 2027 01:41:49.225   05 Jun 2027 01:42:28.447            39.222            RioGallegos          1225.688
       426   05 Jun 2027 02:13:40.390   05 Jun 2027 02:14:05.167            24.777                Anadyr1           774.281
       427   05 Jun 2027 02:14:05.167   05 Jun 2027 02:14:33.766            28.599                Anadyr2           893.719
       428   05 Jun 2027 02:16:43.331   05 Jun 2027 02:17:53.630            70.299                Norilsk          2196.844
       429   05 Jun 2027 02:18:21.955   05 Jun 2027 02:18:36.944            14.989                Norilsk           468.406
       430   05 Jun 2027 02:19:19.750   05 Jun 2027 02:19:23.543             3.793              Murmansk1           118.531
       431   05 Jun 2027 02:19:27.578   05 Jun 2027 02:20:41.216            73.638              Murmansk2          2301.188
       432   05 Jun 2027 02:20:52.296   05 Jun 2027 02:21:49.577            57.281                Irkutsk          1790.031
       433   05 Jun 2027 02:21:51.499   05 Jun 2027 02:21:53.193             1.694                Irkutsk            52.937
       434   05 Jun 2027 02:22:25.554   05 Jun 2027 02:22:31.595             6.041                Irkutsk           188.781
       435   05 Jun 2027 02:25:19.050   05 Jun 2027 02:25:44.947            25.897                Novosib           809.281
       436   05 Jun 2027 02:27:30.674   05 Jun 2027 02:27:54.294            23.620                Irkutsk           738.125
       437   05 Jun 2027 02:31:04.943   05 Jun 2027 02:31:51.691            46.748                  Delhi          1460.875
       438   05 Jun 2027 02:37:05.786   05 Jun 2027 02:37:23.932            18.146                  Delhi           567.063
       439   05 Jun 2027 02:39:33.016   05 Jun 2027 02:40:30.586            57.570                  Delhi          1799.062
       440   05 Jun 2027 03:10:18.932   05 Jun 2027 03:13:09.444           170.512            RioGallegos          5328.500
       441   05 Jun 2027 03:13:44.261   05 Jun 2027 03:14:42.065            57.804            RioGallegos          1806.375
       442   05 Jun 2027 04:02:22.228   05 Jun 2027 04:04:06.385           104.157              Murmansk1          3254.906
       443   05 Jun 2027 04:04:37.184   05 Jun 2027 04:05:38.364            61.180                 Moscow          1911.875
       444   05 Jun 2027 04:05:52.645   05 Jun 2027 04:07:15.018            82.373                Novosib          2574.156
       445   05 Jun 2027 04:07:22.016   05 Jun 2027 04:10:42.094           200.078                  Delhi          6252.437
       446   05 Jun 2027 05:29:03.683   05 Jun 2027 05:29:52.543            48.860               Magadan2          1526.875
       447   05 Jun 2027 05:41:17.606   05 Jun 2027 05:41:39.910            22.304                 Moscow           697.000
       448   05 Jun 2027 05:58:01.143   05 Jun 2027 06:00:07.000           125.857               CapeTown          3933.031
       449   05 Jun 2027 07:00:39.913   05 Jun 2027 07:01:44.403            64.490                Anadyr2          2015.312
       450   05 Jun 2027 07:01:58.217   05 Jun 2027 07:02:07.870             9.653               Magadan2           301.656
       451   05 Jun 2027 07:02:22.841   05 Jun 2027 07:02:35.091            12.250                Anadyr1           382.813
       452   05 Jun 2027 07:02:35.091   05 Jun 2027 07:03:37.532            62.441                Anadyr2          1951.281
       453   05 Jun 2027 08:32:48.831   05 Jun 2027 08:33:20.048            31.217                Anadyr2           975.531
       454   05 Jun 2027 08:37:09.085   05 Jun 2027 08:37:48.626            39.541                Anadyr2          1235.656
       455   05 Jun 2027 08:37:51.741   05 Jun 2027 08:38:22.452            30.711               Magadan2           959.719
       456   05 Jun 2027 08:38:29.520   05 Jun 2027 08:38:53.628            24.108               Magadan1           753.375
       457   05 Jun 2027 08:39:24.361   05 Jun 2027 08:41:00.736            96.375               Magadan1          3011.719
       458   05 Jun 2027 10:12:37.479   05 Jun 2027 10:13:09.956            32.477               Magadan2          1014.906
       459   05 Jun 2027 10:13:13.069   05 Jun 2027 10:14:01.120            48.051               Magadan2          1501.594
       460   05 Jun 2027 10:15:08.297   05 Jun 2027 10:15:44.174            35.877               Magadan1          1121.156
       461   05 Jun 2027 10:15:59.861   05 Jun 2027 10:16:09.122             9.261                Norilsk           289.406
       462   05 Jun 2027 10:16:37.212   05 Jun 2027 10:17:48.582            71.370                Norilsk          2230.312
       463   05 Jun 2027 10:18:04.074   05 Jun 2027 10:18:26.414            22.340               Magadan1           698.125
       464   05 Jun 2027 10:18:28.962   05 Jun 2027 10:18:42.066            13.104                Irkutsk           409.500
       465   05 Jun 2027 10:23:18.719   05 Jun 2027 10:23:25.435             6.716                Norilsk           209.875
       466   05 Jun 2027 10:53:38.795   05 Jun 2027 10:55:36.775           117.980            RioGallegos          3686.875
       467   05 Jun 2027 11:35:13.725   05 Jun 2027 11:35:18.141             4.416                Sumatra           138.000
       468   05 Jun 2027 11:39:09.044   05 Jun 2027 11:40:01.976            52.932                Sumatra          1654.125
       469   05 Jun 2027 11:50:10.326   05 Jun 2027 11:50:19.739             9.413                Irkutsk           294.156
       470   05 Jun 2027 11:50:21.917   05 Jun 2027 11:51:06.539            44.622                Irkutsk          1394.438
       471   05 Jun 2027 11:51:39.751   05 Jun 2027 11:52:35.307            55.556                Irkutsk          1736.125
       472   05 Jun 2027 11:52:44.671   05 Jun 2027 11:53:44.863            60.192                Irkutsk          1881.000
       473   05 Jun 2027 11:53:50.386   05 Jun 2027 11:54:22.148            31.762                Novosib           992.563
       474   05 Jun 2027 11:54:29.254   05 Jun 2027 11:54:36.245             6.991                Norilsk           218.469
       475   05 Jun 2027 11:54:49.876   05 Jun 2027 11:55:54.160            64.284                Novosib          2008.875
       476   05 Jun 2027 12:30:46.309   05 Jun 2027 12:31:13.837            27.528            RioGallegos           860.250
       477   05 Jun 2027 12:35:40.604   05 Jun 2027 12:35:50.464             9.860            RioGallegos           308.125
       478   05 Jun 2027 12:38:23.519   05 Jun 2027 12:40:24.997           121.478            RioGallegos          3796.187
       479   05 Jun 2027 13:09:23.010   05 Jun 2027 13:09:30.619             7.609                Sumatra           237.781
       480   05 Jun 2027 13:13:10.786   05 Jun 2027 13:14:56.939           106.153                Sumatra          3317.281
       481   05 Jun 2027 13:20:16.646   05 Jun 2027 13:20:29.718            13.072                Irkutsk           408.500
       482   05 Jun 2027 13:22:43.009   05 Jun 2027 13:23:01.942            18.933                Irkutsk           591.656
