uniorb/output/strategy_4/Drop/Drop_KinoSat_112009.txt

KinoSat_112009
-------------------------
    Access    *     Start Time (UTCG)     *     Stop Time (UTCG)  *   Duration (s)        *       Station  *  Data (Mbytes)
         1   01 Jun 2027 03:56:42.660   01 Jun 2027 03:57:34.342            51.682                Novosib          1615.063
         2   01 Jun 2027 03:57:34.532   01 Jun 2027 03:59:12.608            98.076                Norilsk          3064.875
         3   01 Jun 2027 03:59:14.867   01 Jun 2027 03:59:23.560             8.693                Norilsk           271.656
         4   01 Jun 2027 03:59:33.022   01 Jun 2027 04:00:30.832            57.810              Murmansk1          1806.563
         5   01 Jun 2027 04:00:38.103   01 Jun 2027 04:01:27.209            49.106                Norilsk          1534.562
         6   01 Jun 2027 04:01:44.263   01 Jun 2027 04:02:30.890            46.627                  Delhi          1457.094
         7   01 Jun 2027 04:03:20.289   01 Jun 2027 04:03:24.154             3.865                Norilsk           120.781
         8   01 Jun 2027 04:03:33.883   01 Jun 2027 04:03:36.504             2.621                Irkutsk            81.906
         9   01 Jun 2027 04:03:54.408   01 Jun 2027 04:04:22.881            28.473                Novosib           889.781
        10   01 Jun 2027 04:04:38.050   01 Jun 2027 04:06:11.237            93.187                  Delhi          2912.094
        11   01 Jun 2027 04:10:02.439   01 Jun 2027 04:11:26.337            83.898                  Delhi          2621.813
        12   01 Jun 2027 04:45:04.359   01 Jun 2027 04:47:35.529           151.170            RioGallegos          4724.063
        13   01 Jun 2027 05:35:38.367   01 Jun 2027 05:36:00.175            21.808              Murmansk1           681.500
        14   01 Jun 2027 05:36:00.175   01 Jun 2027 05:36:26.877            26.702              Murmansk2           834.438
        15   01 Jun 2027 05:36:28.235   01 Jun 2027 05:38:07.247            99.012                Novosib          3094.125
        16   01 Jun 2027 05:38:12.457   01 Jun 2027 05:39:11.890            59.433              Murmansk1          1857.281
        17   01 Jun 2027 05:39:28.094   01 Jun 2027 05:39:53.221            25.127              Murmansk2           785.219
        18   01 Jun 2027 05:40:04.440   01 Jun 2027 05:40:50.870            46.430                Novosib          1450.938
        19   01 Jun 2027 05:56:54.600   01 Jun 2027 05:59:58.648           184.048               CapeTown          5751.500
        20   01 Jun 2027 06:02:13.240   01 Jun 2027 06:02:48.009            34.769               CapeTown          1086.531
        21   01 Jun 2027 06:03:33.597   01 Jun 2027 06:04:20.993            47.396               CapeTown          1481.125
        22   01 Jun 2027 06:06:47.397   01 Jun 2027 06:07:35.870            48.473               CapeTown          1514.781
        23   01 Jun 2027 07:12:49.018   01 Jun 2027 07:13:15.034            26.016              Murmansk2           813.000
        24   01 Jun 2027 07:13:32.171   01 Jun 2027 07:13:54.153            21.982                 Moscow           686.938
        25   01 Jun 2027 07:14:00.887   01 Jun 2027 07:14:13.144            12.257              Murmansk1           383.031
        26   01 Jun 2027 07:14:13.144   01 Jun 2027 07:15:17.028            63.884              Murmansk2          1996.375
        27   01 Jun 2027 07:15:17.028   01 Jun 2027 07:15:41.321            24.293              Murmansk1           759.156
        28   01 Jun 2027 07:15:46.345   01 Jun 2027 07:17:02.778            76.433                 Moscow          2388.531
        29   01 Jun 2027 07:17:27.404   01 Jun 2027 07:17:37.843            10.439                 Moscow           326.219
        30   01 Jun 2027 07:17:45.893   01 Jun 2027 07:18:07.894            22.001                 Moscow           687.531
        31   01 Jun 2027 07:32:03.435   01 Jun 2027 07:37:02.133           298.698               CapeTown          9334.313
        32   01 Jun 2027 08:36:50.229   01 Jun 2027 08:38:28.021            97.792               Magadan1          3056.000
        33   01 Jun 2027 08:38:28.021   01 Jun 2027 08:41:00.604           152.583               Magadan2          4768.219
        34   01 Jun 2027 10:07:12.508   01 Jun 2027 10:07:27.439            14.931                Anadyr2           466.594
        35   01 Jun 2027 10:07:27.439   01 Jun 2027 10:08:24.538            57.099                Anadyr1          1784.344
        36   01 Jun 2027 10:08:33.945   01 Jun 2027 10:16:58.748           504.803                Anadyr2         15775.094
        37   01 Jun 2027 11:42:51.324   01 Jun 2027 11:46:01.903           190.579               Magadan2          5955.594
        38   01 Jun 2027 11:46:15.438   01 Jun 2027 11:48:14.073           118.635               Magadan2          3707.344
        39   01 Jun 2027 11:48:56.811   01 Jun 2027 11:52:19.450           202.639               Magadan1          6332.469
        40   01 Jun 2027 14:41:46.529   01 Jun 2027 14:46:22.533           276.004                Sumatra          8625.125
        41   01 Jun 2027 14:56:29.266   01 Jun 2027 15:02:16.755           347.489                Irkutsk         10859.031
        42   01 Jun 2027 16:25:16.145   01 Jun 2027 16:33:12.437           476.292                  Delhi         14884.125
        43   01 Jun 2027 16:33:36.253   01 Jun 2027 16:40:35.476           419.223                Novosib         13100.719
        44   01 Jun 2027 19:47:33.110   01 Jun 2027 19:53:41.539           368.429                 Moscow         11513.406
        45   01 Jun 2027 19:53:47.767   01 Jun 2027 19:55:13.171            85.404              Murmansk2          2668.875
        46   01 Jun 2027 20:59:02.690   01 Jun 2027 21:03:19.528           256.838               CapeTown          8026.188
        47   01 Jun 2027 21:30:39.449   01 Jun 2027 21:33:51.565           192.116              Murmansk1          6003.625
        48   02 Jun 2027 02:46:55.032   02 Jun 2027 02:54:52.107           477.075                Sumatra         14908.594
        49   02 Jun 2027 04:09:37.812   02 Jun 2027 04:10:46.777            68.965                Irkutsk          2155.156
        50   02 Jun 2027 04:11:01.163   02 Jun 2027 04:15:05.181           244.018                Irkutsk          7625.563
        51   02 Jun 2027 05:47:58.852   02 Jun 2027 05:50:51.173           172.321                Novosib          5385.031
        52   02 Jun 2027 05:55:47.319   02 Jun 2027 05:56:23.531            36.212                 Moscow          1131.625
        53   02 Jun 2027 07:24:14.442   02 Jun 2027 07:24:36.302            21.860                Norilsk           683.125
        54   02 Jun 2027 07:24:54.508   02 Jun 2027 07:26:15.224            80.716              Murmansk2          2522.375
        55   02 Jun 2027 07:26:15.224   02 Jun 2027 07:27:31.874            76.650              Murmansk1          2395.312
        56   02 Jun 2027 07:29:35.426   02 Jun 2027 07:29:36.696             1.270              Murmansk2            39.687
        57   02 Jun 2027 07:30:56.576   02 Jun 2027 07:31:55.466            58.890                 Moscow          1840.313
        58   02 Jun 2027 07:44:23.902   02 Jun 2027 07:54:19.390           595.488               CapeTown         18609.000
        59   02 Jun 2027 08:49:12.515   02 Jun 2027 08:50:05.210            52.695               Magadan1          1646.719
        60   02 Jun 2027 08:50:12.411   02 Jun 2027 08:51:27.051            74.640                Anadyr1          2332.500
        61   02 Jun 2027 08:51:27.051   02 Jun 2027 08:52:19.812            52.761                Anadyr2          1648.781
        62   02 Jun 2027 10:24:18.029   02 Jun 2027 10:25:28.269            70.240               Magadan2          2195.000
        63   02 Jun 2027 10:25:45.480   02 Jun 2027 10:26:02.670            17.190               Magadan1           537.187
        64   02 Jun 2027 10:26:56.550   02 Jun 2027 10:28:59.467           122.917               Magadan1          3841.156
        65   02 Jun 2027 11:55:08.953   02 Jun 2027 11:58:50.540           221.587               Magadan1          6924.594
        66   02 Jun 2027 11:59:06.193   02 Jun 2027 12:04:09.294           303.101               Magadan1          9471.906
        67   02 Jun 2027 13:21:23.255   02 Jun 2027 13:22:28.675            65.420                Sumatra          2044.375
        68   02 Jun 2027 13:28:03.872   02 Jun 2027 13:28:29.709            25.837                Irkutsk           807.406
        69   02 Jun 2027 13:32:07.179   02 Jun 2027 13:32:37.096            29.917                Irkutsk           934.906
        70   02 Jun 2027 13:34:47.692   02 Jun 2027 13:37:33.921           166.229                Irkutsk          5194.656
        71   02 Jun 2027 14:17:49.546   02 Jun 2027 14:24:12.932           383.386            RioGallegos         11980.813
        72   02 Jun 2027 14:52:10.118   02 Jun 2027 15:00:24.924           494.806                Sumatra         15462.687
        73   02 Jun 2027 15:07:56.471   02 Jun 2027 15:14:46.410           409.939                Irkutsk         12810.594
        74   02 Jun 2027 16:37:51.642   02 Jun 2027 16:44:16.433           384.791                  Delhi         12024.719
        75   02 Jun 2027 16:46:18.368   02 Jun 2027 16:52:02.618           344.250                Novosib         10757.813
        76   02 Jun 2027 20:01:00.918   02 Jun 2027 20:04:49.474           228.556                 Moscow          7142.375
        77   02 Jun 2027 20:05:22.362   02 Jun 2027 20:07:51.184           148.822              Murmansk1          4650.688
        78   02 Jun 2027 21:09:57.656   02 Jun 2027 21:17:37.862           460.206               CapeTown         14381.437
        79   03 Jun 2027 00:20:10.248   03 Jun 2027 00:20:14.686             4.438            RioGallegos           138.687
        80   03 Jun 2027 00:20:18.003   03 Jun 2027 00:20:34.777            16.774            RioGallegos           524.187
        81   03 Jun 2027 00:24:52.221   03 Jun 2027 00:25:10.710            18.489            RioGallegos           577.781
        82   03 Jun 2027 00:28:12.414   03 Jun 2027 00:28:35.197            22.783            RioGallegos           711.969
        83   03 Jun 2027 01:00:23.549   03 Jun 2027 01:01:50.882            87.333                Anadyr1          2729.156
        84   03 Jun 2027 01:02:36.501   03 Jun 2027 01:03:01.919            25.418                Norilsk           794.313
        85   03 Jun 2027 01:03:08.878   03 Jun 2027 01:04:38.257            89.379                Norilsk          2793.094
        86   03 Jun 2027 01:05:24.732   03 Jun 2027 01:06:31.234            66.502               Magadan1          2078.187
        87   03 Jun 2027 01:06:45.019   03 Jun 2027 01:07:56.220            71.201                Irkutsk          2225.031
        88   03 Jun 2027 01:09:35.698   03 Jun 2027 01:10:12.697            36.999                Novosib          1156.219
        89   03 Jun 2027 01:14:14.548   03 Jun 2027 01:14:47.093            32.545                Novosib          1017.031
        90   03 Jun 2027 01:17:35.520   03 Jun 2027 01:18:07.256            31.736                Irkutsk           991.750
        91   03 Jun 2027 01:20:28.413   03 Jun 2027 01:21:19.730            51.317                Sumatra          1603.656
        92   03 Jun 2027 01:23:22.407   03 Jun 2027 01:23:38.585            16.178                Sumatra           505.562
        93   03 Jun 2027 01:25:43.111   03 Jun 2027 01:27:21.966            98.855                Sumatra          3089.219
        94   03 Jun 2027 02:06:36.413   03 Jun 2027 02:06:44.810             8.397            RioGallegos           262.406
        95   03 Jun 2027 02:35:02.990   03 Jun 2027 02:35:49.243            46.253                Anadyr1          1445.406
        96   03 Jun 2027 02:37:22.670   03 Jun 2027 02:37:34.188            11.518                Anadyr2           359.937
        97   03 Jun 2027 02:37:52.291   03 Jun 2027 02:37:58.332             6.041                Anadyr2           188.781
        98   03 Jun 2027 02:38:35.502   03 Jun 2027 02:39:53.696            78.194                Norilsk          2443.562
        99   03 Jun 2027 02:42:29.305   03 Jun 2027 02:45:00.198           150.893                Irkutsk          4715.406
       100   03 Jun 2027 02:47:54.522   03 Jun 2027 02:48:46.382            51.860                Irkutsk          1620.625
       101   03 Jun 2027 02:51:06.533   03 Jun 2027 02:51:08.657             2.124                  Delhi            66.375
       102   03 Jun 2027 02:51:54.731   03 Jun 2027 02:52:16.334            21.603                  Delhi           675.094
       103   03 Jun 2027 02:56:49.509   03 Jun 2027 02:57:27.253            37.744                  Delhi          1179.500
       104   03 Jun 2027 02:58:40.983   03 Jun 2027 03:05:51.546           430.563                Sumatra         13455.094
       105   03 Jun 2027 04:21:55.162   03 Jun 2027 04:22:16.228            21.066                Novosib           658.313
       106   03 Jun 2027 04:22:19.876   03 Jun 2027 04:23:01.237            41.361                Irkutsk          1292.531
       107   03 Jun 2027 04:23:01.720   03 Jun 2027 04:27:50.217           288.497                Irkutsk          9015.531
       108   03 Jun 2027 04:27:51.826   03 Jun 2027 04:28:01.351             9.525                Novosib           297.656
       109   03 Jun 2027 04:30:36.727   03 Jun 2027 04:31:03.835            27.108                  Delhi           847.125
       110   03 Jun 2027 04:33:49.900   03 Jun 2027 04:37:21.432           211.532                  Delhi          6610.375
       111   03 Jun 2027 06:00:39.498   03 Jun 2027 06:02:38.742           119.244                Novosib          3726.375
       112   03 Jun 2027 06:02:59.414   03 Jun 2027 06:03:30.513            31.099              Murmansk1           971.844
       113   03 Jun 2027 06:03:44.164   03 Jun 2027 06:03:54.413            10.249                 Moscow           320.281
       114   03 Jun 2027 06:06:44.531   03 Jun 2027 06:07:00.923            16.392                 Moscow           512.250
       115   03 Jun 2027 06:07:29.976   03 Jun 2027 06:07:30.970             0.994                 Moscow            31.062
       116   03 Jun 2027 06:07:35.418   03 Jun 2027 06:07:59.996            24.578                 Moscow           768.063
       117   03 Jun 2027 06:20:14.790   03 Jun 2027 06:22:23.142           128.352               CapeTown          4011.000
       118   03 Jun 2027 07:23:20.983   03 Jun 2027 07:24:31.913            70.930                Anadyr1          2216.563
       119   03 Jun 2027 07:26:53.583   03 Jun 2027 07:27:35.530            41.947                Anadyr2          1310.844
       120   03 Jun 2027 07:35:33.688   03 Jun 2027 07:35:52.739            19.051                Norilsk           595.344
       121   03 Jun 2027 07:36:04.542   03 Jun 2027 07:36:24.710            20.168                Norilsk           630.250
       122   03 Jun 2027 07:38:02.211   03 Jun 2027 07:39:15.127            72.916                 Moscow          2278.625
       123   03 Jun 2027 07:56:51.677   03 Jun 2027 08:02:44.329           352.652               CapeTown         11020.375
       124   03 Jun 2027 08:57:49.342   03 Jun 2027 08:58:37.657            48.315                Anadyr2          1509.844
       125   03 Jun 2027 08:59:27.396   03 Jun 2027 09:00:01.301            33.905               Magadan1          1059.531
       126   03 Jun 2027 09:00:55.812   03 Jun 2027 09:02:40.733           104.921                Anadyr2          3278.781
       127   03 Jun 2027 10:32:50.752   03 Jun 2027 10:33:03.668            12.916               Magadan2           403.625
       128   03 Jun 2027 10:33:05.810   03 Jun 2027 10:34:44.546            98.736               Magadan1          3085.500
       129   03 Jun 2027 10:35:13.731   03 Jun 2027 10:36:02.356            48.625               Magadan2          1519.531
       130   03 Jun 2027 10:37:57.231   03 Jun 2027 10:38:24.882            27.651               Magadan1           864.094
       131   03 Jun 2027 10:38:39.926   03 Jun 2027 10:38:52.070            12.144               Magadan1           379.500
       132   03 Jun 2027 10:38:52.070   03 Jun 2027 10:40:59.267           127.197               Magadan2          3974.906
       133   03 Jun 2027 12:04:23.536   03 Jun 2027 12:05:05.107            41.571                Irkutsk          1299.094
       134   03 Jun 2027 12:06:46.049   03 Jun 2027 12:07:07.914            21.865                Irkutsk           683.281
       135   03 Jun 2027 12:07:53.937   03 Jun 2027 12:15:55.304           481.367               Magadan2         15042.719
       136   03 Jun 2027 13:50:04.729   03 Jun 2027 13:50:12.861             8.132                Irkutsk           254.125
       137   03 Jun 2027 14:30:37.424   03 Jun 2027 14:38:22.012           464.588            RioGallegos         14518.375
       138   03 Jun 2027 15:05:21.264   03 Jun 2027 15:11:08.493           347.229                Sumatra         10850.906
       139   03 Jun 2027 15:21:15.999   03 Jun 2027 15:25:59.503           283.504                Irkutsk          8859.500
       140   03 Jun 2027 16:52:07.992   03 Jun 2027 16:54:15.568           127.576                  Delhi          3986.750
       141   03 Jun 2027 16:59:57.186   03 Jun 2027 17:03:00.236           183.050                Novosib          5720.313
       142   03 Jun 2027 20:14:05.993   03 Jun 2027 20:19:38.087           332.094              Murmansk2         10377.937
       143   03 Jun 2027 20:20:46.904   03 Jun 2027 20:22:15.166            88.262              Murmansk1          2758.187
       144   03 Jun 2027 20:23:00.059   03 Jun 2027 20:23:07.457             7.398              Murmansk1           231.187
       145   03 Jun 2027 21:22:46.181   03 Jun 2027 21:28:27.037           340.856               CapeTown         10651.750
       146   03 Jun 2027 23:36:49.334   03 Jun 2027 23:41:35.708           286.374                Anadyr1          8949.187
       147   03 Jun 2027 23:41:56.058   03 Jun 2027 23:43:04.056            67.998                Norilsk          2124.938
       148   03 Jun 2027 23:43:49.354   03 Jun 2027 23:44:40.030            50.676               Magadan1          1583.625
       149   03 Jun 2027 23:45:01.716   03 Jun 2027 23:46:12.437            70.721                Irkutsk          2210.031
       150   03 Jun 2027 23:48:10.955   03 Jun 2027 23:48:26.721            15.766                Irkutsk           492.687
       151   03 Jun 2027 23:49:32.814   03 Jun 2027 23:50:03.645            30.831                Irkutsk           963.469
       152   04 Jun 2027 00:30:59.523   04 Jun 2027 00:34:30.419           210.896            RioGallegos          6590.500
       153   04 Jun 2027 00:41:30.619   04 Jun 2027 00:41:39.640             9.021            RioGallegos           281.906
       154   04 Jun 2027 01:12:19.590   04 Jun 2027 01:13:11.325            51.735                Anadyr2          1616.719
       155   04 Jun 2027 01:13:21.576   04 Jun 2027 01:13:48.095            26.519                Anadyr2           828.719
       156   04 Jun 2027 01:14:14.712   04 Jun 2027 01:14:55.466            40.754                Anadyr2          1273.562
       157   04 Jun 2027 01:14:56.071   04 Jun 2027 01:15:10.783            14.712                Norilsk           459.750
       158   04 Jun 2027 01:15:13.647   04 Jun 2027 01:16:45.266            91.619               Magadan2          2863.094
       159   04 Jun 2027 01:18:08.258   04 Jun 2027 01:18:29.563            21.305               Magadan1           665.781
       160   04 Jun 2027 01:18:36.145   04 Jun 2027 01:18:56.030            19.885               Magadan2           621.406
       161   04 Jun 2027 01:19:17.390   04 Jun 2027 01:20:33.683            76.293                Irkutsk          2384.156
       162   04 Jun 2027 01:21:42.190   04 Jun 2027 01:22:49.121            66.931                Novosib          2091.594
       163   04 Jun 2027 01:29:41.078   04 Jun 2027 01:30:03.449            22.371                Irkutsk           699.094
       164   04 Jun 2027 01:32:23.016   04 Jun 2027 01:33:32.533            69.517                Sumatra          2172.406
       165   04 Jun 2027 01:35:17.807   04 Jun 2027 01:35:26.908             9.101                Sumatra           284.406
       166   04 Jun 2027 01:35:30.284   04 Jun 2027 01:36:26.372            56.088                Sumatra          1752.750
       167   04 Jun 2027 02:10:36.608   04 Jun 2027 02:12:24.204           107.596            RioGallegos          3362.375
       168   04 Jun 2027 02:49:35.270   04 Jun 2027 02:49:39.571             4.301                Anadyr1           134.406
       169   04 Jun 2027 02:49:47.728   04 Jun 2027 02:49:59.863            12.135                Anadyr1           379.219
       170   04 Jun 2027 02:50:12.507   04 Jun 2027 02:50:15.431             2.924                Anadyr1            91.375
       171   04 Jun 2027 02:50:38.007   04 Jun 2027 02:51:25.339            47.332                Norilsk          1479.125
       172   04 Jun 2027 02:51:42.250   04 Jun 2027 02:52:01.413            19.163                Norilsk           598.844
       173   04 Jun 2027 02:54:31.409   04 Jun 2027 02:56:35.459           124.050                Novosib          3876.563
       174   04 Jun 2027 02:56:42.082   04 Jun 2027 02:57:11.921            29.839                Irkutsk           932.469
       175   04 Jun 2027 02:58:13.248   04 Jun 2027 02:58:40.209            26.961                Irkutsk           842.531
       176   04 Jun 2027 03:00:03.429   04 Jun 2027 03:00:41.410            37.981                Irkutsk          1186.906
       177   04 Jun 2027 03:01:07.505   04 Jun 2027 03:01:49.270            41.765                Norilsk          1305.156
       178   04 Jun 2027 03:02:02.129   04 Jun 2027 03:03:50.244           108.115                  Delhi          3378.594
       179   04 Jun 2027 03:12:21.307   04 Jun 2027 03:16:05.396           224.089                Sumatra          7002.781
       180   04 Jun 2027 03:43:13.738   04 Jun 2027 03:46:08.771           175.033            RioGallegos          5469.781
       181   04 Jun 2027 03:46:58.255   04 Jun 2027 03:47:26.565            28.310            RioGallegos           884.687
       182   04 Jun 2027 04:31:24.449   04 Jun 2027 04:32:15.383            50.934                Irkutsk          1591.688
       183   04 Jun 2027 04:35:01.337   04 Jun 2027 04:38:17.940           196.603                Irkutsk          6143.844
       184   04 Jun 2027 04:39:29.416   04 Jun 2027 04:40:05.574            36.158                Novosib          1129.937
       185   04 Jun 2027 04:41:47.093   04 Jun 2027 04:43:47.921           120.828                  Delhi          3775.875
       186   04 Jun 2027 06:13:04.956   04 Jun 2027 06:14:04.732            59.776                Novosib          1868.000
       187   04 Jun 2027 06:14:26.319   04 Jun 2027 06:14:51.574            25.255              Murmansk1           789.219
       188   04 Jun 2027 06:15:12.944   04 Jun 2027 06:15:15.239             2.295                 Moscow            71.719
       189   04 Jun 2027 06:15:27.027   04 Jun 2027 06:15:47.753            20.726              Murmansk1           647.688
       190   04 Jun 2027 06:18:49.893   04 Jun 2027 06:18:57.956             8.063                 Moscow           251.969
       191   04 Jun 2027 06:19:39.230   04 Jun 2027 06:20:11.843            32.613                 Moscow          1019.156
       192   04 Jun 2027 06:32:03.230   04 Jun 2027 06:34:48.579           165.349               CapeTown          5167.156
       193   04 Jun 2027 07:35:05.018   04 Jun 2027 07:35:21.411            16.393                Anadyr1           512.281
       194   04 Jun 2027 07:35:25.305   04 Jun 2027 07:35:28.976             3.671               Magadan1           114.719
       195   04 Jun 2027 07:35:35.098   04 Jun 2027 07:35:46.688            11.590                Anadyr2           362.188
       196   04 Jun 2027 07:35:52.153   04 Jun 2027 07:36:41.605            49.452                Anadyr1          1545.375
       197   04 Jun 2027 07:37:22.686   04 Jun 2027 07:37:48.505            25.819               Magadan1           806.844
       198   04 Jun 2027 07:38:11.265   04 Jun 2027 07:38:46.913            35.648                Anadyr1          1114.000
       199   04 Jun 2027 07:47:35.581   04 Jun 2027 07:47:50.717            15.136                Norilsk           473.000
       200   04 Jun 2027 07:49:07.114   04 Jun 2027 07:49:32.572            25.458              Murmansk1           795.562
       201   04 Jun 2027 07:50:29.383   04 Jun 2027 07:51:41.125            71.742                 Moscow          2241.937
       202   04 Jun 2027 08:09:28.522   04 Jun 2027 08:13:11.123           222.601               CapeTown          6956.281
       203   04 Jun 2027 08:13:54.432   04 Jun 2027 08:16:15.395           140.963               CapeTown          4405.094
       204   04 Jun 2027 09:09:30.576   04 Jun 2027 09:10:22.828            52.252               Magadan1          1632.875
       205   04 Jun 2027 09:11:29.444   04 Jun 2027 09:11:34.760             5.316               Magadan1           166.125
       206   04 Jun 2027 09:11:40.620   04 Jun 2027 09:12:44.152            63.532                Anadyr1          1985.375
       207   04 Jun 2027 09:13:10.606   04 Jun 2027 09:13:54.518            43.912               Magadan1          1372.250
       208   04 Jun 2027 09:13:59.223   04 Jun 2027 09:15:20.040            80.817               Magadan2          2525.531
       209   04 Jun 2027 10:43:24.930   04 Jun 2027 10:44:40.619            75.689               Magadan1          2365.281
       210   04 Jun 2027 10:45:13.308   04 Jun 2027 10:49:30.597           257.289                Anadyr1          8040.281
       211   04 Jun 2027 10:50:30.847   04 Jun 2027 10:51:49.008            78.161               Magadan1          2442.531
       212   04 Jun 2027 10:52:06.860   04 Jun 2027 10:52:23.078            16.218                Norilsk           506.812
       213   04 Jun 2027 10:52:25.544   04 Jun 2027 10:53:16.550            51.006                Norilsk          1593.938
       214   04 Jun 2027 11:29:34.235   04 Jun 2027 11:30:14.527            40.292            RioGallegos          1259.125
       215   04 Jun 2027 12:07:25.813   04 Jun 2027 12:07:49.126            23.313                Sumatra           728.531
       216   04 Jun 2027 12:08:01.813   04 Jun 2027 12:08:03.356             1.543                Sumatra            48.219
       217   04 Jun 2027 12:16:13.825   04 Jun 2027 12:18:18.632           124.807                Irkutsk          3900.219
       218   04 Jun 2027 12:20:47.700   04 Jun 2027 12:27:35.359           407.659               Magadan1         12739.344
       219   04 Jun 2027 13:52:34.494   04 Jun 2027 13:52:47.715            13.221                Irkutsk           413.156
       220   04 Jun 2027 13:55:00.867   04 Jun 2027 13:57:30.877           150.010                Irkutsk          4687.812
       221   04 Jun 2027 14:43:38.280   04 Jun 2027 14:50:14.916           396.636            RioGallegos         12394.875
       222   04 Jun 2027 15:35:59.857   04 Jun 2027 15:37:29.917            90.060                Novosib          2814.375
       223   04 Jun 2027 17:08:24.231   04 Jun 2027 17:09:23.509            59.278                 Moscow          1852.437
       224   04 Jun 2027 17:14:18.038   04 Jun 2027 17:15:35.294            77.256                Norilsk          2414.250
       225   04 Jun 2027 17:15:54.977   04 Jun 2027 17:16:35.689            40.712                Norilsk          1272.250
       226   04 Jun 2027 17:18:22.621   04 Jun 2027 17:19:48.639            86.018                Norilsk          2688.063
       227   04 Jun 2027 18:21:36.717   04 Jun 2027 18:21:47.404            10.687               CapeTown           333.969
       228   04 Jun 2027 18:24:45.061   04 Jun 2027 18:25:14.753            29.692               CapeTown           927.875
       229   04 Jun 2027 18:30:53.701   04 Jun 2027 18:31:25.938            32.237               CapeTown          1007.406
       230   04 Jun 2027 18:44:16.523   04 Jun 2027 18:45:11.453            54.930                 Moscow          1716.563
       231   04 Jun 2027 18:47:26.551   04 Jun 2027 18:48:03.904            37.353              Murmansk2          1167.281
       232   04 Jun 2027 18:49:03.808   04 Jun 2027 18:50:17.173            73.365              Murmansk1          2292.656
       233   04 Jun 2027 18:51:39.108   04 Jun 2027 18:52:21.462            42.354              Murmansk1          1323.563
       234   04 Jun 2027 18:52:25.596   04 Jun 2027 18:52:30.575             4.979              Murmansk1           155.594
       235   04 Jun 2027 18:55:16.036   04 Jun 2027 18:56:28.679            72.643              Murmansk2          2270.094
       236   04 Jun 2027 19:56:28.164   04 Jun 2027 19:58:14.107           105.943               CapeTown          3310.719
       237   04 Jun 2027 19:59:30.370   04 Jun 2027 20:00:34.318            63.948               CapeTown          1998.375
       238   04 Jun 2027 20:26:42.526   04 Jun 2027 20:28:13.515            90.989              Murmansk2          2843.406
       239   04 Jun 2027 20:28:19.455   04 Jun 2027 20:35:05.274           405.819              Murmansk1         12681.844
       240   04 Jun 2027 21:36:31.892   04 Jun 2027 21:38:15.837           103.945               CapeTown          3248.281
       241   04 Jun 2027 22:13:31.787   04 Jun 2027 22:13:39.608             7.821                Anadyr1           244.406
       242   04 Jun 2027 22:13:48.563   04 Jun 2027 22:13:54.941             6.378                Anadyr1           199.312
       243   04 Jun 2027 22:14:13.779   04 Jun 2027 22:14:29.493            15.714                Anadyr1           491.062
       244   04 Jun 2027 22:14:30.054   04 Jun 2027 22:15:25.868            55.814                Anadyr1          1744.188
       245   04 Jun 2027 22:15:44.947   04 Jun 2027 22:16:12.025            27.078                Anadyr1           846.188
       246   04 Jun 2027 22:16:26.488   04 Jun 2027 22:16:42.441            15.953               Magadan1           498.531
       247   04 Jun 2027 22:17:19.667   04 Jun 2027 22:17:30.886            11.219               Magadan1           350.594
       248   04 Jun 2027 22:17:54.043   04 Jun 2027 22:17:56.060             2.017               Magadan1            63.031
       249   04 Jun 2027 22:18:30.012   04 Jun 2027 22:18:38.458             8.446               Magadan1           263.938
       250   04 Jun 2027 22:18:57.909   04 Jun 2027 22:18:57.952             0.043               Magadan1             1.344
       251   04 Jun 2027 22:19:09.084   04 Jun 2027 22:20:01.539            52.455               Magadan2          1639.219
       252   04 Jun 2027 22:24:46.804   04 Jun 2027 22:24:49.953             3.149               Magadan2            98.406
       253   04 Jun 2027 23:48:49.743   04 Jun 2027 23:52:39.534           229.791                Anadyr2          7180.969
       254   04 Jun 2027 23:52:43.600   04 Jun 2027 23:54:54.473           130.873                Norilsk          4089.781
       255   04 Jun 2027 23:55:30.917   04 Jun 2027 23:56:19.145            48.228               Magadan2          1507.125
       256   04 Jun 2027 23:56:19.145   04 Jun 2027 23:56:30.105            10.960               Magadan1           342.500
       257   04 Jun 2027 23:56:47.305   04 Jun 2027 23:57:41.096            53.791               Magadan1          1680.969
       258   04 Jun 2027 23:57:49.560   04 Jun 2027 23:58:17.496            27.936                Irkutsk           873.000
       259   04 Jun 2027 23:59:12.311   04 Jun 2027 23:59:18.846             6.535                Irkutsk           204.219
       260   05 Jun 2027 00:01:30.881   05 Jun 2027 00:03:32.920           122.039                Irkutsk          3813.719
       261   05 Jun 2027 00:12:21.866   05 Jun 2027 00:13:34.153            72.287                Sumatra          2258.969
       262   05 Jun 2027 00:43:56.771   05 Jun 2027 00:44:06.464             9.693            RioGallegos           302.906
       263   05 Jun 2027 00:45:21.560   05 Jun 2027 00:45:36.888            15.328            RioGallegos           479.000
       264   05 Jun 2027 00:47:59.659   05 Jun 2027 00:48:29.938            30.279            RioGallegos           946.219
       265   05 Jun 2027 00:53:43.463   05 Jun 2027 00:54:15.691            32.228            RioGallegos          1007.125
       266   05 Jun 2027 01:24:14.638   05 Jun 2027 01:24:58.009            43.371                Anadyr2          1355.344
       267   05 Jun 2027 01:25:44.153   05 Jun 2027 01:25:48.902             4.749                Anadyr1           148.406
       268   05 Jun 2027 01:26:15.124   05 Jun 2027 01:26:56.796            41.672                Anadyr2          1302.250
       269   05 Jun 2027 01:27:17.059   05 Jun 2027 01:27:23.661             6.602               Magadan1           206.312
       270   05 Jun 2027 01:27:26.913   05 Jun 2027 01:28:42.975            76.062                Norilsk          2376.937
       271   05 Jun 2027 01:29:02.188   05 Jun 2027 01:29:59.454            57.266               Magadan1          1789.562
       272   05 Jun 2027 01:30:39.170   05 Jun 2027 01:32:24.844           105.674                Irkutsk          3302.312
       273   05 Jun 2027 01:35:12.827   05 Jun 2027 01:35:26.170            13.343                Novosib           416.969
       274   05 Jun 2027 01:36:15.195   05 Jun 2027 01:36:31.548            16.353                Irkutsk           511.031
       275   05 Jun 2027 01:37:06.127   05 Jun 2027 01:37:23.314            17.187                Novosib           537.094
       276   05 Jun 2027 01:41:34.166   05 Jun 2027 01:41:41.453             7.287                Irkutsk           227.719
       277   05 Jun 2027 01:44:23.353   05 Jun 2027 01:46:28.257           124.904                Sumatra          3903.250
       278   05 Jun 2027 01:47:32.349   05 Jun 2027 01:48:42.227            69.878                Sumatra          2183.687
       279   05 Jun 2027 02:24:31.211   05 Jun 2027 02:24:47.043            15.832            RioGallegos           494.750
       280   05 Jun 2027 02:25:01.518   05 Jun 2027 02:25:30.900            29.382            RioGallegos           918.187
       281   05 Jun 2027 02:27:30.544   05 Jun 2027 02:27:59.698            29.154            RioGallegos           911.063
       282   05 Jun 2027 02:30:01.253   05 Jun 2027 02:30:13.974            12.721            RioGallegos           397.531
       283   05 Jun 2027 03:01:02.868   05 Jun 2027 03:01:21.186            18.318                Anadyr1           572.437
       284   05 Jun 2027 03:06:46.349   05 Jun 2027 03:08:51.137           124.788               Magadan1          3899.625
       285   05 Jun 2027 03:09:03.835   05 Jun 2027 03:09:29.617            25.782               Magadan1           805.688
       286   05 Jun 2027 03:10:23.971   05 Jun 2027 03:10:50.298            26.327                Novosib           822.719
       287   05 Jun 2027 03:11:01.193   05 Jun 2027 03:11:43.607            42.414                Irkutsk          1325.437
       288   05 Jun 2027 03:12:10.249   05 Jun 2027 03:13:37.766            87.517                Novosib          2734.906
       289   05 Jun 2027 03:13:42.938   05 Jun 2027 03:14:16.900            33.962                Novosib          1061.312
       290   05 Jun 2027 03:14:33.973   05 Jun 2027 03:14:37.406             3.433                Novosib           107.281
       291   05 Jun 2027 03:14:56.134   05 Jun 2027 03:16:52.906           116.772                  Delhi          3649.125
       292   05 Jun 2027 03:17:05.806   05 Jun 2027 03:17:54.863            49.057                  Delhi          1533.031
       293   05 Jun 2027 03:20:10.599   05 Jun 2027 03:20:54.330            43.731                  Delhi          1366.594
       294   05 Jun 2027 03:55:27.479   05 Jun 2027 04:00:11.191           283.712            RioGallegos          8866.000
       295   05 Jun 2027 04:46:52.583   05 Jun 2027 04:50:27.400           214.817                Irkutsk          6713.031
       296   05 Jun 2027 04:50:39.653   05 Jun 2027 04:51:03.302            23.649                Novosib           739.031
       297   05 Jun 2027 04:51:04.242   05 Jun 2027 04:52:10.298            66.056                Novosib          2064.250
       298   05 Jun 2027 04:52:39.309   05 Jun 2027 04:57:04.235           264.926                  Delhi          8278.937
       299   05 Jun 2027 06:23:49.133   05 Jun 2027 06:23:52.330             3.197                Norilsk            99.906
       300   05 Jun 2027 06:24:32.312   05 Jun 2027 06:24:34.574             2.262                Norilsk            70.687
       301   05 Jun 2027 06:24:44.945   05 Jun 2027 06:25:10.358            25.413                Novosib           794.156
       302   05 Jun 2027 06:25:32.117   05 Jun 2027 06:26:05.193            33.076                Norilsk          1033.625
       303   05 Jun 2027 06:26:19.120   05 Jun 2027 06:26:42.778            23.658              Murmansk2           739.313
       304   05 Jun 2027 06:27:08.706   05 Jun 2027 06:27:14.331             5.625              Murmansk2           175.781
       305   05 Jun 2027 06:27:16.561   05 Jun 2027 06:27:49.990            33.429                 Moscow          1044.656
       306   05 Jun 2027 06:28:12.292   05 Jun 2027 06:28:46.032            33.740                 Moscow          1054.375
       307   05 Jun 2027 06:30:54.727   05 Jun 2027 06:31:43.536            48.809                 Moscow          1525.281
       308   05 Jun 2027 06:43:56.819   05 Jun 2027 06:47:06.244           189.425               CapeTown          5919.531
       309   05 Jun 2027 07:47:13.852   05 Jun 2027 07:47:40.176            26.324                Anadyr1           822.625
       310   05 Jun 2027 07:47:40.176   05 Jun 2027 07:47:53.845            13.669                Anadyr2           427.156
       311   05 Jun 2027 07:47:57.199   05 Jun 2027 07:48:49.890            52.691                Anadyr1          1646.594
       312   05 Jun 2027 07:50:14.162   05 Jun 2027 07:50:37.643            23.481                Anadyr2           733.781
       313   05 Jun 2027 07:52:41.399   05 Jun 2027 07:53:13.466            32.067                Anadyr1          1002.094
       314   05 Jun 2027 08:22:17.760   05 Jun 2027 08:22:42.451            24.691               CapeTown           771.594
       315   05 Jun 2027 08:28:41.706   05 Jun 2027 08:30:41.662           119.956               CapeTown          3748.625
       316   05 Jun 2027 09:21:30.275   05 Jun 2027 09:22:33.758            63.483               Magadan2          1983.844
       317   05 Jun 2027 09:22:39.850   05 Jun 2027 09:23:05.975            26.125                Anadyr2           816.406
       318   05 Jun 2027 09:23:13.204   05 Jun 2027 09:23:31.169            17.965               Magadan2           561.406
       319   05 Jun 2027 09:23:39.268   05 Jun 2027 09:24:26.951            47.683                Anadyr2          1490.094
       320   05 Jun 2027 09:25:08.391   05 Jun 2027 09:25:16.235             7.844               Magadan1           245.125
       321   05 Jun 2027 09:25:41.779   05 Jun 2027 09:25:52.691            10.912               Magadan2           341.000
       322   05 Jun 2027 09:27:18.331   05 Jun 2027 09:27:48.463            30.132                Anadyr2           941.625
       323   05 Jun 2027 09:28:40.939   05 Jun 2027 09:29:24.551            43.612                Anadyr2          1362.875
       324   05 Jun 2027 10:55:23.861   05 Jun 2027 10:56:26.734            62.873               Magadan1          1964.781
       325   05 Jun 2027 10:57:55.958   05 Jun 2027 10:59:03.110            67.152               Magadan1          2098.500
       326   05 Jun 2027 10:59:07.401   05 Jun 2027 11:02:37.540           210.139               Magadan1          6566.844
       327   05 Jun 2027 11:02:54.019   05 Jun 2027 11:04:56.613           122.594               Magadan2          3831.062
       328   05 Jun 2027 12:19:24.175   05 Jun 2027 12:19:59.787            35.612                Sumatra          1112.875
       329   05 Jun 2027 12:28:07.231   05 Jun 2027 12:30:27.426           140.195                Irkutsk          4381.094
       330   05 Jun 2027 12:33:55.332   05 Jun 2027 12:39:04.451           309.119               Magadan1          9659.969
       331   05 Jun 2027 13:56:52.795   05 Jun 2027 13:57:09.196            16.401                Sumatra           512.531
       332   05 Jun 2027 13:59:26.321   05 Jun 2027 14:00:06.534            40.213                Sumatra          1256.656
       333   05 Jun 2027 14:04:56.150   05 Jun 2027 14:05:37.488            41.338                Irkutsk          1291.812
       334   05 Jun 2027 14:06:33.702   05 Jun 2027 14:09:45.465           191.763                Irkutsk          5992.594
       335   05 Jun 2027 14:57:04.128   05 Jun 2027 15:01:21.470           257.342            RioGallegos          8041.937
       336   05 Jun 2027 15:43:36.042   05 Jun 2027 15:43:53.866            17.824                Novosib           557.000
       337   05 Jun 2027 15:46:51.694   05 Jun 2027 15:47:21.750            30.056                Norilsk           939.250
       338   05 Jun 2027 15:47:47.780   05 Jun 2027 15:48:13.439            25.659                Novosib           801.844
       339   05 Jun 2027 15:50:47.138   05 Jun 2027 15:52:49.942           122.804                Novosib          3837.625
       340   05 Jun 2027 17:21:09.197   05 Jun 2027 17:22:14.584            65.387                 Moscow          2043.344
       341   05 Jun 2027 17:24:01.180   05 Jun 2027 17:24:37.655            36.475              Murmansk2          1139.844
       342   05 Jun 2027 17:27:03.175   05 Jun 2027 17:29:44.955           161.780                Norilsk          5055.625
       343   05 Jun 2027 17:30:34.083   05 Jun 2027 17:31:05.942            31.859                Norilsk           995.594
       344   05 Jun 2027 17:32:11.157   05 Jun 2027 17:32:51.837            40.680                Norilsk          1271.250
       345   05 Jun 2027 18:56:46.112   05 Jun 2027 18:58:19.873            93.761                 Moscow          2930.031
       346   05 Jun 2027 18:59:45.222   05 Jun 2027 19:01:47.402           122.180              Murmansk1          3818.125
       347   05 Jun 2027 19:02:04.552   05 Jun 2027 19:02:21.250            16.698                 Moscow           521.813
       348   05 Jun 2027 19:03:53.103   05 Jun 2027 19:04:15.302            22.199              Murmansk2           693.719
       349   05 Jun 2027 19:04:15.302   05 Jun 2027 19:04:37.850            22.548              Murmansk1           704.625
       350   05 Jun 2027 19:09:29.895   05 Jun 2027 19:09:38.988             9.093              Murmansk1           284.156
       351   05 Jun 2027 20:08:35.922   05 Jun 2027 20:11:20.562           164.640               CapeTown          5145.000
       352   05 Jun 2027 20:16:36.340   05 Jun 2027 20:17:17.405            41.065               CapeTown          1283.281
       353   05 Jun 2027 20:39:22.628   05 Jun 2027 20:45:18.598           355.970              Murmansk2         11124.063
       354   05 Jun 2027 20:45:26.189   05 Jun 2027 20:47:01.629            95.440              Murmansk1          2982.500
       355   05 Jun 2027 22:24:59.274   05 Jun 2027 22:28:13.918           194.644                Anadyr1          6082.625
       356   05 Jun 2027 22:28:45.389   05 Jun 2027 22:30:10.825            85.436               Magadan1          2669.875
       357   05 Jun 2027 22:30:26.691   05 Jun 2027 22:30:31.910             5.219               Magadan2           163.094
       358   05 Jun 2027 22:30:41.209   05 Jun 2027 22:31:00.941            19.732               Magadan1           616.625
       359   05 Jun 2027 22:36:34.714   05 Jun 2027 22:36:51.383            16.669               Magadan2           520.906
       360   05 Jun 2027 23:21:21.133   05 Jun 2027 23:23:48.421           147.288            RioGallegos          4602.750
       361   05 Jun 2027 23:24:31.792   05 Jun 2027 23:24:34.720             2.928            RioGallegos            91.500
       362   05 Jun 2027 23:25:40.055   05 Jun 2027 23:26:06.130            26.075            RioGallegos           814.844
       363   06 Jun 2027 00:00:49.745   06 Jun 2027 00:03:03.140           133.395                Anadyr2          4168.594
       364   06 Jun 2027 00:03:12.740   06 Jun 2027 00:04:59.432           106.692               Magadan2          3334.125
       365   06 Jun 2027 00:05:18.430   06 Jun 2027 00:06:13.920            55.490               Magadan1          1734.063
       366   06 Jun 2027 00:07:56.270   06 Jun 2027 00:08:45.286            49.016                Irkutsk          1531.750
       367   06 Jun 2027 00:09:50.599   06 Jun 2027 00:10:20.603            30.004                Irkutsk           937.625
       368   06 Jun 2027 00:11:35.166   06 Jun 2027 00:12:03.190            28.024                Irkutsk           875.750
       369   06 Jun 2027 00:23:04.915   06 Jun 2027 00:25:00.025           115.110                Sumatra          3597.187
       370   06 Jun 2027 00:29:05.497   06 Jun 2027 00:31:07.952           122.455                Sumatra          3826.719
       371   06 Jun 2027 01:36:08.610   06 Jun 2027 01:36:20.030            11.420                Anadyr1           356.875
       372   06 Jun 2027 01:36:20.030   06 Jun 2027 01:36:22.602             2.572                Anadyr2            80.375
       373   06 Jun 2027 01:36:43.447   06 Jun 2027 01:37:38.726            55.279                Anadyr2          1727.469
       374   06 Jun 2027 01:38:15.196   06 Jun 2027 01:38:32.222            17.026                Anadyr1           532.062
       375   06 Jun 2027 01:38:41.756   06 Jun 2027 01:40:45.320           123.564                Norilsk          3861.375
       376   06 Jun 2027 01:42:38.180   06 Jun 2027 01:45:45.296           187.116                Irkutsk          5847.375
       377   06 Jun 2027 01:51:57.642   06 Jun 2027 01:52:32.827            35.185                Novosib          1099.531
       378   06 Jun 2027 01:55:59.133   06 Jun 2027 01:58:07.726           128.593                  Delhi          4018.531
       379   06 Jun 2027 02:02:41.791   06 Jun 2027 02:04:56.511           134.720                Sumatra          4210.000
       380   06 Jun 2027 03:19:07.118   06 Jun 2027 03:20:56.935           109.817               Magadan1          3431.781
       381   06 Jun 2027 03:20:59.866   06 Jun 2027 03:22:39.971           100.105                Irkutsk          3128.281
       382   06 Jun 2027 03:23:05.685   06 Jun 2027 03:23:59.361            53.676                Irkutsk          1677.375
       383   06 Jun 2027 03:26:20.183   06 Jun 2027 03:28:06.132           105.949                Novosib          3310.906
       384   06 Jun 2027 03:29:11.462   06 Jun 2027 03:30:12.823            61.361                Novosib          1917.531
       385   06 Jun 2027 04:07:44.217   06 Jun 2027 04:08:06.878            22.661            RioGallegos           708.156
       386   06 Jun 2027 04:10:37.409   06 Jun 2027 04:12:50.014           132.605            RioGallegos          4143.906
       387   06 Jun 2027 04:56:03.288   06 Jun 2027 04:58:26.378           143.090                Irkutsk          4471.562
       388   06 Jun 2027 04:59:32.007   06 Jun 2027 05:01:36.058           124.051                Irkutsk          3876.594
       389   06 Jun 2027 05:03:30.328   06 Jun 2027 05:11:16.623           466.295                  Delhi         14571.719
       390   06 Jun 2027 06:37:14.016   06 Jun 2027 06:37:47.527            33.511              Murmansk2          1047.219
       391   06 Jun 2027 06:37:53.182   06 Jun 2027 06:38:04.260            11.078                 Moscow           346.188
       392   06 Jun 2027 06:38:12.664   06 Jun 2027 06:38:17.741             5.077              Murmansk2           158.656
       393   06 Jun 2027 06:38:24.596   06 Jun 2027 06:38:33.115             8.519              Murmansk2           266.219
       394   06 Jun 2027 06:39:01.482   06 Jun 2027 06:39:43.969            42.487              Murmansk2          1327.719
       395   06 Jun 2027 06:42:59.064   06 Jun 2027 06:43:48.338            49.274                 Moscow          1539.812
       396   06 Jun 2027 06:55:55.456   06 Jun 2027 06:56:51.867            56.411               CapeTown          1762.844
       397   06 Jun 2027 06:59:49.098   06 Jun 2027 07:00:06.611            17.513               CapeTown           547.281
       398   06 Jun 2027 07:02:54.660   06 Jun 2027 07:04:51.149           116.489               CapeTown          3640.281
       399   06 Jun 2027 07:59:07.982   06 Jun 2027 07:59:55.393            47.411                Anadyr2          1481.594
       400   06 Jun 2027 08:00:19.868   06 Jun 2027 08:00:22.284             2.416                Anadyr2            75.500
       401   06 Jun 2027 08:00:24.294   06 Jun 2027 08:00:31.700             7.406               Magadan1           231.437
       402   06 Jun 2027 08:00:34.230   06 Jun 2027 08:00:42.871             8.641               Magadan2           270.031
       403   06 Jun 2027 08:01:07.957   06 Jun 2027 08:02:19.095            71.138                Anadyr1          2223.062
       404   06 Jun 2027 09:31:14.295   06 Jun 2027 09:31:44.672            30.377                Anadyr2           949.281
       405   06 Jun 2027 09:35:10.052   06 Jun 2027 09:35:56.340            46.288                Anadyr1          1446.500
       406   06 Jun 2027 09:36:28.420   06 Jun 2027 09:37:05.097            36.677               Magadan1          1146.156
       407   06 Jun 2027 09:37:05.097   06 Jun 2027 09:37:16.128            11.031               Magadan2           344.719
       408   06 Jun 2027 09:37:53.294   06 Jun 2027 09:39:20.823            87.529               Magadan2          2735.281
       409   06 Jun 2027 11:07:21.913   06 Jun 2027 11:08:07.060            45.147               Magadan2          1410.844
       410   06 Jun 2027 11:10:27.349   06 Jun 2027 11:10:53.891            26.542               Magadan1           829.437
       411   06 Jun 2027 11:10:53.891   06 Jun 2027 11:14:26.156           212.265               Magadan2          6633.281
       412   06 Jun 2027 11:15:04.332   06 Jun 2027 11:15:28.935            24.603                Irkutsk           768.844
       413   06 Jun 2027 11:15:55.741   06 Jun 2027 11:16:53.842            58.101               Magadan1          1815.656
       414   06 Jun 2027 11:51:52.733   06 Jun 2027 11:53:03.777            71.044            RioGallegos          2220.125
       415   06 Jun 2027 12:28:37.606   06 Jun 2027 12:30:30.930           113.324                Sumatra          3541.375
       416   06 Jun 2027 12:40:03.780   06 Jun 2027 12:41:26.335            82.555                Irkutsk          2579.844
       417   06 Jun 2027 12:45:33.337   06 Jun 2027 12:45:38.470             5.133                Norilsk           160.406
       418   06 Jun 2027 12:45:39.795   06 Jun 2027 12:46:10.452            30.657                Norilsk           958.031
       419   06 Jun 2027 12:47:38.908   06 Jun 2027 12:50:00.617           141.709               Magadan1          4428.406
       420   06 Jun 2027 14:02:34.727   06 Jun 2027 14:02:50.479            15.752                Sumatra           492.250
       421   06 Jun 2027 14:05:24.695   06 Jun 2027 14:07:20.978           116.283                Sumatra          3633.844
       422   06 Jun 2027 14:10:25.609   06 Jun 2027 14:12:20.612           115.003                Sumatra          3593.844
       423   06 Jun 2027 14:17:22.673   06 Jun 2027 14:18:41.098            78.425                Irkutsk          2450.781
       424   06 Jun 2027 14:22:11.881   06 Jun 2027 14:22:49.796            37.915                Irkutsk          1184.844
       425   06 Jun 2027 14:26:49.153   06 Jun 2027 14:27:21.751            32.598                Irkutsk          1018.688
       426   06 Jun 2027 15:47:12.205   06 Jun 2027 15:48:44.077            91.872                  Delhi          2871.000
       427   06 Jun 2027 15:52:27.834   06 Jun 2027 15:52:32.383             4.549                  Delhi           142.156
       428   06 Jun 2027 15:54:11.340   06 Jun 2027 15:57:07.054           175.714                  Delhi          5491.062
       429   06 Jun 2027 15:59:16.574   06 Jun 2027 16:00:15.802            59.228                Norilsk          1850.875
       430   06 Jun 2027 16:00:44.530   06 Jun 2027 16:01:01.865            17.335                Novosib           541.719
       431   06 Jun 2027 16:04:09.418   06 Jun 2027 16:04:56.201            46.783                Norilsk          1461.969
       432   06 Jun 2027 16:05:25.113   06 Jun 2027 16:05:41.085            15.972                Novosib           499.125
       433   06 Jun 2027 16:09:12.076   06 Jun 2027 16:09:51.210            39.134                Norilsk          1222.938
       434   06 Jun 2027 17:31:45.740   06 Jun 2027 17:32:20.551            34.811                 Moscow          1087.844
       435   06 Jun 2027 17:34:20.205   06 Jun 2027 17:34:42.629            22.424                 Moscow           700.750
       436   06 Jun 2027 17:35:27.833   06 Jun 2027 17:37:44.295           136.462              Murmansk1          4264.437
       437   06 Jun 2027 17:39:53.459   06 Jun 2027 17:43:04.797           191.338                Norilsk          5979.313
       438   06 Jun 2027 17:44:31.563   06 Jun 2027 17:45:16.811            45.248                Norilsk          1414.000
       439   06 Jun 2027 19:09:21.258   06 Jun 2027 19:15:18.542           357.284                 Moscow         11165.125
       440   06 Jun 2027 20:20:46.827   06 Jun 2027 20:22:03.377            76.550               CapeTown          2392.187
       441   06 Jun 2027 20:25:22.985   06 Jun 2027 20:25:24.089             1.104               CapeTown            34.500
       442   06 Jun 2027 20:27:24.610   06 Jun 2027 20:27:39.510            14.900               CapeTown           465.625
       443   06 Jun 2027 20:28:58.094   06 Jun 2027 20:30:32.193            94.099               CapeTown          2940.594
       444   06 Jun 2027 20:52:06.919   06 Jun 2027 20:58:55.894           408.975              Murmansk2         12780.469
       445   06 Jun 2027 22:37:01.063   06 Jun 2027 22:37:19.346            18.283                Anadyr1           571.344
       446   06 Jun 2027 22:37:26.069   06 Jun 2027 22:37:33.271             7.202                Anadyr1           225.063
       447   06 Jun 2027 22:37:57.172   06 Jun 2027 22:38:29.935            32.763                Anadyr1          1023.844
       448   06 Jun 2027 22:39:17.852   06 Jun 2027 22:41:28.694           130.842               Magadan1          4088.812
       449   06 Jun 2027 22:41:56.794   06 Jun 2027 22:42:22.589            25.795               Magadan2           806.094
       450   06 Jun 2027 22:42:34.100   06 Jun 2027 22:42:43.913             9.813               Magadan2           306.656
       451   06 Jun 2027 22:43:02.241   06 Jun 2027 22:43:04.879             2.638               Magadan1            82.437
       452   06 Jun 2027 22:43:29.384   06 Jun 2027 22:44:07.954            38.570               Magadan2          1205.312
       453   06 Jun 2027 22:46:01.560   06 Jun 2027 22:46:14.788            13.228               Magadan2           413.375
       454   06 Jun 2027 22:48:26.267   06 Jun 2027 22:48:31.667             5.400               Magadan2           168.750
       455   06 Jun 2027 23:32:36.963   06 Jun 2027 23:35:31.991           175.028            RioGallegos          5469.625
       456   06 Jun 2027 23:38:16.469   06 Jun 2027 23:38:54.706            38.237            RioGallegos          1194.906
       457   07 Jun 2027 00:12:49.276   07 Jun 2027 00:14:14.997            85.721                Anadyr2          2678.781
       458   07 Jun 2027 00:14:22.879   07 Jun 2027 00:14:39.496            16.617                Anadyr1           519.281
       459   07 Jun 2027 00:14:53.619   07 Jun 2027 00:16:29.130            95.511                Norilsk          2984.719
       460   07 Jun 2027 00:16:47.752   07 Jun 2027 00:16:57.156             9.404               Magadan1           293.875
       461   07 Jun 2027 00:17:55.952   07 Jun 2027 00:18:22.427            26.475                Norilsk           827.344
       462   07 Jun 2027 00:18:39.148   07 Jun 2027 00:18:57.428            18.280               Magadan1           571.250
       463   07 Jun 2027 00:19:15.291   07 Jun 2027 00:19:45.379            30.088               Magadan2           940.250
       464   07 Jun 2027 00:19:59.818   07 Jun 2027 00:20:43.808            43.990                Irkutsk          1374.688
       465   07 Jun 2027 00:22:06.573   07 Jun 2027 00:22:17.929            11.356                Irkutsk           354.875
       466   07 Jun 2027 00:23:27.327   07 Jun 2027 00:23:33.644             6.317               Magadan1           197.406
       467   07 Jun 2027 00:24:34.337   07 Jun 2027 00:24:48.778            14.441                Irkutsk           451.281
       468   07 Jun 2027 00:25:17.663   07 Jun 2027 00:26:05.854            48.191                Irkutsk          1505.969
       469   07 Jun 2027 00:34:14.844   07 Jun 2027 00:35:54.816            99.972                Sumatra          3124.125
       470   07 Jun 2027 00:38:48.508   07 Jun 2027 00:39:10.455            21.947                Sumatra           685.844
       471   07 Jun 2027 00:40:49.002   07 Jun 2027 00:43:18.891           149.889                Sumatra          4684.031
       472   07 Jun 2027 01:48:01.403   07 Jun 2027 01:48:03.633             2.230                Anadyr2            69.688
       473   07 Jun 2027 01:48:20.857   07 Jun 2027 01:48:27.747             6.890                Anadyr2           215.313
       474   07 Jun 2027 01:49:31.278   07 Jun 2027 01:49:47.725            16.447                Anadyr1           513.969
       475   07 Jun 2027 01:50:14.851   07 Jun 2027 01:50:55.806            40.955                Anadyr2          1279.844
       476   07 Jun 2027 01:51:23.811   07 Jun 2027 01:51:32.501             8.690               Magadan1           271.563
       477   07 Jun 2027 01:51:34.717   07 Jun 2027 01:52:56.019            81.302               Magadan2          2540.688
       478   07 Jun 2027 01:54:38.270   07 Jun 2027 01:56:47.650           129.380                Irkutsk          4043.125
       479   07 Jun 2027 01:57:18.621   07 Jun 2027 01:57:43.810            25.189                Novosib           787.156
       480   07 Jun 2027 01:58:10.552   07 Jun 2027 01:59:04.946            54.394                Novosib          1699.813
       481   07 Jun 2027 02:06:18.338   07 Jun 2027 02:06:45.738            27.400                  Delhi           856.250
       482   07 Jun 2027 02:08:41.617   07 Jun 2027 02:09:26.690            45.073                Sumatra          1408.531
