uniorb/output/strategy_4/Drop/Drop_KinoSat_110309.txt

KinoSat_110309
-------------------------
    Access    *     Start Time (UTCG)     *     Stop Time (UTCG)  *   Duration (s)        *       Station  *  Data (Mbytes)
         1   01 Jun 2027 03:19:49.921   01 Jun 2027 03:21:38.156           108.235               Magadan1         13529.375
         2   01 Jun 2027 03:22:01.289   01 Jun 2027 03:22:51.670            50.381               Magadan2          6297.625
         3   01 Jun 2027 03:23:07.097   01 Jun 2027 03:24:06.441            59.344               Magadan1          7418.000
         4   01 Jun 2027 03:24:22.641   01 Jun 2027 03:25:11.966            49.325               Magadan1          6165.625
         5   01 Jun 2027 04:36:12.610   01 Jun 2027 04:39:47.203           214.593                Sumatra         26824.125
         6   01 Jun 2027 04:56:57.512   01 Jun 2027 04:56:57.964             0.452                Irkutsk            56.500
         7   01 Jun 2027 04:57:23.975   01 Jun 2027 04:57:54.390            30.415                Novosib          3801.875
         8   01 Jun 2027 04:58:07.239   01 Jun 2027 05:00:02.049           114.810                Irkutsk         14351.250
         9   01 Jun 2027 05:00:20.519   01 Jun 2027 05:00:41.838            21.319                Irkutsk          2664.875
        10   01 Jun 2027 05:00:53.947   01 Jun 2027 05:01:04.088            10.141              Murmansk2          1267.625
        11   01 Jun 2027 05:01:31.169   01 Jun 2027 05:01:52.438            21.269              Murmansk2          2658.625
        12   01 Jun 2027 05:02:05.187   01 Jun 2027 05:02:32.928            27.741                Norilsk          3467.625
        13   01 Jun 2027 05:06:06.774   01 Jun 2027 05:06:20.684            13.910                Norilsk          1738.750
        14   01 Jun 2027 05:37:06.418   01 Jun 2027 05:38:12.273            65.855            RioGallegos          8231.875
        15   01 Jun 2027 06:13:32.568   01 Jun 2027 06:14:03.508            30.940                Sumatra          3867.500
        16   01 Jun 2027 06:17:58.630   01 Jun 2027 06:18:13.015            14.385                Sumatra          1798.125
        17   01 Jun 2027 06:19:37.418   01 Jun 2027 06:19:49.393            11.975                  Delhi          1496.875
        18   01 Jun 2027 06:22:08.206   01 Jun 2027 06:23:55.999           107.793                  Delhi         13474.125
        19   01 Jun 2027 06:34:58.022   01 Jun 2027 06:35:24.553            26.531                Norilsk          3316.375
        20   01 Jun 2027 06:35:30.831   01 Jun 2027 06:35:58.493            27.662                Norilsk          3457.750
        21   01 Jun 2027 06:36:18.342   01 Jun 2027 06:38:06.601           108.259                Novosib         13532.375
        22   01 Jun 2027 07:56:14.820   01 Jun 2027 07:57:31.770            76.950                  Delhi          9618.750
        23   01 Jun 2027 07:58:02.068   01 Jun 2027 07:58:41.776            39.708                  Delhi          4963.500
        24   01 Jun 2027 08:10:57.601   01 Jun 2027 08:11:45.184            47.583              Murmansk1          5947.875
        25   01 Jun 2027 08:12:12.918   01 Jun 2027 08:13:47.763            94.845                Novosib         11855.625
        26   01 Jun 2027 10:53:14.458   01 Jun 2027 10:55:35.376           140.918               CapeTown         17614.750
        27   01 Jun 2027 11:33:46.862   01 Jun 2027 11:38:24.402           277.540                Anadyr1         34692.500
        28   01 Jun 2027 13:12:18.693   01 Jun 2027 13:16:42.771           264.078               Magadan1         33009.750
        29   01 Jun 2027 15:40:32.239   01 Jun 2027 15:44:22.933           230.694            RioGallegos         28836.750
        30   01 Jun 2027 16:30:26.712   01 Jun 2027 16:32:04.570            97.858                Irkutsk         12232.250
        31   01 Jun 2027 16:41:57.687   01 Jun 2027 16:43:13.513            75.826                Sumatra          9478.250
        32   01 Jun 2027 16:43:49.235   01 Jun 2027 16:45:45.267           116.032                Sumatra         14504.000
        33   01 Jun 2027 16:48:53.169   01 Jun 2027 16:49:06.520            13.351                Sumatra          1668.875
        34   01 Jun 2027 18:03:28.520   01 Jun 2027 18:04:53.253            84.733                Novosib         10591.625
        35   01 Jun 2027 18:11:57.347   01 Jun 2027 18:15:24.428           207.081                  Delhi         25885.125
        36   01 Jun 2027 18:20:02.397   01 Jun 2027 18:20:43.377            40.980                  Delhi          5122.500
        37   01 Jun 2027 21:15:51.263   01 Jun 2027 21:16:21.966            30.703              Murmansk1          2951.499
        38   02 Jun 2027 03:36:56.203   02 Jun 2027 03:37:05.064             8.861               Magadan1          1107.625
        39   02 Jun 2027 04:47:45.019   02 Jun 2027 04:49:27.666           102.647                Sumatra         12830.875
        40   02 Jun 2027 04:52:20.256   02 Jun 2027 04:54:33.167           132.911                Sumatra         16613.875
        41   02 Jun 2027 05:11:00.354   02 Jun 2027 05:13:22.958           142.604                Irkutsk         17825.500
        42   02 Jun 2027 05:13:31.001   02 Jun 2027 05:13:53.799            22.798                Norilsk          2849.750
        43   02 Jun 2027 05:13:54.562   02 Jun 2027 05:15:06.798            72.236              Murmansk1          9029.500
        44   02 Jun 2027 05:16:37.121   02 Jun 2027 05:17:35.124            58.003              Murmansk1          7250.375
        45   02 Jun 2027 05:17:59.729   02 Jun 2027 05:18:22.108            22.379                Norilsk          2797.375
        46   02 Jun 2027 05:49:34.378   02 Jun 2027 05:50:46.662            72.284            RioGallegos          9035.500
        47   02 Jun 2027 05:51:43.720   02 Jun 2027 05:52:28.421            44.701            RioGallegos          5587.625
        48   02 Jun 2027 05:56:02.040   02 Jun 2027 05:56:05.285             3.245            RioGallegos           405.625
        49   02 Jun 2027 05:56:54.273   02 Jun 2027 05:57:10.776            16.503            RioGallegos          2062.875
        50   02 Jun 2027 06:23:46.108   02 Jun 2027 06:25:10.416            84.308                Sumatra         10538.500
        51   02 Jun 2027 06:26:19.647   02 Jun 2027 06:27:56.737            97.090                Sumatra         12136.250
        52   02 Jun 2027 06:38:10.320   02 Jun 2027 06:38:25.210            14.890                Novosib          1861.250
        53   02 Jun 2027 06:49:08.511   02 Jun 2027 06:49:25.645            17.134              Murmansk1          2141.750
        54   02 Jun 2027 06:49:41.218   02 Jun 2027 06:54:15.278           274.060                Norilsk         34257.500
        55   02 Jun 2027 06:55:02.926   02 Jun 2027 06:56:12.969            70.043              Murmansk2          8755.375
        56   02 Jun 2027 08:08:53.974   02 Jun 2027 08:12:29.224           215.250                  Delhi         26906.250
        57   02 Jun 2027 08:17:21.534   02 Jun 2027 08:18:18.241            56.707                  Delhi          7088.375
        58   02 Jun 2027 08:18:32.542   02 Jun 2027 08:20:35.455           122.913                Novosib         15364.125
        59   02 Jun 2027 08:25:26.996   02 Jun 2027 08:28:26.530           179.534                 Moscow         22441.750
        60   02 Jun 2027 08:28:27.940   02 Jun 2027 08:30:14.699           106.759                Norilsk         13344.875
        61   02 Jun 2027 08:30:34.628   02 Jun 2027 08:31:58.649            84.021              Murmansk1         10502.625
        62   02 Jun 2027 09:55:19.842   02 Jun 2027 09:58:20.223           180.381              Murmansk1         22547.625
        63   02 Jun 2027 09:58:20.223   02 Jun 2027 10:00:41.936           141.713              Murmansk2         17714.125
        64   02 Jun 2027 10:03:42.034   02 Jun 2027 10:04:01.326            19.292                Norilsk          2411.500
        65   02 Jun 2027 10:10:55.006   02 Jun 2027 10:16:51.760           356.754                Anadyr2         44594.250
        66   02 Jun 2027 11:33:29.706   02 Jun 2027 11:34:42.066            72.360              Murmansk1          9045.000
        67   02 Jun 2027 11:36:53.717   02 Jun 2027 11:37:14.007            20.290              Murmansk1          2536.250
        68   02 Jun 2027 11:37:36.688   02 Jun 2027 11:38:29.083            52.395              Murmansk1          6549.375
        69   02 Jun 2027 11:42:23.103   02 Jun 2027 11:43:10.561            47.458              Murmansk2          5932.250
        70   02 Jun 2027 11:45:45.396   02 Jun 2027 11:50:24.790           279.394                Anadyr2         34924.250
        71   02 Jun 2027 11:54:39.102   02 Jun 2027 11:55:14.645            35.543                Anadyr1          4442.875
        72   02 Jun 2027 13:24:12.502   02 Jun 2027 13:26:31.556           139.054               Magadan1         17381.750
        73   02 Jun 2027 13:27:04.912   02 Jun 2027 13:28:33.609            88.697               Magadan2         11087.125
        74   02 Jun 2027 13:33:26.710   02 Jun 2027 13:35:12.193           105.483               Magadan2         13185.375
        75   02 Jun 2027 15:52:13.458   02 Jun 2027 15:56:16.706           243.248            RioGallegos         30406.000
        76   02 Jun 2027 16:39:40.165   02 Jun 2027 16:40:59.585            79.420                Irkutsk          9927.500
        77   02 Jun 2027 16:42:30.218   02 Jun 2027 16:43:35.196            64.978                Irkutsk          8122.250
        78   02 Jun 2027 16:48:47.638   02 Jun 2027 16:49:08.669            21.031                Irkutsk          2628.875
        79   02 Jun 2027 16:55:31.674   02 Jun 2027 16:57:45.581           133.907                Sumatra         16738.375
        80   02 Jun 2027 17:04:46.765   02 Jun 2027 17:05:28.877            42.112                Sumatra          5264.000
        81   02 Jun 2027 18:17:18.751   02 Jun 2027 18:17:25.089             6.338                Novosib           792.250
        82   02 Jun 2027 18:23:28.423   02 Jun 2027 18:25:29.506           121.083                  Delhi         15135.375
        83   02 Jun 2027 18:27:17.248   02 Jun 2027 18:30:15.820           178.572                  Delhi         22321.500
        84   02 Jun 2027 19:57:54.595   02 Jun 2027 19:58:16.985            22.390                 Moscow          2798.750
        85   02 Jun 2027 21:38:08.897   02 Jun 2027 21:38:14.869             5.972                 Moscow           746.500
        86   02 Jun 2027 21:38:22.191   02 Jun 2027 21:39:34.298            72.107                 Moscow          9013.375
        87   02 Jun 2027 21:53:28.314   02 Jun 2027 21:55:14.707           106.393               CapeTown         13299.125
        88   02 Jun 2027 21:59:09.730   02 Jun 2027 22:00:03.342            53.612               CapeTown          6701.500
        89   03 Jun 2027 03:49:31.492   03 Jun 2027 03:50:30.576            59.084                Novosib          7385.500
        90   03 Jun 2027 03:50:38.742   03 Jun 2027 03:52:01.006            82.264              Murmansk1         10283.000
        91   03 Jun 2027 04:59:25.503   03 Jun 2027 05:01:20.131           114.628                Sumatra         14328.500
        92   03 Jun 2027 05:01:49.349   03 Jun 2027 05:03:47.838           118.489                Sumatra         14811.125
        93   03 Jun 2027 05:25:16.523   03 Jun 2027 05:26:56.390            99.867                Novosib         12483.375
        94   03 Jun 2027 05:27:03.672   03 Jun 2027 05:30:23.666           199.994                Norilsk         24999.250
        95   03 Jun 2027 06:07:42.587   03 Jun 2027 06:08:28.344            45.757            RioGallegos          5719.625
        96   03 Jun 2027 06:08:56.429   03 Jun 2027 06:09:19.735            23.306            RioGallegos          2913.250
        97   03 Jun 2027 06:09:48.954   03 Jun 2027 06:10:14.614            25.660            RioGallegos          3207.500
        98   03 Jun 2027 06:36:21.188   03 Jun 2027 06:38:29.322           128.134                Sumatra         16016.750
        99   03 Jun 2027 06:42:45.955   03 Jun 2027 06:43:07.319            21.364                Sumatra          2670.500
       100   03 Jun 2027 06:44:55.107   03 Jun 2027 06:45:18.481            23.374                  Delhi          2921.750
       101   03 Jun 2027 06:46:23.147   03 Jun 2027 06:48:15.991           112.844                  Delhi         14105.500
       102   03 Jun 2027 06:50:21.579   03 Jun 2027 06:52:18.804           117.225                Novosib         14653.125
       103   03 Jun 2027 06:52:40.554   03 Jun 2027 06:53:55.723            75.169                Irkutsk          9396.125
       104   03 Jun 2027 06:54:08.462   03 Jun 2027 06:55:15.854            67.392                Irkutsk          8424.000
       105   03 Jun 2027 06:55:34.517   03 Jun 2027 06:57:21.946           107.429                Irkutsk         13428.625
       106   03 Jun 2027 07:01:05.358   03 Jun 2027 07:01:25.857            20.499              Murmansk2          2562.375
       107   03 Jun 2027 07:01:26.846   03 Jun 2027 07:01:37.292            10.446                 Moscow          1305.750
       108   03 Jun 2027 07:01:38.708   03 Jun 2027 07:02:47.127            68.419                Novosib          8552.375
       109   03 Jun 2027 07:03:16.357   03 Jun 2027 07:05:49.646           153.289              Murmansk2         19161.125
       110   03 Jun 2027 08:22:58.596   03 Jun 2027 08:24:51.627           113.031                  Delhi         14128.875
       111   03 Jun 2027 08:30:20.995   03 Jun 2027 08:32:22.126           121.131                Novosib         15141.375
       112   03 Jun 2027 08:36:29.657   03 Jun 2027 08:36:51.369            21.712                Novosib          2714.000
       113   03 Jun 2027 08:37:47.634   03 Jun 2027 08:43:59.831           372.197              Murmansk1         46524.625
       114   03 Jun 2027 10:04:03.710   03 Jun 2027 10:07:16.172           192.462                 Moscow         24057.750
       115   03 Jun 2027 10:07:30.857   03 Jun 2027 10:12:39.168           308.311              Murmansk1         38538.875
       116   03 Jun 2027 10:15:56.834   03 Jun 2027 10:16:23.861            27.027              Murmansk2          3378.375
       117   03 Jun 2027 10:22:37.915   03 Jun 2027 10:26:48.051           250.136                Anadyr1         31267.000
       118   03 Jun 2027 10:26:51.903   03 Jun 2027 10:29:06.073           134.170                Anadyr2         16771.250
       119   03 Jun 2027 11:46:43.586   03 Jun 2027 11:49:10.701           147.115              Murmansk2         18389.375
       120   03 Jun 2027 11:49:37.718   03 Jun 2027 11:50:16.336            38.618              Murmansk2          4827.250
       121   03 Jun 2027 11:54:52.276   03 Jun 2027 11:55:09.239            16.963              Murmansk2          2120.375
       122   03 Jun 2027 11:57:44.563   03 Jun 2027 11:59:48.358           123.795                Anadyr2         15474.375
       123   03 Jun 2027 12:02:25.459   03 Jun 2027 12:02:49.439            23.980                Anadyr2          2997.500
       124   03 Jun 2027 12:03:08.101   03 Jun 2027 12:05:17.429           129.328               Magadan1         16166.000
       125   03 Jun 2027 13:36:07.888   03 Jun 2027 13:37:54.336           106.448               Magadan2         13306.000
       126   03 Jun 2027 13:39:10.384   03 Jun 2027 13:40:40.155            89.771               Magadan2         11221.375
       127   03 Jun 2027 13:41:15.390   03 Jun 2027 13:43:33.004           137.614               Magadan1         17201.750
       128   03 Jun 2027 16:03:59.502   03 Jun 2027 16:08:12.270           252.768            RioGallegos         31596.000
       129   03 Jun 2027 16:51:32.837   03 Jun 2027 16:54:06.039           153.202                Irkutsk         19150.250
       130   03 Jun 2027 16:54:19.087   03 Jun 2027 16:56:32.504           133.417                Novosib         16677.125
       131   03 Jun 2027 17:05:18.329   03 Jun 2027 17:07:06.467           108.138                Sumatra         13517.250
       132   03 Jun 2027 17:16:10.064   03 Jun 2027 17:17:41.311            91.247                Sumatra         11405.875
       133   03 Jun 2027 18:35:07.498   03 Jun 2027 18:39:13.722           246.224                  Delhi         30778.000
       134   03 Jun 2027 20:06:56.938   03 Jun 2027 20:07:10.866            13.928                 Moscow          1741.000
       135   03 Jun 2027 20:10:33.671   03 Jun 2027 20:13:05.881           152.210                 Moscow         19026.250
       136   03 Jun 2027 22:05:07.613   03 Jun 2027 22:07:28.210           140.597               CapeTown         12425.750
       137   04 Jun 2027 04:01:37.101   04 Jun 2027 04:02:37.757            60.656                Novosib          7582.000
       138   04 Jun 2027 04:02:38.418   04 Jun 2027 04:05:46.552           188.134              Murmansk2         23516.750
       139   04 Jun 2027 05:11:12.725   04 Jun 2027 05:12:22.962            70.237                Sumatra          8779.625
       140   04 Jun 2027 05:14:03.729   04 Jun 2027 05:15:56.725           112.996                Sumatra         14124.500
       141   04 Jun 2027 05:37:21.579   04 Jun 2027 05:38:44.969            83.390                 Moscow         10423.750
       142   04 Jun 2027 05:38:46.984   04 Jun 2027 05:39:08.189            21.205                Norilsk          2650.625
       143   04 Jun 2027 05:39:15.815   04 Jun 2027 05:42:53.717           217.902              Murmansk2         27237.750
       144   04 Jun 2027 06:15:42.252   04 Jun 2027 06:16:19.422            37.170            RioGallegos          4646.250
       145   04 Jun 2027 06:17:34.313   04 Jun 2027 06:18:12.224            37.911            RioGallegos          4738.875
       146   04 Jun 2027 06:19:54.192   04 Jun 2027 06:20:33.367            39.175            RioGallegos          4896.875
       147   04 Jun 2027 06:49:12.379   04 Jun 2027 06:52:26.344           193.965                Sumatra         24245.625
       148   04 Jun 2027 06:55:14.138   04 Jun 2027 06:57:38.038           143.900                  Delhi         17987.500
       149   04 Jun 2027 07:00:28.143   04 Jun 2027 07:00:35.181             7.038                  Delhi           879.750
       150   04 Jun 2027 07:02:36.267   04 Jun 2027 07:07:04.386           268.119                Novosib         33514.875
       151   04 Jun 2027 07:07:25.555   04 Jun 2027 07:08:20.300            54.745                Irkutsk          6843.125
       152   04 Jun 2027 07:08:49.387   04 Jun 2027 07:09:05.322            15.935                Norilsk          1991.875
       153   04 Jun 2027 07:13:00.492   04 Jun 2027 07:13:54.461            53.969              Murmansk2          6746.125
       154   04 Jun 2027 07:14:22.458   04 Jun 2027 07:16:13.693           111.235                 Moscow         13904.375
       155   04 Jun 2027 07:16:45.443   04 Jun 2027 07:17:37.500            52.057              Murmansk2          6507.125
       156   04 Jun 2027 08:35:09.988   04 Jun 2027 08:37:22.325           132.337                  Delhi         16542.125
       157   04 Jun 2027 08:39:42.967   04 Jun 2027 08:39:57.358            14.391                  Delhi          1798.875
       158   04 Jun 2027 08:49:34.311   04 Jun 2027 08:54:12.564           278.253                Norilsk         34781.625
       159   04 Jun 2027 08:54:18.459   04 Jun 2027 08:56:01.159           102.700              Murmansk2         12837.500
       160   04 Jun 2027 09:55:17.782   04 Jun 2027 10:03:17.181           479.399               CapeTown         59924.875
       161   04 Jun 2027 10:16:21.305   04 Jun 2027 10:25:34.743           553.438                 Moscow         69179.750
       162   04 Jun 2027 10:25:36.487   04 Jun 2027 10:30:04.048           267.561              Murmansk2         33445.125
       163   04 Jun 2027 10:30:04.048   04 Jun 2027 10:30:36.290            32.242              Murmansk1          4030.250
       164   04 Jun 2027 10:30:50.972   04 Jun 2027 10:31:59.230            68.258              Murmansk1          8532.250
       165   04 Jun 2027 10:34:26.133   04 Jun 2027 10:42:31.616           485.483                Anadyr2         60685.375
       166   04 Jun 2027 11:58:29.208   04 Jun 2027 12:02:40.175           250.967              Murmansk2         31370.875
       167   04 Jun 2027 12:13:16.206   04 Jun 2027 12:13:29.733            13.527                Anadyr2          1690.875
       168   04 Jun 2027 12:14:00.327   04 Jun 2027 12:16:52.873           172.546               Magadan2         21568.250
       169   04 Jun 2027 13:48:04.527   04 Jun 2027 13:50:06.152           121.625               Magadan1         15203.125
       170   04 Jun 2027 13:51:13.294   04 Jun 2027 13:52:39.831            86.537               Magadan1         10817.125
       171   04 Jun 2027 15:30:39.618   04 Jun 2027 15:33:01.214           141.596                Irkutsk         17699.500
       172   04 Jun 2027 16:15:49.003   04 Jun 2027 16:17:07.026            78.023            RioGallegos          9752.875
       173   04 Jun 2027 16:18:37.472   04 Jun 2027 16:20:09.333            91.861            RioGallegos         11482.625
       174   04 Jun 2027 16:20:15.038   04 Jun 2027 16:21:28.958            73.920            RioGallegos          9240.000
       175   04 Jun 2027 17:04:59.387   04 Jun 2027 17:08:32.943           213.556                Novosib         26694.500
       176   04 Jun 2027 17:18:31.544   04 Jun 2027 17:20:08.535            96.991                Sumatra         12123.875
       177   04 Jun 2027 18:43:53.653   04 Jun 2027 18:44:28.087            34.434                Novosib          4304.250
       178   04 Jun 2027 18:46:52.485   04 Jun 2027 18:49:07.051           134.566                  Delhi         16820.750
       179   04 Jun 2027 18:52:28.452   04 Jun 2027 18:52:51.758            23.306                  Delhi          2913.250
       180   04 Jun 2027 18:54:26.106   04 Jun 2027 18:56:32.110           126.004                  Delhi         15750.500
       181   04 Jun 2027 20:18:07.207   04 Jun 2027 20:19:29.391            82.184                 Moscow         10273.000
       182   04 Jun 2027 20:23:06.466   04 Jun 2027 20:26:03.855           177.389                 Moscow         12016.000
       183   05 Jun 2027 04:13:39.790   05 Jun 2027 04:14:35.844            56.054                Norilsk          7006.750
       184   05 Jun 2027 04:14:51.319   05 Jun 2027 04:16:51.634           120.315              Murmansk1         15039.375
       185   05 Jun 2027 05:23:05.938   05 Jun 2027 05:24:09.291            63.353                Sumatra          7919.125
       186   05 Jun 2027 05:33:51.191   05 Jun 2027 05:36:36.116           164.925                  Delhi         20615.625
       187   05 Jun 2027 05:49:28.112   05 Jun 2027 05:51:13.280           105.168                 Moscow         13146.000
       188   05 Jun 2027 05:51:14.238   05 Jun 2027 05:54:27.124           192.886                Norilsk         24110.750
       189   05 Jun 2027 06:28:40.369   05 Jun 2027 06:29:42.212            61.843            RioGallegos          7730.375
       190   05 Jun 2027 06:30:41.274   05 Jun 2027 06:31:45.487            64.213            RioGallegos          8026.625
       191   05 Jun 2027 06:32:57.992   05 Jun 2027 06:33:59.906            61.914            RioGallegos          7739.250
       192   05 Jun 2027 06:34:21.036   05 Jun 2027 06:34:43.164            22.128            RioGallegos          2766.000
       193   05 Jun 2027 07:02:38.975   05 Jun 2027 07:05:47.169           188.194                Sumatra         23524.250
       194   05 Jun 2027 07:07:17.042   05 Jun 2027 07:08:03.154            46.112                  Delhi          5764.000
       195   05 Jun 2027 07:10:04.263   05 Jun 2027 07:11:04.108            59.845                  Delhi          7480.625
       196   05 Jun 2027 07:13:02.399   05 Jun 2027 07:15:20.109           137.710                  Delhi         17213.750
       197   05 Jun 2027 07:16:13.620   05 Jun 2027 07:19:13.018           179.398                Novosib         22424.750
       198   05 Jun 2027 07:19:19.655   05 Jun 2027 07:21:19.457           119.802                Irkutsk         14975.250
       199   05 Jun 2027 07:24:57.126   05 Jun 2027 07:25:55.155            58.029              Murmansk2          7253.625
       200   05 Jun 2027 07:26:01.942   05 Jun 2027 07:28:18.888           136.946                Norilsk         17118.250
       201   05 Jun 2027 07:28:46.078   05 Jun 2027 07:30:37.855           111.777              Murmansk1         13972.125
       202   05 Jun 2027 07:32:07.629   05 Jun 2027 07:32:10.749             3.120              Murmansk2           390.000
       203   05 Jun 2027 09:02:16.579   05 Jun 2027 09:04:33.657           137.078                 Moscow         17134.750
       204   05 Jun 2027 09:04:41.902   05 Jun 2027 09:08:02.621           200.719              Murmansk1         25089.875
       205   05 Jun 2027 10:06:39.716   05 Jun 2027 10:15:52.078           552.362               CapeTown         69045.250
       206   05 Jun 2027 10:28:42.848   05 Jun 2027 10:38:37.699           594.851                 Moscow         74356.375
       207   05 Jun 2027 10:39:03.865   05 Jun 2027 10:41:08.614           124.749              Murmansk2         15593.625
       208   05 Jun 2027 10:42:49.198   05 Jun 2027 10:43:33.704            44.506              Murmansk2          5563.250
       209   05 Jun 2027 10:46:17.674   05 Jun 2027 10:55:11.893           534.219                Anadyr2         66777.375
       210   05 Jun 2027 12:11:03.325   05 Jun 2027 12:14:35.824           212.499              Murmansk1         26562.375
       211   05 Jun 2027 12:14:40.732   05 Jun 2027 12:15:15.559            34.827              Murmansk2          4353.375
       212   05 Jun 2027 12:25:28.139   05 Jun 2027 12:29:15.175           227.036               Magadan2         28379.500
       213   05 Jun 2027 14:02:13.907   05 Jun 2027 14:05:12.301           178.394               Magadan2         22299.250
       214   05 Jun 2027 15:41:34.165   05 Jun 2027 15:44:47.394           193.229                Irkutsk         24153.625
       215   05 Jun 2027 15:58:40.436   05 Jun 2027 16:01:19.081           158.645                Sumatra         19830.625
       216   05 Jun 2027 17:15:23.658   05 Jun 2027 17:16:59.360            95.702                Irkutsk         11962.750
       217   05 Jun 2027 17:18:02.008   05 Jun 2027 17:20:24.895           142.887                Novosib         17860.875
       218   05 Jun 2027 17:29:42.753   05 Jun 2027 17:31:45.710           122.957                Sumatra         15369.625
       219   05 Jun 2027 18:55:10.560   05 Jun 2027 18:55:54.765            44.205                Novosib          5525.625
       220   05 Jun 2027 18:58:42.196   05 Jun 2027 19:00:50.871           128.675                  Delhi         16084.375
       221   05 Jun 2027 19:01:25.757   05 Jun 2027 19:02:40.191            74.434                  Delhi          9304.250
       222   05 Jun 2027 20:29:47.986   05 Jun 2027 20:31:44.216           116.230                 Moscow         14528.750
       223   05 Jun 2027 20:35:34.026   05 Jun 2027 20:36:09.537            35.511                 Moscow          4438.875
       224   05 Jun 2027 22:06:24.847   05 Jun 2027 22:06:38.493            13.646              Murmansk1          1705.750
       225   05 Jun 2027 22:09:50.328   05 Jun 2027 22:12:11.198           140.870                 Moscow          5047.375
       226   06 Jun 2027 04:25:38.296   06 Jun 2027 04:26:49.985            71.689                Novosib          8961.125
       227   06 Jun 2027 04:26:54.380   06 Jun 2027 04:28:53.267           118.887              Murmansk1         14860.875
       228   06 Jun 2027 05:35:04.790   06 Jun 2027 05:37:36.048           151.258                Sumatra         18907.250
       229   06 Jun 2027 05:45:09.000   06 Jun 2027 05:45:26.243            17.243                  Delhi          2155.375
       230   06 Jun 2027 05:46:33.219   06 Jun 2027 05:47:46.830            73.611                  Delhi          9201.375
       231   06 Jun 2027 05:51:10.928   06 Jun 2027 05:52:47.082            96.154                  Delhi         12019.250
       232   06 Jun 2027 06:00:48.823   06 Jun 2027 06:01:11.345            22.522                Norilsk          2815.250
       233   06 Jun 2027 06:01:35.380   06 Jun 2027 06:03:31.579           116.199                 Moscow         14524.875
       234   06 Jun 2027 06:03:34.959   06 Jun 2027 06:08:37.080           302.121              Murmansk1         37765.125
       235   06 Jun 2027 06:43:03.622   06 Jun 2027 06:43:16.629            13.007            RioGallegos          1625.875
       236   06 Jun 2027 06:46:04.050   06 Jun 2027 06:46:36.338            32.288            RioGallegos          4036.000
       237   06 Jun 2027 07:19:25.476   06 Jun 2027 07:24:16.418           290.942                  Delhi         36367.750
       238   06 Jun 2027 07:27:17.057   06 Jun 2027 07:28:12.720            55.663                Novosib          6957.875
       239   06 Jun 2027 07:29:04.318   06 Jun 2027 07:31:24.923           140.605                Novosib         17575.625
       240   06 Jun 2027 07:32:04.312   06 Jun 2027 07:32:33.676            29.364                 Moscow          3670.500
       241   06 Jun 2027 07:37:05.317   06 Jun 2027 07:37:43.616            38.299                 Moscow          4787.375
       242   06 Jun 2027 07:37:48.695   06 Jun 2027 07:38:10.120            21.425                Norilsk          2678.125
       243   06 Jun 2027 07:38:17.868   06 Jun 2027 07:40:22.759           124.891              Murmansk2         15611.375
       244   06 Jun 2027 07:40:22.759   06 Jun 2027 07:42:29.202           126.443              Murmansk1         15805.375
       245   06 Jun 2027 07:42:41.515   06 Jun 2027 07:43:11.091            29.576              Murmansk2          3697.000
       246   06 Jun 2027 07:43:45.036   06 Jun 2027 07:44:09.125            24.089              Murmansk2          3011.125
       247   06 Jun 2027 07:44:09.125   06 Jun 2027 07:44:10.732             1.607              Murmansk1           200.875
       248   06 Jun 2027 09:03:40.805   06 Jun 2027 09:04:46.672            65.867                 Moscow          8233.375
       249   06 Jun 2027 09:13:16.237   06 Jun 2027 09:16:34.948           198.711                 Moscow         24838.875
       250   06 Jun 2027 09:16:45.742   06 Jun 2027 09:20:04.172           198.430              Murmansk1         24803.750
       251   06 Jun 2027 10:18:12.798   06 Jun 2027 10:27:31.204           558.406               CapeTown         69800.750
       252   06 Jun 2027 10:43:20.031   06 Jun 2027 10:47:02.218           222.187                 Moscow         27773.375
       253   06 Jun 2027 10:47:05.533   06 Jun 2027 10:52:00.533           295.000              Murmansk1         36875.000
       254   06 Jun 2027 10:52:32.338   06 Jun 2027 10:53:08.960            36.622              Murmansk1          4577.750
       255   06 Jun 2027 10:58:11.503   06 Jun 2027 11:03:36.162           324.659                Anadyr2         40582.375
       256   06 Jun 2027 11:04:16.824   06 Jun 2027 11:07:42.333           205.509                Anadyr1         25688.625
       257   06 Jun 2027 12:23:40.764   06 Jun 2027 12:26:41.376           180.612              Murmansk2         22576.500
       258   06 Jun 2027 12:33:44.784   06 Jun 2027 12:34:23.590            38.806                Anadyr2          4850.750
       259   06 Jun 2027 12:35:01.652   06 Jun 2027 12:36:36.452            94.800                Anadyr2         11850.000
       260   06 Jun 2027 12:37:07.240   06 Jun 2027 12:38:30.492            83.252               Magadan2         10406.500
       261   06 Jun 2027 12:41:21.258   06 Jun 2027 12:43:48.662           147.404               Magadan1         18425.500
       262   06 Jun 2027 14:12:00.667   06 Jun 2027 14:12:30.570            29.903               Magadan2          3737.875
       263   06 Jun 2027 14:15:35.276   06 Jun 2027 14:18:48.379           193.103               Magadan1         24137.875
       264   06 Jun 2027 15:08:38.319   06 Jun 2027 15:09:12.035            33.716            RioGallegos          4214.500
       265   06 Jun 2027 15:52:58.670   06 Jun 2027 15:54:10.676            72.006                Irkutsk          9000.750
       266   06 Jun 2027 16:08:34.547   06 Jun 2027 16:10:33.855           119.308                Sumatra         14913.500
       267   06 Jun 2027 16:12:29.353   06 Jun 2027 16:14:46.388           137.035                Sumatra         17129.375
       268   06 Jun 2027 17:28:13.940   06 Jun 2027 17:30:16.099           122.159                Novosib         15269.875
       269   06 Jun 2027 17:41:06.310   06 Jun 2027 17:42:58.741           112.431                Sumatra         14053.875
       270   06 Jun 2027 19:10:35.908   06 Jun 2027 19:13:25.246           169.338                  Delhi         21167.250
       271   06 Jun 2027 20:37:36.358   06 Jun 2027 20:37:38.112             1.754              Murmansk2           219.250
       272   06 Jun 2027 20:40:15.889   06 Jun 2027 20:41:27.916            72.027              Murmansk1          9003.375
       273   06 Jun 2027 20:41:33.876   06 Jun 2027 20:43:48.293           134.417                 Moscow         16802.125
       274   06 Jun 2027 21:09:20.807   06 Jun 2027 21:10:08.420            47.613               CapeTown          4540.375
       275   07 Jun 2027 04:13:58.311   07 Jun 2027 04:16:24.212           145.901                Sumatra         18237.625
       276   07 Jun 2027 04:37:42.500   07 Jun 2027 04:41:58.834           256.334                Norilsk         32041.750
       277   07 Jun 2027 04:42:21.631   07 Jun 2027 04:43:52.817            91.186              Murmansk1         11398.250
       278   07 Jun 2027 05:47:09.244   07 Jun 2027 05:48:49.979           100.735                Sumatra         12591.875
       279   07 Jun 2027 05:57:51.007   07 Jun 2027 06:00:12.771           141.764                  Delhi         17720.500
       280   07 Jun 2027 06:12:02.889   07 Jun 2027 06:12:35.471            32.582              Murmansk1          4072.750
       281   07 Jun 2027 06:13:22.638   07 Jun 2027 06:13:50.533            27.895                Norilsk          3486.875
       282   07 Jun 2027 06:13:56.591   07 Jun 2027 06:15:45.437           108.846                 Moscow         13605.750
       283   07 Jun 2027 06:15:57.184   07 Jun 2027 06:17:45.346           108.162              Murmansk1         13520.250
       284   07 Jun 2027 06:17:45.346   07 Jun 2027 06:19:09.271            83.925              Murmansk2         10490.625
       285   07 Jun 2027 07:31:39.857   07 Jun 2027 07:36:15.028           275.171                  Delhi         34396.375
       286   07 Jun 2027 07:39:43.949   07 Jun 2027 07:39:54.176            10.227                Novosib          1278.375
       287   07 Jun 2027 07:41:49.308   07 Jun 2027 07:43:40.296           110.988                Novosib         13873.500
       288   07 Jun 2027 07:43:53.167   07 Jun 2027 07:44:12.270            19.103                 Moscow          2387.875
       289   07 Jun 2027 07:49:05.151   07 Jun 2027 07:50:26.277            81.126                Novosib         10140.750
       290   07 Jun 2027 07:50:27.659   07 Jun 2027 07:52:29.765           122.106                 Moscow         15263.250
       291   07 Jun 2027 07:52:37.814   07 Jun 2027 07:53:35.873            58.059              Murmansk2          7257.375
       292   07 Jun 2027 07:53:35.873   07 Jun 2027 07:54:21.296            45.423              Murmansk1          5677.875
       293   07 Jun 2027 07:54:21.296   07 Jun 2027 07:54:45.934            24.638              Murmansk2          3079.750
       294   07 Jun 2027 07:56:10.713   07 Jun 2027 07:56:11.014             0.301              Murmansk1            37.625
       295   07 Jun 2027 09:16:52.345   07 Jun 2027 09:19:18.248           145.903                 Moscow         18237.875
       296   07 Jun 2027 09:19:47.549   07 Jun 2027 09:20:16.485            28.936                 Moscow          3617.000
       297   07 Jun 2027 09:20:19.944   07 Jun 2027 09:20:59.387            39.443              Murmansk2          4930.375
       298   07 Jun 2027 09:24:20.220   07 Jun 2027 09:29:57.272           337.052                Norilsk         42131.500
       299   07 Jun 2027 09:30:07.589   07 Jun 2027 09:32:05.797           118.208              Murmansk1         14776.000
       300   07 Jun 2027 10:29:53.209   07 Jun 2027 10:31:19.684            86.475               CapeTown         10809.375
       301   07 Jun 2027 10:32:17.365   07 Jun 2027 10:34:00.142           102.777               CapeTown         12847.125
       302   07 Jun 2027 10:34:01.867   07 Jun 2027 10:36:10.032           128.165               CapeTown         16020.625
       303   07 Jun 2027 10:53:39.664   07 Jun 2027 10:57:25.928           226.264                 Moscow         28283.000
       304   07 Jun 2027 10:57:45.139   07 Jun 2027 10:59:18.309            93.170              Murmansk1         11646.250
       305   07 Jun 2027 10:59:18.309   07 Jun 2027 10:59:42.576            24.267              Murmansk2          3033.375
       306   07 Jun 2027 11:00:33.286   07 Jun 2027 11:05:23.700           290.414              Murmansk1         36301.750
       307   07 Jun 2027 11:05:58.559   07 Jun 2027 11:06:25.597            27.038              Murmansk2          3379.750
       308   07 Jun 2027 11:10:07.007   07 Jun 2027 11:12:06.134           119.127                Anadyr1         14890.875
       309   07 Jun 2027 11:12:41.747   07 Jun 2027 11:13:51.101            69.354                Anadyr2          8669.250
       310   07 Jun 2027 11:14:39.592   07 Jun 2027 11:15:58.629            79.037                Anadyr2          9879.625
       311   07 Jun 2027 11:18:16.812   07 Jun 2027 11:19:26.400            69.588                Anadyr2          8698.500
       312   07 Jun 2027 12:36:22.035   07 Jun 2027 12:37:00.000            37.964              Murmansk2          4745.500
       313   07 Jun 2027 12:48:52.413   07 Jun 2027 12:54:32.050           339.637               Magadan1         42454.625
       314   07 Jun 2027 15:17:52.021   07 Jun 2027 15:20:57.167           185.146            RioGallegos         23143.250
       315   07 Jun 2027 16:04:34.729   07 Jun 2027 16:08:29.190           234.461                Irkutsk         29307.625
       316   07 Jun 2027 16:19:29.092   07 Jun 2027 16:22:16.305           167.213                Sumatra         20901.625
       317   07 Jun 2027 17:42:33.462   07 Jun 2027 17:44:14.437           100.975                Novosib         12621.875
       318   07 Jun 2027 17:46:30.495   07 Jun 2027 17:48:54.213           143.718                Novosib         17964.750
       319   07 Jun 2027 17:49:56.281   07 Jun 2027 17:52:06.540           130.259                  Delhi         16282.375
       320   07 Jun 2027 20:49:59.305   07 Jun 2027 20:50:24.785            25.480              Murmansk1          3185.000
       321   07 Jun 2027 20:53:23.286   07 Jun 2027 20:54:01.844            38.558                 Moscow          4819.750
       322   07 Jun 2027 20:56:03.731   07 Jun 2027 20:57:42.641            98.910                 Moscow         12363.750
       323   07 Jun 2027 21:19:56.761   07 Jun 2027 21:22:06.752           129.991               CapeTown         12995.625
       324   08 Jun 2027 03:13:37.430   08 Jun 2027 03:23:02.182           564.752              Murmansk1         70594.000
       325   08 Jun 2027 03:48:30.860   08 Jun 2027 03:52:26.953           236.093            RioGallegos         29511.625
       326   08 Jun 2027 04:25:04.808   08 Jun 2027 04:28:10.012           185.204                Sumatra         23150.500
       327   08 Jun 2027 04:49:20.332   08 Jun 2027 04:50:03.743            43.411              Murmansk1          5426.375
       328   08 Jun 2027 04:50:03.743   08 Jun 2027 04:54:00.743           237.000              Murmansk2         29625.000
       329   08 Jun 2027 04:54:00.743   08 Jun 2027 04:57:24.671           203.928              Murmansk1         25491.000
       330   08 Jun 2027 05:27:15.571   08 Jun 2027 05:27:55.839            40.268            RioGallegos          5033.500
       331   08 Jun 2027 05:28:30.773   08 Jun 2027 05:28:58.108            27.335            RioGallegos          3416.875
       332   08 Jun 2027 05:59:19.566   08 Jun 2027 06:01:54.617           155.051                Sumatra         19381.375
       333   08 Jun 2027 06:14:00.549   08 Jun 2027 06:14:42.867            42.318                  Delhi          5289.750
       334   08 Jun 2027 06:15:18.118   08 Jun 2027 06:18:09.456           171.338                Irkutsk         21417.250
       335   08 Jun 2027 06:23:57.451   08 Jun 2027 06:24:26.008            28.557                Norilsk          3569.625
       336   08 Jun 2027 06:25:19.326   08 Jun 2027 06:25:49.738            30.412                Norilsk          3801.500
       337   08 Jun 2027 06:25:52.828   08 Jun 2027 06:27:56.705           123.877                 Moscow         15484.625
       338   08 Jun 2027 06:28:01.754   08 Jun 2027 06:30:32.362           150.608              Murmansk2         18826.000
       339   08 Jun 2027 06:30:32.362   08 Jun 2027 06:31:04.666            32.304              Murmansk1          4038.000
       340   08 Jun 2027 07:44:00.944   08 Jun 2027 07:51:26.553           445.609                  Delhi         55701.125
       341   08 Jun 2027 07:52:49.894   08 Jun 2027 07:55:47.312           177.418                Novosib         22177.250
       342   08 Jun 2027 08:01:06.764   08 Jun 2027 08:08:11.575           424.811              Murmansk1         53101.375
       343   08 Jun 2027 09:27:46.594   08 Jun 2027 09:32:42.466           295.872                 Moscow         36984.000
       344   08 Jun 2027 09:32:49.305   08 Jun 2027 09:34:31.602           102.297              Murmansk1         12787.125
       345   08 Jun 2027 09:35:43.053   08 Jun 2027 09:38:13.612           150.559              Murmansk1         18819.875
       346   08 Jun 2027 09:39:27.930   08 Jun 2027 09:41:15.410           107.480              Murmansk1         13435.000
       347   08 Jun 2027 09:48:38.304   08 Jun 2027 09:50:17.450            99.146                Anadyr2         12393.250
       348   08 Jun 2027 10:47:05.899   08 Jun 2027 10:47:34.580            28.681               CapeTown          3585.125
       349   08 Jun 2027 11:08:55.510   08 Jun 2027 11:10:04.713            69.203              Murmansk1          8650.375
       350   08 Jun 2027 11:11:15.517   08 Jun 2027 11:11:45.445            29.928              Murmansk1          3741.000
       351   08 Jun 2027 11:12:20.593   08 Jun 2027 11:12:29.586             8.993              Murmansk1          1124.125
       352   08 Jun 2027 11:12:46.750   08 Jun 2027 11:13:07.619            20.869              Murmansk1          2608.625
       353   08 Jun 2027 11:13:38.615   08 Jun 2027 11:14:57.750            79.135              Murmansk1          9891.875
       354   08 Jun 2027 11:15:25.980   08 Jun 2027 11:15:56.873            30.893              Murmansk2          3861.625
       355   08 Jun 2027 11:16:15.316   08 Jun 2027 11:17:10.429            55.113              Murmansk2          6889.125
       356   08 Jun 2027 11:18:35.363   08 Jun 2027 11:18:59.551            24.188              Murmansk2          3023.500
       357   08 Jun 2027 11:19:34.847   08 Jun 2027 11:19:44.052             9.205              Murmansk2          1150.625
       358   08 Jun 2027 11:22:03.783   08 Jun 2027 11:24:53.239           169.456                Anadyr2         21182.000
       359   08 Jun 2027 11:26:14.283   08 Jun 2027 11:26:39.194            24.911                Anadyr1          3113.875
       360   08 Jun 2027 12:17:30.672   08 Jun 2027 12:19:40.969           130.297               CapeTown         16287.125
       361   08 Jun 2027 12:49:07.965   08 Jun 2027 12:52:01.046           173.081              Murmansk2         21635.125
       362   08 Jun 2027 13:00:41.490   08 Jun 2027 13:06:24.301           342.811               Magadan2         42851.375
       363   08 Jun 2027 15:29:12.666   08 Jun 2027 15:32:46.002           213.336            RioGallegos         26667.000
       364   08 Jun 2027 16:18:07.531   08 Jun 2027 16:20:23.425           135.894                Irkutsk         16986.750
       365   08 Jun 2027 16:32:15.107   08 Jun 2027 16:34:05.245           110.138                Sumatra         13767.250
       366   08 Jun 2027 17:51:50.669   08 Jun 2027 17:54:34.275           163.606                Novosib         20450.750
       367   08 Jun 2027 17:55:37.773   08 Jun 2027 17:56:11.330            33.557                Novosib          4194.625
       368   08 Jun 2027 18:00:52.412   08 Jun 2027 18:03:50.346           177.934                  Delhi         22241.750
       369   08 Jun 2027 21:06:21.090   08 Jun 2027 21:06:36.609            15.519              Murmansk1          1939.875
       370   08 Jun 2027 21:08:08.781   08 Jun 2027 21:09:40.424            91.643                 Moscow         11455.375
       371   08 Jun 2027 21:30:43.221   08 Jun 2027 21:31:57.443            74.222               CapeTown          9277.750
       372   08 Jun 2027 21:33:25.931   08 Jun 2027 21:33:50.370            24.439               CapeTown          3054.875
       373   08 Jun 2027 21:36:31.184   08 Jun 2027 21:36:54.458            23.274               CapeTown          2909.250
       374   08 Jun 2027 21:38:09.894   08 Jun 2027 21:38:18.787             8.893               CapeTown          1111.625
       375   09 Jun 2027 03:25:32.994   09 Jun 2027 03:27:52.359           139.365              Murmansk2         17420.625
       376   09 Jun 2027 03:27:59.637   09 Jun 2027 03:29:01.883            62.246              Murmansk1          7780.750
       377   09 Jun 2027 03:29:06.567   09 Jun 2027 03:29:19.876            13.309                Norilsk          1663.625
       378   09 Jun 2027 03:29:21.816   09 Jun 2027 03:29:42.066            20.250              Murmansk1          2531.250
       379   09 Jun 2027 04:36:26.859   09 Jun 2027 04:36:37.709            10.850                Sumatra          1356.250
       380   09 Jun 2027 04:37:11.894   09 Jun 2027 04:38:10.277            58.383                Sumatra          7297.875
       381   09 Jun 2027 04:43:05.517   09 Jun 2027 04:44:02.719            57.202                Sumatra          7150.250
       382   09 Jun 2027 05:01:45.775   09 Jun 2027 05:06:21.805           276.030                Norilsk         34503.750
       383   09 Jun 2027 05:06:27.747   09 Jun 2027 05:08:30.184           122.437              Murmansk2         15304.625
       384   09 Jun 2027 05:08:30.184   09 Jun 2027 05:09:17.381            47.197              Murmansk1          5899.625
       385   09 Jun 2027 05:37:21.481   09 Jun 2027 05:38:26.734            65.253            RioGallegos          8156.625
       386   09 Jun 2027 05:40:01.157   09 Jun 2027 05:40:37.490            36.333            RioGallegos          4541.625
       387   09 Jun 2027 05:41:16.849   09 Jun 2027 05:41:29.426            12.577            RioGallegos          1572.125
       388   09 Jun 2027 06:11:36.460   09 Jun 2027 06:13:47.016           130.556                Sumatra         16319.500
       389   09 Jun 2027 06:19:51.901   09 Jun 2027 06:20:04.876            12.975                  Delhi          1621.875
       390   09 Jun 2027 06:25:04.358   09 Jun 2027 06:26:02.702            58.344                  Delhi          7293.000
       391   09 Jun 2027 06:26:17.094   09 Jun 2027 06:27:12.353            55.259                Novosib          6907.375
       392   09 Jun 2027 06:27:16.294   09 Jun 2027 06:29:13.061           116.767                Irkutsk         14595.875
       393   09 Jun 2027 06:29:30.384   09 Jun 2027 06:31:05.303            94.919                Novosib         11864.875
       394   09 Jun 2027 06:36:56.128   09 Jun 2027 06:40:06.263           190.135                 Moscow         23766.875
       395   09 Jun 2027 06:40:07.176   09 Jun 2027 06:42:24.282           137.106              Murmansk2         17138.250
       396   09 Jun 2027 06:43:20.508   09 Jun 2027 06:43:55.791            35.283              Murmansk2          4410.375
       397   09 Jun 2027 06:43:58.523   09 Jun 2027 06:44:29.237            30.714              Murmansk2          3839.250
       398   09 Jun 2027 07:56:30.005   09 Jun 2027 08:00:28.507           238.502                  Delhi         29812.750
       399   09 Jun 2027 08:04:54.101   09 Jun 2027 08:05:03.581             9.480                Novosib          1185.000
       400   09 Jun 2027 08:05:48.192   09 Jun 2027 08:08:22.649           154.457                Novosib         19307.125
       401   09 Jun 2027 08:12:59.402   09 Jun 2027 08:18:07.738           308.336              Murmansk2         38542.000
       402   09 Jun 2027 08:18:07.738   09 Jun 2027 08:20:12.369           124.631              Murmansk1         15578.875
       403   09 Jun 2027 09:43:25.458   09 Jun 2027 09:45:39.804           134.346              Murmansk2         16793.250
       404   09 Jun 2027 09:47:24.176   09 Jun 2027 09:47:31.345             7.169              Murmansk2           896.125
       405   09 Jun 2027 09:47:48.186   09 Jun 2027 09:48:04.335            16.149              Murmansk2          2018.625
       406   09 Jun 2027 09:49:11.592   09 Jun 2027 09:49:29.739            18.147              Murmansk2          2268.375
       407   09 Jun 2027 09:50:03.403   09 Jun 2027 09:50:16.710            13.307                Norilsk          1663.375
       408   09 Jun 2027 09:51:29.413   09 Jun 2027 09:54:07.381           157.968              Murmansk1         19746.000
       409   09 Jun 2027 09:59:36.442   09 Jun 2027 10:04:01.071           264.629                Anadyr1         33078.625
       410   09 Jun 2027 11:21:18.942   09 Jun 2027 11:22:29.249            70.307              Murmansk1          8788.375
       411   09 Jun 2027 11:27:27.321   09 Jun 2027 11:29:07.654           100.333              Murmansk1         12541.625
       412   09 Jun 2027 11:30:08.844   09 Jun 2027 11:30:24.379            15.535              Murmansk1          1941.875
       413   09 Jun 2027 11:30:46.442   09 Jun 2027 11:31:13.916            27.474              Murmansk1          3434.250
       414   09 Jun 2027 11:34:01.539   09 Jun 2027 11:35:15.405            73.866                Anadyr1          9233.250
       415   09 Jun 2027 11:37:02.475   09 Jun 2027 11:38:52.613           110.138                Anadyr2         13767.250
       416   09 Jun 2027 11:43:28.419   09 Jun 2027 11:43:34.851             6.432                Anadyr2           804.000
       417   09 Jun 2027 11:44:25.813   09 Jun 2027 11:44:39.284            13.471                Anadyr1          1683.875
       418   09 Jun 2027 12:29:45.481   09 Jun 2027 12:31:14.453            88.972               CapeTown         11121.500
       419   09 Jun 2027 12:31:55.182   09 Jun 2027 12:32:46.820            51.638               CapeTown          6454.750
       420   09 Jun 2027 12:36:25.806   09 Jun 2027 12:37:08.496            42.690               CapeTown          5336.250
       421   09 Jun 2027 12:37:26.097   09 Jun 2027 12:39:06.032            99.935               CapeTown         12491.875
       422   09 Jun 2027 13:12:33.294   09 Jun 2027 13:16:57.553           264.259               Magadan2         33032.375
       423   09 Jun 2027 15:40:46.631   09 Jun 2027 15:44:37.621           230.990            RioGallegos         28873.750
       424   09 Jun 2027 16:30:41.802   09 Jun 2027 16:32:19.331            97.529                Irkutsk         12191.125
       425   09 Jun 2027 16:37:01.347   09 Jun 2027 16:37:31.025            29.678                Irkutsk          3709.750
       426   09 Jun 2027 16:42:12.009   09 Jun 2027 16:43:28.659            76.650                Sumatra          9581.250
       427   09 Jun 2027 16:44:03.923   09 Jun 2027 16:46:00.050           116.127                Sumatra         14515.875
       428   09 Jun 2027 16:49:08.056   09 Jun 2027 16:49:20.229            12.173                Sumatra          1521.625
       429   09 Jun 2027 18:03:43.126   09 Jun 2027 18:05:08.361            85.235                Novosib         10654.375
       430   09 Jun 2027 18:12:11.568   09 Jun 2027 18:15:39.093           207.525                  Delhi         25940.625
       431   09 Jun 2027 18:20:17.476   09 Jun 2027 18:20:53.356            35.880                  Delhi          4485.000
       432   09 Jun 2027 21:16:06.545   09 Jun 2027 21:18:22.625           136.080              Murmansk1         17010.000
       433   09 Jun 2027 21:42:09.422   09 Jun 2027 21:43:56.459           107.037               CapeTown         13379.625
       434   09 Jun 2027 21:48:38.824   09 Jun 2027 21:49:09.177            30.353               CapeTown          3794.125
       435   10 Jun 2027 03:37:50.561   10 Jun 2027 03:38:37.296            46.735                Novosib          5841.875
       436   10 Jun 2027 03:39:03.218   10 Jun 2027 03:40:20.177            76.959              Murmansk2          9619.875
       437   10 Jun 2027 04:47:59.396   10 Jun 2027 04:49:42.741           103.345                Sumatra         12918.125
       438   10 Jun 2027 05:13:39.128   10 Jun 2027 05:14:11.899            32.771              Murmansk1          4096.375
       439   10 Jun 2027 05:14:11.899   10 Jun 2027 05:17:49.888           217.989              Murmansk2         27248.625
       440   10 Jun 2027 05:17:49.888   10 Jun 2027 05:18:55.265            65.377              Murmansk1          8172.125
       441   10 Jun 2027 05:50:11.129   10 Jun 2027 05:51:01.243            50.114            RioGallegos          6264.250
       442   10 Jun 2027 05:51:58.341   10 Jun 2027 05:52:43.222            44.881            RioGallegos          5610.125
       443   10 Jun 2027 05:57:08.950   10 Jun 2027 05:57:26.828            17.878            RioGallegos          2234.750
       444   10 Jun 2027 06:24:01.241   10 Jun 2027 06:25:24.754            83.513                Sumatra         10439.125
       445   10 Jun 2027 06:29:52.211   10 Jun 2027 06:30:54.078            61.867                Sumatra          7733.375
       446   10 Jun 2027 06:31:38.814   10 Jun 2027 06:33:55.369           136.555                  Delhi         17069.375
       447   10 Jun 2027 06:38:25.165   10 Jun 2027 06:40:47.467           142.302                Novosib         17787.750
       448   10 Jun 2027 06:40:50.384   10 Jun 2027 06:41:16.642            26.258                Irkutsk          3282.250
       449   10 Jun 2027 06:42:17.248   10 Jun 2027 06:43:00.862            43.614                Irkutsk          5451.750
       450   10 Jun 2027 06:43:17.726   10 Jun 2027 06:44:06.615            48.889                Novosib          6111.125
       451   10 Jun 2027 06:49:24.082   10 Jun 2027 06:51:22.044           117.962              Murmansk1         14745.250
       452   10 Jun 2027 06:51:22.044   10 Jun 2027 06:51:40.447            18.403              Murmansk2          2300.375
       453   10 Jun 2027 06:51:41.284   10 Jun 2027 06:52:14.566            33.282                 Moscow          4160.250
       454   10 Jun 2027 06:52:36.244   10 Jun 2027 06:54:36.519           120.275                Norilsk         15034.375
       455   10 Jun 2027 08:09:09.331   10 Jun 2027 08:12:44.100           214.769                  Delhi         26846.125
       456   10 Jun 2027 08:15:59.135   10 Jun 2027 08:17:35.238            96.103                  Delhi         12012.875
       457   10 Jun 2027 08:17:46.325   10 Jun 2027 08:20:50.473           184.148                Novosib         23018.500
       458   10 Jun 2027 08:25:42.210   10 Jun 2027 08:28:41.282           179.072                 Moscow         22384.000
       459   10 Jun 2027 08:28:42.787   10 Jun 2027 08:30:30.012           107.225                Norilsk         13403.125
       460   10 Jun 2027 08:30:51.700   10 Jun 2027 08:32:13.373            81.673              Murmansk1         10209.125
       461   10 Jun 2027 09:54:07.479   10 Jun 2027 09:56:43.559           156.080                 Moscow         19510.000
       462   10 Jun 2027 09:56:56.814   10 Jun 2027 09:57:22.353            25.539                 Moscow          3192.375
       463   10 Jun 2027 09:57:22.788   10 Jun 2027 10:00:13.896           171.108              Murmansk1         21388.500
       464   10 Jun 2027 10:00:56.535   10 Jun 2027 10:01:27.374            30.839              Murmansk2          3854.875
       465   10 Jun 2027 10:11:09.400   10 Jun 2027 10:17:07.323           357.923                Anadyr2         44740.375
       466   10 Jun 2027 11:33:44.795   10 Jun 2027 11:34:56.700            71.905              Murmansk2          8988.125
       467   10 Jun 2027 11:36:35.953   10 Jun 2027 11:37:00.882            24.929              Murmansk1          3116.125
       468   10 Jun 2027 11:37:30.116   10 Jun 2027 11:37:51.531            21.415              Murmansk1          2676.875
       469   10 Jun 2027 11:37:59.942   10 Jun 2027 11:38:56.025            56.083              Murmansk1          7010.375
       470   10 Jun 2027 11:41:56.038   10 Jun 2027 11:42:39.823            43.785              Murmansk1          5473.125
       471   10 Jun 2027 11:43:25.305   10 Jun 2027 11:43:41.800            16.495              Murmansk1          2061.875
       472   10 Jun 2027 11:46:00.084   10 Jun 2027 11:47:02.506            62.422                Anadyr2          7802.750
       473   10 Jun 2027 11:47:12.826   10 Jun 2027 11:49:09.542           116.716                Anadyr1         14589.500
       474   10 Jun 2027 11:53:01.514   10 Jun 2027 11:55:29.653           148.139                Anadyr2         18517.375
       475   10 Jun 2027 12:43:29.437   10 Jun 2027 12:44:04.367            34.930               CapeTown          4366.250
       476   10 Jun 2027 12:44:51.336   10 Jun 2027 12:46:22.146            90.810               CapeTown         11351.250
       477   10 Jun 2027 12:49:44.576   10 Jun 2027 12:50:06.052            21.476               CapeTown          2684.500
       478   10 Jun 2027 12:50:21.358   10 Jun 2027 12:51:13.376            52.018               CapeTown          6502.250
       479   10 Jun 2027 13:24:27.128   10 Jun 2027 13:25:30.697            63.569               Magadan1          7946.125
       480   10 Jun 2027 13:25:30.697   10 Jun 2027 13:27:20.038           109.341               Magadan2         13667.625
       481   10 Jun 2027 13:28:48.818   10 Jun 2027 13:28:55.894             7.076               Magadan2           884.500
       482   10 Jun 2027 13:33:41.713   10 Jun 2027 13:33:57.880            16.167               Magadan1          2020.875
