uniorb/output/strategy_4/Drop/Drop_KinoSat_111503.txt

KinoSat_111503
-------------------------
    Access    *     Start Time (UTCG)     *     Stop Time (UTCG)  *   Duration (s)        *       Station  *  Data (Mbytes)
         1   01 Jun 2027 03:40:41.920   01 Jun 2027 03:40:52.186            10.266                Norilsk           320.812
         2   01 Jun 2027 03:40:58.388   01 Jun 2027 03:42:12.838            74.450              Murmansk1          2326.562
         3   01 Jun 2027 03:42:12.838   01 Jun 2027 03:42:23.669            10.831              Murmansk2           338.469
         4   01 Jun 2027 03:42:27.642   01 Jun 2027 03:42:59.399            31.757                Novosib           992.406
         5   01 Jun 2027 03:43:02.225   01 Jun 2027 03:44:00.331            58.106              Murmansk1          1815.812
         6   01 Jun 2027 03:44:00.331   01 Jun 2027 03:44:03.912             3.581              Murmansk2           111.906
         7   01 Jun 2027 03:44:20.138   01 Jun 2027 03:44:42.004            21.866                Novosib           683.313
         8   01 Jun 2027 03:44:46.906   01 Jun 2027 03:45:07.387            20.481              Murmansk2           640.031
         9   01 Jun 2027 03:45:12.404   01 Jun 2027 03:46:22.875            70.471                 Moscow          2202.219
        10   01 Jun 2027 03:47:30.116   01 Jun 2027 03:47:38.382             8.266                 Moscow           258.313
        11   01 Jun 2027 03:47:59.934   01 Jun 2027 03:48:31.055            31.121                 Moscow           972.531
        12   01 Jun 2027 04:07:29.223   01 Jun 2027 04:07:48.044            18.821               CapeTown           588.156
        13   01 Jun 2027 05:16:48.634   01 Jun 2027 05:17:41.177            52.543                Norilsk          1641.969
        14   01 Jun 2027 05:17:50.073   01 Jun 2027 05:20:22.231           152.158                 Moscow          4754.938
        15   01 Jun 2027 05:20:40.918   01 Jun 2027 05:21:03.729            22.811              Murmansk1           712.844
        16   01 Jun 2027 05:21:03.729   01 Jun 2027 05:22:22.496            78.767              Murmansk2          2461.469
        17   01 Jun 2027 05:23:39.003   01 Jun 2027 05:24:17.417            38.414                 Moscow          1200.438
        18   01 Jun 2027 06:40:29.544   01 Jun 2027 06:42:47.786           138.242               Magadan2          4320.062
        19   01 Jun 2027 08:17:28.826   01 Jun 2027 08:19:54.138           145.312                Irkutsk          4541.000
        20   01 Jun 2027 08:20:03.534   01 Jun 2027 08:20:32.879            29.345               Magadan1           917.031
        21   01 Jun 2027 08:20:32.879   01 Jun 2027 08:21:44.866            71.987               Magadan2          2249.594
        22   01 Jun 2027 09:00:34.923   01 Jun 2027 09:00:38.330             3.407            RioGallegos           106.469
        23   01 Jun 2027 09:52:07.507   01 Jun 2027 09:52:38.746            31.239               Magadan2           976.219
        24   01 Jun 2027 09:52:38.746   01 Jun 2027 09:55:54.044           195.298               Magadan1          6103.063
        25   01 Jun 2027 09:56:40.810   01 Jun 2027 09:57:15.720            34.910              Murmansk2          1090.937
        26   01 Jun 2027 09:57:24.849   01 Jun 2027 09:58:28.901            64.052                Norilsk          2001.625
        27   01 Jun 2027 09:59:37.868   01 Jun 2027 10:00:06.356            28.488              Murmansk2           890.250
        28   01 Jun 2027 10:32:10.731   01 Jun 2027 10:35:24.473           193.742            RioGallegos          6054.438
        29   01 Jun 2027 11:07:19.203   01 Jun 2027 11:09:36.835           137.632                Sumatra          4301.000
        30   01 Jun 2027 11:29:25.253   01 Jun 2027 11:32:23.872           178.619                Norilsk          5581.844
        31   01 Jun 2027 11:32:26.654   01 Jun 2027 11:33:29.032            62.378                Norilsk          1949.312
        32   01 Jun 2027 11:34:16.759   01 Jun 2027 11:34:27.941            11.182                Novosib           349.438
        33   01 Jun 2027 11:34:29.126   01 Jun 2027 11:34:42.399            13.273                Norilsk           414.781
        34   01 Jun 2027 11:40:47.409   01 Jun 2027 11:40:48.798             1.389              Murmansk2            43.406
        35   01 Jun 2027 12:10:36.289   01 Jun 2027 12:13:16.176           159.887            RioGallegos          4996.469
        36   01 Jun 2027 12:15:24.571   01 Jun 2027 12:15:32.824             8.253            RioGallegos           257.906
        37   01 Jun 2027 12:44:55.627   01 Jun 2027 12:47:16.182           140.555                Sumatra          4392.344
        38   01 Jun 2027 12:58:33.321   01 Jun 2027 12:59:38.849            65.528                Novosib          2047.750
        39   01 Jun 2027 13:00:44.075   01 Jun 2027 13:03:47.900           183.825                Irkutsk          5744.531
        40   01 Jun 2027 13:04:44.270   01 Jun 2027 13:05:12.816            28.546                Irkutsk           892.063
        41   01 Jun 2027 14:30:38.391   01 Jun 2027 14:34:25.788           227.397                  Delhi          7106.156
        42   01 Jun 2027 14:39:06.634   01 Jun 2027 14:41:13.773           127.139                Novosib          3973.094
        43   01 Jun 2027 14:41:46.521   01 Jun 2027 14:42:23.971            37.450                Norilsk          1170.313
        44   01 Jun 2027 14:42:54.788   01 Jun 2027 14:43:06.608            11.820                Norilsk           369.375
        45   01 Jun 2027 14:44:49.922   01 Jun 2027 14:46:38.992           109.070                Norilsk          3408.437
        46   01 Jun 2027 15:51:35.961   01 Jun 2027 15:53:35.253           119.292               CapeTown          3727.875
        47   01 Jun 2027 16:12:17.290   01 Jun 2027 16:13:43.345            86.055                 Moscow          2689.219
        48   01 Jun 2027 16:15:48.825   01 Jun 2027 16:16:52.267            63.442                 Moscow          1982.563
        49   01 Jun 2027 16:22:56.171   01 Jun 2027 16:23:52.716            56.545              Murmansk1          1767.031
        50   01 Jun 2027 16:30:29.991   01 Jun 2027 16:32:18.762           108.771                Anadyr2          3399.094
        51   01 Jun 2027 16:33:18.159   01 Jun 2027 16:33:30.141            11.982                Anadyr2           374.438
        52   01 Jun 2027 17:25:07.007   01 Jun 2027 17:27:39.656           152.649               CapeTown          4770.281
        53   01 Jun 2027 17:53:50.903   01 Jun 2027 17:57:30.310           219.407                 Moscow          6856.469
        54   01 Jun 2027 17:57:56.400   01 Jun 2027 18:00:04.431           128.031              Murmansk1          4000.969
        55   01 Jun 2027 18:11:06.574   01 Jun 2027 18:11:25.839            19.265               Magadan2           602.031
        56   01 Jun 2027 18:14:07.898   01 Jun 2027 18:14:41.574            33.676               Magadan1          1052.375
        57   01 Jun 2027 19:02:42.071   01 Jun 2027 19:03:26.611            44.540               CapeTown          1391.875
        58   01 Jun 2027 19:05:03.803   01 Jun 2027 19:05:44.136            40.333               CapeTown          1260.406
        59   01 Jun 2027 19:09:00.825   01 Jun 2027 19:10:24.165            83.340               CapeTown          2604.375
        60   01 Jun 2027 19:41:39.209   01 Jun 2027 19:42:37.454            58.245                Anadyr2          1820.156
        61   01 Jun 2027 19:42:50.409   01 Jun 2027 19:43:11.311            20.902                Anadyr2           653.187
        62   01 Jun 2027 19:44:07.549   01 Jun 2027 19:46:36.741           149.192               Magadan1          4662.250
        63   01 Jun 2027 19:46:53.974   01 Jun 2027 19:47:29.312            35.338               Magadan1          1104.312
        64   01 Jun 2027 19:48:55.596   01 Jun 2027 19:48:58.468             2.872               Magadan1            89.750
        65   01 Jun 2027 19:50:17.677   01 Jun 2027 19:50:25.142             7.465               Magadan1           233.281
        66   01 Jun 2027 19:50:26.985   01 Jun 2027 19:50:32.011             5.026               Magadan1           157.062
        67   01 Jun 2027 19:50:45.726   01 Jun 2027 19:50:58.213            12.487               Magadan1           390.219
        68   01 Jun 2027 19:52:44.866   01 Jun 2027 19:53:17.585            32.719               Magadan2          1022.469
        69   01 Jun 2027 21:17:33.676   01 Jun 2027 21:21:15.098           221.422                Anadyr2          6919.437
        70   01 Jun 2027 21:22:02.962   01 Jun 2027 21:25:00.581           177.619                Norilsk          5550.594
        71   01 Jun 2027 21:25:58.772   01 Jun 2027 21:26:44.603            45.831               Magadan2          1432.219
        72   01 Jun 2027 21:27:03.000   01 Jun 2027 21:27:24.630            21.630               Magadan1           675.938
        73   01 Jun 2027 21:27:35.056   01 Jun 2027 21:28:32.860            57.804                Irkutsk          1806.375
        74   01 Jun 2027 21:30:54.704   01 Jun 2027 21:31:15.149            20.445               Magadan1           638.906
        75   01 Jun 2027 22:11:54.088   01 Jun 2027 22:14:12.606           138.518            RioGallegos          4328.687
        76   01 Jun 2027 22:14:48.719   01 Jun 2027 22:15:15.971            27.252            RioGallegos           851.625
        77   01 Jun 2027 22:17:55.790   01 Jun 2027 22:18:05.627             9.837            RioGallegos           307.406
        78   01 Jun 2027 22:20:54.734   01 Jun 2027 22:21:21.641            26.907            RioGallegos           840.844
        79   01 Jun 2027 22:53:08.029   01 Jun 2027 22:53:54.895            46.866                Anadyr1          1464.563
        80   01 Jun 2027 22:54:08.536   01 Jun 2027 22:55:54.528           105.992                Anadyr2          3312.250
        81   01 Jun 2027 22:55:55.175   01 Jun 2027 22:57:45.059           109.884               Magadan1          3433.875
        82   01 Jun 2027 22:59:31.307   01 Jun 2027 23:00:25.567            54.260                Irkutsk          1695.625
        83   01 Jun 2027 23:01:08.474   01 Jun 2027 23:01:13.878             5.404                Novosib           168.875
        84   01 Jun 2027 23:01:44.056   01 Jun 2027 23:02:17.540            33.484                Irkutsk          1046.375
        85   01 Jun 2027 23:02:18.250   01 Jun 2027 23:03:03.915            45.665                Novosib          1427.031
        86   01 Jun 2027 23:03:56.399   01 Jun 2027 23:03:56.981             0.582                Novosib            18.187
        87   01 Jun 2027 23:06:21.839   01 Jun 2027 23:07:31.201            69.362                Novosib          2167.562
        88   01 Jun 2027 23:15:52.816   01 Jun 2027 23:15:57.755             4.939                Sumatra           154.344
        89   01 Jun 2027 23:20:24.041   01 Jun 2027 23:21:00.534            36.493                Sumatra          1140.406
        90   01 Jun 2027 23:22:12.361   01 Jun 2027 23:22:43.608            31.247                Sumatra           976.469
        91   01 Jun 2027 23:47:17.066   01 Jun 2027 23:47:54.540            37.474            RioGallegos          1171.062
        92   01 Jun 2027 23:50:56.856   01 Jun 2027 23:51:05.329             8.473            RioGallegos           264.781
        93   01 Jun 2027 23:53:07.463   01 Jun 2027 23:53:29.861            22.398            RioGallegos           699.938
        94   01 Jun 2027 23:57:30.772   01 Jun 2027 23:57:33.051             2.279            RioGallegos            71.219
        95   01 Jun 2027 23:57:47.114   01 Jun 2027 23:57:55.421             8.307            RioGallegos           259.594
        96   01 Jun 2027 23:59:00.808   02 Jun 2027 00:00:06.526            65.718            RioGallegos          2053.688
        97   02 Jun 2027 00:28:37.340   02 Jun 2027 00:28:41.479             4.139                Anadyr2           129.344
        98   02 Jun 2027 00:28:52.337   02 Jun 2027 00:29:21.483            29.146                Anadyr2           910.812
        99   02 Jun 2027 00:30:02.334   02 Jun 2027 00:30:21.150            18.816                Anadyr1           588.000
       100   02 Jun 2027 00:31:21.605   02 Jun 2027 00:33:06.905           105.300                Norilsk          3290.625
       101   02 Jun 2027 00:34:43.256   02 Jun 2027 00:35:06.570            23.314               Magadan1           728.562
       102   02 Jun 2027 00:35:14.736   02 Jun 2027 00:37:17.810           123.074                Irkutsk          3846.062
       103   02 Jun 2027 00:37:34.806   02 Jun 2027 00:38:28.763            53.957                Novosib          1686.156
       104   02 Jun 2027 00:40:08.393   02 Jun 2027 00:40:42.233            33.840                Novosib          1057.500
       105   02 Jun 2027 00:42:05.665   02 Jun 2027 00:43:14.389            68.724                Novosib          2147.625
       106   02 Jun 2027 00:49:22.500   02 Jun 2027 00:50:01.805            39.305                  Delhi          1228.281
       107   02 Jun 2027 00:51:26.259   02 Jun 2027 00:53:11.168           104.909                Sumatra          3278.406
       108   02 Jun 2027 01:27:13.946   02 Jun 2027 01:27:49.165            35.219            RioGallegos          1100.594
       109   02 Jun 2027 01:33:29.826   02 Jun 2027 01:33:38.589             8.763            RioGallegos           273.844
       110   02 Jun 2027 02:01:16.191   02 Jun 2027 02:01:34.679            18.488                Anadyr2           577.750
       111   02 Jun 2027 02:02:36.622   02 Jun 2027 02:03:19.821            43.199                Anadyr1          1349.969
       112   02 Jun 2027 02:06:47.629   02 Jun 2027 02:07:13.010            25.381                Anadyr2           793.156
       113   02 Jun 2027 02:07:20.861   02 Jun 2027 02:08:41.484            80.623                Norilsk          2519.469
       114   02 Jun 2027 02:09:09.780   02 Jun 2027 02:09:24.858            15.078                Norilsk           471.187
       115   02 Jun 2027 02:09:39.851   02 Jun 2027 02:09:58.170            18.319              Murmansk1           572.469
       116   02 Jun 2027 02:09:58.170   02 Jun 2027 02:11:08.290            70.120              Murmansk2          2191.250
       117   02 Jun 2027 02:11:34.134   02 Jun 2027 02:12:00.346            26.212                Novosib           819.125
       118   02 Jun 2027 02:14:53.209   02 Jun 2027 02:15:11.753            18.544                Irkutsk           579.500
       119   02 Jun 2027 02:17:42.704   02 Jun 2027 02:18:02.040            19.336                 Moscow           604.250
       120   02 Jun 2027 02:19:27.940   02 Jun 2027 02:19:43.902            15.962                  Delhi           498.812
       121   02 Jun 2027 02:20:52.336   02 Jun 2027 02:23:22.576           150.240                  Delhi          4695.000
       122   02 Jun 2027 03:53:00.294   02 Jun 2027 03:53:53.627            53.333              Murmansk2          1666.656
       123   02 Jun 2027 03:53:53.627   02 Jun 2027 03:54:01.054             7.427              Murmansk1           232.094
       124   02 Jun 2027 03:54:07.881   02 Jun 2027 03:55:50.939           103.058                Novosib          3220.562
       125   02 Jun 2027 03:56:06.548   02 Jun 2027 03:57:41.224            94.676              Murmansk2          2958.625
       126   02 Jun 2027 03:58:21.677   02 Jun 2027 04:01:22.254           180.577                 Moscow          5643.031
       127   02 Jun 2027 04:13:00.301   02 Jun 2027 04:19:21.910           381.609               CapeTown         11925.281
       128   02 Jun 2027 05:16:58.598   02 Jun 2027 05:20:02.980           184.382                Anadyr2          5761.938
       129   02 Jun 2027 05:20:02.980   02 Jun 2027 05:20:10.389             7.409                Anadyr1           231.531
       130   02 Jun 2027 06:52:15.714   02 Jun 2027 06:52:36.991            21.277                Anadyr2           664.906
       131   02 Jun 2027 06:53:08.361   02 Jun 2027 06:54:26.702            78.341                Anadyr1          2448.156
       132   02 Jun 2027 06:54:28.132   02 Jun 2027 06:56:51.394           143.262               Magadan1          4476.938
       133   02 Jun 2027 06:56:51.394   02 Jun 2027 06:57:52.166            60.772               Magadan2          1899.125
       134   02 Jun 2027 08:28:31.978   02 Jun 2027 08:29:44.785            72.807                Anadyr1          2275.219
       135   02 Jun 2027 08:29:44.785   02 Jun 2027 08:32:19.807           155.022                Anadyr2          4844.438
       136   02 Jun 2027 08:32:36.042   02 Jun 2027 08:33:44.398            68.356               Magadan1          2136.125
       137   02 Jun 2027 10:04:07.760   02 Jun 2027 10:05:25.976            78.216               Magadan2          2444.250
       138   02 Jun 2027 10:05:38.896   02 Jun 2027 10:05:43.862             4.966                Irkutsk           155.188
       139   02 Jun 2027 10:06:32.041   02 Jun 2027 10:06:39.347             7.306                Norilsk           228.313
       140   02 Jun 2027 10:06:51.575   02 Jun 2027 10:07:52.505            60.930               Magadan2          1904.063
       141   02 Jun 2027 10:07:58.610   02 Jun 2027 10:08:14.385            15.775                Irkutsk           492.969
       142   02 Jun 2027 10:08:42.291   02 Jun 2027 10:08:51.463             9.172                Norilsk           286.625
       143   02 Jun 2027 10:08:54.239   02 Jun 2027 10:09:16.701            22.462                Novosib           701.937
       144   02 Jun 2027 10:09:21.621   02 Jun 2027 10:10:30.770            69.149                Norilsk          2160.906
       145   02 Jun 2027 10:47:28.004   02 Jun 2027 10:47:58.451            30.447            RioGallegos           951.469
       146   02 Jun 2027 11:19:10.662   02 Jun 2027 11:19:47.245            36.583                Sumatra          1143.219
       147   02 Jun 2027 11:31:33.967   02 Jun 2027 11:31:43.585             9.618                Sumatra           300.563
       148   02 Jun 2027 11:32:15.263   02 Jun 2027 11:32:21.233             5.970                  Delhi           186.563
       149   02 Jun 2027 11:41:13.561   02 Jun 2027 11:41:26.794            13.233                Novosib           413.531
       150   02 Jun 2027 11:41:33.397   02 Jun 2027 11:41:52.048            18.651                Norilsk           582.844
       151   02 Jun 2027 11:42:39.974   02 Jun 2027 11:42:50.600            10.626                Irkutsk           332.062
       152   02 Jun 2027 11:42:55.755   02 Jun 2027 11:43:15.158            19.403                Novosib           606.344
       153   02 Jun 2027 11:43:22.935   02 Jun 2027 11:43:41.008            18.073                Norilsk           564.781
       154   02 Jun 2027 11:43:47.567   02 Jun 2027 11:44:19.427            31.860                Irkutsk           995.625
       155   02 Jun 2027 11:44:39.776   02 Jun 2027 11:44:46.467             6.691                Norilsk           209.094
       156   02 Jun 2027 11:44:46.968   02 Jun 2027 11:44:53.695             6.727                Norilsk           210.219
       157   02 Jun 2027 11:44:56.225   02 Jun 2027 11:45:29.915            33.690                Norilsk          1052.813
       158   02 Jun 2027 12:23:24.117   02 Jun 2027 12:24:13.077            48.960            RioGallegos          1530.000
       159   02 Jun 2027 12:58:06.221   02 Jun 2027 12:59:50.542           104.321                Sumatra          3260.031
       160   02 Jun 2027 13:06:53.225   02 Jun 2027 13:07:24.290            31.065                  Delhi           970.781
       161   02 Jun 2027 13:11:41.413   02 Jun 2027 13:13:14.082            92.669                Novosib          2895.906
       162   02 Jun 2027 13:14:04.328   02 Jun 2027 13:15:46.301           101.973                Irkutsk          3186.656
       163   02 Jun 2027 13:16:55.814   02 Jun 2027 13:17:16.154            20.340              Murmansk1           635.625
       164   02 Jun 2027 13:23:08.786   02 Jun 2027 13:24:23.768            74.982                Norilsk          2343.188
       165   02 Jun 2027 14:44:57.090   02 Jun 2027 14:46:56.452           119.362                  Delhi          3730.063
       166   02 Jun 2027 14:48:53.815   02 Jun 2027 14:49:42.646            48.831                 Moscow          1525.969
       167   02 Jun 2027 14:51:08.076   02 Jun 2027 14:52:25.239            77.163              Murmansk2          2411.344
       168   02 Jun 2027 14:52:25.239   02 Jun 2027 14:52:46.441            21.202              Murmansk1           662.563
       169   02 Jun 2027 14:52:47.806   02 Jun 2027 14:53:46.552            58.746                Novosib          1835.813
       170   02 Jun 2027 14:54:24.153   02 Jun 2027 14:55:21.496            57.343                Norilsk          1791.969
       171   02 Jun 2027 14:58:28.369   02 Jun 2027 14:59:20.858            52.489                Norilsk          1640.281
       172   02 Jun 2027 16:02:52.847   02 Jun 2027 16:03:49.693            56.846               CapeTown          1776.437
       173   02 Jun 2027 16:05:54.375   02 Jun 2027 16:06:06.128            11.753               CapeTown           367.281
       174   02 Jun 2027 16:06:42.756   02 Jun 2027 16:07:04.273            21.517               CapeTown           672.406
       175   02 Jun 2027 16:08:53.133   02 Jun 2027 16:09:52.570            59.437               CapeTown          1857.406
       176   02 Jun 2027 16:25:13.581   02 Jun 2027 16:25:50.219            36.638                 Moscow          1144.938
       177   02 Jun 2027 16:27:55.928   02 Jun 2027 16:28:42.812            46.884              Murmansk2          1465.125
       178   02 Jun 2027 16:32:07.051   02 Jun 2027 16:32:18.233            11.182              Murmansk1           349.437
       179   02 Jun 2027 16:37:43.118   02 Jun 2027 16:37:57.346            14.228              Murmansk1           444.625
       180   02 Jun 2027 16:42:21.146   02 Jun 2027 16:43:35.571            74.425                Anadyr2          2325.781
       181   02 Jun 2027 16:44:20.030   02 Jun 2027 16:45:34.296            74.266                Anadyr1          2320.812
       182   02 Jun 2027 17:37:08.787   02 Jun 2027 17:39:29.149           140.362               CapeTown          4386.312
       183   02 Jun 2027 18:06:52.774   02 Jun 2027 18:10:25.867           213.093              Murmansk1          6659.156
       184   02 Jun 2027 18:12:12.748   02 Jun 2027 18:12:16.441             3.693              Murmansk1           115.406
       185   02 Jun 2027 18:13:56.159   02 Jun 2027 18:14:17.523            21.364              Murmansk1           667.625
       186   02 Jun 2027 18:21:11.017   02 Jun 2027 18:21:45.008            33.991                Anadyr1          1062.219
       187   02 Jun 2027 18:21:46.981   02 Jun 2027 18:22:53.760            66.779               Magadan2          2086.844
       188   02 Jun 2027 18:22:53.760   02 Jun 2027 18:23:16.681            22.921               Magadan1           716.281
       189   02 Jun 2027 18:25:38.129   02 Jun 2027 18:26:12.464            34.335               Magadan1          1072.969
       190   02 Jun 2027 19:19:49.036   02 Jun 2027 19:20:17.256            28.220               CapeTown           881.875
       191   02 Jun 2027 19:53:40.908   02 Jun 2027 19:57:25.573           224.665                Anadyr2          7020.781
       192   02 Jun 2027 19:57:50.208   02 Jun 2027 20:00:35.475           165.267               Magadan2          5164.594
       193   02 Jun 2027 21:29:34.193   02 Jun 2027 21:31:41.938           127.745                Anadyr1          3992.031
       194   02 Jun 2027 21:31:52.957   02 Jun 2027 21:35:39.250           226.293               Magadan2          7071.656
       195   02 Jun 2027 21:35:41.897   02 Jun 2027 21:36:01.783            19.886               Magadan1           621.438
       196   02 Jun 2027 21:36:30.839   02 Jun 2027 21:37:01.768            30.929                Norilsk           966.531
       197   02 Jun 2027 21:37:11.131   02 Jun 2027 21:37:43.143            32.012               Magadan2          1000.375
       198   02 Jun 2027 21:37:50.237   02 Jun 2027 21:38:40.784            50.547                Irkutsk          1579.594
       199   02 Jun 2027 21:39:00.603   02 Jun 2027 21:39:12.755            12.152                Irkutsk           379.750
       200   02 Jun 2027 21:39:17.566   02 Jun 2027 21:40:17.599            60.033                Irkutsk          1876.031
       201   02 Jun 2027 22:23:45.798   02 Jun 2027 22:24:41.326            55.528            RioGallegos          1735.250
       202   02 Jun 2027 22:26:37.807   02 Jun 2027 22:26:48.248            10.441            RioGallegos           326.281
       203   02 Jun 2027 22:31:59.488   02 Jun 2027 22:32:59.962            60.474            RioGallegos          1889.812
       204   02 Jun 2027 23:05:03.843   02 Jun 2027 23:05:50.042            46.199                Anadyr2          1443.719
       205   02 Jun 2027 23:06:10.741   02 Jun 2027 23:06:55.846            45.105                Anadyr2          1409.531
       206   02 Jun 2027 23:07:24.520   02 Jun 2027 23:07:33.100             8.580                Norilsk           268.125
       207   02 Jun 2027 23:07:39.031   02 Jun 2027 23:08:55.831            76.800                Norilsk          2400.000
       208   02 Jun 2027 23:10:40.970   02 Jun 2027 23:10:52.212            11.242               Magadan2           351.313
       209   02 Jun 2027 23:11:12.842   02 Jun 2027 23:11:37.761            24.919               Magadan2           778.719
       210   02 Jun 2027 23:11:56.715   02 Jun 2027 23:12:30.211            33.496                Irkutsk          1046.750
       211   02 Jun 2027 23:12:40.214   02 Jun 2027 23:13:31.094            50.880                Novosib          1590.000
       212   02 Jun 2027 23:15:47.304   02 Jun 2027 23:16:03.629            16.325                Novosib           510.156
       213   02 Jun 2027 23:18:22.863   02 Jun 2027 23:18:27.706             4.843                Novosib           151.344
       214   02 Jun 2027 23:22:37.986   02 Jun 2027 23:23:09.308            31.322                Irkutsk           978.813
       215   02 Jun 2027 23:25:08.582   02 Jun 2027 23:26:22.864            74.282                Sumatra          2321.313
       216   02 Jun 2027 23:33:53.104   02 Jun 2027 23:34:42.527            49.423                Sumatra          1544.469
       217   03 Jun 2027 00:07:05.899   03 Jun 2027 00:07:13.816             7.917            RioGallegos           247.406
       218   03 Jun 2027 00:08:56.710   03 Jun 2027 00:09:41.628            44.918            RioGallegos          1403.688
       219   03 Jun 2027 00:39:33.365   03 Jun 2027 00:40:51.378            78.013                Anadyr2          2437.906
       220   03 Jun 2027 00:42:03.194   03 Jun 2027 00:42:16.753            13.559                Anadyr2           423.719
       221   03 Jun 2027 00:43:23.859   03 Jun 2027 00:45:26.058           122.199                Norilsk          3818.719
       222   03 Jun 2027 00:45:43.521   03 Jun 2027 00:46:06.246            22.725               Magadan1           710.156
       223   03 Jun 2027 00:47:17.305   03 Jun 2027 00:48:25.742            68.437                Novosib          2138.656
       224   03 Jun 2027 00:48:26.608   03 Jun 2027 00:48:42.178            15.570              Murmansk2           486.563
       225   03 Jun 2027 00:49:19.065   03 Jun 2027 00:50:06.722            47.657                Novosib          1489.281
       226   03 Jun 2027 00:53:00.444   03 Jun 2027 00:54:12.951            72.507                Novosib          2265.844
       227   03 Jun 2027 01:00:25.615   03 Jun 2027 01:01:00.698            35.083                  Delhi          1096.344
       228   03 Jun 2027 01:03:17.952   03 Jun 2027 01:05:05.790           107.838                  Delhi          3369.938
       229   03 Jun 2027 01:42:13.344   03 Jun 2027 01:42:28.423            15.079            RioGallegos           471.219
       230   03 Jun 2027 02:12:57.231   03 Jun 2027 02:13:30.462            33.231                Anadyr2          1038.469
       231   03 Jun 2027 02:14:24.398   03 Jun 2027 02:14:36.267            11.869                Anadyr2           370.906
       232   03 Jun 2027 02:15:20.553   03 Jun 2027 02:15:54.932            34.379                Anadyr2          1074.344
       233   03 Jun 2027 02:18:23.974   03 Jun 2027 02:18:47.974            24.000                Anadyr2           750.000
       234   03 Jun 2027 02:19:10.156   03 Jun 2027 02:19:13.078             2.922               Magadan2            91.312
       235   03 Jun 2027 02:19:17.320   03 Jun 2027 02:20:16.003            58.683               Magadan1          1833.844
       236   03 Jun 2027 02:20:49.882   03 Jun 2027 02:20:56.288             6.406                Norilsk           200.187
       237   03 Jun 2027 02:21:38.724   03 Jun 2027 02:21:53.210            14.486              Murmansk1           452.687
       238   03 Jun 2027 02:21:53.210   03 Jun 2027 02:23:07.704            74.494              Murmansk2          2327.938
       239   03 Jun 2027 02:23:13.074   03 Jun 2027 02:24:01.043            47.969                Novosib          1499.031
       240   03 Jun 2027 02:27:00.103   03 Jun 2027 02:27:28.962            28.859                Irkutsk           901.844
       241   03 Jun 2027 02:31:00.634   03 Jun 2027 02:31:52.602            51.968                Irkutsk          1624.000
       242   03 Jun 2027 02:40:51.578   03 Jun 2027 02:41:07.179            15.601                  Delhi           487.531
       243   03 Jun 2027 02:54:16.255   03 Jun 2027 02:54:18.273             2.018               CapeTown            63.062
       244   03 Jun 2027 02:55:11.451   03 Jun 2027 02:55:29.288            17.837               CapeTown           557.406
       245   03 Jun 2027 02:57:26.077   03 Jun 2027 02:58:12.292            46.215               CapeTown          1444.219
       246   03 Jun 2027 03:54:18.455   03 Jun 2027 03:54:40.312            21.857                Anadyr2           683.031
       247   03 Jun 2027 03:56:51.057   03 Jun 2027 03:58:12.762            81.705                Anadyr1          2553.281
       248   03 Jun 2027 04:04:42.971   03 Jun 2027 04:06:09.490            86.519                Norilsk          2703.719
       249   03 Jun 2027 04:06:20.472   03 Jun 2027 04:06:54.199            33.727                Norilsk          1053.969
       250   03 Jun 2027 04:07:05.998   03 Jun 2027 04:07:19.743            13.745              Murmansk1           429.531
       251   03 Jun 2027 04:07:37.864   03 Jun 2027 04:08:00.793            22.929              Murmansk1           716.531
       252   03 Jun 2027 04:08:18.816   03 Jun 2027 04:09:09.947            51.131              Murmansk1          1597.844
       253   03 Jun 2027 04:09:23.284   03 Jun 2027 04:10:58.307            95.023                 Moscow          2969.469
       254   03 Jun 2027 04:11:28.927   03 Jun 2027 04:11:53.810            24.883                 Moscow           777.594
       255   03 Jun 2027 04:24:48.659   03 Jun 2027 04:25:40.116            51.457               CapeTown          1608.031
       256   03 Jun 2027 04:27:06.798   03 Jun 2027 04:27:46.126            39.328               CapeTown          1229.000
       257   03 Jun 2027 05:28:00.298   03 Jun 2027 05:31:49.151           228.853               Magadan2          7151.656
       258   03 Jun 2027 05:32:12.632   03 Jun 2027 05:33:36.805            84.173               Magadan1          2630.406
       259   03 Jun 2027 07:03:41.895   03 Jun 2027 07:04:14.946            33.051                Anadyr2          1032.844
       260   03 Jun 2027 07:04:14.946   03 Jun 2027 07:04:38.899            23.953                Anadyr1           748.531
       261   03 Jun 2027 07:05:12.531   03 Jun 2027 07:06:27.683            75.152                Anadyr1          2348.500
       262   03 Jun 2027 07:06:39.878   03 Jun 2027 07:07:00.067            20.189               Magadan2           630.906
       263   03 Jun 2027 07:07:04.253   03 Jun 2027 07:07:30.433            26.180                Anadyr2           818.125
       264   03 Jun 2027 07:07:30.433   03 Jun 2027 07:07:51.733            21.300                Anadyr1           665.625
       265   03 Jun 2027 07:19:20.924   03 Jun 2027 07:19:26.361             5.437                 Moscow           169.906
       266   03 Jun 2027 08:37:12.038   03 Jun 2027 08:37:58.295            46.257               Magadan2          1445.531
       267   03 Jun 2027 08:38:20.253   03 Jun 2027 08:39:03.865            43.612               Magadan1          1362.875
       268   03 Jun 2027 08:39:46.102   03 Jun 2027 08:40:15.154            29.052               Magadan1           907.875
       269   03 Jun 2027 08:40:17.280   03 Jun 2027 08:40:48.148            30.868               Magadan2           964.625
       270   03 Jun 2027 08:42:03.935   03 Jun 2027 08:42:47.716            43.781               Magadan2          1368.156
       271   03 Jun 2027 08:43:01.606   03 Jun 2027 08:43:16.620            15.014               Magadan2           469.188
       272   03 Jun 2027 08:43:19.368   03 Jun 2027 08:44:04.235            44.867               Magadan1          1402.094
       273   03 Jun 2027 08:44:07.859   03 Jun 2027 08:44:41.787            33.928               Magadan2          1060.250
       274   03 Jun 2027 08:44:53.544   03 Jun 2027 08:44:58.918             5.374                Norilsk           167.937
       275   03 Jun 2027 08:45:31.952   03 Jun 2027 08:45:46.309            14.357                Norilsk           448.656
       276   03 Jun 2027 09:21:02.266   03 Jun 2027 09:21:28.957            26.691            RioGallegos           834.094
       277   03 Jun 2027 09:23:09.823   03 Jun 2027 09:23:23.504            13.681            RioGallegos           427.531
       278   03 Jun 2027 09:25:16.424   03 Jun 2027 09:25:52.674            36.250            RioGallegos          1132.813
       279   03 Jun 2027 10:00:11.891   03 Jun 2027 10:00:24.396            12.505                Sumatra           390.781
       280   03 Jun 2027 10:16:07.393   03 Jun 2027 10:17:16.481            69.088               Magadan1          2159.000
       281   03 Jun 2027 10:17:44.530   03 Jun 2027 10:18:27.888            43.358                Irkutsk          1354.938
       282   03 Jun 2027 10:18:32.796   03 Jun 2027 10:19:24.354            51.558                Irkutsk          1611.187
       283   03 Jun 2027 10:19:30.670   03 Jun 2027 10:20:18.738            48.068                Irkutsk          1502.125
       284   03 Jun 2027 10:20:22.619   03 Jun 2027 10:20:46.100            23.481                Irkutsk           733.781
       285   03 Jun 2027 10:20:52.850   03 Jun 2027 10:20:53.364             0.514                Norilsk            16.063
       286   03 Jun 2027 10:20:58.469   03 Jun 2027 10:21:12.520            14.051                Novosib           439.094
       287   03 Jun 2027 10:21:18.975   03 Jun 2027 10:22:28.495            69.520                Norilsk          2172.500
       288   03 Jun 2027 10:56:25.572   03 Jun 2027 10:56:27.030             1.458            RioGallegos            45.563
       289   03 Jun 2027 10:57:42.401   03 Jun 2027 10:57:59.826            17.425            RioGallegos           544.531
       290   03 Jun 2027 11:31:07.919   03 Jun 2027 11:31:51.486            43.567                Sumatra          1361.469
       291   03 Jun 2027 11:40:42.289   03 Jun 2027 11:40:44.106             1.817                Sumatra            56.781
       292   03 Jun 2027 11:43:44.886   03 Jun 2027 11:43:51.472             6.586                Sumatra           205.813
       293   03 Jun 2027 11:43:55.840   03 Jun 2027 11:44:18.354            22.514                  Delhi           703.562
       294   03 Jun 2027 11:51:55.051   03 Jun 2027 11:53:43.463           108.412                Irkutsk          3387.875
       295   03 Jun 2027 11:54:22.424   03 Jun 2027 11:54:40.916            18.492                Novosib           577.875
       296   03 Jun 2027 11:54:59.216   03 Jun 2027 11:55:11.131            11.915                Irkutsk           372.344
       297   03 Jun 2027 11:55:14.507   03 Jun 2027 11:55:18.727             4.220                Novosib           131.875
       298   03 Jun 2027 11:55:26.670   03 Jun 2027 11:56:41.958            75.288                Norilsk          2352.750
       299   03 Jun 2027 11:56:46.728   03 Jun 2027 11:56:56.998            10.270                Norilsk           320.937
       300   03 Jun 2027 11:57:03.859   03 Jun 2027 11:57:16.467            12.608                Irkutsk           394.000
       301   03 Jun 2027 11:57:26.149   03 Jun 2027 11:57:28.237             2.088                Norilsk            65.250
       302   03 Jun 2027 11:57:55.083   03 Jun 2027 11:58:32.397            37.314                Norilsk          1166.062
       303   03 Jun 2027 12:36:25.030   03 Jun 2027 12:39:24.592           179.562            RioGallegos          5611.313
       304   03 Jun 2027 13:23:11.867   03 Jun 2027 13:25:10.401           118.534                Novosib          3704.187
       305   03 Jun 2027 13:26:12.586   03 Jun 2027 13:27:29.592            77.006                Novosib          2406.437
       306   03 Jun 2027 13:30:59.855   03 Jun 2027 13:31:51.607            51.752                Norilsk          1617.250
       307   03 Jun 2027 13:36:24.094   03 Jun 2027 13:36:46.263            22.169                Norilsk           692.781
       308   03 Jun 2027 13:38:03.862   03 Jun 2027 13:38:32.333            28.471                Norilsk           889.719
       309   03 Jun 2027 14:59:44.457   03 Jun 2027 15:00:53.449            68.992                 Moscow          2156.000
       310   03 Jun 2027 15:01:05.646   03 Jun 2027 15:03:02.259           116.613                 Moscow          3644.156
       311   03 Jun 2027 15:03:10.336   03 Jun 2027 15:04:27.154            76.818              Murmansk2          2400.563
       312   03 Jun 2027 15:07:05.236   03 Jun 2027 15:08:54.358           109.122                Norilsk          3410.062
       313   03 Jun 2027 15:10:38.496   03 Jun 2027 15:11:02.461            23.965                Norilsk           748.906
       314   03 Jun 2027 15:11:03.419   03 Jun 2027 15:11:27.955            24.536                Norilsk           766.750
       315   03 Jun 2027 16:14:23.123   03 Jun 2027 16:15:31.466            68.343               CapeTown          2135.719
       316   03 Jun 2027 16:17:23.308   03 Jun 2027 16:18:06.802            43.494               CapeTown          1359.188
       317   03 Jun 2027 16:23:51.988   03 Jun 2027 16:24:32.031            40.043               CapeTown          1251.344
       318   03 Jun 2027 16:37:02.282   03 Jun 2027 16:37:20.513            18.231                 Moscow           569.719
       319   03 Jun 2027 16:40:12.321   03 Jun 2027 16:40:23.065            10.744              Murmansk2           335.750
       320   03 Jun 2027 16:40:44.898   03 Jun 2027 16:41:54.664            69.766              Murmansk2          2180.187
       321   03 Jun 2027 16:46:50.082   03 Jun 2027 16:46:59.537             9.455                 Moscow           295.469
       322   03 Jun 2027 16:48:20.905   03 Jun 2027 16:48:47.488            26.583              Murmansk1           830.719
       323   03 Jun 2027 16:48:47.488   03 Jun 2027 16:49:20.946            33.458              Murmansk2          1045.563
       324   03 Jun 2027 16:54:14.815   03 Jun 2027 16:55:23.408            68.593                Anadyr1          2143.531
       325   03 Jun 2027 16:55:28.339   03 Jun 2027 16:56:21.206            52.867                Anadyr1          1652.094
       326   03 Jun 2027 17:03:07.024   03 Jun 2027 17:03:17.344            10.320                Anadyr2           322.500
       327   03 Jun 2027 17:49:13.326   03 Jun 2027 17:51:04.858           111.532               CapeTown          3485.375
       328   03 Jun 2027 18:19:29.201   03 Jun 2027 18:21:47.796           138.595              Murmansk2          4331.094
       329   03 Jun 2027 18:22:27.878   03 Jun 2027 18:23:41.396            73.518              Murmansk2          2297.437
       330   03 Jun 2027 18:25:45.342   03 Jun 2027 18:26:19.022            33.680              Murmansk2          1052.500
       331   03 Jun 2027 18:33:14.112   03 Jun 2027 18:34:21.991            67.879               Magadan2          2121.219
       332   03 Jun 2027 18:34:30.228   03 Jun 2027 18:34:56.571            26.343               Magadan2           823.219
       333   03 Jun 2027 18:35:57.608   03 Jun 2027 18:36:24.888            27.280               Magadan1           852.500
       334   03 Jun 2027 18:39:12.536   03 Jun 2027 18:39:46.646            34.110               Magadan1          1065.937
       335   03 Jun 2027 20:05:42.592   03 Jun 2027 20:09:39.325           236.733                Anadyr1          7397.906
       336   03 Jun 2027 20:09:43.275   03 Jun 2027 20:11:44.216           120.941               Magadan2          3779.406
       337   03 Jun 2027 20:16:03.765   03 Jun 2027 20:16:14.824            11.059               Magadan2           345.594
       338   03 Jun 2027 20:16:24.249   03 Jun 2027 20:16:36.090            11.841               Magadan2           370.031
       339   03 Jun 2027 20:18:10.695   03 Jun 2027 20:18:47.470            36.775               Magadan2          1149.219
       340   03 Jun 2027 20:19:56.365   03 Jun 2027 20:20:18.462            22.097               Magadan1           690.531
       341   03 Jun 2027 21:41:34.356   03 Jun 2027 21:43:43.294           128.938                Anadyr1          4029.313
       342   03 Jun 2027 21:43:46.808   03 Jun 2027 21:47:21.242           214.434                Norilsk          6701.063
       343   03 Jun 2027 21:47:22.338   03 Jun 2027 21:48:25.215            62.877               Magadan1          1964.906
       344   03 Jun 2027 21:49:09.555   03 Jun 2027 21:50:09.330            59.775                Irkutsk          1867.969
       345   03 Jun 2027 21:51:48.850   03 Jun 2027 21:52:00.941            12.091                Irkutsk           377.844
       346   03 Jun 2027 21:54:26.500   03 Jun 2027 21:54:54.808            28.308                Irkutsk           884.625
       347   03 Jun 2027 22:05:08.024   03 Jun 2027 22:06:28.930            80.906                Sumatra          2528.313
       348   03 Jun 2027 22:06:46.866   03 Jun 2027 22:06:47.802             0.936                Sumatra            29.250
       349   03 Jun 2027 22:09:50.175   03 Jun 2027 22:10:52.217            62.042                Sumatra          1938.813
       350   03 Jun 2027 23:16:58.684   03 Jun 2027 23:18:57.082           118.398                Anadyr2          3699.937
       351   03 Jun 2027 23:18:57.082   03 Jun 2027 23:19:09.176            12.094                Anadyr1           377.937
       352   03 Jun 2027 23:19:26.010   03 Jun 2027 23:20:13.797            47.787                Norilsk          1493.344
       353   03 Jun 2027 23:20:23.154   03 Jun 2027 23:21:02.817            39.663               Magadan1          1239.469
       354   03 Jun 2027 23:21:02.817   03 Jun 2027 23:21:12.573             9.756               Magadan2           304.875
       355   03 Jun 2027 23:22:18.593   03 Jun 2027 23:23:00.214            41.621               Magadan1          1300.656
       356   03 Jun 2027 23:23:15.597   03 Jun 2027 23:23:18.954             3.357               Magadan1           104.906
       357   03 Jun 2027 23:23:24.891   03 Jun 2027 23:24:31.559            66.668                Irkutsk          2083.375
       358   03 Jun 2027 23:26:28.079   03 Jun 2027 23:27:27.661            59.582                Novosib          1861.937
       359   03 Jun 2027 23:30:34.227   03 Jun 2027 23:30:46.524            12.297                Novosib           384.281
       360   03 Jun 2027 23:37:08.667   03 Jun 2027 23:37:25.699            17.032                Sumatra           532.250
       361   03 Jun 2027 23:39:22.154   03 Jun 2027 23:39:52.452            30.298                Sumatra           946.813
       362   03 Jun 2027 23:41:38.809   03 Jun 2027 23:41:47.480             8.671                Sumatra           270.969
       363   04 Jun 2027 00:12:05.025   04 Jun 2027 00:12:33.356            28.331            RioGallegos           885.344
       364   04 Jun 2027 00:15:15.325   04 Jun 2027 00:15:36.480            21.155            RioGallegos           661.094
       365   04 Jun 2027 00:18:20.646   04 Jun 2027 00:18:37.447            16.801            RioGallegos           525.031
       366   04 Jun 2027 00:20:38.496   04 Jun 2027 00:21:00.877            22.381            RioGallegos           699.406
       367   04 Jun 2027 00:51:18.433   04 Jun 2027 00:52:28.231            69.798                Anadyr1          2181.188
       368   04 Jun 2027 00:52:50.877   04 Jun 2027 00:53:27.087            36.210                Anadyr1          1131.563
       369   04 Jun 2027 00:55:26.084   04 Jun 2027 00:55:27.404             1.320                Norilsk            41.250
       370   04 Jun 2027 00:56:04.457   04 Jun 2027 00:57:06.045            61.588               Magadan1          1924.625
       371   04 Jun 2027 00:57:16.277   04 Jun 2027 00:57:56.855            40.578               Magadan2          1268.062
       372   04 Jun 2027 00:58:34.018   04 Jun 2027 00:59:22.634            48.616               Magadan1          1519.250
       373   04 Jun 2027 00:59:23.441   04 Jun 2027 00:59:39.485            16.044                Irkutsk           501.375
       374   04 Jun 2027 00:59:56.995   04 Jun 2027 01:00:46.062            49.067                Irkutsk          1533.344
       375   04 Jun 2027 01:01:00.684   04 Jun 2027 01:01:35.179            34.495                Novosib          1077.969
       376   04 Jun 2027 01:03:17.241   04 Jun 2027 01:03:21.776             4.535                Irkutsk           141.719
       377   04 Jun 2027 01:03:53.805   04 Jun 2027 01:06:07.483           133.678                Novosib          4177.438
       378   04 Jun 2027 01:48:11.172   04 Jun 2027 01:49:29.159            77.987            RioGallegos          2437.094
       379   04 Jun 2027 01:55:20.377   04 Jun 2027 01:56:08.673            48.296            RioGallegos          1509.250
       380   04 Jun 2027 02:25:10.920   04 Jun 2027 02:25:26.577            15.657                Anadyr2           489.281
       381   04 Jun 2027 02:26:36.311   04 Jun 2027 02:26:54.390            18.079                Anadyr2           564.969
       382   04 Jun 2027 02:27:22.276   04 Jun 2027 02:27:37.247            14.971                Anadyr2           467.844
       383   04 Jun 2027 02:30:13.064   04 Jun 2027 02:30:20.992             7.928                Anadyr2           247.750
       384   04 Jun 2027 02:30:24.726   04 Jun 2027 02:30:40.605            15.879                Anadyr1           496.219
       385   04 Jun 2027 02:30:50.804   04 Jun 2027 02:31:45.126            54.322               Magadan1          1697.562
       386   04 Jun 2027 02:32:30.745   04 Jun 2027 02:32:50.516            19.771                Norilsk           617.844
       387   04 Jun 2027 02:33:38.354   04 Jun 2027 02:34:19.790            41.436              Murmansk1          1294.875
       388   04 Jun 2027 02:35:06.728   04 Jun 2027 02:35:55.246            48.518              Murmansk2          1516.188
       389   04 Jun 2027 02:36:04.169   04 Jun 2027 02:36:15.639            11.470                Novosib           358.437
       390   04 Jun 2027 02:36:44.166   04 Jun 2027 02:37:09.640            25.474                Novosib           796.062
       391   04 Jun 2027 02:38:28.620   04 Jun 2027 02:38:35.825             7.205                Irkutsk           225.156
       392   04 Jun 2027 02:39:36.647   04 Jun 2027 02:41:07.069            90.422                Irkutsk          2825.687
       393   04 Jun 2027 02:47:33.839   04 Jun 2027 02:48:56.019            82.180                  Delhi          2568.125
       394   04 Jun 2027 04:16:43.995   04 Jun 2027 04:18:53.028           129.033                Norilsk          4032.281
       395   04 Jun 2027 04:19:03.490   04 Jun 2027 04:19:31.452            27.962                Novosib           873.813
       396   04 Jun 2027 04:20:23.740   04 Jun 2027 04:22:05.568           101.828              Murmansk1          3182.125
       397   04 Jun 2027 04:22:34.331   04 Jun 2027 04:23:24.123            49.792                 Moscow          1556.000
       398   04 Jun 2027 05:40:24.496   04 Jun 2027 05:43:41.387           196.891                Anadyr2          6152.844
       399   04 Jun 2027 05:43:51.846   04 Jun 2027 05:43:59.073             7.227               Magadan1           225.844
       400   04 Jun 2027 05:43:59.073   04 Jun 2027 05:45:37.020            97.947               Magadan2          3060.844
       401   04 Jun 2027 05:45:38.044   04 Jun 2027 05:46:19.240            41.196                Anadyr2          1287.375
       402   04 Jun 2027 07:15:08.298   04 Jun 2027 07:15:18.416            10.118                Anadyr1           316.187
       403   04 Jun 2027 07:15:25.921   04 Jun 2027 07:15:40.542            14.621               Magadan2           456.906
       404   04 Jun 2027 07:15:57.088   04 Jun 2027 07:16:40.796            43.708                Anadyr2          1365.875
       405   04 Jun 2027 07:16:40.796   04 Jun 2027 07:17:02.387            21.591                Anadyr1           674.719
       406   04 Jun 2027 07:17:18.770   04 Jun 2027 07:18:28.355            69.585                Anadyr1          2174.531
       407   04 Jun 2027 07:18:36.103   04 Jun 2027 07:18:37.928             1.825               Magadan1            57.031
       408   04 Jun 2027 07:19:02.232   04 Jun 2027 07:20:04.559            62.327                Anadyr2          1947.719
       409   04 Jun 2027 07:20:06.917   04 Jun 2027 07:20:40.343            33.426               Magadan1          1044.562
       410   04 Jun 2027 08:48:08.536   04 Jun 2027 08:48:19.844            11.308               Magadan1           353.375
       411   04 Jun 2027 08:48:59.334   04 Jun 2027 08:49:02.268             2.934               Magadan1            91.688
       412   04 Jun 2027 08:50:21.304   04 Jun 2027 08:50:24.118             2.814               Magadan2            87.937
       413   04 Jun 2027 08:51:44.658   04 Jun 2027 08:52:17.615            32.957               Magadan1          1029.906
       414   04 Jun 2027 08:52:50.337   04 Jun 2027 08:54:03.729            73.392               Magadan2          2293.500
       415   04 Jun 2027 08:54:53.793   04 Jun 2027 08:55:08.804            15.011               Magadan2           469.094
       416   04 Jun 2027 08:55:19.646   04 Jun 2027 08:55:37.988            18.342                Norilsk           573.188
       417   04 Jun 2027 08:55:39.424   04 Jun 2027 08:57:03.940            84.516                Anadyr1          2641.125
       418   04 Jun 2027 08:57:38.395   04 Jun 2027 08:57:41.199             2.804               Magadan1            87.625
       419   04 Jun 2027 09:32:48.405   04 Jun 2027 09:33:22.793            34.388            RioGallegos          1074.625
       420   04 Jun 2027 09:33:39.823   04 Jun 2027 09:34:07.476            27.653            RioGallegos           864.156
       421   04 Jun 2027 09:37:16.198   04 Jun 2027 09:38:17.411            61.213            RioGallegos          1912.906
       422   04 Jun 2027 10:10:24.635   04 Jun 2027 10:12:03.422            98.787                Sumatra          3087.094
       423   04 Jun 2027 10:28:06.296   04 Jun 2027 10:29:03.543            57.247               Magadan1          1788.969
       424   04 Jun 2027 10:29:10.333   04 Jun 2027 10:29:49.363            39.030                Irkutsk          1219.688
       425   04 Jun 2027 10:30:08.781   04 Jun 2027 10:30:23.661            14.880                Irkutsk           465.000
       426   04 Jun 2027 10:30:58.082   04 Jun 2027 10:30:59.711             1.629               Magadan1            50.906
       427   04 Jun 2027 10:31:30.117   04 Jun 2027 10:31:32.996             2.879                Irkutsk            89.969
       428   04 Jun 2027 10:31:46.346   04 Jun 2027 10:31:46.618             0.272               Magadan1             8.500
       429   04 Jun 2027 10:32:31.161   04 Jun 2027 10:32:44.034            12.873                Novosib           402.281
       430   04 Jun 2027 10:32:59.843   04 Jun 2027 10:33:08.620             8.777                Irkutsk           274.281
       431   04 Jun 2027 10:33:16.473   04 Jun 2027 10:33:37.790            21.317                Novosib           666.156
       432   04 Jun 2027 11:08:38.585   04 Jun 2027 11:09:37.294            58.709            RioGallegos          1834.656
       433   04 Jun 2027 11:43:10.827   04 Jun 2027 11:44:48.381            97.554                Sumatra          3048.563
       434   04 Jun 2027 12:07:21.799   04 Jun 2027 12:07:35.831            14.032                Novosib           438.500
       435   04 Jun 2027 12:08:06.174   04 Jun 2027 12:08:34.412            28.238                Irkutsk           882.437
       436   04 Jun 2027 12:49:51.503   04 Jun 2027 12:51:22.832            91.329            RioGallegos          2854.031
       437   04 Jun 2027 13:30:21.889   04 Jun 2027 13:30:52.657            30.768                  Delhi           961.500
       438   04 Jun 2027 13:35:37.436   04 Jun 2027 13:39:29.136           231.700                Novosib          7240.625
       439   04 Jun 2027 13:43:06.013   04 Jun 2027 13:43:24.739            18.726                Novosib           585.187
       440   04 Jun 2027 13:43:59.003   04 Jun 2027 13:45:19.656            80.653                Novosib          2520.406
       441   04 Jun 2027 15:11:45.088   04 Jun 2027 15:14:33.839           168.751                 Moscow          5273.469
       442   04 Jun 2027 15:15:14.172   04 Jun 2027 15:16:29.058            74.886              Murmansk1          2340.187
       443   04 Jun 2027 15:19:50.412   04 Jun 2027 15:22:36.928           166.516                Norilsk          5203.625
       444   04 Jun 2027 15:24:26.349   04 Jun 2027 15:24:36.083             9.734                Norilsk           304.188
       445   04 Jun 2027 16:26:58.326   04 Jun 2027 16:27:07.390             9.064               CapeTown           283.250
       446   04 Jun 2027 16:29:21.439   04 Jun 2027 16:30:08.109            46.670               CapeTown          1458.437
       447   04 Jun 2027 16:33:29.641   04 Jun 2027 16:35:23.380           113.739               CapeTown          3554.344
       448   04 Jun 2027 16:53:45.296   04 Jun 2027 16:54:42.021            56.725                 Moscow          1772.656
       449   04 Jun 2027 17:00:48.677   04 Jun 2027 17:01:50.477            61.800              Murmansk2          1931.250
       450   04 Jun 2027 17:06:10.295   04 Jun 2027 17:07:22.874            72.579                Anadyr1          2268.094
       451   04 Jun 2027 17:11:44.223   04 Jun 2027 17:12:10.910            26.687                Anadyr2           833.969
       452   04 Jun 2027 17:14:31.020   04 Jun 2027 17:14:46.607            15.587                Anadyr1           487.094
       453   04 Jun 2027 18:01:20.729   04 Jun 2027 18:02:05.062            44.333               CapeTown          1385.406
       454   04 Jun 2027 18:10:34.176   04 Jun 2027 18:11:03.143            28.967               CapeTown           905.219
       455   04 Jun 2027 18:12:24.895   04 Jun 2027 18:12:52.517            27.622               CapeTown           863.188
       456   04 Jun 2027 18:32:09.211   04 Jun 2027 18:33:33.291            84.080              Murmansk1          2627.500
       457   04 Jun 2027 18:33:39.889   04 Jun 2027 18:36:11.328           151.439              Murmansk2          4732.469
       458   04 Jun 2027 18:36:35.645   04 Jun 2027 18:37:02.658            27.013              Murmansk1           844.156
       459   04 Jun 2027 18:44:38.745   04 Jun 2027 18:44:48.191             9.446                Anadyr2           295.188
       460   04 Jun 2027 18:44:58.243   04 Jun 2027 18:45:31.606            33.363               Magadan1          1042.594
       461   04 Jun 2027 18:47:10.796   04 Jun 2027 18:47:53.999            43.203               Magadan1          1350.094
       462   04 Jun 2027 18:52:19.094   04 Jun 2027 18:52:39.919            20.825               Magadan1           650.781
       463   04 Jun 2027 20:17:44.220   04 Jun 2027 20:19:22.263            98.043                Anadyr2          3063.844
       464   04 Jun 2027 20:19:48.944   04 Jun 2027 20:22:44.260           175.316                Anadyr1          5478.625
       465   04 Jun 2027 20:22:44.410   04 Jun 2027 20:23:57.822            73.412               Magadan1          2294.125
       466   04 Jun 2027 20:24:17.829   04 Jun 2027 20:24:54.299            36.470               Magadan2          1139.687
       467   04 Jun 2027 20:24:56.512   04 Jun 2027 20:25:05.834             9.322               Magadan2           291.313
       468   04 Jun 2027 20:26:23.219   04 Jun 2027 20:26:59.171            35.952               Magadan1          1123.500
       469   04 Jun 2027 21:14:09.994   04 Jun 2027 21:16:29.944           139.950            RioGallegos          4373.437
       470   04 Jun 2027 21:18:36.324   04 Jun 2027 21:18:54.034            17.710            RioGallegos           553.437
       471   04 Jun 2027 21:53:34.117   04 Jun 2027 21:54:49.879            75.762                Anadyr1          2367.562
       472   04 Jun 2027 21:54:52.022   04 Jun 2027 21:55:44.431            52.409                Anadyr2          1637.781
       473   04 Jun 2027 21:55:57.600   04 Jun 2027 21:57:47.093           109.493               Magadan1          3421.656
       474   04 Jun 2027 21:57:59.335   04 Jun 2027 21:58:27.797            28.462                Norilsk           889.438
       475   04 Jun 2027 21:59:07.017   04 Jun 2027 21:59:20.251            13.234                Norilsk           413.563
       476   04 Jun 2027 22:00:43.270   04 Jun 2027 22:01:15.170            31.900                Irkutsk           996.875
       477   04 Jun 2027 22:02:34.228   04 Jun 2027 22:03:01.988            27.760                Irkutsk           867.500
       478   04 Jun 2027 22:06:20.359   04 Jun 2027 22:07:12.100            51.741                Irkutsk          1616.906
       479   04 Jun 2027 22:15:51.003   04 Jun 2027 22:17:38.569           107.566                Sumatra          3361.438
       480   04 Jun 2027 22:23:44.247   04 Jun 2027 22:24:03.468            19.221                Sumatra           600.656
       481   04 Jun 2027 23:28:52.458   04 Jun 2027 23:29:40.507            48.049                Anadyr1          1501.531
       482   04 Jun 2027 23:29:40.507   04 Jun 2027 23:30:58.197            77.690                Anadyr2          2427.812
