uniorb/output/strategy_4/Drop/Drop_KinoSat_110101.txt

KinoSat_110101
-------------------------
    Access    *     Start Time (UTCG)     *     Stop Time (UTCG)  *   Duration (s)        *       Station  *  Data (Mbytes)
         1   01 Jun 2027 03:09:34.469   01 Jun 2027 03:10:44.954            70.485               Magadan2          8810.625
         2   01 Jun 2027 03:11:07.687   01 Jun 2027 03:12:25.598            77.911               Magadan2          9738.875
         3   01 Jun 2027 03:12:47.740   01 Jun 2027 03:13:34.003            46.263               Magadan1          5782.875
         4   01 Jun 2027 03:14:07.679   01 Jun 2027 03:14:39.544            31.865                Irkutsk          3983.125
         5   01 Jun 2027 03:14:53.540   01 Jun 2027 03:15:07.808            14.268              Murmansk1          1783.500
         6   01 Jun 2027 03:15:20.513   01 Jun 2027 03:16:04.417            43.904                Norilsk          5488.000
         7   01 Jun 2027 03:17:31.578   01 Jun 2027 03:17:39.148             7.570              Murmansk1           946.250
         8   01 Jun 2027 03:18:00.200   01 Jun 2027 03:18:09.326             9.126              Murmansk1          1140.750
         9   01 Jun 2027 03:50:58.626   01 Jun 2027 03:53:03.738           125.112            RioGallegos         15639.000
        10   01 Jun 2027 03:54:30.719   01 Jun 2027 03:55:14.802            44.083            RioGallegos          5510.375
        11   01 Jun 2027 04:25:26.990   01 Jun 2027 04:27:07.496           100.506                Sumatra         12563.250
        12   01 Jun 2027 04:48:06.159   01 Jun 2027 04:48:18.692            12.533                Novosib          1566.625
        13   01 Jun 2027 04:48:27.453   01 Jun 2027 04:48:58.277            30.824              Murmansk2          3853.000
        14   01 Jun 2027 04:49:13.247   01 Jun 2027 04:51:15.365           122.118                Norilsk         15264.750
        15   01 Jun 2027 04:51:43.678   01 Jun 2027 04:52:16.499            32.821              Murmansk2          4102.625
        16   01 Jun 2027 04:52:39.951   01 Jun 2027 04:52:59.761            19.810                Norilsk          2476.250
        17   01 Jun 2027 04:53:28.088   01 Jun 2027 04:53:49.048            20.960                Norilsk          2620.000
        18   01 Jun 2027 06:09:58.250   01 Jun 2027 06:12:23.107           144.857                  Delhi         18107.125
        19   01 Jun 2027 06:16:18.239   01 Jun 2027 06:16:45.316            27.077                  Delhi          3384.625
        20   01 Jun 2027 06:24:53.446   01 Jun 2027 06:25:09.069            15.623              Murmansk1          1952.875
        21   01 Jun 2027 06:25:17.280   01 Jun 2027 06:25:39.225            21.945                 Moscow          2743.125
        22   01 Jun 2027 06:25:51.298   01 Jun 2027 06:26:02.298            11.000                Novosib          1375.000
        23   01 Jun 2027 06:26:05.599   01 Jun 2027 06:27:05.600            60.001                Norilsk          7500.125
        24   01 Jun 2027 06:27:26.986   01 Jun 2027 06:28:03.393            36.407                Norilsk          4550.875
        25   01 Jun 2027 06:28:04.092   01 Jun 2027 06:28:38.708            34.616                 Moscow          4327.000
        26   01 Jun 2027 08:01:20.359   01 Jun 2027 08:02:00.917            40.558                 Moscow          5069.750
        27   01 Jun 2027 08:02:09.963   01 Jun 2027 08:04:43.996           154.033              Murmansk2         19254.125
        28   01 Jun 2027 09:08:09.276   01 Jun 2027 09:14:25.169           375.893               CapeTown         46986.625
        29   01 Jun 2027 11:32:29.568   01 Jun 2027 11:32:29.763             0.195               Magadan2            24.375
        30   01 Jun 2027 13:02:17.024   01 Jun 2027 13:07:10.212           293.188               Magadan2         36648.500
        31   01 Jun 2027 14:58:11.148   01 Jun 2027 14:59:55.178           104.030                Sumatra         13003.750
        32   01 Jun 2027 15:29:48.245   01 Jun 2027 15:31:17.812            89.567            RioGallegos         11195.875
        33   01 Jun 2027 15:39:03.682   01 Jun 2027 15:40:32.239            88.557            RioGallegos         11069.625
        34   01 Jun 2027 16:31:31.610   01 Jun 2027 16:32:48.203            76.593                Sumatra          9574.125
        35   01 Jun 2027 16:33:10.550   01 Jun 2027 16:34:24.040            73.490                Sumatra          9186.250
        36   01 Jun 2027 16:39:13.830   01 Jun 2027 16:40:48.173            94.343                Sumatra         11792.875
        37   01 Jun 2027 17:53:30.317   01 Jun 2027 17:53:59.858            29.541                Novosib          3692.625
        38   01 Jun 2027 17:57:58.997   01 Jun 2027 17:58:21.545            22.548                Novosib          2818.500
        39   01 Jun 2027 18:00:50.398   01 Jun 2027 18:02:54.289           123.891                  Delhi         15486.375
        40   01 Jun 2027 18:04:02.091   01 Jun 2027 18:05:58.583           116.492                  Delhi         14478.000
        41   02 Jun 2027 03:27:37.048   02 Jun 2027 03:27:54.604            17.556                Irkutsk          2194.500
        42   02 Jun 2027 03:27:57.122   02 Jun 2027 03:29:03.902            66.780                Novosib          8347.500
        43   02 Jun 2027 04:37:37.778   02 Jun 2027 04:37:59.595            21.817                Sumatra          2727.125
        44   02 Jun 2027 04:39:29.278   02 Jun 2027 04:40:18.671            49.393                Sumatra          6174.125
        45   02 Jun 2027 04:45:17.277   02 Jun 2027 04:45:56.060            38.783                Sumatra          4847.875
        46   02 Jun 2027 05:02:15.918   02 Jun 2027 05:02:33.350            17.432                 Moscow          2179.000
        47   02 Jun 2027 05:02:34.690   02 Jun 2027 05:03:09.885            35.195                Irkutsk          4399.375
        48   02 Jun 2027 05:03:31.835   02 Jun 2027 05:04:18.591            46.756              Murmansk2          5844.500
        49   02 Jun 2027 05:04:48.946   02 Jun 2027 05:06:14.306            85.360                 Moscow         10670.000
        50   02 Jun 2027 05:06:15.579   02 Jun 2027 05:10:48.324           272.745              Murmansk2         34093.125
        51   02 Jun 2027 06:24:19.500   02 Jun 2027 06:26:22.466           122.966                  Delhi         15370.750
        52   02 Jun 2027 06:28:48.201   02 Jun 2027 06:29:32.036            43.835                  Delhi          5479.375
        53   02 Jun 2027 06:31:00.919   02 Jun 2027 06:31:53.412            52.493                 Moscow          6561.625
        54   02 Jun 2027 06:31:56.300   02 Jun 2027 06:35:03.665           187.365                Novosib         23420.625
        55   02 Jun 2027 06:39:27.848   02 Jun 2027 06:42:51.535           203.687                 Moscow         25460.875
        56   02 Jun 2027 06:43:15.213   02 Jun 2027 06:46:28.870           193.657              Murmansk1         24207.125
        57   02 Jun 2027 08:06:04.261   02 Jun 2027 08:06:25.118            20.857                 Moscow          2607.125
        58   02 Jun 2027 08:09:11.861   02 Jun 2027 08:10:00.002            48.141                 Moscow          6017.625
        59   02 Jun 2027 08:10:41.654   02 Jun 2027 08:10:47.994             6.340                 Moscow           792.500
        60   02 Jun 2027 08:12:49.044   02 Jun 2027 08:12:57.968             8.924              Murmansk2          1115.500
        61   02 Jun 2027 08:14:02.590   02 Jun 2027 08:18:52.894           290.304                 Moscow         36288.000
        62   02 Jun 2027 08:18:53.317   02 Jun 2027 08:22:24.923           211.606              Murmansk1         26450.750
        63   02 Jun 2027 08:26:46.015   02 Jun 2027 08:28:47.030           121.015                Anadyr2         15126.875
        64   02 Jun 2027 09:24:57.902   02 Jun 2027 09:29:21.922           264.020               CapeTown         33002.500
        65   02 Jun 2027 11:36:03.737   02 Jun 2027 11:36:11.979             8.242                Anadyr2          1030.250
        66   02 Jun 2027 11:39:14.423   02 Jun 2027 11:40:49.935            95.512                Anadyr2         11939.000
        67   02 Jun 2027 13:14:16.899   02 Jun 2027 13:14:42.768            25.869               Magadan2          3233.625
        68   02 Jun 2027 13:15:16.116   02 Jun 2027 13:18:01.879           165.763               Magadan1         20720.375
        69   02 Jun 2027 13:19:50.300   02 Jun 2027 13:21:30.856           100.556               Magadan1         12569.500
        70   02 Jun 2027 15:09:02.279   02 Jun 2027 15:13:43.738           281.459                Sumatra         35182.375
        71   02 Jun 2027 15:16:59.281   02 Jun 2027 15:17:56.246            56.965                Sumatra          7120.625
        72   02 Jun 2027 16:35:43.973   02 Jun 2027 16:35:50.456             6.483                Novosib           810.375
        73   02 Jun 2027 16:43:45.591   02 Jun 2027 16:44:17.802            32.211                Sumatra          4026.375
        74   02 Jun 2027 16:46:11.735   02 Jun 2027 16:48:10.364           118.629                Sumatra         14828.625
        75   02 Jun 2027 18:05:31.013   02 Jun 2027 18:05:52.706            21.693                Novosib          2711.625
        76   02 Jun 2027 18:12:51.298   02 Jun 2027 18:14:16.200            84.902                  Delhi         10612.750
        77   02 Jun 2027 18:15:06.524   02 Jun 2027 18:15:22.852            16.328                Novosib          2041.000
        78   02 Jun 2027 18:16:02.868   02 Jun 2027 18:17:48.143           105.275                  Delhi         13159.375
        79   02 Jun 2027 18:25:29.506   02 Jun 2027 18:25:34.190             4.684                  Delhi           585.500
        80   02 Jun 2027 19:46:51.968   02 Jun 2027 19:47:43.265            51.297                 Moscow          6412.125
        81   02 Jun 2027 19:48:06.297   02 Jun 2027 19:48:54.167            47.870                 Moscow          5983.750
        82   02 Jun 2027 21:19:02.770   02 Jun 2027 21:19:19.123            16.353                 Moscow          2044.125
        83   02 Jun 2027 21:21:14.873   02 Jun 2027 21:22:21.442            66.569                 Moscow          8321.125
        84   02 Jun 2027 21:28:38.643   02 Jun 2027 21:31:06.651           148.008                 Moscow         18501.000
        85   02 Jun 2027 21:50:50.581   02 Jun 2027 21:51:09.161            18.580               CapeTown          2322.500
        86   03 Jun 2027 03:14:42.016   03 Jun 2027 03:15:31.528            49.512                Sumatra          3072.124
        87   03 Jun 2027 03:39:51.786   03 Jun 2027 03:39:55.272             3.486                Irkutsk           435.750
        88   03 Jun 2027 03:39:58.652   03 Jun 2027 03:40:22.446            23.794                Novosib          2974.250
        89   03 Jun 2027 04:49:55.203   03 Jun 2027 04:50:05.963            10.760                Sumatra          1345.000
        90   03 Jun 2027 04:51:58.170   03 Jun 2027 04:54:10.385           132.215                Sumatra         16526.875
        91   03 Jun 2027 05:15:20.503   03 Jun 2027 05:16:20.723            60.220              Murmansk2          7527.500
        92   03 Jun 2027 05:17:00.175   03 Jun 2027 05:17:22.038            21.863                Novosib          2732.875
        93   03 Jun 2027 05:17:28.614   03 Jun 2027 05:18:23.863            55.249                 Moscow          6906.125
        94   03 Jun 2027 05:19:01.572   03 Jun 2027 05:22:46.329           224.757              Murmansk2         28094.625
        95   03 Jun 2027 06:41:28.314   03 Jun 2027 06:43:16.546           108.232                  Delhi         13529.000
        96   03 Jun 2027 06:43:40.651   03 Jun 2027 06:46:47.879           187.228                Novosib         23403.500
        97   03 Jun 2027 06:51:33.489   03 Jun 2027 06:52:13.283            39.794              Murmansk1          4974.250
        98   03 Jun 2027 06:52:28.675   03 Jun 2027 06:54:55.397           146.722                 Moscow         18340.250
        99   03 Jun 2027 06:55:10.945   03 Jun 2027 06:58:29.722           198.777              Murmansk2         24847.125
       100   03 Jun 2027 08:21:18.290   03 Jun 2027 08:22:46.467            88.177                 Moscow         11022.125
       101   03 Jun 2027 08:24:50.772   03 Jun 2027 08:26:13.540            82.768              Murmansk2         10346.000
       102   03 Jun 2027 08:26:13.540   03 Jun 2027 08:28:01.622           108.082              Murmansk1         13510.250
       103   03 Jun 2027 08:28:24.601   03 Jun 2027 08:29:31.223            66.622                Norilsk          8327.750
       104   03 Jun 2027 08:29:33.999   03 Jun 2027 08:30:55.270            81.271              Murmansk1         10158.875
       105   03 Jun 2027 08:30:55.270   03 Jun 2027 08:34:26.654           211.384              Murmansk2         26423.000
       106   03 Jun 2027 08:37:50.695   03 Jun 2027 08:41:59.095           248.400                Anadyr1         31050.000
       107   03 Jun 2027 10:16:49.172   03 Jun 2027 10:17:17.261            28.089                Anadyr1          3511.125
       108   03 Jun 2027 11:53:24.538   03 Jun 2027 11:53:29.257             4.719               Magadan2           589.875
       109   03 Jun 2027 11:57:07.155   03 Jun 2027 11:57:43.571            36.416               Magadan1          4552.000
       110   03 Jun 2027 13:26:17.278   03 Jun 2027 13:31:08.036           290.758               Magadan2         36344.750
       111   03 Jun 2027 13:33:47.454   03 Jun 2027 13:35:52.389           124.935               Magadan2         15616.875
       112   03 Jun 2027 15:09:16.771   03 Jun 2027 15:10:36.601            79.830                Irkutsk          9978.750
       113   03 Jun 2027 15:23:20.786   03 Jun 2027 15:27:43.451           262.665                Sumatra         32833.125
       114   03 Jun 2027 16:50:26.497   03 Jun 2027 16:52:07.992           101.495                  Delhi         12686.875
       115   03 Jun 2027 16:54:15.568   03 Jun 2027 16:59:37.855           322.287                  Delhi         40285.875
       116   03 Jun 2027 19:58:15.574   03 Jun 2027 20:00:28.534           132.960                 Moscow         16620.000
       117   03 Jun 2027 21:42:41.084   03 Jun 2027 21:43:51.597            70.513                 Moscow          8814.125
       118   03 Jun 2027 21:58:02.032   03 Jun 2027 21:59:43.158           101.126               CapeTown          7790.000
       119   04 Jun 2027 05:02:20.658   04 Jun 2027 05:03:40.378            79.720                Sumatra          9965.000
       120   04 Jun 2027 05:15:34.947   04 Jun 2027 05:15:42.978             8.031                  Delhi          1003.875
       121   04 Jun 2027 05:16:55.776   04 Jun 2027 05:18:53.235           117.459                  Delhi         14682.375
       122   04 Jun 2027 05:27:33.036   04 Jun 2027 05:29:21.047           108.011                Novosib         13501.375
       123   04 Jun 2027 05:29:35.780   04 Jun 2027 05:30:32.178            56.398                 Moscow          7049.750
       124   04 Jun 2027 05:30:55.390   04 Jun 2027 05:34:44.821           229.431              Murmansk1         28678.875
       125   04 Jun 2027 06:53:20.916   04 Jun 2027 06:55:14.138           113.222                  Delhi         14152.750
       126   04 Jun 2027 06:56:00.489   04 Jun 2027 06:57:40.255            99.766                Novosib         12470.750
       127   04 Jun 2027 06:58:11.752   04 Jun 2027 06:59:14.063            62.311                 Moscow          7788.875
       128   04 Jun 2027 07:03:53.597   04 Jun 2027 07:06:58.788           185.191                 Moscow         23148.875
       129   04 Jun 2027 07:07:22.634   04 Jun 2027 07:10:30.789           188.155              Murmansk2         23519.375
       130   04 Jun 2027 08:13:11.123   04 Jun 2027 08:13:54.432            43.309               CapeTown          5413.625
       131   04 Jun 2027 08:33:17.304   04 Jun 2027 08:34:47.788            90.484                 Moscow         11310.500
       132   04 Jun 2027 08:36:52.502   04 Jun 2027 08:40:10.996           198.494              Murmansk1         24811.750
       133   04 Jun 2027 08:40:26.468   04 Jun 2027 08:41:30.895            64.427                 Moscow          8053.375
       134   04 Jun 2027 08:41:35.587   04 Jun 2027 08:46:28.368           292.781              Murmansk2         36597.625
       135   04 Jun 2027 08:49:24.839   04 Jun 2027 08:53:52.334           267.495                Anadyr1         33436.875
       136   04 Jun 2027 12:02:43.955   04 Jun 2027 12:05:12.437           148.482               Magadan1         18560.250
       137   04 Jun 2027 12:11:47.286   04 Jun 2027 12:12:14.804            27.518               Magadan2          3439.750
       138   04 Jun 2027 13:38:18.083   04 Jun 2027 13:38:32.588            14.505               Magadan2          1813.125
       139   04 Jun 2027 13:40:13.301   04 Jun 2027 13:41:36.675            83.374               Magadan2         10421.750
       140   04 Jun 2027 13:43:48.495   04 Jun 2027 13:46:00.971           132.476               Magadan2         16559.500
       141   04 Jun 2027 15:22:18.668   04 Jun 2027 15:23:41.073            82.405                Irkutsk         10300.625
       142   04 Jun 2027 15:32:04.824   04 Jun 2027 15:34:13.287           128.463                Sumatra         16057.875
       143   04 Jun 2027 15:37:00.594   04 Jun 2027 15:38:36.832            96.238                Sumatra         12029.750
       144   04 Jun 2027 16:56:34.205   04 Jun 2027 16:59:06.130           151.925                Novosib         18990.625
       145   04 Jun 2027 17:01:17.898   04 Jun 2027 17:02:57.658            99.760                Novosib         12470.000
       146   04 Jun 2027 17:10:25.600   04 Jun 2027 17:13:41.038           195.438                Sumatra         24429.750
       147   04 Jun 2027 18:39:48.480   04 Jun 2027 18:41:38.910           110.430                  Delhi         13803.750
       148   04 Jun 2027 20:08:56.339   04 Jun 2027 20:09:40.423            44.084                 Moscow          5510.500
       149   04 Jun 2027 20:15:44.214   04 Jun 2027 20:16:53.954            69.740                 Moscow          8717.500
       150   04 Jun 2027 21:43:20.853   04 Jun 2027 21:45:34.575           133.722                 Moscow         15299.625
       151   05 Jun 2027 04:03:37.420   05 Jun 2027 04:04:03.504            26.084                Novosib          3260.500
       152   05 Jun 2027 05:14:56.855   05 Jun 2027 05:16:31.319            94.464                Sumatra         11808.000
       153   05 Jun 2027 05:26:06.729   05 Jun 2027 05:27:17.360            70.631                  Delhi          8828.875
       154   05 Jun 2027 05:29:14.472   05 Jun 2027 05:31:20.778           126.306                  Delhi         15788.250
       155   05 Jun 2027 05:39:19.773   05 Jun 2027 05:40:24.962            65.189              Murmansk2          8148.625
       156   05 Jun 2027 05:40:25.376   05 Jun 2027 05:41:19.122            53.746                Novosib          6718.250
       157   05 Jun 2027 05:41:39.910   05 Jun 2027 05:42:39.542            59.632                 Moscow          7454.000
       158   05 Jun 2027 05:42:48.125   05 Jun 2027 05:46:43.756           235.631              Murmansk1         29453.875
       159   05 Jun 2027 07:09:24.909   05 Jun 2027 07:11:11.334           106.425                 Moscow         13303.125
       160   05 Jun 2027 07:14:58.123   05 Jun 2027 07:15:30.820            32.697                Novosib          4087.125
       161   05 Jun 2027 07:16:40.823   05 Jun 2027 07:19:01.690           140.867                 Moscow         17608.375
       162   05 Jun 2027 07:19:10.952   05 Jun 2027 07:22:32.031           201.079              Murmansk2         25134.875
       163   05 Jun 2027 08:22:42.451   05 Jun 2027 08:28:41.706           359.255               CapeTown         44906.875
       164   05 Jun 2027 08:45:21.378   05 Jun 2027 08:45:47.596            26.218                 Moscow          3277.250
       165   05 Jun 2027 08:48:54.209   05 Jun 2027 08:50:56.178           121.969              Murmansk2         15246.125
       166   05 Jun 2027 08:51:32.713   05 Jun 2027 08:52:50.536            77.823                 Moscow          9727.875
       167   05 Jun 2027 08:53:37.242   05 Jun 2027 08:55:05.423            88.181              Murmansk1         11022.625
       168   05 Jun 2027 08:55:05.423   05 Jun 2027 08:57:46.294           160.871              Murmansk2         20108.875
       169   05 Jun 2027 10:45:05.616   05 Jun 2027 10:45:34.192            28.576                Anadyr1          3572.000
       170   05 Jun 2027 10:45:34.192   05 Jun 2027 10:45:50.776            16.584                Anadyr2          2073.000
       171   05 Jun 2027 12:14:39.515   05 Jun 2027 12:16:17.898            98.383               Magadan1         12297.875
       172   05 Jun 2027 12:19:26.533   05 Jun 2027 12:19:47.436            20.903               Magadan1          2612.875
       173   05 Jun 2027 12:22:44.480   05 Jun 2027 12:24:11.361            86.881               Magadan2         10860.125
       174   05 Jun 2027 13:50:19.256   05 Jun 2027 13:52:35.880           136.624               Magadan1         17078.000
       175   05 Jun 2027 14:45:17.774   05 Jun 2027 14:46:19.225            61.451            RioGallegos          7681.375
       176   05 Jun 2027 15:30:17.970   05 Jun 2027 15:32:00.551           102.581                Irkutsk         12822.625
       177   05 Jun 2027 15:39:34.522   05 Jun 2027 15:41:34.165           119.643                Irkutsk         14955.375
       178   05 Jun 2027 15:43:49.381   05 Jun 2027 15:46:30.618           161.237                Sumatra         20154.625
       179   05 Jun 2027 17:05:50.441   05 Jun 2027 17:08:13.666           143.225                Novosib         17903.125
       180   05 Jun 2027 17:14:25.953   05 Jun 2027 17:15:22.685            56.732                Novosib          7091.500
       181   05 Jun 2027 17:17:25.131   05 Jun 2027 17:19:59.931           154.800                  Delhi         19350.000
       182   05 Jun 2027 18:49:14.383   05 Jun 2027 18:51:33.017           138.634                  Delhi         17329.250
       183   05 Jun 2027 20:19:18.947   05 Jun 2027 20:20:28.276            69.329                 Moscow          8666.125
       184   05 Jun 2027 20:21:58.174   05 Jun 2027 20:24:21.178           143.004                 Moscow         13974.625
       185   06 Jun 2027 04:15:56.123   06 Jun 2027 04:16:14.968            18.845                 Moscow          2355.625
       186   06 Jun 2027 05:27:49.972   06 Jun 2027 05:28:46.800            56.828                Sumatra          7103.500
       187   06 Jun 2027 05:33:46.310   06 Jun 2027 05:36:07.279           140.969                  Delhi         17621.125
       188   06 Jun 2027 05:51:46.769   06 Jun 2027 05:52:27.016            40.247              Murmansk2          5030.875
       189   06 Jun 2027 05:52:31.393   06 Jun 2027 05:53:16.106            44.713                Novosib          5589.125
       190   06 Jun 2027 05:53:42.953   06 Jun 2027 05:54:46.138            63.185                 Moscow          7898.125
       191   06 Jun 2027 05:54:50.514   06 Jun 2027 05:58:43.109           232.595              Murmansk1         29074.375
       192   06 Jun 2027 07:18:18.143   06 Jun 2027 07:18:59.051            40.908                 Moscow          5113.500
       193   06 Jun 2027 07:27:16.692   06 Jun 2027 07:27:47.091            30.399              Murmansk2          3799.875
       194   06 Jun 2027 07:29:34.674   06 Jun 2027 07:31:04.089            89.415                 Moscow         11176.875
       195   06 Jun 2027 07:31:11.200   06 Jun 2027 07:34:33.419           202.219              Murmansk1         25277.375
       196   06 Jun 2027 08:33:45.896   06 Jun 2027 08:41:54.408           488.512               CapeTown         61064.000
       197   06 Jun 2027 09:00:55.859   06 Jun 2027 09:02:26.097            90.238              Murmansk2         11279.750
       198   06 Jun 2027 09:02:26.097   06 Jun 2027 09:04:09.657           103.560              Murmansk1         12945.000
       199   06 Jun 2027 09:04:46.672   06 Jun 2027 09:05:38.436            51.764                 Moscow          6470.500
       200   06 Jun 2027 09:05:38.939   06 Jun 2027 09:07:08.020            89.081              Murmansk2         11135.125
       201   06 Jun 2027 09:07:08.020   06 Jun 2027 09:10:31.609           203.589              Murmansk1         25448.625
       202   06 Jun 2027 09:12:57.080   06 Jun 2027 09:21:07.582           490.502                Anadyr2         61312.750
       203   06 Jun 2027 10:15:12.293   06 Jun 2027 10:18:43.276           210.983               CapeTown         26372.875
       204   06 Jun 2027 10:50:18.537   06 Jun 2027 10:50:25.924             7.387                Anadyr1           923.375
       205   06 Jun 2027 10:57:44.887   06 Jun 2027 10:57:50.878             5.991                Anadyr2           748.875
       206   06 Jun 2027 12:26:36.300   06 Jun 2027 12:31:39.174           302.874               Magadan1         37859.250
       207   06 Jun 2027 12:34:48.012   06 Jun 2027 12:36:38.174           110.162               Magadan1         13770.250
       208   06 Jun 2027 14:55:41.742   06 Jun 2027 14:59:53.050           251.308            RioGallegos         31413.500
       209   06 Jun 2027 15:55:40.198   06 Jun 2027 16:00:27.601           287.403                Sumatra         35925.375
       210   06 Jun 2027 17:17:47.724   06 Jun 2027 17:18:53.287            65.563                Novosib          8195.375
       211   06 Jun 2027 17:25:23.519   06 Jun 2027 17:31:18.504           354.985                  Delhi         44373.125
       212   06 Jun 2027 20:31:17.080   06 Jun 2027 20:32:10.266            53.186                 Moscow          6648.250
       213   06 Jun 2027 20:34:12.285   06 Jun 2027 20:36:15.136           122.851                 Moscow          6847.124
       214   07 Jun 2027 04:28:06.818   07 Jun 2027 04:28:52.102            45.284                Norilsk          5660.500
       215   07 Jun 2027 05:41:22.440   07 Jun 2027 05:42:45.921            83.481                Sumatra         10435.125
       216   07 Jun 2027 05:45:22.063   07 Jun 2027 05:45:31.196             9.133                Sumatra          1141.625
       217   07 Jun 2027 05:45:49.698   07 Jun 2027 05:47:27.184            97.486                  Delhi         12185.750
       218   07 Jun 2027 05:50:37.664   07 Jun 2027 05:50:44.933             7.269                  Delhi           908.625
       219   07 Jun 2027 05:53:38.088   07 Jun 2027 05:54:55.674            77.586                  Delhi          9698.250
       220   07 Jun 2027 06:03:41.875   07 Jun 2027 06:04:01.248            19.373                Novosib          2421.625
       221   07 Jun 2027 06:04:02.565   07 Jun 2027 06:06:52.073           169.508                 Moscow         21188.500
       222   07 Jun 2027 06:07:08.591   07 Jun 2027 06:10:42.828           214.237              Murmansk1         26779.625
       223   07 Jun 2027 07:30:14.191   07 Jun 2027 07:30:31.434            17.243                 Moscow          2155.375
       224   07 Jun 2027 07:41:06.335   07 Jun 2027 07:43:05.956           119.621                 Moscow         14952.625
       225   07 Jun 2027 07:43:06.531   07 Jun 2027 07:46:34.933           208.402              Murmansk2         26050.250
       226   07 Jun 2027 08:45:09.064   07 Jun 2027 08:54:45.037           575.973               CapeTown         71996.625
       227   07 Jun 2027 09:12:57.413   07 Jun 2027 09:14:16.281            78.868              Murmansk1          9858.500
       228   07 Jun 2027 09:14:16.281   07 Jun 2027 09:16:56.377           160.096              Murmansk2         20012.000
       229   07 Jun 2027 09:16:56.377   07 Jun 2027 09:21:25.093           268.716              Murmansk1         33589.500
       230   07 Jun 2027 09:22:29.965   07 Jun 2027 09:22:33.066             3.101              Murmansk2           387.625
       231   07 Jun 2027 09:24:48.926   07 Jun 2027 09:33:47.458           538.532                Anadyr1         67316.500
       232   07 Jun 2027 10:23:08.902   07 Jun 2027 10:27:16.045           247.143               CapeTown         30892.875
       233   07 Jun 2027 12:38:34.084   07 Jun 2027 12:39:22.616            48.532               Magadan1          6066.500
       234   07 Jun 2027 12:43:36.597   07 Jun 2027 12:47:39.283           242.686               Magadan1         30335.750
       235   07 Jun 2027 15:06:12.615   07 Jun 2027 15:08:08.491           115.876            RioGallegos         14484.500
       236   07 Jun 2027 15:11:13.039   07 Jun 2027 15:11:34.161            21.122            RioGallegos          2640.250
       237   07 Jun 2027 15:53:55.495   07 Jun 2027 15:55:18.616            83.121                Irkutsk         10390.125
       238   07 Jun 2027 16:00:19.353   07 Jun 2027 16:03:15.015           175.662                Irkutsk         21957.750
       239   07 Jun 2027 16:07:36.774   07 Jun 2027 16:10:44.375           187.601                Sumatra         23450.125
       240   07 Jun 2027 17:32:44.029   07 Jun 2027 17:34:43.333           119.304                Novosib         14913.000
       241   07 Jun 2027 17:37:13.640   07 Jun 2027 17:42:15.115           301.475                  Delhi         37684.375
       242   07 Jun 2027 20:43:16.131   07 Jun 2027 20:43:57.968            41.837                 Moscow          5229.625
       243   07 Jun 2027 21:11:07.982   07 Jun 2027 21:12:42.823            94.841               CapeTown          7205.000
       244   08 Jun 2027 04:13:37.150   08 Jun 2027 04:16:11.316           154.166                Sumatra         19270.750
       245   08 Jun 2027 04:39:18.554   08 Jun 2027 04:39:41.972            23.418                Irkutsk          2927.250
       246   08 Jun 2027 04:40:10.414   08 Jun 2027 04:47:08.844           418.430              Murmansk1         52303.750
       247   08 Jun 2027 05:57:58.653   08 Jun 2027 06:05:44.318           465.665                  Delhi         58208.125
       248   08 Jun 2027 06:15:55.569   08 Jun 2027 06:16:27.869            32.300              Murmansk2          4037.500
       249   08 Jun 2027 06:17:40.161   08 Jun 2027 06:18:57.430            77.269                 Moscow          9658.625
       250   08 Jun 2027 06:19:37.163   08 Jun 2027 06:22:42.884           185.721              Murmansk1         23215.125
       251   08 Jun 2027 07:45:17.894   08 Jun 2027 07:46:46.472            88.578                 Moscow         11072.250
       252   08 Jun 2027 07:51:48.642   08 Jun 2027 07:55:07.248           198.606                 Moscow         24825.750
       253   08 Jun 2027 07:55:26.925   08 Jun 2027 07:58:36.544           189.619              Murmansk1         23702.375
       254   08 Jun 2027 08:57:48.197   08 Jun 2027 09:07:22.719           574.522               CapeTown         71815.250
       255   08 Jun 2027 09:24:58.841   08 Jun 2027 09:26:30.800            91.959              Murmansk2         11494.875
       256   08 Jun 2027 09:26:42.294   08 Jun 2027 09:28:50.298           128.004                 Moscow         16000.500
       257   08 Jun 2027 09:29:42.322   08 Jun 2027 09:33:15.641           213.319              Murmansk2         26664.875
       258   08 Jun 2027 09:34:31.602   08 Jun 2027 09:34:34.349             2.747              Murmansk1           343.375
       259   08 Jun 2027 09:36:42.989   08 Jun 2027 09:40:15.291           212.302                Anadyr1         26537.750
       260   08 Jun 2027 12:50:32.690   08 Jun 2027 12:51:15.418            42.728               Magadan1          5341.000
       261   08 Jun 2027 12:52:20.470   08 Jun 2027 12:57:02.722           282.252               Magadan2         35281.500
       262   08 Jun 2027 15:18:07.043   08 Jun 2027 15:20:07.909           120.866            RioGallegos         15108.250
       263   08 Jun 2027 15:26:14.871   08 Jun 2027 15:27:38.320            83.449            RioGallegos         10431.125
       264   08 Jun 2027 16:05:53.215   08 Jun 2027 16:06:56.271            63.056                Irkutsk          7882.000
       265   08 Jun 2027 16:08:52.590   08 Jun 2027 16:10:53.363           120.773                Irkutsk         15096.625
       266   08 Jun 2027 16:19:38.935   08 Jun 2027 16:21:44.264           125.329                Sumatra         15666.125
       267   08 Jun 2027 17:42:35.194   08 Jun 2027 17:44:54.060           138.866                Novosib         17358.250
       268   08 Jun 2027 17:49:07.723   08 Jun 2027 17:52:05.832           178.109                  Delhi         22263.625
       269   08 Jun 2027 19:26:19.266   08 Jun 2027 19:26:58.194            38.928                  Delhi          4866.000
       270   08 Jun 2027 20:52:41.068   08 Jun 2027 20:53:14.201            33.133              Murmansk1          4141.625
       271   08 Jun 2027 20:54:56.402   08 Jun 2027 20:56:36.150            99.748              Murmansk2         12468.500
       272   08 Jun 2027 20:58:30.494   08 Jun 2027 21:00:07.590            97.096                 Moscow         12137.000
       273   09 Jun 2027 02:52:49.831   09 Jun 2027 02:53:46.424            56.593                Sumatra          5481.750
       274   09 Jun 2027 03:16:13.008   09 Jun 2027 03:20:23.798           250.790              Murmansk2         31348.750
       275   09 Jun 2027 04:25:42.141   09 Jun 2027 04:27:21.606            99.465                Sumatra         12433.125
       276   09 Jun 2027 04:33:23.910   09 Jun 2027 04:35:24.846           120.936                Sumatra         15117.000
       277   09 Jun 2027 04:50:34.163   09 Jun 2027 04:51:34.554            60.391                Irkutsk          7548.875
       278   09 Jun 2027 04:51:58.151   09 Jun 2027 04:52:11.763            13.612              Murmansk2          1701.500
       279   09 Jun 2027 04:52:19.478   09 Jun 2027 04:53:36.688            77.210                Novosib          9651.250
       280   09 Jun 2027 04:53:43.077   09 Jun 2027 04:54:18.261            35.184                 Moscow          4398.000
       281   09 Jun 2027 04:54:35.286   09 Jun 2027 04:59:05.762           270.476              Murmansk1         33809.500
       282   09 Jun 2027 06:12:46.323   09 Jun 2027 06:22:11.525           565.202                  Delhi         70650.250
       283   09 Jun 2027 06:27:53.926   09 Jun 2027 06:28:32.580            38.654              Murmansk2          4831.750
       284   09 Jun 2027 06:28:53.354   09 Jun 2027 06:31:02.261           128.907                 Moscow         16113.375
       285   09 Jun 2027 06:31:53.038   09 Jun 2027 06:34:43.236           170.198              Murmansk2         21274.750
       286   09 Jun 2027 07:57:32.933   09 Jun 2027 07:58:10.368            37.435                 Moscow          4679.375
       287   09 Jun 2027 07:58:32.723   09 Jun 2027 07:58:48.976            16.253                 Moscow          2031.625
       288   09 Jun 2027 08:02:58.214   09 Jun 2027 08:04:20.833            82.619              Murmansk1         10327.375
       289   09 Jun 2027 08:04:25.338   09 Jun 2027 08:07:07.910           162.572                 Moscow         20321.500
       290   09 Jun 2027 08:07:14.338   09 Jun 2027 08:10:38.223           203.885              Murmansk2         25485.625
       291   09 Jun 2027 09:12:03.917   09 Jun 2027 09:19:51.106           467.189               CapeTown         58398.625
       292   09 Jun 2027 09:37:22.396   09 Jun 2027 09:38:06.262            43.866              Murmansk1          5483.250
       293   09 Jun 2027 09:38:24.645   09 Jun 2027 09:40:16.811           112.166                 Moscow         14020.750
       294   09 Jun 2027 09:41:43.951   09 Jun 2027 09:43:51.985           128.034              Murmansk2         16004.250
       295   09 Jun 2027 09:43:51.985   09 Jun 2027 09:45:43.363           111.378              Murmansk1         13922.250
       296   09 Jun 2027 09:46:33.278   09 Jun 2027 09:46:35.415             2.137              Murmansk2           267.125
       297   09 Jun 2027 09:48:38.680   09 Jun 2027 09:52:23.307           224.627                Anadyr2         28078.375
       298   09 Jun 2027 11:25:21.747   09 Jun 2027 11:25:55.366            33.619                Anadyr1          4202.375
       299   09 Jun 2027 13:02:31.992   09 Jun 2027 13:03:05.115            33.123               Magadan2          4140.375
       300   09 Jun 2027 13:05:29.050   09 Jun 2027 13:07:24.984           115.934               Magadan1         14491.750
       301   09 Jun 2027 13:09:26.148   09 Jun 2027 13:12:33.294           187.146               Magadan2         23393.250
       302   09 Jun 2027 14:58:23.811   09 Jun 2027 15:00:20.031           116.220                Sumatra         14527.500
       303   09 Jun 2027 15:30:03.155   09 Jun 2027 15:31:32.099            88.944            RioGallegos         11118.000
       304   09 Jun 2027 15:39:19.194   09 Jun 2027 15:40:46.631            87.437            RioGallegos         10929.625
       305   09 Jun 2027 16:21:02.167   09 Jun 2027 16:22:47.959           105.792                Irkutsk         13224.000
       306   09 Jun 2027 16:31:46.825   09 Jun 2027 16:33:02.406            75.581                Sumatra          9447.625
       307   09 Jun 2027 16:33:26.102   09 Jun 2027 16:34:19.322            53.220                  Delhi          6652.500
       308   09 Jun 2027 17:53:45.309   09 Jun 2027 17:55:10.036            84.727                Novosib         10590.875
       309   09 Jun 2027 17:58:14.312   09 Jun 2027 17:58:36.325            22.013                Novosib          2751.625
       310   09 Jun 2027 18:01:05.365   09 Jun 2027 18:03:08.343           122.978                  Delhi         15372.250
       311   09 Jun 2027 18:08:26.998   09 Jun 2027 18:10:40.378           133.380                  Delhi         16672.500
       312   09 Jun 2027 21:07:16.568   09 Jun 2027 21:07:39.406            22.838                 Moscow          2854.750
       313   09 Jun 2027 21:09:04.459   09 Jun 2027 21:10:22.133            77.674                 Moscow          9709.250
       314   09 Jun 2027 21:32:42.164   09 Jun 2027 21:33:01.246            19.082               CapeTown          2385.250
       315   09 Jun 2027 21:36:12.795   09 Jun 2027 21:36:13.188             0.393               CapeTown            49.125
       316   09 Jun 2027 21:38:58.449   09 Jun 2027 21:40:28.140            89.691               CapeTown         11211.375
       317   10 Jun 2027 03:03:52.084   10 Jun 2027 03:07:05.252           193.168                Sumatra          2142.250
       318   10 Jun 2027 03:27:51.845   10 Jun 2027 03:28:09.605            17.760                Irkutsk          2220.000
       319   10 Jun 2027 03:28:15.146   10 Jun 2027 03:29:19.017            63.871                Novosib          7983.875
       320   10 Jun 2027 04:37:53.058   10 Jun 2027 04:38:11.848            18.790                Sumatra          2348.750
       321   10 Jun 2027 04:39:44.471   10 Jun 2027 04:40:33.394            48.923                Sumatra          6115.375
       322   10 Jun 2027 04:45:32.194   10 Jun 2027 04:46:09.608            37.414                Sumatra          4676.750
       323   10 Jun 2027 05:02:30.517   10 Jun 2027 05:02:49.131            18.614                 Moscow          2326.750
       324   10 Jun 2027 05:03:46.316   10 Jun 2027 05:04:35.928            49.612              Murmansk2          6201.500
       325   10 Jun 2027 05:05:03.276   10 Jun 2027 05:06:29.477            86.201                 Moscow         10775.125
       326   10 Jun 2027 05:06:30.315   10 Jun 2027 05:11:03.250           272.935              Murmansk2         34116.875
       327   10 Jun 2027 06:31:55.849   10 Jun 2027 06:35:18.087           202.238                Novosib         25279.750
       328   10 Jun 2027 06:39:43.358   10 Jun 2027 06:43:06.594           203.236                 Moscow         25404.500
       329   10 Jun 2027 06:43:30.505   10 Jun 2027 06:46:43.865           193.360              Murmansk2         24170.000
       330   10 Jun 2027 08:06:19.370   10 Jun 2027 08:06:40.185            20.815                 Moscow          2601.875
       331   10 Jun 2027 08:09:33.457   10 Jun 2027 08:10:16.273            42.816                 Moscow          5352.000
       332   10 Jun 2027 08:13:04.067   10 Jun 2027 08:13:18.924            14.857              Murmansk2          1857.125
       333   10 Jun 2027 08:14:17.387   10 Jun 2027 08:19:07.872           290.485                 Moscow         36310.625
       334   10 Jun 2027 08:19:07.919   10 Jun 2027 08:22:39.947           212.028              Murmansk2         26503.500
       335   10 Jun 2027 08:26:58.720   10 Jun 2027 08:29:05.184           126.464                Anadyr2         15808.000
       336   10 Jun 2027 09:25:13.712   10 Jun 2027 09:32:12.078           418.366               CapeTown         52295.750
       337   10 Jun 2027 09:49:23.409   10 Jun 2027 09:50:13.648            50.239              Murmansk2          6279.875
       338   10 Jun 2027 09:50:26.159   10 Jun 2027 09:52:29.096           122.937                 Moscow         15367.125
       339   10 Jun 2027 09:53:45.487   10 Jun 2027 09:53:58.324            12.837              Murmansk1          1604.625
       340   10 Jun 2027 11:39:31.587   10 Jun 2027 11:40:57.742            86.155               Magadan1         10769.375
       341   10 Jun 2027 13:14:31.880   10 Jun 2027 13:18:35.532           243.652               Magadan1         30456.500
       342   10 Jun 2027 13:21:45.994   10 Jun 2027 13:24:06.654           140.660               Magadan2         17582.500
       343   10 Jun 2027 15:09:13.295   10 Jun 2027 15:14:21.149           307.854                Sumatra         38481.750
       344   10 Jun 2027 15:16:57.041   10 Jun 2027 15:18:06.554            69.513                Sumatra          8689.125
       345   10 Jun 2027 16:35:52.047   10 Jun 2027 16:36:14.156            22.109                Novosib          2763.625
       346   10 Jun 2027 16:44:27.380   10 Jun 2027 16:47:32.746           185.366                  Delhi         23170.750
       347   10 Jun 2027 18:13:06.335   10 Jun 2027 18:14:30.451            84.116                  Delhi         10514.500
       348   10 Jun 2027 18:20:45.881   10 Jun 2027 18:22:32.339           106.458                  Delhi         13307.250
       349   10 Jun 2027 19:48:27.810   10 Jun 2027 19:49:08.694            40.884                 Moscow          5110.500
       350   10 Jun 2027 21:22:36.427   10 Jun 2027 21:24:04.513            88.086                 Moscow         11010.750
       351   10 Jun 2027 21:44:28.975   10 Jun 2027 21:45:41.360            72.385               CapeTown          9048.125
       352   10 Jun 2027 21:51:05.495   10 Jun 2027 21:51:23.106            17.611               CapeTown          2201.375
       353   10 Jun 2027 21:53:42.688   10 Jun 2027 21:55:29.632           106.944               CapeTown          6504.125
       354   11 Jun 2027 03:40:05.080   11 Jun 2027 03:40:10.261             5.181                Irkutsk           647.625
       355   11 Jun 2027 03:40:16.737   11 Jun 2027 03:40:39.435            22.698                Novosib          2837.250
       356   11 Jun 2027 04:50:10.630   11 Jun 2027 04:50:20.363             9.733                Sumatra          1216.625
       357   11 Jun 2027 04:52:13.219   11 Jun 2027 04:54:25.235           132.016                Sumatra         16502.000
       358   11 Jun 2027 05:15:34.991   11 Jun 2027 05:16:38.058            63.067              Murmansk2          7883.375
       359   11 Jun 2027 05:17:14.465   11 Jun 2027 05:17:37.018            22.553                Novosib          2819.125
       360   11 Jun 2027 05:17:43.768   11 Jun 2027 05:18:39.005            55.237                 Moscow          6904.625
       361   11 Jun 2027 05:19:17.060   11 Jun 2027 05:23:01.266           224.206              Murmansk2         28025.750
       362   11 Jun 2027 06:41:43.047   11 Jun 2027 06:43:31.184           108.137                  Delhi         13517.125
       363   11 Jun 2027 06:43:55.350   11 Jun 2027 06:47:02.337           186.987                Novosib         23373.375
       364   11 Jun 2027 06:51:49.055   11 Jun 2027 06:52:27.770            38.715              Murmansk2          4839.375
       365   11 Jun 2027 06:52:45.270   11 Jun 2027 06:55:10.449           145.179                 Moscow         18147.375
       366   11 Jun 2027 06:55:26.219   11 Jun 2027 06:58:44.726           198.507              Murmansk1         24813.375
       367   11 Jun 2027 08:21:33.270   11 Jun 2027 08:23:01.290            88.020                 Moscow         11002.500
       368   11 Jun 2027 08:25:05.796   11 Jun 2027 08:28:18.649           192.853              Murmansk2         24106.625
       369   11 Jun 2027 08:28:41.063   11 Jun 2027 08:29:47.168            66.105                Norilsk          8263.125
       370   11 Jun 2027 08:29:48.851   11 Jun 2027 08:31:10.396            81.545              Murmansk2         10193.125
       371   11 Jun 2027 08:31:10.396   11 Jun 2027 08:34:41.679           211.283              Murmansk1         26410.375
       372   11 Jun 2027 08:38:04.912   11 Jun 2027 08:42:15.538           250.626                Anadyr1         31328.250
       373   11 Jun 2027 11:53:35.884   11 Jun 2027 11:54:07.376            31.492               Magadan1          3936.500
       374   11 Jun 2027 11:57:24.091   11 Jun 2027 12:00:33.475           189.384               Magadan1         23673.000
       375   11 Jun 2027 13:26:32.272   11 Jun 2027 13:26:51.560            19.288               Magadan2          2411.000
       376   11 Jun 2027 13:28:01.986   11 Jun 2027 13:29:46.841           104.855               Magadan1         13106.875
       377   11 Jun 2027 15:08:11.351   11 Jun 2027 15:11:01.264           169.913                Irkutsk         21239.125
       378   11 Jun 2027 15:23:38.292   11 Jun 2027 15:27:56.854           258.562                Sumatra         32320.250
       379   11 Jun 2027 16:50:40.777   11 Jun 2027 16:53:03.687           142.910                  Delhi         17863.750
       380   11 Jun 2027 16:53:57.212   11 Jun 2027 17:00:22.816           385.604                  Delhi         48200.500
       381   11 Jun 2027 20:00:44.069   11 Jun 2027 20:00:54.523            10.454                 Moscow          1306.750
       382   11 Jun 2027 20:02:47.404   11 Jun 2027 20:04:24.828            97.424                 Moscow         12178.000
       383   11 Jun 2027 21:55:25.986   11 Jun 2027 21:56:03.537            37.551               CapeTown          4693.875
       384   11 Jun 2027 21:57:58.123   11 Jun 2027 21:59:57.937           119.814               CapeTown          6113.875
       385   12 Jun 2027 05:02:36.280   12 Jun 2027 05:03:54.801            78.521                Sumatra          9815.125
       386   12 Jun 2027 05:08:13.331   12 Jun 2027 05:08:14.543             1.212                Sumatra           151.500
       387   12 Jun 2027 05:15:46.256   12 Jun 2027 05:15:57.308            11.052                  Delhi          1381.500
       388   12 Jun 2027 05:17:10.960   12 Jun 2027 05:19:18.692           127.732                  Delhi         15966.500
       389   12 Jun 2027 05:27:46.898   12 Jun 2027 05:29:36.006           109.108                Novosib         13638.500
       390   12 Jun 2027 05:29:52.580   12 Jun 2027 05:30:47.304            54.724                 Moscow          6840.500
       391   12 Jun 2027 05:31:10.835   12 Jun 2027 05:34:59.769           228.934              Murmansk2         28616.750
       392   12 Jun 2027 06:53:35.585   12 Jun 2027 06:55:28.851           113.266                  Delhi         14158.250
       393   12 Jun 2027 06:56:16.528   12 Jun 2027 06:57:55.482            98.954                Novosib         12369.250
       394   12 Jun 2027 06:58:29.320   12 Jun 2027 06:59:31.839            62.519                 Moscow          7814.875
       395   12 Jun 2027 07:04:08.832   12 Jun 2027 07:04:15.832             7.000              Murmansk2           875.000
       396   12 Jun 2027 07:04:23.617   12 Jun 2027 07:04:37.258            13.641                Norilsk          1705.125
       397   12 Jun 2027 07:05:02.849   12 Jun 2027 07:07:13.832           130.983                 Moscow         16372.875
       398   12 Jun 2027 07:07:37.203   12 Jun 2027 07:10:45.795           188.592              Murmansk2         23574.000
       399   12 Jun 2027 08:13:13.465   12 Jun 2027 08:14:22.456            68.991               CapeTown          8623.875
       400   12 Jun 2027 08:33:32.263   12 Jun 2027 08:35:02.660            90.397                 Moscow         11299.625
       401   12 Jun 2027 08:37:07.527   12 Jun 2027 08:38:33.279            85.752              Murmansk1         10719.000
       402   12 Jun 2027 08:38:33.279   12 Jun 2027 08:39:17.549            44.270              Murmansk2          5533.750
       403   12 Jun 2027 08:39:39.477   12 Jun 2027 08:40:25.503            46.026              Murmansk2          5753.250
       404   12 Jun 2027 08:40:33.576   12 Jun 2027 08:43:05.301           151.725                 Moscow         18965.625
       405   12 Jun 2027 08:43:19.059   12 Jun 2027 08:46:43.394           204.335              Murmansk2         25541.875
       406   12 Jun 2027 08:49:39.359   12 Jun 2027 08:54:08.613           269.254                Anadyr2         33656.750
       407   12 Jun 2027 10:34:34.042   12 Jun 2027 10:34:40.692             6.650                Anadyr2           831.250
       408   12 Jun 2027 12:02:58.816   12 Jun 2027 12:04:05.749            66.933               Magadan1          8366.625
       409   12 Jun 2027 12:06:58.861   12 Jun 2027 12:08:13.048            74.187               Magadan1          9273.375
       410   12 Jun 2027 12:12:01.292   12 Jun 2027 12:12:29.691            28.399               Magadan2          3549.875
       411   12 Jun 2027 13:38:33.086   12 Jun 2027 13:38:47.240            14.154               Magadan2          1769.250
       412   12 Jun 2027 13:40:28.360   12 Jun 2027 13:40:28.670             0.310               Magadan2            38.750
       413   12 Jun 2027 13:41:51.735   12 Jun 2027 13:43:20.338            88.603               Magadan1         11075.375
       414   12 Jun 2027 13:47:06.955   12 Jun 2027 13:48:08.504            61.549               Magadan2          7693.625
       415   12 Jun 2027 15:22:34.429   12 Jun 2027 15:24:32.672           118.243                Irkutsk         14780.375
       416   12 Jun 2027 15:28:20.733   12 Jun 2027 15:29:45.632            84.899                Irkutsk         10612.375
       417   12 Jun 2027 15:32:19.412   12 Jun 2027 15:34:28.705           129.293                Sumatra         16161.625
       418   12 Jun 2027 15:37:16.580   12 Jun 2027 15:38:50.740            94.160                Sumatra         11770.000
       419   12 Jun 2027 16:59:21.307   12 Jun 2027 17:01:33.751           132.444                Novosib         16555.500
       420   12 Jun 2027 17:02:12.859   12 Jun 2027 17:02:56.634            43.775                  Delhi          5471.875
       421   12 Jun 2027 17:03:11.945   12 Jun 2027 17:09:18.508           366.563                  Delhi         45820.375
       422   12 Jun 2027 20:08:55.217   12 Jun 2027 20:09:08.014            12.797                 Moscow          1599.625
       423   12 Jun 2027 20:09:55.822   12 Jun 2027 20:12:43.896           168.074                 Moscow         21009.250
       424   12 Jun 2027 20:15:59.813   12 Jun 2027 20:17:08.876            69.063                 Moscow          3414.375
       425   13 Jun 2027 04:03:52.026   13 Jun 2027 04:04:21.686            29.660                Novosib          3707.500
       426   13 Jun 2027 05:15:12.751   13 Jun 2027 05:16:46.169            93.418                Sumatra         11677.250
       427   13 Jun 2027 05:22:03.141   13 Jun 2027 05:22:04.021             0.880                  Delhi           110.000
       428   13 Jun 2027 05:26:13.314   13 Jun 2027 05:27:31.808            78.494                  Delhi          9811.750
       429   13 Jun 2027 05:29:29.565   13 Jun 2027 05:31:35.753           126.188                  Delhi         15773.500
       430   13 Jun 2027 05:39:35.524   13 Jun 2027 05:40:42.287            66.763              Murmansk2          8345.375
       431   13 Jun 2027 05:40:43.942   13 Jun 2027 05:41:34.061            50.119                Novosib          6264.875
       432   13 Jun 2027 05:41:56.738   13 Jun 2027 05:42:54.654            57.916                 Moscow          7239.500
       433   13 Jun 2027 05:43:03.530   13 Jun 2027 05:46:58.716           235.186              Murmansk1         29398.250
       434   13 Jun 2027 07:06:39.643   13 Jun 2027 07:07:32.810            53.167                 Moscow          6645.875
       435   13 Jun 2027 07:09:14.369   13 Jun 2027 07:10:38.750            84.381                Novosib         10547.625
       436   13 Jun 2027 07:15:25.559   13 Jun 2027 07:15:47.050            21.491                Novosib          2686.375
       437   13 Jun 2027 07:16:55.284   13 Jun 2027 07:19:16.726           141.442                 Moscow         17680.250
       438   13 Jun 2027 07:19:25.941   13 Jun 2027 07:22:47.042           201.101              Murmansk2         25137.625
       439   13 Jun 2027 08:22:55.879   13 Jun 2027 08:28:58.594           362.715               CapeTown         45339.375
       440   13 Jun 2027 08:45:36.121   13 Jun 2027 08:46:02.502            26.381                 Moscow          3297.625
       441   13 Jun 2027 08:49:09.234   13 Jun 2027 08:51:04.692           115.458              Murmansk2         14432.250
       442   13 Jun 2027 08:51:45.540   13 Jun 2027 08:55:02.500           196.960                 Moscow         24620.000
       443   13 Jun 2027 08:55:20.158   13 Jun 2027 08:58:00.840           160.682              Murmansk2         20085.250
       444   13 Jun 2027 10:36:31.451   13 Jun 2027 10:37:04.243            32.792                Anadyr1          4099.000
       445   13 Jun 2027 10:39:41.369   13 Jun 2027 10:41:24.258           102.889                Anadyr2         12861.125
       446   13 Jun 2027 12:14:54.409   13 Jun 2027 12:16:32.071            97.662               Magadan2         12207.750
       447   13 Jun 2027 12:21:59.907   13 Jun 2027 12:24:26.275           146.368               Magadan2         18296.000
       448   13 Jun 2027 14:43:41.427   13 Jun 2027 14:46:44.308           182.881            RioGallegos         22860.125
       449   13 Jun 2027 15:35:38.137   13 Jun 2027 15:37:02.632            84.495                Irkutsk         10561.875
       450   13 Jun 2027 15:39:49.400   13 Jun 2027 15:41:48.231           118.831                Irkutsk         14853.875
       451   13 Jun 2027 15:46:45.888   13 Jun 2027 15:50:05.611           199.723                Sumatra         24965.375
       452   13 Jun 2027 17:06:05.348   13 Jun 2027 17:08:29.049           143.701                Novosib         17962.625
       453   13 Jun 2027 17:13:52.671   13 Jun 2027 17:15:31.094            98.423                  Delhi         12302.875
       454   13 Jun 2027 17:17:41.473   13 Jun 2027 17:20:13.893           152.420                  Delhi         19052.500
       455   13 Jun 2027 18:55:19.528   13 Jun 2027 18:55:25.292             5.764                  Delhi           720.500
       456   13 Jun 2027 18:59:16.297   13 Jun 2027 19:01:05.362           109.065                  Delhi         13633.125
       457   13 Jun 2027 20:19:33.875   13 Jun 2027 20:20:42.679            68.804                 Moscow          5382.000
