uniorb/output/strategy_4/Drop/Drop_KinoSat_110110.txt

KinoSat_110110
-------------------------
    Access    *     Start Time (UTCG)     *     Stop Time (UTCG)  *   Duration (s)        *       Station  *  Data (Mbytes)
         1   01 Jun 2027 03:20:25.642   01 Jun 2027 03:20:31.916             6.274                Irkutsk           784.250
         2   01 Jun 2027 03:20:42.606   01 Jun 2027 03:21:43.014            60.408                Novosib          7551.000
         3   01 Jun 2027 03:22:10.616   01 Jun 2027 03:23:25.049            74.433                Irkutsk          9304.125
         4   01 Jun 2027 03:23:37.882   01 Jun 2027 03:24:32.517            54.635                Irkutsk          6829.375
         5   01 Jun 2027 03:24:42.369   01 Jun 2027 03:25:31.094            48.725                Novosib          6090.625
         6   01 Jun 2027 04:00:47.598   01 Jun 2027 04:03:08.146           140.548            RioGallegos         17568.500
         7   01 Jun 2027 04:03:35.308   01 Jun 2027 04:04:54.228            78.920            RioGallegos          9865.000
         8   01 Jun 2027 04:35:09.596   01 Jun 2027 04:36:12.610            63.014                Sumatra          7876.750
         9   01 Jun 2027 04:57:58.093   01 Jun 2027 04:59:41.370           103.277                Novosib         12909.625
        10   01 Jun 2027 05:00:02.049   01 Jun 2027 05:00:20.519            18.470                Irkutsk          2308.750
        11   01 Jun 2027 05:00:28.213   01 Jun 2027 05:00:53.947            25.734              Murmansk2          3216.750
        12   01 Jun 2027 05:01:04.088   01 Jun 2027 05:01:08.715             4.627              Murmansk1           578.375
        13   01 Jun 2027 05:01:08.715   01 Jun 2027 05:01:31.169            22.454              Murmansk2          2806.750
        14   01 Jun 2027 05:01:43.948   01 Jun 2027 05:02:05.187            21.239                Norilsk          2654.875
        15   01 Jun 2027 06:19:49.393   01 Jun 2027 06:22:08.206           138.813                  Delhi         17351.625
        16   01 Jun 2027 06:23:55.999   01 Jun 2027 06:24:51.140            55.141                  Delhi          6892.625
        17   01 Jun 2027 06:34:32.207   01 Jun 2027 06:34:58.022            25.815                Norilsk          3226.875
        18   01 Jun 2027 06:35:18.984   01 Jun 2027 06:36:38.652            79.668                 Moscow          9958.500
        19   01 Jun 2027 06:39:24.387   01 Jun 2027 06:39:51.439            27.052                 Moscow          3381.500
        20   01 Jun 2027 08:24:55.561   01 Jun 2027 08:25:40.509            44.948                Anadyr2          5618.500
        21   01 Jun 2027 09:17:32.358   01 Jun 2027 09:23:27.749           355.391               CapeTown         44423.875
        22   01 Jun 2027 13:11:51.385   01 Jun 2027 13:14:56.790           185.405               Magadan2         23175.625
        23   01 Jun 2027 13:15:44.038   01 Jun 2027 13:16:42.771            58.733               Magadan1          7341.625
        24   01 Jun 2027 15:06:53.760   01 Jun 2027 15:10:45.271           231.511                Sumatra         28938.875
        25   01 Jun 2027 15:15:07.499   01 Jun 2027 15:15:48.055            40.556                Sumatra          5069.500
        26   01 Jun 2027 16:31:12.178   01 Jun 2027 16:32:04.570            52.392                Irkutsk          6549.000
        27   01 Jun 2027 16:38:28.061   01 Jun 2027 16:40:04.276            96.215                Irkutsk         12026.875
        28   01 Jun 2027 16:42:04.809   01 Jun 2027 16:44:38.512           153.703                  Delhi         19212.875
        29   01 Jun 2027 18:03:05.322   01 Jun 2027 18:03:28.520            23.198                Novosib          2899.750
        30   01 Jun 2027 18:10:25.355   01 Jun 2027 18:11:57.347            91.992                  Delhi         11499.000
        31   01 Jun 2027 18:18:02.024   01 Jun 2027 18:20:02.397           120.373                  Delhi         15046.625
        32   01 Jun 2027 19:44:31.877   01 Jun 2027 19:46:32.114           120.237                 Moscow          6409.000
        33   02 Jun 2027 03:37:28.790   02 Jun 2027 03:39:05.478            96.688                Norilsk         12086.000
        34   02 Jun 2027 04:47:25.590   02 Jun 2027 04:47:45.019            19.429                Sumatra          2428.625
        35   02 Jun 2027 04:49:27.666   02 Jun 2027 04:51:44.727           137.061                Sumatra         17132.625
        36   02 Jun 2027 05:02:42.768   02 Jun 2027 05:03:19.422            36.654                  Delhi          4581.750
        37   02 Jun 2027 05:12:57.277   02 Jun 2027 05:13:54.562            57.285              Murmansk2          7160.625
        38   02 Jun 2027 05:13:55.204   02 Jun 2027 05:15:56.548           121.344                 Moscow         15168.000
        39   02 Jun 2027 05:16:37.121   02 Jun 2027 05:20:21.195           224.074              Murmansk1         28009.250
        40   02 Jun 2027 06:39:03.870   02 Jun 2027 06:42:58.082           234.212                  Delhi         29276.500
        41   02 Jun 2027 06:43:02.444   02 Jun 2027 06:44:25.381            82.937                Novosib         10367.125
        42   02 Jun 2027 06:49:08.511   02 Jun 2027 06:49:50.276            41.765              Murmansk2          5220.625
        43   02 Jun 2027 06:49:54.231   02 Jun 2027 06:52:29.156           154.925                 Moscow         19365.625
        44   02 Jun 2027 06:53:05.446   02 Jun 2027 06:56:04.037           178.591              Murmansk1         22323.875
        45   02 Jun 2027 08:18:52.894   02 Jun 2027 08:20:21.066            88.172                 Moscow         11021.500
        46   02 Jun 2027 08:22:24.923   02 Jun 2027 08:25:58.514           213.591              Murmansk1         26698.875
        47   02 Jun 2027 08:26:17.628   02 Jun 2027 08:27:05.856            48.228                Norilsk          6028.500
        48   02 Jun 2027 08:27:08.210   02 Jun 2027 08:32:00.806           292.596              Murmansk2         36574.500
        49   02 Jun 2027 08:35:32.531   02 Jun 2027 08:39:34.544           242.013                Anadyr1         30251.625
        50   02 Jun 2027 10:16:51.760   02 Jun 2027 10:19:23.618           151.858                Anadyr2         18982.250
        51   02 Jun 2027 13:23:51.664   02 Jun 2027 13:24:12.502            20.838               Magadan1          2604.750
        52   02 Jun 2027 13:25:15.566   02 Jun 2027 13:27:04.912           109.346               Magadan2         13668.250
        53   02 Jun 2027 15:06:47.934   02 Jun 2027 15:07:56.471            68.537                Irkutsk          8567.125
        54   02 Jun 2027 15:18:07.582   02 Jun 2027 15:19:16.157            68.575                Sumatra          8571.875
        55   02 Jun 2027 15:20:14.786   02 Jun 2027 15:25:35.861           321.075                Sumatra         40134.375
        56   02 Jun 2027 16:42:55.557   02 Jun 2027 16:43:47.280            51.723                Novosib          6465.375
        57   02 Jun 2027 16:44:12.752   02 Jun 2027 16:44:57.834            45.082                Novosib          5635.250
        58   02 Jun 2027 16:48:07.914   02 Jun 2027 16:48:57.559            49.645                  Delhi          6205.625
        59   02 Jun 2027 16:52:31.007   02 Jun 2027 16:57:17.661           286.654                  Delhi         35831.750
        60   02 Jun 2027 18:25:34.190   02 Jun 2027 18:27:17.248           103.058                  Delhi         12882.250
        61   02 Jun 2027 19:57:54.595   02 Jun 2027 19:58:16.985            22.390                 Moscow          2798.750
        62   02 Jun 2027 19:59:47.513   02 Jun 2027 20:01:00.918            73.405                 Moscow          9175.625
        63   02 Jun 2027 21:52:42.620   02 Jun 2027 21:55:14.707           152.087               CapeTown         17398.125
        64   03 Jun 2027 05:01:20.131   03 Jun 2027 05:03:47.838           147.707                Sumatra         18463.375
        65   03 Jun 2027 05:25:15.673   03 Jun 2027 05:28:05.085           169.412                 Moscow         21176.500
        66   03 Jun 2027 05:28:31.170   03 Jun 2027 05:32:19.591           228.421              Murmansk1         28552.625
        67   03 Jun 2027 06:50:57.243   03 Jun 2027 06:54:29.192           211.949                  Delhi         26493.625
        68   03 Jun 2027 06:54:55.397   03 Jun 2027 06:56:48.482           113.085                 Moscow         14135.625
        69   03 Jun 2027 07:01:25.857   03 Jun 2027 07:01:53.485            27.628              Murmansk2          3453.500
        70   03 Jun 2027 07:01:58.587   03 Jun 2027 07:04:19.394           140.807                Norilsk         17600.875
        71   03 Jun 2027 07:04:58.479   03 Jun 2027 07:08:05.058           186.579              Murmansk2         23322.375
        72   03 Jun 2027 08:30:52.619   03 Jun 2027 08:32:21.808            89.189                 Moscow         11148.625
        73   03 Jun 2027 08:34:26.654   03 Jun 2027 08:37:47.634           200.980              Murmansk2         25122.500
        74   03 Jun 2027 08:38:08.642   03 Jun 2027 08:40:25.284           136.642                 Moscow         17080.250
        75   03 Jun 2027 08:40:38.834   03 Jun 2027 08:44:02.526           203.692              Murmansk2         25461.500
        76   03 Jun 2027 08:47:03.572   03 Jun 2027 08:52:43.777           340.205                Anadyr2         42525.625
        77   03 Jun 2027 12:00:19.531   03 Jun 2027 12:01:18.689            59.158               Magadan2          7394.750
        78   03 Jun 2027 12:06:32.519   03 Jun 2027 12:09:29.314           176.795               Magadan1         22099.375
        79   03 Jun 2027 13:35:52.389   03 Jun 2027 13:36:07.888            15.499               Magadan2          1937.375
        80   03 Jun 2027 13:41:15.390   03 Jun 2027 13:43:33.004           137.614               Magadan1         17201.750
        81   03 Jun 2027 15:17:04.425   03 Jun 2027 15:21:15.999           251.574                Irkutsk         31446.750
        82   03 Jun 2027 15:31:43.376   03 Jun 2027 15:36:22.623           279.247                Sumatra         34905.875
        83   03 Jun 2027 16:59:37.855   03 Jun 2027 17:06:58.800           440.945                  Delhi         55118.125
        84   03 Jun 2027 20:13:05.881   03 Jun 2027 20:14:29.007            83.126                 Moscow         10390.750
        85   03 Jun 2027 21:50:17.496   03 Jun 2027 21:50:58.122            40.626                 Moscow          5078.250
        86   03 Jun 2027 22:04:57.856   03 Jun 2027 22:07:28.210           150.354               CapeTown          2524.500
        87   04 Jun 2027 04:01:11.861   04 Jun 2027 04:01:45.417            33.556                Norilsk          4194.500
        88   04 Jun 2027 05:12:22.962   04 Jun 2027 05:14:03.729           100.767                Sumatra         12595.875
        89   04 Jun 2027 05:24:03.607   04 Jun 2027 05:24:56.495            52.888                  Delhi          6611.000
        90   04 Jun 2027 05:26:45.652   04 Jun 2027 05:28:55.462           129.810                  Delhi         16226.250
        91   04 Jun 2027 05:36:55.196   04 Jun 2027 05:37:47.217            52.021              Murmansk1          6502.625
        92   04 Jun 2027 05:37:50.557   04 Jun 2027 05:38:54.096            63.539                Novosib          7942.375
        93   04 Jun 2027 05:39:13.363   04 Jun 2027 05:40:12.624            59.261                 Moscow          7407.625
        94   04 Jun 2027 05:40:24.116   04 Jun 2027 05:44:18.443           234.327              Murmansk2         29290.875
        95   04 Jun 2027 07:06:19.751   04 Jun 2027 07:08:11.916           112.165                Novosib         14020.625
        96   04 Jun 2027 07:14:22.458   04 Jun 2027 07:16:35.646           133.188                 Moscow         16648.500
        97   04 Jun 2027 07:16:45.443   04 Jun 2027 07:20:06.269           200.826              Murmansk1         25103.250
        98   04 Jun 2027 08:20:32.927   04 Jun 2027 08:25:56.679           323.752               CapeTown         40469.000
        99   04 Jun 2027 08:42:55.409   04 Jun 2027 08:43:19.827            24.418                 Moscow          3052.250
       100   04 Jun 2027 08:46:28.368   04 Jun 2027 08:49:50.723           202.355              Murmansk2         25294.375
       101   04 Jun 2027 08:49:56.307   04 Jun 2027 08:50:21.715            25.408                 Moscow          3176.000
       102   04 Jun 2027 08:51:11.421   04 Jun 2027 08:52:39.617            88.196              Murmansk1         11024.500
       103   04 Jun 2027 08:52:39.617   04 Jun 2027 08:56:04.203           204.586              Murmansk2         25573.250
       104   04 Jun 2027 08:58:45.762   04 Jun 2027 09:02:06.934           201.172                Anadyr1         25146.500
       105   04 Jun 2027 10:35:52.647   04 Jun 2027 10:37:03.772            71.125                Anadyr1          8890.625
       106   04 Jun 2027 10:39:23.665   04 Jun 2027 10:40:16.648            52.983                Anadyr1          6622.875
       107   04 Jun 2027 12:12:14.804   04 Jun 2027 12:13:46.487            91.683               Magadan2         11460.375
       108   04 Jun 2027 12:16:52.873   04 Jun 2027 12:17:23.923            31.050               Magadan2          3881.250
       109   04 Jun 2027 12:20:38.271   04 Jun 2027 12:21:46.469            68.198               Magadan2          8524.750
       110   04 Jun 2027 13:47:53.494   04 Jun 2027 13:49:31.162            97.668               Magadan2         12208.500
       111   04 Jun 2027 14:42:36.332   04 Jun 2027 14:43:38.280            61.948            RioGallegos          7743.500
       112   04 Jun 2027 15:28:10.565   04 Jun 2027 15:29:30.123            79.558                Irkutsk          9944.750
       113   04 Jun 2027 15:37:10.003   04 Jun 2027 15:39:18.236           128.233                Irkutsk         16029.125
       114   04 Jun 2027 15:41:26.476   04 Jun 2027 15:44:02.182           155.706                Sumatra         19463.250
       115   04 Jun 2027 15:47:20.963   04 Jun 2027 15:47:33.928            12.965                Sumatra          1620.625
       116   04 Jun 2027 17:04:59.387   04 Jun 2027 17:05:44.275            44.888                Novosib          5611.000
       117   04 Jun 2027 17:08:32.943   04 Jun 2027 17:11:48.299           195.356                Novosib         24419.500
       118   04 Jun 2027 17:12:43.799   04 Jun 2027 17:17:45.035           301.236                  Delhi         37654.500
       119   04 Jun 2027 20:16:53.954   04 Jun 2027 20:18:07.207            73.253                 Moscow          9156.625
       120   04 Jun 2027 21:52:45.120   04 Jun 2027 21:53:32.371            47.251                 Moscow          5906.375
       121   04 Jun 2027 22:17:19.490   04 Jun 2027 22:17:33.130            13.640               CapeTown           277.000
       122   05 Jun 2027 04:13:26.263   05 Jun 2027 04:13:26.352             0.089                Irkutsk            11.125
       123   05 Jun 2027 04:13:33.764   05 Jun 2027 04:13:56.718            22.954                 Moscow          2869.250
       124   05 Jun 2027 05:25:11.803   05 Jun 2027 05:26:35.282            83.479                Sumatra         10434.875
       125   05 Jun 2027 05:31:20.778   05 Jun 2027 05:33:51.191           150.413                  Delhi         18801.625
       126   05 Jun 2027 05:39:00.372   05 Jun 2027 05:42:51.195           230.823                  Delhi         28852.875
       127   05 Jun 2027 05:49:19.190   05 Jun 2027 05:50:00.878            41.688              Murmansk1          5211.000
       128   05 Jun 2027 05:50:01.018   05 Jun 2027 05:52:19.362           138.344                 Moscow         17293.000
       129   05 Jun 2027 05:52:26.372   05 Jun 2027 05:56:17.712           231.340              Murmansk2         28917.500
       130   05 Jun 2027 07:15:53.776   05 Jun 2027 07:16:40.823            47.047                 Moscow          5880.875
       131   05 Jun 2027 07:27:13.150   05 Jun 2027 07:28:38.149            84.999                 Moscow         10624.875
       132   05 Jun 2027 07:28:46.078   05 Jun 2027 07:32:07.629           201.551              Murmansk2         25193.875
       133   05 Jun 2027 08:31:29.744   05 Jun 2027 08:39:16.496           466.752               CapeTown         58344.000
       134   05 Jun 2027 08:58:26.915   05 Jun 2027 08:59:50.493            83.578              Murmansk1         10447.250
       135   05 Jun 2027 08:59:50.493   05 Jun 2027 09:01:45.188           114.695              Murmansk2         14336.875
       136   05 Jun 2027 09:02:16.579   05 Jun 2027 09:04:18.975           122.396                 Moscow         15299.500
       137   05 Jun 2027 09:04:41.902   05 Jun 2027 09:08:05.799           203.897              Murmansk2         25487.125
       138   05 Jun 2027 09:10:33.580   05 Jun 2027 09:18:33.388           479.808                Anadyr1         59976.000
       139   05 Jun 2027 10:12:43.219   05 Jun 2027 10:14:58.329           135.110               CapeTown         16888.750
       140   05 Jun 2027 10:45:50.776   05 Jun 2027 10:46:17.674            26.898                Anadyr2          3362.250
       141   05 Jun 2027 10:55:25.329   05 Jun 2027 10:55:47.125            21.796                Anadyr2          2724.500
       142   05 Jun 2027 12:24:11.361   05 Jun 2027 12:25:28.139            76.778               Magadan2          9597.250
       143   05 Jun 2027 12:29:15.175   05 Jun 2027 12:33:43.872           268.697               Magadan2         33587.125
       144   05 Jun 2027 14:52:32.061   05 Jun 2027 14:57:04.128           272.067            RioGallegos         34008.375
       145   05 Jun 2027 15:47:33.604   05 Jun 2027 15:49:05.792            92.188                Irkutsk         11523.500
       146   05 Jun 2027 15:53:16.081   05 Jun 2027 15:56:14.154           178.073                Sumatra         22259.125
       147   05 Jun 2027 17:15:22.685   05 Jun 2027 17:18:02.008           159.323                Novosib         19915.375
       148   05 Jun 2027 17:23:00.554   05 Jun 2027 17:29:00.185           359.631                  Delhi         44953.875
       149   05 Jun 2027 20:28:51.877   05 Jun 2027 20:29:47.986            56.109                 Moscow          7013.625
       150   05 Jun 2027 22:06:38.493   05 Jun 2027 22:07:11.193            32.700              Murmansk1           362.625
       151   06 Jun 2027 05:38:31.771   06 Jun 2027 05:40:23.287           111.516                Sumatra         13939.500
       152   06 Jun 2027 05:43:23.077   06 Jun 2027 05:44:46.340            83.263                  Delhi         10407.875
       153   06 Jun 2027 05:51:10.928   06 Jun 2027 05:52:47.082            96.154                  Delhi         12019.250
       154   06 Jun 2027 06:01:11.572   06 Jun 2027 06:02:47.274            95.702                Novosib         11962.750
       155   06 Jun 2027 06:03:10.552   06 Jun 2027 06:04:25.424            74.872                 Moscow          9359.000
       156   06 Jun 2027 06:04:45.690   06 Jun 2027 06:08:17.360           211.670              Murmansk1         26458.750
       157   06 Jun 2027 07:27:49.265   06 Jun 2027 07:29:34.674           105.409                 Moscow         13176.125
       158   06 Jun 2027 07:38:51.776   06 Jun 2027 07:40:40.123           108.347                 Moscow         13543.375
       159   06 Jun 2027 07:40:41.954   06 Jun 2027 07:44:09.125           207.171              Murmansk2         25896.375
       160   06 Jun 2027 08:42:49.977   06 Jun 2027 08:52:10.523           560.546               CapeTown         70068.250
       161   06 Jun 2027 09:06:59.438   06 Jun 2027 09:07:13.989            14.551                 Moscow          1818.875
       162   06 Jun 2027 09:10:31.609   06 Jun 2027 09:14:32.386           240.777              Murmansk1         30097.125
       163   06 Jun 2027 09:14:32.386   06 Jun 2027 09:19:01.625           269.239              Murmansk2         33654.875
       164   06 Jun 2027 09:20:04.172   06 Jun 2027 09:20:07.282             3.110              Murmansk1           388.750
       165   06 Jun 2027 09:22:24.875   06 Jun 2027 09:31:14.295           529.420                Anadyr2         66177.500
       166   06 Jun 2027 10:20:14.064   06 Jun 2027 10:20:23.430             9.366               CapeTown          1170.750
       167   06 Jun 2027 10:57:50.878   06 Jun 2027 10:58:11.503            20.625                Anadyr2          2578.125
       168   06 Jun 2027 11:00:40.309   06 Jun 2027 11:00:43.987             3.678                Anadyr1           459.750
       169   06 Jun 2027 12:36:08.958   06 Jun 2027 12:37:07.240            58.282               Magadan2          7285.250
       170   06 Jun 2027 12:38:30.492   06 Jun 2027 12:41:08.598           158.106               Magadan2         19763.250
       171   06 Jun 2027 14:11:56.637   06 Jun 2027 14:12:30.570            33.933               Magadan2          4241.625
       172   06 Jun 2027 14:16:40.684   06 Jun 2027 14:17:07.938            27.254               Magadan2          3406.750
       173   06 Jun 2027 14:18:48.379   06 Jun 2027 14:18:55.400             7.021               Magadan1           877.625
       174   06 Jun 2027 14:19:58.297   06 Jun 2027 14:21:32.677            94.380               Magadan2         11797.500
       175   06 Jun 2027 15:03:48.479   06 Jun 2027 15:05:38.009           109.530            RioGallegos         13691.250
       176   06 Jun 2027 15:51:30.618   06 Jun 2027 15:52:58.670            88.052                Irkutsk         11006.500
       177   06 Jun 2027 15:54:10.676   06 Jun 2027 15:56:37.003           146.327                Irkutsk         18290.875
       178   06 Jun 2027 16:00:38.470   06 Jun 2027 16:01:02.994            24.524                Irkutsk          3065.500
       179   06 Jun 2027 16:05:11.517   06 Jun 2027 16:08:20.102           188.585                Sumatra         23573.125
       180   06 Jun 2027 17:28:58.559   06 Jun 2027 17:30:16.099            77.540                Novosib          9692.500
       181   06 Jun 2027 17:34:49.802   06 Jun 2027 17:40:29.024           339.222                  Delhi         42402.750
       182   06 Jun 2027 20:40:50.756   06 Jun 2027 20:41:33.876            43.120                 Moscow          5390.000
       183   06 Jun 2027 20:43:48.293   06 Jun 2027 20:45:46.007           117.714                 Moscow         11816.000
       184   07 Jun 2027 04:11:11.330   07 Jun 2027 04:13:58.311           166.981                Sumatra         20872.625
       185   07 Jun 2027 04:36:56.029   07 Jun 2027 04:37:10.811            14.782                Norilsk          1847.750
       186   07 Jun 2027 04:37:44.870   07 Jun 2027 04:41:52.462           247.592              Murmansk1         30949.000
       187   07 Jun 2027 05:55:30.880   07 Jun 2027 05:57:51.007           140.127                  Delhi         17515.875
       188   07 Jun 2027 05:58:29.802   07 Jun 2027 06:01:14.068           164.266                  Delhi         20533.250
       189   07 Jun 2027 06:13:29.310   07 Jun 2027 06:16:30.895           181.585                 Moscow         22698.125
       190   07 Jun 2027 06:16:32.795   07 Jun 2027 06:20:17.349           224.554              Murmansk2         28069.250
       191   07 Jun 2027 07:49:44.416   07 Jun 2027 07:52:41.537           177.121                 Moscow         22140.125
       192   07 Jun 2027 07:53:03.847   07 Jun 2027 07:56:10.713           186.866              Murmansk2         23358.250
       193   07 Jun 2027 08:54:45.037   07 Jun 2027 09:04:50.436           605.399               CapeTown         75674.875
       194   07 Jun 2027 09:19:18.248   07 Jun 2027 09:19:47.549            29.301                 Moscow          3662.625
       195   07 Jun 2027 09:22:33.066   07 Jun 2027 09:24:20.348           107.282              Murmansk2         13410.250
       196   07 Jun 2027 09:24:20.890   07 Jun 2027 09:26:31.950           131.060                 Moscow         16382.500
       197   07 Jun 2027 09:27:16.504   07 Jun 2027 09:30:52.004           215.500              Murmansk2         26937.500
       198   07 Jun 2027 09:32:05.797   07 Jun 2027 09:32:08.604             2.807              Murmansk1           350.875
       199   07 Jun 2027 09:34:18.550   07 Jun 2027 09:41:36.750           438.200                Anadyr1         54775.000
       200   07 Jun 2027 11:15:58.629   07 Jun 2027 11:16:38.799            40.170                Anadyr2          5021.250
       201   07 Jun 2027 11:18:16.812   07 Jun 2027 11:19:26.400            69.588                Anadyr2          8698.500
       202   07 Jun 2027 12:48:07.413   07 Jun 2027 12:48:52.413            45.000               Magadan1          5625.000
       203   07 Jun 2027 12:49:34.897   07 Jun 2027 12:50:49.541            74.644               Magadan2          9330.500
       204   07 Jun 2027 12:51:50.269   07 Jun 2027 12:53:03.686            73.417               Magadan2          9177.125
       205   07 Jun 2027 14:23:58.591   07 Jun 2027 14:24:54.291            55.700               Magadan1          6962.500
       206   07 Jun 2027 14:33:34.178   07 Jun 2027 14:34:23.354            49.176               Magadan1          6147.000
       207   07 Jun 2027 15:15:42.522   07 Jun 2027 15:17:52.021           129.499            RioGallegos         16187.375
       208   07 Jun 2027 15:23:33.698   07 Jun 2027 15:25:13.549            99.851            RioGallegos         12481.375
       209   07 Jun 2027 16:03:28.080   07 Jun 2027 16:04:34.729            66.649                Irkutsk          8331.125
       210   07 Jun 2027 16:10:15.788   07 Jun 2027 16:11:22.804            67.016                Irkutsk          8377.000
       211   07 Jun 2027 16:17:12.547   07 Jun 2027 16:19:29.092           136.545                Sumatra         17068.125
       212   07 Jun 2027 17:42:26.796   07 Jun 2027 17:44:14.437           107.641                Novosib         13455.125
       213   07 Jun 2027 17:46:43.123   07 Jun 2027 17:49:56.281           193.158                  Delhi         24144.750
       214   07 Jun 2027 19:23:47.304   07 Jun 2027 19:24:39.942            52.638                  Delhi          6579.750
       215   07 Jun 2027 20:50:27.992   07 Jun 2027 20:50:35.127             7.135              Murmansk1           891.875
       216   07 Jun 2027 20:52:50.463   07 Jun 2027 20:56:03.731           193.268                 Moscow         24158.500
       217   08 Jun 2027 02:50:33.613   08 Jun 2027 02:51:08.755            35.142                Sumatra          4392.750
       218   08 Jun 2027 03:13:37.430   08 Jun 2027 03:17:40.359           242.929              Murmansk1         30366.125
       219   08 Jun 2027 04:23:15.172   08 Jun 2027 04:25:04.808           109.636                Sumatra         13704.500
       220   08 Jun 2027 04:26:18.471   08 Jun 2027 04:28:10.012           111.541                Sumatra         13942.625
       221   08 Jun 2027 04:48:18.183   08 Jun 2027 04:49:10.735            52.552                Irkutsk          6569.000
       222   08 Jun 2027 04:49:35.127   08 Jun 2027 04:49:45.988            10.861              Murmansk1          1357.625
       223   08 Jun 2027 04:49:52.654   08 Jun 2027 04:51:11.003            78.349                Novosib          9793.625
       224   08 Jun 2027 04:51:16.700   08 Jun 2027 04:51:50.230            33.530                 Moscow          4191.250
       225   08 Jun 2027 04:52:10.888   08 Jun 2027 04:56:40.840           269.952              Murmansk1         33744.000
       226   08 Jun 2027 06:15:21.413   08 Jun 2027 06:19:48.659           267.246                  Delhi         33405.750
       227   08 Jun 2027 06:25:28.735   08 Jun 2027 06:25:53.483            24.748              Murmansk1          3093.500
       228   08 Jun 2027 06:26:41.293   08 Jun 2027 06:28:35.828           114.535                 Moscow         14316.875
       229   08 Jun 2027 06:29:27.306   08 Jun 2027 06:32:17.644           170.338              Murmansk2         21292.250
       230   08 Jun 2027 07:55:07.248   08 Jun 2027 07:55:21.621            14.373                 Moscow          1796.625
       231   08 Jun 2027 07:56:10.033   08 Jun 2027 07:57:37.343            87.310                 Moscow         10913.750
       232   08 Jun 2027 08:00:29.744   08 Jun 2027 08:04:42.332           252.588                 Moscow         31573.500
       233   08 Jun 2027 08:04:51.311   08 Jun 2027 08:08:12.381           201.070              Murmansk2         25133.750
       234   08 Jun 2027 09:09:20.010   08 Jun 2027 09:17:20.515           480.505               CapeTown         60063.125
       235   08 Jun 2027 09:34:34.349   08 Jun 2027 09:35:43.053            68.704              Murmansk1          8588.000
       236   08 Jun 2027 09:35:58.811   08 Jun 2027 09:39:57.371           238.560                 Moscow         29820.000
       237   08 Jun 2027 09:40:09.554   08 Jun 2027 09:43:14.909           185.355              Murmansk1         23169.375
       238   08 Jun 2027 09:44:07.468   08 Jun 2027 09:44:09.718             2.250              Murmansk2           281.250
       239   08 Jun 2027 09:46:13.945   08 Jun 2027 09:55:01.743           527.798                Anadyr1         65974.750
       240   08 Jun 2027 11:25:18.892   08 Jun 2027 11:25:37.880            18.988               Magadan2          2373.500
       241   08 Jun 2027 13:00:06.585   08 Jun 2027 13:00:41.490            34.905               Magadan2          4363.125
       242   08 Jun 2027 13:02:58.508   08 Jun 2027 13:05:00.092           121.584               Magadan1         15198.000
       243   08 Jun 2027 13:06:56.239   08 Jun 2027 13:10:26.642           210.403               Magadan2         26300.375
       244   08 Jun 2027 14:56:09.506   08 Jun 2027 14:57:39.125            89.619                Sumatra         11202.375
       245   08 Jun 2027 15:27:38.320   08 Jun 2027 15:29:12.666            94.346            RioGallegos         11793.250
       246   08 Jun 2027 16:18:07.531   08 Jun 2027 16:18:35.019            27.488                Irkutsk          3436.000
       247   08 Jun 2027 16:29:19.251   08 Jun 2027 16:32:15.107           175.856                Sumatra         21982.000
       248   08 Jun 2027 16:37:01.525   08 Jun 2027 16:39:03.439           121.914                Sumatra         15239.250
       249   08 Jun 2027 17:51:19.744   08 Jun 2027 17:51:50.669            30.925                Novosib          3865.625
       250   08 Jun 2027 17:54:34.275   08 Jun 2027 17:55:37.773            63.498                Novosib          7937.250
       251   08 Jun 2027 17:58:40.071   08 Jun 2027 18:00:52.412           132.341                  Delhi         16542.625
       252   08 Jun 2027 21:03:44.211   08 Jun 2027 21:03:46.525             2.314              Murmansk2           289.250
       253   08 Jun 2027 21:04:50.899   08 Jun 2027 21:06:33.284           102.385                 Moscow         12798.125
       254   08 Jun 2027 21:08:08.781   08 Jun 2027 21:08:10.939             2.158                 Moscow           269.750
       255   08 Jun 2027 21:30:38.376   08 Jun 2027 21:31:57.443            79.067               CapeTown          9883.375
       256   08 Jun 2027 21:38:09.894   08 Jun 2027 21:38:21.398            11.504               CapeTown          1438.000
       257   08 Jun 2027 21:39:50.151   08 Jun 2027 21:40:42.275            52.124               CapeTown          6515.500
       258   09 Jun 2027 03:01:40.405   09 Jun 2027 03:04:18.563           158.158                Sumatra          9306.374
       259   09 Jun 2027 03:25:32.994   09 Jun 2027 03:26:05.468            32.474              Murmansk1          4059.250
       260   09 Jun 2027 03:26:19.191   09 Jun 2027 03:27:20.363            61.172                Norilsk          7646.500
       261   09 Jun 2027 04:35:24.846   09 Jun 2027 04:36:26.859            62.013                Sumatra          7751.625
       262   09 Jun 2027 04:38:15.090   09 Jun 2027 04:40:01.938           106.848                Sumatra         13356.000
       263   09 Jun 2027 05:01:21.694   09 Jun 2027 05:04:01.869           160.175                 Moscow         20021.875
       264   09 Jun 2027 05:04:05.781   09 Jun 2027 05:08:38.215           272.434              Murmansk2         34054.250
       265   09 Jun 2027 06:29:30.384   09 Jun 2027 06:32:56.112           205.728                Novosib         25716.000
       266   09 Jun 2027 06:37:21.872   09 Jun 2027 06:40:40.262           198.390                 Moscow         24798.750
       267   09 Jun 2027 06:41:05.755   09 Jun 2027 06:44:18.217           192.462              Murmansk2         24057.750
       268   09 Jun 2027 08:03:52.686   09 Jun 2027 08:04:20.526            27.840                 Moscow          3480.000
       269   09 Jun 2027 08:07:07.910   09 Jun 2027 08:08:37.925            90.015                 Moscow         11251.875
       270   09 Jun 2027 08:11:52.194   09 Jun 2027 08:16:42.437           290.243                 Moscow         36280.375
       271   09 Jun 2027 08:16:45.041   09 Jun 2027 08:20:14.096           209.055              Murmansk1         26131.875
       272   09 Jun 2027 08:25:01.944   09 Jun 2027 08:26:02.232            60.288                Anadyr2          7536.000
       273   09 Jun 2027 09:22:36.255   09 Jun 2027 09:29:42.878           426.623               CapeTown         53327.875
       274   09 Jun 2027 09:48:00.438   09 Jun 2027 09:48:30.538            30.100                 Moscow          3762.500
       275   09 Jun 2027 09:51:19.702   09 Jun 2027 09:54:52.411           212.709              Murmansk2         26588.625
       276   09 Jun 2027 09:56:09.150   09 Jun 2027 09:56:10.563             1.413              Murmansk1           176.625
       277   09 Jun 2027 09:58:10.651   09 Jun 2027 10:02:56.652           286.001                Anadyr2         35750.125
       278   09 Jun 2027 11:40:07.057   09 Jun 2027 11:42:51.814           164.757               Magadan2         20594.625
       279   09 Jun 2027 13:12:06.362   09 Jun 2027 13:15:11.974           185.612               Magadan1         23201.500
       280   09 Jun 2027 13:19:16.782   09 Jun 2027 13:21:41.059           144.277               Magadan1         18034.625
       281   09 Jun 2027 15:07:04.201   09 Jun 2027 15:11:16.432           252.231                Sumatra         31528.875
       282   09 Jun 2027 15:15:11.542   09 Jun 2027 15:16:02.397            50.855                Sumatra          6356.875
       283   09 Jun 2027 16:42:16.568   09 Jun 2027 16:44:54.842           158.274                  Delhi         19784.250
       284   09 Jun 2027 18:10:40.378   09 Jun 2027 18:12:11.568            91.190                  Delhi         11398.750
       285   09 Jun 2027 18:13:52.604   09 Jun 2027 18:15:39.093           106.489                  Delhi         13311.125
       286   09 Jun 2027 19:44:47.248   09 Jun 2027 19:46:46.625           119.377                 Moscow         14922.125
       287   09 Jun 2027 21:40:48.203   09 Jun 2027 21:42:09.422            81.219               CapeTown         10152.375
       288   09 Jun 2027 21:43:11.928   09 Jun 2027 21:43:56.459            44.531               CapeTown          5566.375
       289   09 Jun 2027 21:46:42.283   09 Jun 2027 21:48:38.824           116.541               CapeTown         14172.125
       290   10 Jun 2027 03:37:50.561   10 Jun 2027 03:39:10.366            79.805                Novosib          9975.625
       291   10 Jun 2027 03:39:10.941   10 Jun 2027 03:39:22.555            11.614              Murmansk2          1451.750
       292   10 Jun 2027 04:47:40.988   10 Jun 2027 04:47:59.396            18.408                Sumatra          2301.000
       293   10 Jun 2027 04:49:42.741   10 Jun 2027 04:51:59.557           136.816                Sumatra         17102.000
       294   10 Jun 2027 05:02:43.627   10 Jun 2027 05:05:23.691           160.064                  Delhi         20008.000
       295   10 Jun 2027 05:13:11.763   10 Jun 2027 05:14:11.899            60.136              Murmansk2          7517.000
       296   10 Jun 2027 05:14:12.459   10 Jun 2027 05:15:11.620            59.161                Novosib          7395.125
       297   10 Jun 2027 05:15:21.907   10 Jun 2027 05:16:11.694            49.787                 Moscow          6223.375
       298   10 Jun 2027 05:16:52.618   10 Jun 2027 05:20:36.129           223.511              Murmansk1         27938.875
       299   10 Jun 2027 06:39:18.616   10 Jun 2027 06:41:06.822           108.206                  Delhi         13525.750
       300   10 Jun 2027 06:41:30.043   10 Jun 2027 06:44:39.831           189.788                Novosib         23723.500
       301   10 Jun 2027 06:49:24.082   10 Jun 2027 06:50:04.763            40.681              Murmansk1          5085.125
       302   10 Jun 2027 06:50:08.348   10 Jun 2027 06:52:44.211           155.863                 Moscow         19482.875
       303   10 Jun 2027 06:53:01.599   10 Jun 2027 06:56:19.033           197.434              Murmansk1         24679.250
       304   10 Jun 2027 08:19:07.872   10 Jun 2027 08:20:35.879            88.007                 Moscow         11000.875
       305   10 Jun 2027 08:22:39.947   10 Jun 2027 08:24:02.296            82.349              Murmansk2         10293.625
       306   10 Jun 2027 08:24:02.296   10 Jun 2027 08:26:13.013           130.717              Murmansk1         16339.625
       307   10 Jun 2027 08:26:15.911   10 Jun 2027 08:28:41.776           145.865                 Moscow         18233.125
       308   10 Jun 2027 08:28:46.976   10 Jun 2027 08:32:15.830           208.854              Murmansk1         26106.750
       309   10 Jun 2027 08:35:46.635   10 Jun 2027 08:38:24.479           157.844                Anadyr1         19730.500
       310   10 Jun 2027 11:58:10.019   10 Jun 2027 11:59:02.681            52.662               Magadan2          6582.750
       311   10 Jun 2027 13:24:06.654   10 Jun 2027 13:25:30.697            84.043               Magadan2         10505.375
       312   10 Jun 2027 13:28:48.818   10 Jun 2027 13:28:55.894             7.076               Magadan2           884.500
       313   10 Jun 2027 13:31:16.251   10 Jun 2027 13:33:41.713           145.462               Magadan2         18182.750
       314   10 Jun 2027 15:05:51.334   10 Jun 2027 15:08:20.706           149.372                Irkutsk         18671.500
       315   10 Jun 2027 15:19:31.809   10 Jun 2027 15:25:49.083           377.274                Sumatra         47159.250
       316   10 Jun 2027 16:43:10.698   10 Jun 2027 16:43:33.113            22.415                Novosib          2801.875
       317   10 Jun 2027 16:44:33.708   10 Jun 2027 16:45:12.361            38.653                Novosib          4831.625
       318   10 Jun 2027 16:48:22.139   10 Jun 2027 16:49:32.715            70.576                  Delhi          8822.000
       319   10 Jun 2027 16:52:33.148   10 Jun 2027 16:57:32.062           298.914                  Delhi         37364.250
       320   10 Jun 2027 19:56:12.909   10 Jun 2027 19:58:10.157           117.248                 Moscow         14656.000
       321   10 Jun 2027 21:39:52.432   10 Jun 2027 21:41:10.831            78.399                 Moscow          9799.875
       322   10 Jun 2027 21:55:52.560   10 Jun 2027 21:57:33.091           100.531               CapeTown          4004.001
       323   11 Jun 2027 05:01:34.591   11 Jun 2027 05:04:02.766           148.175                Sumatra         18521.875
       324   11 Jun 2027 05:25:30.457   11 Jun 2027 05:27:10.781           100.324                Novosib         12540.500
       325   11 Jun 2027 05:27:20.924   11 Jun 2027 05:28:20.212            59.288                 Moscow          7411.000
       326   11 Jun 2027 05:28:46.624   11 Jun 2027 05:32:34.537           227.913              Murmansk2         28489.125
       327   11 Jun 2027 06:51:11.925   11 Jun 2027 06:54:43.477           211.552                  Delhi         26444.000
       328   11 Jun 2027 06:55:10.449   11 Jun 2027 06:57:06.315           115.866                 Moscow         14483.250
       329   11 Jun 2027 07:01:43.251   11 Jun 2027 07:02:10.726            27.475              Murmansk2          3434.375
       330   11 Jun 2027 07:02:14.020   11 Jun 2027 07:04:34.088           140.068                Norilsk         17508.500
       331   11 Jun 2027 07:05:13.046   11 Jun 2027 07:08:20.061           187.015              Murmansk2         23376.875
       332   11 Jun 2027 08:31:07.370   11 Jun 2027 08:32:36.667            89.297                 Moscow         11162.125
       333   11 Jun 2027 08:34:41.679   11 Jun 2027 08:36:41.776           120.097              Murmansk1         15012.125
       334   11 Jun 2027 08:36:48.956   11 Jun 2027 08:40:40.232           231.276                 Moscow         28909.500
       335   11 Jun 2027 08:40:53.544   11 Jun 2027 08:44:17.551           204.007              Murmansk1         25500.875
       336   11 Jun 2027 08:47:18.051   11 Jun 2027 08:53:03.476           345.425                Anadyr2         43178.125
       337   11 Jun 2027 12:00:34.385   11 Jun 2027 12:01:34.308            59.923               Magadan1          7490.375
       338   11 Jun 2027 12:06:49.184   11 Jun 2027 12:08:16.485            87.301               Magadan2         10912.625
       339   11 Jun 2027 13:36:07.390   11 Jun 2027 13:37:57.899           110.509               Magadan2         13813.625
       340   11 Jun 2027 13:40:54.965   11 Jun 2027 13:41:30.513            35.548               Magadan2          4443.500
       341   11 Jun 2027 13:44:29.187   11 Jun 2027 13:47:51.308           202.121               Magadan1         25265.125
       342   11 Jun 2027 15:19:57.798   11 Jun 2027 15:21:34.273            96.475                Irkutsk         12059.375
       343   11 Jun 2027 15:31:58.827   11 Jun 2027 15:36:36.458           277.631                Sumatra         34703.875
       344   11 Jun 2027 16:56:48.038   11 Jun 2027 16:56:58.212            10.174                Novosib          1271.750
       345   11 Jun 2027 16:58:51.618   11 Jun 2027 17:00:29.165            97.547                Novosib         12193.375
       346   11 Jun 2027 18:27:23.336   11 Jun 2027 18:29:11.198           107.862                Novosib         13482.750
       347   11 Jun 2027 18:34:50.931   11 Jun 2027 18:35:21.952            31.021                  Delhi          3877.625
       348   11 Jun 2027 18:36:56.020   11 Jun 2027 18:37:40.158            44.138                  Delhi          5517.250
       349   11 Jun 2027 18:44:33.572   11 Jun 2027 18:44:44.143            10.571                  Delhi          1321.375
       350   11 Jun 2027 18:46:51.999   11 Jun 2027 18:47:03.615            11.616                  Delhi          1452.000
       351   11 Jun 2027 20:07:04.399   11 Jun 2027 20:10:20.324           195.925                 Moscow         24490.625
       352   11 Jun 2027 21:47:39.432   11 Jun 2027 21:48:56.648            77.216                 Moscow          9652.000
       353   11 Jun 2027 22:05:13.227   11 Jun 2027 22:05:22.069             8.842               CapeTown          1105.250
       354   11 Jun 2027 22:07:43.082   11 Jun 2027 22:09:31.909           108.827               CapeTown          1658.250
       355   12 Jun 2027 04:01:29.922   12 Jun 2027 04:02:03.223            33.301                Norilsk          4162.625
       356   12 Jun 2027 05:12:38.792   12 Jun 2027 05:14:18.596            99.804                Sumatra         12475.500
       357   12 Jun 2027 05:24:11.856   12 Jun 2027 05:25:10.921            59.065                  Delhi          7383.125
       358   12 Jun 2027 05:27:00.761   12 Jun 2027 05:29:10.416           129.655                  Delhi         16206.875
       359   12 Jun 2027 05:37:10.960   12 Jun 2027 05:38:02.137            51.177              Murmansk2          6397.125
       360   12 Jun 2027 05:38:04.906   12 Jun 2027 05:39:09.039            64.133                Novosib          8016.625
       361   12 Jun 2027 05:39:30.183   12 Jun 2027 05:40:27.738            57.555                 Moscow          7194.375
       362   12 Jun 2027 05:40:39.533   12 Jun 2027 05:44:33.399           233.866              Murmansk1         29233.250
       363   12 Jun 2027 07:07:13.832   12 Jun 2027 07:08:08.317            54.485                 Moscow          6810.625
       364   12 Jun 2027 07:08:13.697   12 Jun 2027 07:08:28.139            14.442                Novosib          1805.250
       365   12 Jun 2027 07:14:36.958   12 Jun 2027 07:16:50.683           133.725                 Moscow         16715.625
       366   12 Jun 2027 07:17:00.425   12 Jun 2027 07:20:21.279           200.854              Murmansk1         25106.750
       367   12 Jun 2027 08:20:46.113   12 Jun 2027 08:26:13.817           327.704               CapeTown         40963.000
       368   12 Jun 2027 08:43:05.301   12 Jun 2027 08:43:34.739            29.438                 Moscow          3679.750
       369   12 Jun 2027 08:46:43.394   12 Jun 2027 08:50:05.614           202.220              Murmansk2         25277.500
       370   12 Jun 2027 08:50:11.670   12 Jun 2027 08:50:40.272            28.602                 Moscow          3575.250
       371   12 Jun 2027 08:51:26.277   12 Jun 2027 08:56:19.228           292.951              Murmansk1         36618.875
       372   12 Jun 2027 08:59:00.408   12 Jun 2027 09:03:35.511           275.103                Anadyr2         34387.875
       373   12 Jun 2027 10:43:27.390   12 Jun 2027 10:43:40.277            12.887                Anadyr2          1610.875
       374   12 Jun 2027 12:12:29.691   12 Jun 2027 12:17:38.567           308.876               Magadan2         38609.500
       375   12 Jun 2027 12:20:48.387   12 Jun 2027 12:21:11.264            22.877               Magadan1          2859.625
       376   12 Jun 2027 14:42:52.576   12 Jun 2027 14:44:02.858            70.282            RioGallegos          8785.250
       377   12 Jun 2027 15:29:45.632   12 Jun 2027 15:30:52.838            67.206                Irkutsk          8400.750
       378   12 Jun 2027 15:37:24.873   12 Jun 2027 15:39:32.219           127.346                Irkutsk         15918.250
       379   12 Jun 2027 15:44:17.479   12 Jun 2027 15:47:48.053           210.574                Sumatra         26321.750
       380   12 Jun 2027 17:04:57.876   12 Jun 2027 17:05:11.606            13.730                Novosib          1716.250
       381   12 Jun 2027 17:08:47.601   12 Jun 2027 17:12:03.897           196.296                Novosib         24537.000
       382   12 Jun 2027 17:12:59.443   12 Jun 2027 17:17:58.914           299.471                  Delhi         37433.875
       383   12 Jun 2027 20:17:08.876   12 Jun 2027 20:18:21.587            72.711                 Moscow          9088.875
       384   12 Jun 2027 20:23:21.808   12 Jun 2027 20:26:11.209           169.401                 Moscow          7591.000
       385   13 Jun 2027 04:13:40.996   13 Jun 2027 04:13:41.283             0.287                Irkutsk            35.875
       386   13 Jun 2027 04:13:48.735   13 Jun 2027 04:13:58.631             9.896                 Moscow          1237.000
       387   13 Jun 2027 05:25:28.051   13 Jun 2027 05:26:49.031            80.980                Sumatra         10122.500
       388   13 Jun 2027 05:31:35.753   13 Jun 2027 05:34:05.223           149.470                  Delhi         18683.750
       389   13 Jun 2027 05:39:15.406   13 Jun 2027 05:41:11.745           116.339                  Delhi         14542.375
       390   13 Jun 2027 05:49:37.350   13 Jun 2027 05:50:18.198            40.848              Murmansk1          5106.000
       391   13 Jun 2027 05:50:36.817   13 Jun 2027 05:52:34.467           117.650                 Moscow         14706.250
       392   13 Jun 2027 05:52:40.928   13 Jun 2027 05:56:32.678           231.750              Murmansk2         28968.750
       393   13 Jun 2027 07:16:08.640   13 Jun 2027 07:16:55.284            46.644                 Moscow          5830.500
       394   13 Jun 2027 07:27:28.960   13 Jun 2027 07:28:53.175            84.215                 Moscow         10526.875
       395   13 Jun 2027 07:29:01.091   13 Jun 2027 07:32:22.643           201.552              Murmansk2         25194.000
       396   13 Jun 2027 08:31:43.702   13 Jun 2027 08:39:32.815           469.113               CapeTown         58639.125
       397   13 Jun 2027 08:55:02.500   13 Jun 2027 08:55:12.426             9.926                 Moscow          1240.750
       398   13 Jun 2027 08:58:41.645   13 Jun 2027 09:00:15.746            94.101              Murmansk1         11762.625
       399   13 Jun 2027 09:00:15.746   13 Jun 2027 09:02:00.093           104.347              Murmansk2         13043.375
       400   13 Jun 2027 09:02:31.101   13 Jun 2027 09:04:33.878           122.777                 Moscow         15347.125
       401   13 Jun 2027 09:04:56.655   13 Jun 2027 09:08:20.823           204.168              Murmansk2         25521.000
       402   13 Jun 2027 09:10:48.323   13 Jun 2027 09:18:49.304           480.981                Anadyr1         60122.625
       403   13 Jun 2027 10:12:58.359   13 Jun 2027 10:18:13.485           315.126               CapeTown         39390.750
       404   13 Jun 2027 10:46:05.749   13 Jun 2027 10:46:32.275            26.526                Anadyr1          3315.750
       405   13 Jun 2027 10:55:27.145   13 Jun 2027 10:56:01.749            34.604                Anadyr1          4325.500
       406   13 Jun 2027 12:24:26.275   13 Jun 2027 12:29:29.861           303.586               Magadan2         37948.250
       407   13 Jun 2027 12:32:26.464   13 Jun 2027 12:34:59.828           153.364               Magadan2         19170.500
       408   13 Jun 2027 14:56:01.538   13 Jun 2027 14:57:32.754            91.216            RioGallegos         11402.000
       409   13 Jun 2027 15:53:30.909   13 Jun 2027 15:58:51.831           320.922                Sumatra         40115.250
       410   13 Jun 2027 17:15:37.613   13 Jun 2027 17:18:17.325           159.712                Novosib         19964.000
       411   13 Jun 2027 17:23:15.260   13 Jun 2027 17:29:14.376           359.116                  Delhi         44889.500
       412   13 Jun 2027 20:29:06.827   13 Jun 2027 20:30:02.458            55.631                 Moscow          3533.500
