uniorb/output/strategy_4/Drop/Drop_KinoSat_111106.txt

KinoSat_111106
-------------------------
    Access    *     Start Time (UTCG)     *     Stop Time (UTCG)  *   Duration (s)        *       Station  *  Data (Mbytes)
         1   01 Jun 2027 03:28:45.893   01 Jun 2027 03:29:04.518            18.625              Murmansk2           582.031
         2   01 Jun 2027 03:29:04.518   01 Jun 2027 03:29:41.953            37.435              Murmansk1          1169.844
         3   01 Jun 2027 03:30:09.461   01 Jun 2027 03:30:47.189            37.728              Murmansk2          1179.000
         4   01 Jun 2027 04:50:35.429   01 Jun 2027 04:51:02.895            27.466                Anadyr1           858.313
         5   01 Jun 2027 04:51:20.420   01 Jun 2027 04:53:08.487           108.067                Anadyr2          3377.094
         6   01 Jun 2027 04:56:21.434   01 Jun 2027 04:56:34.675            13.241                Anadyr2           413.781
         7   01 Jun 2027 06:27:44.772   01 Jun 2027 06:30:08.554           143.782               Magadan2          4493.187
         8   01 Jun 2027 06:30:34.197   01 Jun 2027 06:30:51.988            17.791               Magadan1           555.969
         9   01 Jun 2027 06:31:31.589   01 Jun 2027 06:32:07.888            36.299                Anadyr1          1134.344
        10   01 Jun 2027 08:02:35.732   01 Jun 2027 08:07:20.660           284.928               Magadan1          8904.000
        11   01 Jun 2027 08:42:35.534   01 Jun 2027 08:42:35.904             0.370            RioGallegos            11.562
        12   01 Jun 2027 08:44:05.590   01 Jun 2027 08:45:01.435            55.845            RioGallegos          1745.156
        13   01 Jun 2027 09:17:57.314   01 Jun 2027 09:19:10.375            73.061                Sumatra          2283.156
        14   01 Jun 2027 09:40:05.194   01 Jun 2027 09:43:51.649           226.455                Irkutsk          7076.719
        15   01 Jun 2027 10:54:45.068   01 Jun 2027 10:55:14.296            29.228                Sumatra           913.375
        16   01 Jun 2027 10:59:34.814   01 Jun 2027 10:59:42.082             7.268                Sumatra           227.125
        17   01 Jun 2027 11:17:53.921   01 Jun 2027 11:18:19.147            25.226                Irkutsk           788.312
        18   01 Jun 2027 11:18:23.034   01 Jun 2027 11:19:19.824            56.790              Murmansk2          1774.688
        19   01 Jun 2027 11:19:19.824   01 Jun 2027 11:20:43.384            83.560              Murmansk1          2611.250
        20   01 Jun 2027 11:21:42.168   01 Jun 2027 11:22:27.343            45.175                Norilsk          1411.719
        21   01 Jun 2027 12:40:08.320   01 Jun 2027 12:42:55.668           167.348                  Delhi          5229.625
        22   01 Jun 2027 12:44:37.495   01 Jun 2027 12:45:28.087            50.592                  Delhi          1581.000
        23   01 Jun 2027 12:47:54.073   01 Jun 2027 12:48:12.692            18.619                  Delhi           581.844
        24   01 Jun 2027 12:48:40.719   01 Jun 2027 12:51:39.537           178.818                Novosib          5588.063
        25   01 Jun 2027 12:51:46.819   01 Jun 2027 12:53:03.963            77.144                Norilsk          2410.750
        26   01 Jun 2027 14:02:57.263   01 Jun 2027 14:04:47.337           110.074               CapeTown          3439.812
        27   01 Jun 2027 14:06:12.046   01 Jun 2027 14:07:09.970            57.924               CapeTown          1810.125
        28   01 Jun 2027 14:22:30.907   01 Jun 2027 14:23:59.375            88.468                 Moscow          2764.625
        29   01 Jun 2027 14:25:58.555   01 Jun 2027 14:28:32.085           153.530              Murmansk1          4797.812
        30   01 Jun 2027 14:29:47.648   01 Jun 2027 14:30:26.102            38.454              Murmansk1          1201.688
        31   01 Jun 2027 14:41:08.313   01 Jun 2027 14:42:53.838           105.525                Anadyr1          3297.656
        32   01 Jun 2027 14:44:06.582   01 Jun 2027 14:44:28.466            21.884                Anadyr1           683.875
        33   01 Jun 2027 14:45:19.966   01 Jun 2027 14:45:28.082             8.116                Anadyr1           253.625
        34   01 Jun 2027 14:45:54.012   01 Jun 2027 14:46:41.680            47.668                Anadyr1          1489.625
        35   01 Jun 2027 15:35:34.486   01 Jun 2027 15:35:35.202             0.716               CapeTown            22.375
        36   01 Jun 2027 15:41:08.961   01 Jun 2027 15:41:29.679            20.718               CapeTown           647.438
        37   01 Jun 2027 16:03:05.816   01 Jun 2027 16:04:05.801            59.985                 Moscow          1874.531
        38   01 Jun 2027 16:04:22.898   01 Jun 2027 16:05:46.455            83.557              Murmansk1          2611.156
        39   01 Jun 2027 16:08:32.681   01 Jun 2027 16:08:50.650            17.969              Murmansk2           561.531
        40   01 Jun 2027 16:10:53.932   01 Jun 2027 16:12:16.275            82.343              Murmansk1          2573.219
        41   01 Jun 2027 16:16:13.837   01 Jun 2027 16:17:25.178            71.341                Anadyr2          2229.406
        42   01 Jun 2027 16:17:51.996   01 Jun 2027 16:18:15.271            23.275                Anadyr2           727.344
        43   01 Jun 2027 16:21:55.551   01 Jun 2027 16:23:22.993            87.442               Magadan1          2732.563
        44   01 Jun 2027 17:12:41.506   01 Jun 2027 17:13:35.409            53.903               CapeTown          1684.469
        45   01 Jun 2027 17:46:24.126   01 Jun 2027 17:48:41.255           137.129              Murmansk1          4285.281
        46   01 Jun 2027 17:52:04.663   01 Jun 2027 17:54:41.094           156.431                Anadyr2          4888.469
        47   01 Jun 2027 17:55:01.882   01 Jun 2027 17:57:11.989           130.107               Magadan1          4065.844
        48   01 Jun 2027 19:27:59.343   01 Jun 2027 19:32:03.530           244.187                Anadyr2          7630.844
        49   01 Jun 2027 19:32:03.781   01 Jun 2027 19:34:35.786           152.005               Magadan1          4750.156
        50   01 Jun 2027 19:37:14.181   01 Jun 2027 19:37:23.693             9.512               Magadan1           297.250
        51   01 Jun 2027 19:37:37.705   01 Jun 2027 19:37:58.886            21.181               Magadan1           661.906
        52   01 Jun 2027 19:40:59.554   01 Jun 2027 19:41:16.897            17.343               Magadan2           541.969
        53   01 Jun 2027 20:22:30.294   01 Jun 2027 20:25:58.854           208.560            RioGallegos          6517.500
        54   01 Jun 2027 21:03:36.493   01 Jun 2027 21:04:15.022            38.529                Anadyr2          1204.031
        55   01 Jun 2027 21:05:41.786   01 Jun 2027 21:05:47.807             6.021                Anadyr1           188.156
        56   01 Jun 2027 21:05:50.523   01 Jun 2027 21:09:43.844           233.321                Norilsk          7291.281
        57   01 Jun 2027 21:10:02.956   01 Jun 2027 21:10:38.774            35.818                Irkutsk          1119.312
        58   01 Jun 2027 21:11:13.581   01 Jun 2027 21:11:24.852            11.271                Irkutsk           352.219
        59   01 Jun 2027 21:11:52.624   01 Jun 2027 21:13:12.960            80.336                Irkutsk          2510.500
        60   01 Jun 2027 21:14:14.396   01 Jun 2027 21:16:05.912           111.516                Novosib          3484.875
        61   01 Jun 2027 21:24:46.097   01 Jun 2027 21:26:24.735            98.638                Sumatra          3082.438
        62   01 Jun 2027 22:39:11.550   01 Jun 2027 22:40:00.648            49.098                Anadyr2          1534.312
        63   01 Jun 2027 22:40:33.865   01 Jun 2027 22:41:05.384            31.519                Anadyr1           984.969
        64   01 Jun 2027 22:41:46.966   01 Jun 2027 22:43:04.374            77.408                Norilsk          2419.000
        65   01 Jun 2027 22:43:35.237   01 Jun 2027 22:44:18.312            43.075               Magadan1          1346.094
        66   01 Jun 2027 22:45:10.753   01 Jun 2027 22:45:54.952            44.199               Magadan2          1381.219
        67   01 Jun 2027 22:46:12.938   01 Jun 2027 22:46:40.818            27.880                Irkutsk           871.250
        68   01 Jun 2027 22:46:56.482   01 Jun 2027 22:47:53.954            57.472                Novosib          1796.000
        69   01 Jun 2027 22:49:04.336   01 Jun 2027 22:51:14.245           129.909                Novosib          4059.656
        70   01 Jun 2027 22:54:11.138   01 Jun 2027 22:55:06.054            54.916                  Delhi          1716.125
        71   01 Jun 2027 23:41:27.947   01 Jun 2027 23:41:38.374            10.427            RioGallegos           325.844
        72   01 Jun 2027 23:42:37.147   01 Jun 2027 23:42:54.412            17.265            RioGallegos           539.531
        73   02 Jun 2027 00:11:56.917   02 Jun 2027 00:13:22.260            85.343                Anadyr2          2666.969
        74   02 Jun 2027 00:13:40.449   02 Jun 2027 00:13:43.396             2.947                Anadyr1            92.094
        75   02 Jun 2027 00:14:02.063   02 Jun 2027 00:14:26.657            24.594                Anadyr1           768.563
        76   02 Jun 2027 00:14:46.272   02 Jun 2027 00:15:06.447            20.175                Anadyr1           630.469
        77   02 Jun 2027 00:17:46.333   02 Jun 2027 00:17:59.177            12.844                Norilsk           401.375
        78   02 Jun 2027 00:18:23.544   02 Jun 2027 00:20:55.607           152.063               Magadan1          4751.969
        79   02 Jun 2027 00:21:00.304   02 Jun 2027 00:21:32.575            32.271               Magadan2          1008.469
        80   02 Jun 2027 00:21:33.616   02 Jun 2027 00:22:04.210            30.594                Novosib           956.063
        81   02 Jun 2027 00:23:06.529   02 Jun 2027 00:23:21.418            14.889              Murmansk2           465.281
        82   02 Jun 2027 00:23:51.640   02 Jun 2027 00:24:18.497            26.857                Novosib           839.281
        83   02 Jun 2027 00:24:22.531   02 Jun 2027 00:25:01.175            38.644              Murmansk1          1207.625
        84   02 Jun 2027 00:25:08.057   02 Jun 2027 00:26:22.855            74.798                 Moscow          2337.438
        85   02 Jun 2027 00:29:49.847   02 Jun 2027 00:31:26.818            96.971                 Moscow          3030.344
        86   02 Jun 2027 01:45:20.686   02 Jun 2027 01:45:48.023            27.337                Anadyr1           854.281
        87   02 Jun 2027 01:45:48.023   02 Jun 2027 01:45:57.420             9.397                Anadyr2           293.656
        88   02 Jun 2027 01:46:21.509   02 Jun 2027 01:46:46.005            24.496                Anadyr2           765.500
        89   02 Jun 2027 01:47:00.136   02 Jun 2027 01:47:14.492            14.356                Anadyr2           448.625
        90   02 Jun 2027 01:47:42.173   02 Jun 2027 01:48:03.681            21.508                Anadyr2           672.125
        91   02 Jun 2027 01:48:26.248   02 Jun 2027 01:48:32.418             6.170                Anadyr2           192.813
        92   02 Jun 2027 01:50:29.837   02 Jun 2027 01:52:06.622            96.785               Magadan1          3024.531
        93   02 Jun 2027 01:53:34.371   02 Jun 2027 01:53:39.260             4.889                Norilsk           152.781
        94   02 Jun 2027 01:54:18.961   02 Jun 2027 01:54:29.790            10.829               Magadan1           338.406
        95   02 Jun 2027 01:55:21.202   02 Jun 2027 01:55:33.205            12.003               Magadan2           375.094
        96   02 Jun 2027 01:55:54.141   02 Jun 2027 01:56:35.653            41.512              Murmansk2          1297.250
        97   02 Jun 2027 01:57:47.905   02 Jun 2027 01:58:07.364            19.459              Murmansk2           608.094
        98   02 Jun 2027 01:58:11.243   02 Jun 2027 01:59:52.912           101.669                Novosib          3177.156
        99   02 Jun 2027 02:05:10.163   02 Jun 2027 02:05:19.585             9.422                 Moscow           294.437
       100   02 Jun 2027 02:06:59.964   02 Jun 2027 02:07:01.999             2.035                 Moscow            63.594
       101   02 Jun 2027 02:07:52.853   02 Jun 2027 02:08:19.881            27.028                 Moscow           844.625
       102   02 Jun 2027 02:11:10.130   02 Jun 2027 02:11:27.167            17.037                 Moscow           532.406
       103   02 Jun 2027 02:24:37.994   02 Jun 2027 02:25:54.444            76.450               CapeTown          2389.062
       104   02 Jun 2027 03:25:48.320   02 Jun 2027 03:27:00.357            72.037                Anadyr1          2251.156
       105   02 Jun 2027 03:27:12.815   02 Jun 2027 03:28:35.712            82.897                Anadyr1          2590.531
       106   02 Jun 2027 03:40:47.813   02 Jun 2027 03:41:31.133            43.320                 Moscow          1353.750
       107   02 Jun 2027 03:41:43.257   02 Jun 2027 03:43:47.298           124.041              Murmansk1          3876.281
       108   02 Jun 2027 03:43:47.298   02 Jun 2027 03:43:55.510             8.212              Murmansk2           256.625
       109   02 Jun 2027 03:44:04.669   02 Jun 2027 03:46:37.166           152.497                 Moscow          4765.531
       110   02 Jun 2027 05:01:32.953   02 Jun 2027 05:02:19.455            46.502               Magadan1          1453.188
       111   02 Jun 2027 05:02:25.350   02 Jun 2027 05:03:19.034            53.684                Anadyr1          1677.625
       112   02 Jun 2027 05:03:28.564   02 Jun 2027 05:04:46.432            77.868                Anadyr2          2433.375
       113   02 Jun 2027 05:04:46.432   02 Jun 2027 05:04:47.783             1.351                Anadyr1            42.219
       114   02 Jun 2027 05:04:47.783   02 Jun 2027 05:05:43.825            56.042                Anadyr2          1751.313
       115   02 Jun 2027 05:05:49.743   02 Jun 2027 05:05:57.684             7.941                Anadyr1           248.156
       116   02 Jun 2027 05:06:43.762   02 Jun 2027 05:06:49.382             5.620                Anadyr1           175.625
       117   02 Jun 2027 05:07:09.107   02 Jun 2027 05:07:27.787            18.680                Anadyr1           583.750
       118   02 Jun 2027 05:07:37.378   02 Jun 2027 05:08:32.356            54.978                Anadyr2          1718.063
       119   02 Jun 2027 06:40:44.508   02 Jun 2027 06:41:46.344            61.836                Anadyr2          1932.375
       120   02 Jun 2027 06:41:56.612   02 Jun 2027 06:42:26.145            29.533               Magadan2           922.906
       121   02 Jun 2027 06:42:41.554   02 Jun 2027 06:43:32.227            50.673                Anadyr2          1583.531
       122   02 Jun 2027 08:15:44.306   02 Jun 2027 08:18:15.725           151.419               Magadan2          4731.844
       123   02 Jun 2027 08:18:35.997   02 Jun 2027 08:19:16.046            40.049               Magadan1          1251.531
       124   02 Jun 2027 08:54:38.313   02 Jun 2027 08:55:31.780            53.467            RioGallegos          1670.844
       125   02 Jun 2027 08:57:19.672   02 Jun 2027 08:57:32.783            13.111            RioGallegos           409.719
       126   02 Jun 2027 08:57:54.415   02 Jun 2027 08:58:28.429            34.014            RioGallegos          1062.938
       127   02 Jun 2027 09:02:04.193   02 Jun 2027 09:02:23.065            18.872            RioGallegos           589.750
       128   02 Jun 2027 09:03:03.917   02 Jun 2027 09:03:39.890            35.973            RioGallegos          1124.156
       129   02 Jun 2027 09:29:43.723   02 Jun 2027 09:31:02.190            78.467                Sumatra          2452.094
       130   02 Jun 2027 09:37:48.795   02 Jun 2027 09:37:55.554             6.759                Sumatra           211.219
       131   02 Jun 2027 09:51:49.069   02 Jun 2027 09:52:25.123            36.054                Novosib          1126.688
       132   02 Jun 2027 09:52:34.373   02 Jun 2027 09:52:50.684            16.311                Novosib           509.719
       133   02 Jun 2027 09:53:05.121   02 Jun 2027 09:53:08.882             3.761                Irkutsk           117.531
       134   02 Jun 2027 09:53:31.493   02 Jun 2027 09:54:02.608            31.115                Irkutsk           972.344
       135   02 Jun 2027 09:54:06.906   02 Jun 2027 09:54:08.657             1.751                Irkutsk            54.719
       136   02 Jun 2027 09:54:15.652   02 Jun 2027 09:54:20.674             5.022                Novosib           156.937
       137   02 Jun 2027 09:54:24.201   02 Jun 2027 09:55:20.999            56.798                Novosib          1774.937
       138   02 Jun 2027 09:55:32.919   02 Jun 2027 09:55:46.894            13.975                Novosib           436.719
       139   02 Jun 2027 10:33:40.322   02 Jun 2027 10:34:08.441            28.119            RioGallegos           878.719
       140   02 Jun 2027 10:35:35.228   02 Jun 2027 10:35:58.026            22.798            RioGallegos           712.437
       141   02 Jun 2027 11:07:33.620   02 Jun 2027 11:09:42.607           128.987                Sumatra          4030.844
       142   02 Jun 2027 11:29:32.358   02 Jun 2027 11:29:44.111            11.753                Novosib           367.281
       143   02 Jun 2027 11:30:25.961   02 Jun 2027 11:30:27.452             1.491                Norilsk            46.594
       144   02 Jun 2027 11:30:51.898   02 Jun 2027 11:30:54.146             2.248                Novosib            70.250
       145   02 Jun 2027 11:30:59.668   02 Jun 2027 11:31:15.577            15.909                Novosib           497.156
       146   02 Jun 2027 11:31:18.015   02 Jun 2027 11:31:30.760            12.745                Norilsk           398.281
       147   02 Jun 2027 12:53:24.633   02 Jun 2027 12:56:36.363           191.730                  Delhi          5991.563
       148   02 Jun 2027 13:00:02.991   02 Jun 2027 13:01:04.063            61.072                 Moscow          1908.500
       149   02 Jun 2027 13:01:33.966   02 Jun 2027 13:03:10.153            96.187              Murmansk1          3005.844
       150   02 Jun 2027 13:04:09.369   02 Jun 2027 13:04:30.582            21.213              Murmansk2           662.906
       151   02 Jun 2027 13:07:54.710   02 Jun 2027 13:08:58.895            64.185                Norilsk          2005.781
       152   02 Jun 2027 14:13:53.404   02 Jun 2027 14:16:24.006           150.602               CapeTown          4706.313
       153   02 Jun 2027 14:21:13.453   02 Jun 2027 14:21:38.220            24.767               CapeTown           773.969
       154   02 Jun 2027 14:38:11.268   02 Jun 2027 14:40:24.079           132.811              Murmansk2          4150.344
       155   02 Jun 2027 14:40:53.157   02 Jun 2027 14:41:09.652            16.495              Murmansk2           515.469
       156   02 Jun 2027 14:45:13.229   02 Jun 2027 14:45:18.744             5.515              Murmansk2           172.344
       157   02 Jun 2027 14:47:14.466   02 Jun 2027 14:47:38.326            23.860              Murmansk1           745.625
       158   02 Jun 2027 14:52:56.215   02 Jun 2027 14:54:42.257           106.042                Anadyr1          3313.813
       159   02 Jun 2027 14:56:03.078   02 Jun 2027 14:56:43.905            40.827                Anadyr2          1275.844
       160   02 Jun 2027 14:57:55.334   02 Jun 2027 14:58:24.454            29.120                Anadyr2           910.000
       161   02 Jun 2027 15:48:16.187   02 Jun 2027 15:49:59.515           103.328               CapeTown          3229.000
       162   02 Jun 2027 16:16:53.702   02 Jun 2027 16:17:07.491            13.789              Murmansk1           430.906
       163   02 Jun 2027 16:17:54.432   02 Jun 2027 16:18:05.572            11.140              Murmansk2           348.125
       164   02 Jun 2027 16:19:06.969   02 Jun 2027 16:19:41.448            34.479              Murmansk1          1077.469
       165   02 Jun 2027 16:24:37.544   02 Jun 2027 16:24:50.887            13.343              Murmansk2           416.969
       166   02 Jun 2027 16:28:13.602   02 Jun 2027 16:30:21.428           127.826                Anadyr1          3994.563
       167   02 Jun 2027 16:32:34.317   02 Jun 2027 16:34:54.035           139.718               Magadan2          4366.187
       168   02 Jun 2027 16:35:35.177   02 Jun 2027 16:35:56.874            21.697               Magadan2           678.031
       169   02 Jun 2027 16:35:56.874   02 Jun 2027 16:36:07.077            10.203               Magadan1           318.844
       170   02 Jun 2027 18:04:06.142   02 Jun 2027 18:08:00.699           234.557                Anadyr1          7329.906
       171   02 Jun 2027 18:08:31.292   02 Jun 2027 18:10:58.214           146.922               Magadan2          4591.312
       172   02 Jun 2027 18:11:52.581   02 Jun 2027 18:12:04.879            12.298               Magadan1           384.312
       173   02 Jun 2027 19:39:59.890   02 Jun 2027 19:43:50.467           230.577                Anadyr2          7205.531
       174   02 Jun 2027 19:44:19.422   02 Jun 2027 19:46:02.900           103.478                Norilsk          3233.688
       175   02 Jun 2027 19:46:26.681   02 Jun 2027 19:46:45.502            18.821               Magadan2           588.156
       176   02 Jun 2027 19:47:22.055   02 Jun 2027 19:47:31.804             9.749               Magadan2           304.656
       177   02 Jun 2027 19:48:32.388   02 Jun 2027 19:48:46.016            13.628               Magadan2           425.875
       178   02 Jun 2027 19:49:03.751   02 Jun 2027 19:49:05.752             2.001               Magadan2            62.531
       179   02 Jun 2027 19:49:22.869   02 Jun 2027 19:51:07.411           104.542                Irkutsk          3266.937
       180   02 Jun 2027 20:34:19.527   02 Jun 2027 20:36:11.019           111.492            RioGallegos          3484.125
       181   02 Jun 2027 20:37:33.092   02 Jun 2027 20:37:36.791             3.699            RioGallegos           115.594
       182   02 Jun 2027 20:44:46.492   02 Jun 2027 20:44:53.187             6.695            RioGallegos           209.219
       183   02 Jun 2027 21:15:55.796   02 Jun 2027 21:17:46.948           111.152                Anadyr2          3473.500
       184   02 Jun 2027 21:18:21.725   02 Jun 2027 21:19:38.059            76.334               Magadan1          2385.437
       185   02 Jun 2027 21:19:38.059   02 Jun 2027 21:20:05.050            26.991               Magadan2           843.469
       186   02 Jun 2027 21:21:57.469   02 Jun 2027 21:23:18.884            81.415                Irkutsk          2544.219
       187   02 Jun 2027 21:23:30.278   02 Jun 2027 21:24:49.063            78.785                Novosib          2462.031
       188   02 Jun 2027 21:25:59.524   02 Jun 2027 21:26:17.124            17.600                Novosib           550.000
       189   02 Jun 2027 21:26:40.772   02 Jun 2027 21:27:19.611            38.839                Novosib          1213.719
       190   02 Jun 2027 21:35:39.243   02 Jun 2027 21:36:32.155            52.912                Sumatra          1653.500
       191   02 Jun 2027 21:45:50.602   02 Jun 2027 21:46:29.219            38.617                Sumatra          1206.781
       192   02 Jun 2027 22:50:09.667   02 Jun 2027 22:50:18.923             9.256                Anadyr2           289.250
       193   02 Jun 2027 22:50:57.224   02 Jun 2027 22:51:58.951            61.727                Anadyr1          1928.969
       194   02 Jun 2027 22:53:49.006   02 Jun 2027 22:54:52.852            63.846                Norilsk          1995.188
       195   02 Jun 2027 22:55:03.418   02 Jun 2027 22:55:26.005            22.587               Magadan2           705.844
       196   02 Jun 2027 22:57:19.310   02 Jun 2027 22:57:45.039            25.729                Norilsk           804.031
       197   02 Jun 2027 22:57:45.619   02 Jun 2027 22:59:01.868            76.249                Novosib          2382.781
       198   02 Jun 2027 23:00:24.768   02 Jun 2027 23:00:45.391            20.623                Novosib           644.469
       199   02 Jun 2027 23:05:23.729   02 Jun 2027 23:08:54.998           211.269                  Delhi          6602.156
       200   03 Jun 2027 00:23:37.942   03 Jun 2027 00:23:45.492             7.550                Anadyr1           235.938
       201   03 Jun 2027 00:23:52.440   03 Jun 2027 00:23:54.400             1.960                Anadyr1            61.250
       202   03 Jun 2027 00:25:32.191   03 Jun 2027 00:25:59.434            27.243                Anadyr1           851.344
       203   03 Jun 2027 00:26:09.396   03 Jun 2027 00:26:40.438            31.042                Anadyr2           970.062
       204   03 Jun 2027 00:29:44.869   03 Jun 2027 00:30:41.144            56.275               Magadan1          1758.594
       205   03 Jun 2027 00:30:46.390   03 Jun 2027 00:32:30.397           104.007               Magadan2          3250.219
       206   03 Jun 2027 00:32:39.003   03 Jun 2027 00:34:29.494           110.491              Murmansk1          3452.844
       207   03 Jun 2027 00:36:06.695   03 Jun 2027 00:36:25.139            18.444                Novosib           576.375
       208   03 Jun 2027 00:36:39.182   03 Jun 2027 00:37:16.141            36.959                 Moscow          1154.969
       209   03 Jun 2027 00:39:48.007   03 Jun 2027 00:40:02.481            14.474                 Moscow           452.312
       210   03 Jun 2027 00:40:25.060   03 Jun 2027 00:40:55.485            30.425                 Moscow           950.781
       211   03 Jun 2027 01:57:06.524   03 Jun 2027 02:00:15.869           189.345                Anadyr2          5917.031
       212   03 Jun 2027 02:01:57.688   03 Jun 2027 02:03:27.571            89.883               Magadan1          2808.844
       213   03 Jun 2027 02:03:43.713   03 Jun 2027 02:04:07.098            23.385               Magadan2           730.781
       214   03 Jun 2027 02:06:27.731   03 Jun 2027 02:06:32.035             4.304               Magadan2           134.500
       215   03 Jun 2027 02:07:03.954   03 Jun 2027 02:08:12.146            68.192               Magadan2          2131.000
       216   03 Jun 2027 02:08:17.214   03 Jun 2027 02:09:13.137            55.923              Murmansk2          1747.594
       217   03 Jun 2027 02:10:26.208   03 Jun 2027 02:10:32.647             6.439                Novosib           201.219
       218   03 Jun 2027 02:11:14.827   03 Jun 2027 02:11:43.093            28.266                 Moscow           883.312
       219   03 Jun 2027 02:14:44.628   03 Jun 2027 02:15:04.611            19.983                 Moscow           624.469
       220   03 Jun 2027 02:19:03.677   03 Jun 2027 02:19:11.773             8.096                 Moscow           253.000
       221   03 Jun 2027 02:19:27.369   03 Jun 2027 02:19:40.409            13.040                 Moscow           407.500
       222   03 Jun 2027 02:35:23.980   03 Jun 2027 02:36:30.273            66.293               CapeTown          2071.656
       223   03 Jun 2027 02:44:33.397   03 Jun 2027 02:44:49.523            16.126               CapeTown           503.938
       224   03 Jun 2027 03:38:34.365   03 Jun 2027 03:40:55.217           140.852               Magadan1          4401.625
       225   03 Jun 2027 03:40:55.217   03 Jun 2027 03:42:25.243            90.026               Magadan2          2813.313
       226   03 Jun 2027 03:42:38.323   03 Jun 2027 03:43:04.611            26.288               Magadan2           821.500
       227   03 Jun 2027 03:43:21.517   03 Jun 2027 03:44:30.692            69.175                Anadyr2          2161.719
       228   03 Jun 2027 05:14:35.239   03 Jun 2027 05:16:26.507           111.268               Magadan2          3477.125
       229   03 Jun 2027 05:16:33.327   03 Jun 2027 05:20:35.417           242.090                Anadyr1          7565.312
       230   03 Jun 2027 06:50:23.190   03 Jun 2027 06:50:31.740             8.550               Magadan1           267.188
       231   03 Jun 2027 06:50:33.032   03 Jun 2027 06:50:42.047             9.015               Magadan2           281.719
       232   03 Jun 2027 06:51:00.407   03 Jun 2027 06:52:23.466            83.059                Anadyr2          2595.594
       233   03 Jun 2027 06:52:32.956   03 Jun 2027 06:52:49.765            16.809                Anadyr1           525.281
       234   03 Jun 2027 06:52:49.765   03 Jun 2027 06:53:07.461            17.696                Anadyr2           553.000
       235   03 Jun 2027 06:53:30.005   03 Jun 2027 06:53:32.463             2.458               Magadan2            76.813
       236   03 Jun 2027 06:53:45.401   03 Jun 2027 06:53:53.927             8.526               Magadan2           266.437
       237   03 Jun 2027 06:53:57.260   03 Jun 2027 06:55:03.162            65.902                Anadyr1          2059.437
       238   03 Jun 2027 06:55:34.802   03 Jun 2027 06:55:53.189            18.387                Anadyr2           574.594
       239   03 Jun 2027 08:25:25.320   03 Jun 2027 08:26:36.069            70.749               Magadan2          2210.906
       240   03 Jun 2027 08:27:36.434   03 Jun 2027 08:27:45.307             8.873               Magadan1           277.281
       241   03 Jun 2027 08:27:52.183   03 Jun 2027 08:28:06.130            13.947               Magadan1           435.844
       242   03 Jun 2027 08:28:38.473   03 Jun 2027 08:28:59.853            21.380                Irkutsk           668.125
       243   03 Jun 2027 08:29:19.592   03 Jun 2027 08:29:38.344            18.752                Irkutsk           586.000
       244   03 Jun 2027 08:30:07.100   03 Jun 2027 08:30:18.638            11.538              Murmansk1           360.563
       245   03 Jun 2027 08:30:19.945   03 Jun 2027 08:30:32.788            12.843                Irkutsk           401.344
       246   03 Jun 2027 08:30:38.826   03 Jun 2027 08:31:00.179            21.353               Magadan1           667.281
       247   03 Jun 2027 08:32:40.651   03 Jun 2027 08:32:59.396            18.745                Norilsk           585.781
       248   03 Jun 2027 09:06:44.532   03 Jun 2027 09:07:49.191            64.659            RioGallegos          2020.594
       249   03 Jun 2027 09:41:36.224   03 Jun 2027 09:42:22.645            46.421                Sumatra          1450.656
       250   03 Jun 2027 09:44:46.287   03 Jun 2027 09:44:52.797             6.510                Sumatra           203.438
       251   03 Jun 2027 10:00:05.687   03 Jun 2027 10:00:50.099            44.412                  Delhi          1387.875
       252   03 Jun 2027 10:04:07.206   03 Jun 2027 10:05:03.839            56.633                Irkutsk          1769.781
       253   03 Jun 2027 10:05:17.385   03 Jun 2027 10:05:21.169             3.784                Irkutsk           118.250
       254   03 Jun 2027 10:05:23.219   03 Jun 2027 10:05:45.618            22.399                Irkutsk           699.969
       255   03 Jun 2027 10:05:50.712   03 Jun 2027 10:06:10.016            19.304                Irkutsk           603.250
       256   03 Jun 2027 10:06:16.151   03 Jun 2027 10:07:25.643            69.492                Novosib          2171.625
       257   03 Jun 2027 10:07:46.511   03 Jun 2027 10:08:55.180            68.669                Novosib          2145.906
       258   03 Jun 2027 10:49:53.592   03 Jun 2027 10:50:31.806            38.214            RioGallegos          1194.188
       259   03 Jun 2027 11:20:52.692   03 Jun 2027 11:21:35.290            42.598                Sumatra          1331.187
       260   03 Jun 2027 11:28:38.008   03 Jun 2027 11:28:56.349            18.341                  Delhi           573.156
       261   03 Jun 2027 11:40:20.553   03 Jun 2027 11:40:33.765            13.212                Novosib           412.875
       262   03 Jun 2027 11:41:16.643   03 Jun 2027 11:41:36.597            19.954                Norilsk           623.563
       263   03 Jun 2027 11:42:39.113   03 Jun 2027 11:42:48.905             9.792                Novosib           306.000
       264   03 Jun 2027 11:43:01.922   03 Jun 2027 11:43:15.404            13.482                Norilsk           421.312
       265   03 Jun 2027 11:43:20.037   03 Jun 2027 11:43:30.388            10.351                Norilsk           323.469
       266   03 Jun 2027 13:10:12.424   03 Jun 2027 13:11:22.100            69.676                 Moscow          2177.375
       267   03 Jun 2027 13:11:42.765   03 Jun 2027 13:13:22.282            99.517                 Moscow          3109.906
       268   03 Jun 2027 13:13:34.912   03 Jun 2027 13:13:47.044            12.132              Murmansk1           379.125
       269   03 Jun 2027 13:13:47.044   03 Jun 2027 13:13:57.252            10.208              Murmansk2           319.000
       270   03 Jun 2027 13:14:37.052   03 Jun 2027 13:15:43.431            66.379              Murmansk2          2074.344
       271   03 Jun 2027 13:16:04.122   03 Jun 2027 13:16:43.793            39.671              Murmansk1          1239.719
       272   03 Jun 2027 13:17:00.161   03 Jun 2027 13:17:33.966            33.805                Norilsk          1056.406
       273   03 Jun 2027 13:18:47.536   03 Jun 2027 13:19:09.611            22.075                Norilsk           689.844
       274   03 Jun 2027 13:21:23.707   03 Jun 2027 13:21:57.165            33.458                Norilsk          1045.563
       275   03 Jun 2027 14:25:13.410   03 Jun 2027 14:26:50.310            96.900               CapeTown          3028.125
       276   03 Jun 2027 14:27:29.468   03 Jun 2027 14:28:07.024            37.556               CapeTown          1173.625
       277   03 Jun 2027 14:30:25.747   03 Jun 2027 14:31:38.565            72.818               CapeTown          2275.563
       278   03 Jun 2027 14:50:25.916   03 Jun 2027 14:51:24.215            58.299              Murmansk1          1821.844
       279   03 Jun 2027 14:51:27.484   03 Jun 2027 14:51:41.432            13.948              Murmansk2           435.875
       280   03 Jun 2027 14:53:10.970   03 Jun 2027 14:53:30.357            19.387              Murmansk1           605.844
       281   03 Jun 2027 14:54:51.227   03 Jun 2027 14:55:03.876            12.649              Murmansk2           395.281
       282   03 Jun 2027 14:56:55.652   03 Jun 2027 14:57:11.890            16.238              Murmansk1           507.437
       283   03 Jun 2027 15:00:46.291   03 Jun 2027 15:01:01.578            15.287              Murmansk2           477.719
       284   03 Jun 2027 15:04:47.594   03 Jun 2027 15:07:57.397           189.803                Anadyr2          5931.344
       285   03 Jun 2027 16:02:46.570   03 Jun 2027 16:03:44.911            58.341               CapeTown          1823.156
       286   03 Jun 2027 16:29:27.463   03 Jun 2027 16:32:25.279           177.816              Murmansk1          5556.750
       287   03 Jun 2027 16:40:13.786   03 Jun 2027 16:41:28.455            74.669                Anadyr1          2333.406
       288   03 Jun 2027 16:41:42.426   03 Jun 2027 16:42:19.251            36.825                Anadyr2          1150.781
       289   03 Jun 2027 16:44:00.232   03 Jun 2027 16:46:01.772           121.540               Magadan1          3798.125
       290   03 Jun 2027 16:47:00.565   03 Jun 2027 16:47:07.562             6.997               Magadan2           218.656
       291   03 Jun 2027 16:47:07.923   03 Jun 2027 16:47:49.358            41.435               Magadan1          1294.844
       292   03 Jun 2027 18:16:07.627   03 Jun 2027 18:20:02.013           234.386                Anadyr1          7324.563
       293   03 Jun 2027 18:20:06.482   03 Jun 2027 18:22:11.707           125.225               Magadan2          3913.281
       294   03 Jun 2027 18:28:37.830   03 Jun 2027 18:29:20.642            42.812               Magadan2          1337.875
       295   03 Jun 2027 19:52:00.136   03 Jun 2027 19:55:49.627           229.491                Anadyr2          7171.594
       296   03 Jun 2027 19:55:50.055   03 Jun 2027 19:57:30.837           100.782               Magadan2          3149.437
       297   03 Jun 2027 19:57:30.837   03 Jun 2027 19:57:34.795             3.958               Magadan1           123.688
       298   03 Jun 2027 19:57:38.928   03 Jun 2027 19:57:59.758            20.830                Norilsk           650.937
       299   03 Jun 2027 20:00:08.991   03 Jun 2027 20:02:46.870           157.879                Irkutsk          4933.719
       300   03 Jun 2027 20:17:57.793   03 Jun 2027 20:19:01.754            63.961                Sumatra          1998.781
       301   03 Jun 2027 20:55:12.861   03 Jun 2027 20:55:41.089            28.228            RioGallegos           882.125
       302   03 Jun 2027 21:27:28.254   03 Jun 2027 21:27:41.070            12.816                Anadyr1           400.500
       303   03 Jun 2027 21:27:48.855   03 Jun 2027 21:29:45.544           116.689                Anadyr1          3646.531
       304   03 Jun 2027 21:30:17.186   03 Jun 2027 21:30:31.947            14.761                Norilsk           461.281
       305   03 Jun 2027 21:30:51.781   03 Jun 2027 21:31:13.506            21.725                Norilsk           678.906
       306   03 Jun 2027 21:31:33.390   03 Jun 2027 21:32:16.927            43.537               Magadan2          1360.531
       307   03 Jun 2027 21:32:17.937   03 Jun 2027 21:33:39.278            81.341                Norilsk          2541.906
       308   03 Jun 2027 21:35:03.754   03 Jun 2027 21:36:16.387            72.633                Novosib          2269.781
       309   03 Jun 2027 21:40:48.502   03 Jun 2027 21:42:17.353            88.851                Novosib          2776.594
       310   03 Jun 2027 21:47:34.624   03 Jun 2027 21:48:11.258            36.634                Sumatra          1144.813
       311   03 Jun 2027 23:01:55.603   03 Jun 2027 23:03:56.560           120.957                Anadyr1          3779.906
       312   03 Jun 2027 23:05:51.041   03 Jun 2027 23:06:06.883            15.842                Norilsk           495.063
       313   03 Jun 2027 23:06:28.015   03 Jun 2027 23:07:17.741            49.726               Magadan2          1553.938
       314   03 Jun 2027 23:09:43.826   03 Jun 2027 23:12:23.801           159.975                Novosib          4999.219
       315   03 Jun 2027 23:17:12.966   03 Jun 2027 23:18:20.964            67.998                  Delhi          2124.937
       316   03 Jun 2027 23:19:36.689   03 Jun 2027 23:19:37.505             0.816                  Delhi            25.500
       317   03 Jun 2027 23:22:59.400   03 Jun 2027 23:23:21.123            21.723                  Delhi           678.844
       318   03 Jun 2027 23:25:33.425   03 Jun 2027 23:26:41.805            68.380                  Delhi          2136.875
       319   04 Jun 2027 00:35:18.989   04 Jun 2027 00:35:27.703             8.714                Anadyr1           272.312
       320   04 Jun 2027 00:35:30.437   04 Jun 2027 00:35:38.638             8.201                Anadyr2           256.281
       321   04 Jun 2027 00:36:33.163   04 Jun 2027 00:37:37.226            64.063                Anadyr2          2001.969
       322   04 Jun 2027 00:40:12.722   04 Jun 2027 00:40:57.734            45.012                Anadyr1          1406.625
       323   04 Jun 2027 00:41:29.072   04 Jun 2027 00:43:59.448           150.376               Magadan1          4699.250
       324   04 Jun 2027 00:44:06.177   04 Jun 2027 00:45:19.445            73.268              Murmansk1          2289.625
       325   04 Jun 2027 00:47:54.403   04 Jun 2027 00:48:36.141            41.738              Murmansk2          1304.312
       326   04 Jun 2027 00:51:05.297   04 Jun 2027 00:51:40.007            34.710                 Moscow          1084.687
       327   04 Jun 2027 00:51:45.618   04 Jun 2027 00:52:37.221            51.603                 Moscow          1612.594
       328   04 Jun 2027 01:16:19.055   04 Jun 2027 01:17:26.959            67.904               CapeTown          2122.000
       329   04 Jun 2027 01:18:33.516   04 Jun 2027 01:18:59.350            25.834               CapeTown           807.313
       330   04 Jun 2027 02:08:53.558   04 Jun 2027 02:09:23.589            30.031                Anadyr2           938.469
       331   04 Jun 2027 02:09:41.282   04 Jun 2027 02:10:16.258            34.976                Anadyr1          1093.000
       332   04 Jun 2027 02:11:14.742   04 Jun 2027 02:11:33.194            18.452                Anadyr2           576.625
       333   04 Jun 2027 02:13:25.770   04 Jun 2027 02:14:32.538            66.768               Magadan1          2086.500
       334   04 Jun 2027 02:14:32.538   04 Jun 2027 02:14:46.010            13.472               Magadan2           421.000
       335   04 Jun 2027 02:17:15.040   04 Jun 2027 02:17:40.217            25.177               Magadan2           786.781
       336   04 Jun 2027 02:18:51.234   04 Jun 2027 02:19:42.153            50.919               Magadan2          1591.219
       337   04 Jun 2027 02:19:57.344   04 Jun 2027 02:20:26.577            29.233              Murmansk2           913.531
       338   04 Jun 2027 02:20:56.604   04 Jun 2027 02:21:33.486            36.882              Murmansk1          1152.562
       339   04 Jun 2027 02:22:10.962   04 Jun 2027 02:23:37.631            86.669                Novosib          2708.406
       340   04 Jun 2027 02:34:14.888   04 Jun 2027 02:34:30.434            15.546                 Moscow           485.812
       341   04 Jun 2027 02:47:13.310   04 Jun 2027 02:48:25.009            71.699               CapeTown          2240.594
       342   04 Jun 2027 02:55:47.089   04 Jun 2027 02:56:19.385            32.296               CapeTown          1009.250
       343   04 Jun 2027 03:50:04.655   04 Jun 2027 03:51:01.135            56.480               Magadan2          1765.000
       344   04 Jun 2027 03:51:01.135   04 Jun 2027 03:51:56.434            55.299               Magadan1          1728.094
       345   04 Jun 2027 03:51:56.698   04 Jun 2027 03:52:11.613            14.915                Anadyr1           466.094
       346   04 Jun 2027 03:52:11.613   04 Jun 2027 03:53:33.977            82.364                Anadyr2          2573.875
       347   04 Jun 2027 03:54:20.246   04 Jun 2027 03:55:39.285            79.039               Magadan1          2469.969
       348   04 Jun 2027 03:55:55.361   04 Jun 2027 03:56:16.638            21.277               Magadan1           664.906
       349   04 Jun 2027 05:27:17.965   04 Jun 2027 05:27:34.963            16.998                Anadyr2           531.187
       350   04 Jun 2027 05:28:11.429   04 Jun 2027 05:32:35.192           263.763                Anadyr2          8242.594
       351   04 Jun 2027 07:00:01.590   04 Jun 2027 07:00:39.513            37.923               Magadan1          1185.094
       352   04 Jun 2027 07:00:42.204   04 Jun 2027 07:01:19.119            36.915                Anadyr1          1153.594
       353   04 Jun 2027 07:01:21.023   04 Jun 2027 07:02:00.982            39.959                Anadyr1          1248.719
       354   04 Jun 2027 07:02:19.891   04 Jun 2027 07:02:31.068            11.177               Magadan2           349.281
       355   04 Jun 2027 07:02:34.961   04 Jun 2027 07:02:40.986             6.025               Magadan2           188.281
       356   04 Jun 2027 07:02:44.455   04 Jun 2027 07:03:10.185            25.730               Magadan2           804.062
       357   04 Jun 2027 07:03:10.185   04 Jun 2027 07:04:24.456            74.271               Magadan1          2320.969
       358   04 Jun 2027 07:04:45.124   04 Jun 2027 07:05:31.914            46.790               Magadan1          1462.187
       359   04 Jun 2027 07:05:36.361   04 Jun 2027 07:05:49.842            13.481               Magadan2           421.281
       360   04 Jun 2027 07:05:59.194   04 Jun 2027 07:06:05.366             6.172               Magadan1           192.875
       361   04 Jun 2027 07:06:10.522   04 Jun 2027 07:06:40.333            29.811                Anadyr1           931.594
       362   04 Jun 2027 07:06:40.333   04 Jun 2027 07:07:39.401            59.068                Anadyr2          1845.875
       363   04 Jun 2027 08:36:58.196   04 Jun 2027 08:37:29.538            31.342               Magadan1           979.437
       364   04 Jun 2027 08:38:35.323   04 Jun 2027 08:39:30.831            55.508               Magadan2          1734.625
       365   04 Jun 2027 08:40:52.430   04 Jun 2027 08:40:53.077             0.647                Irkutsk            20.219
       366   04 Jun 2027 08:42:11.064   04 Jun 2027 08:42:37.417            26.353               Magadan2           823.531
       367   04 Jun 2027 08:43:12.189   04 Jun 2027 08:43:24.569            12.380                Irkutsk           386.875
       368   04 Jun 2027 08:43:43.621   04 Jun 2027 08:43:55.305            11.684                Irkutsk           365.125
       369   04 Jun 2027 08:43:57.232   04 Jun 2027 08:44:02.738             5.506                Irkutsk           172.063
       370   04 Jun 2027 09:18:54.360   04 Jun 2027 09:19:40.187            45.827            RioGallegos          1432.094
       371   04 Jun 2027 09:20:05.012   04 Jun 2027 09:20:27.244            22.232            RioGallegos           694.750
       372   04 Jun 2027 09:53:34.424   04 Jun 2027 09:54:09.883            35.459                Sumatra          1108.094
       373   04 Jun 2027 09:55:40.108   04 Jun 2027 09:56:23.181            43.073                Sumatra          1346.031
       374   04 Jun 2027 10:04:53.800   04 Jun 2027 10:05:15.175            21.375                  Delhi           667.969
       375   04 Jun 2027 10:14:24.750   04 Jun 2027 10:14:27.245             2.495                Irkutsk            77.969
       376   04 Jun 2027 10:16:06.595   04 Jun 2027 10:16:11.783             5.188                Irkutsk           162.125
       377   04 Jun 2027 10:16:14.972   04 Jun 2027 10:16:24.202             9.230                Norilsk           288.438
       378   04 Jun 2027 10:16:58.317   04 Jun 2027 10:17:31.759            33.442                Irkutsk          1045.063
       379   04 Jun 2027 10:17:39.978   04 Jun 2027 10:17:53.685            13.707                Novosib           428.344
       380   04 Jun 2027 10:18:12.340   04 Jun 2027 10:18:18.995             6.655                Irkutsk           207.969
       381   04 Jun 2027 10:18:42.442   04 Jun 2027 10:18:44.640             2.198                Irkutsk            68.688
       382   04 Jun 2027 10:18:48.523   04 Jun 2027 10:19:32.336            43.813                Novosib          1369.156
       383   04 Jun 2027 10:19:45.292   04 Jun 2027 10:20:42.377            57.085                Novosib          1783.906
       384   04 Jun 2027 11:00:09.135   04 Jun 2027 11:00:20.610            11.475            RioGallegos           358.594
       385   04 Jun 2027 11:01:52.566   04 Jun 2027 11:02:36.170            43.604            RioGallegos          1362.625
       386   04 Jun 2027 11:37:53.781   04 Jun 2027 11:38:07.004            13.223                  Delhi           413.219
       387   04 Jun 2027 11:40:53.094   04 Jun 2027 11:42:07.803            74.709                  Delhi          2334.656
       388   04 Jun 2027 11:51:56.015   04 Jun 2027 11:52:00.750             4.735                Novosib           147.969
       389   04 Jun 2027 11:52:09.075   04 Jun 2027 11:52:34.761            25.686                Norilsk           802.687
       390   04 Jun 2027 11:53:18.773   04 Jun 2027 11:53:35.092            16.319                Norilsk           509.969
       391   04 Jun 2027 11:53:37.841   04 Jun 2027 11:54:04.093            26.252                Norilsk           820.375
       392   04 Jun 2027 11:54:40.096   04 Jun 2027 11:55:00.159            20.063                Norilsk           626.969
       393   04 Jun 2027 11:55:22.146   04 Jun 2027 11:55:30.407             8.261                Norilsk           258.156
       394   04 Jun 2027 11:55:34.072   04 Jun 2027 11:55:38.385             4.313                Novosib           134.781
       395   04 Jun 2027 12:02:03.538   04 Jun 2027 12:02:09.530             5.992              Murmansk1           187.250
       396   04 Jun 2027 13:22:10.672   04 Jun 2027 13:26:10.249           239.577                 Moscow          7486.781
       397   04 Jun 2027 13:26:24.329   04 Jun 2027 13:28:58.052           153.723              Murmansk2          4803.844
       398   04 Jun 2027 13:30:37.904   04 Jun 2027 13:31:22.622            44.718                Norilsk          1397.438
       399   04 Jun 2027 13:33:26.055   04 Jun 2027 13:35:06.739           100.684                Norilsk          3146.375
       400   04 Jun 2027 14:36:45.391   04 Jun 2027 14:37:59.398            74.007               CapeTown          2312.719
       401   04 Jun 2027 14:39:54.871   04 Jun 2027 14:41:13.428            78.557               CapeTown          2454.906
       402   04 Jun 2027 15:02:42.579   04 Jun 2027 15:03:50.392            67.813              Murmansk2          2119.156
       403   04 Jun 2027 15:07:10.058   04 Jun 2027 15:07:15.644             5.586              Murmansk2           174.562
       404   04 Jun 2027 15:07:46.185   04 Jun 2027 15:08:03.250            17.065              Murmansk2           533.281
       405   04 Jun 2027 15:08:50.050   04 Jun 2027 15:08:57.449             7.399              Murmansk1           231.219
       406   04 Jun 2027 15:10:41.337   04 Jun 2027 15:11:26.700            45.363              Murmansk1          1417.594
       407   04 Jun 2027 15:16:41.349   04 Jun 2027 15:17:33.342            51.993                Anadyr1          1624.781
       408   04 Jun 2027 15:18:10.488   04 Jun 2027 15:19:30.119            79.631                Anadyr2          2488.469
       409   04 Jun 2027 15:21:23.936   04 Jun 2027 15:21:29.961             6.025                Anadyr2           188.281
       410   04 Jun 2027 15:21:48.121   04 Jun 2027 15:21:57.991             9.870                Anadyr2           308.437
       411   04 Jun 2027 15:23:47.729   04 Jun 2027 15:24:15.624            27.895                Anadyr1           871.719
       412   04 Jun 2027 15:25:13.555   04 Jun 2027 15:26:02.534            48.979                Anadyr2          1530.594
       413   04 Jun 2027 16:22:02.363   04 Jun 2027 16:23:13.106            70.743               CapeTown          2210.719
       414   04 Jun 2027 16:42:04.481   04 Jun 2027 16:42:48.765            44.284              Murmansk1          1383.875
       415   04 Jun 2027 16:44:58.913   04 Jun 2027 16:45:33.830            34.917              Murmansk2          1091.156
       416   04 Jun 2027 16:52:14.324   04 Jun 2027 16:53:15.459            61.135                Anadyr1          1910.469
       417   04 Jun 2027 16:53:27.973   04 Jun 2027 16:54:36.101            68.128                Anadyr2          2129.000
       418   04 Jun 2027 16:55:38.519   04 Jun 2027 16:57:51.948           133.429               Magadan2          4169.656
       419   04 Jun 2027 17:01:04.657   04 Jun 2027 17:01:33.110            28.453               Magadan2           889.156
       420   04 Jun 2027 18:28:09.092   04 Jun 2027 18:30:27.919           138.827                Anadyr2          4338.344
       421   04 Jun 2027 18:30:30.424   04 Jun 2027 18:32:45.825           135.401               Magadan1          4231.281
       422   04 Jun 2027 18:33:04.104   04 Jun 2027 18:33:10.279             6.175               Magadan1           192.969
       423   04 Jun 2027 18:33:42.497   04 Jun 2027 18:33:57.571            15.074               Magadan2           471.063
       424   04 Jun 2027 18:33:57.571   04 Jun 2027 18:35:31.869            94.298               Magadan1          2946.812
       425   04 Jun 2027 19:26:02.756   04 Jun 2027 19:27:20.413            77.657            RioGallegos          2426.781
       426   04 Jun 2027 20:04:00.016   04 Jun 2027 20:06:02.191           122.175                Anadyr1          3817.969
       427   04 Jun 2027 20:06:14.212   04 Jun 2027 20:09:57.905           223.693                Norilsk          6990.406
       428   04 Jun 2027 20:11:31.524   04 Jun 2027 20:12:21.017            49.493                Irkutsk          1546.656
       429   04 Jun 2027 20:14:21.359   04 Jun 2027 20:15:06.114            44.755                Irkutsk          1398.594
       430   04 Jun 2027 20:15:38.604   04 Jun 2027 20:15:54.015            15.411                Irkutsk           481.594
       431   04 Jun 2027 20:16:24.715   04 Jun 2027 20:17:12.871            48.156                Irkutsk          1504.875
       432   04 Jun 2027 20:18:14.842   04 Jun 2027 20:18:37.147            22.305                Irkutsk           697.031
       433   04 Jun 2027 20:27:15.862   04 Jun 2027 20:28:49.672            93.810                Sumatra          2931.562
       434   04 Jun 2027 20:30:34.255   04 Jun 2027 20:31:47.857            73.602                Sumatra          2300.063
       435   04 Jun 2027 21:41:53.420   04 Jun 2027 21:42:50.205            56.785                Norilsk          1774.531
       436   04 Jun 2027 21:43:06.735   04 Jun 2027 21:43:14.940             8.205                Norilsk           256.406
       437   04 Jun 2027 21:43:26.422   04 Jun 2027 21:43:53.416            26.994                Norilsk           843.563
       438   04 Jun 2027 21:45:51.154   04 Jun 2027 21:47:19.697            88.543                Irkutsk          2766.969
       439   04 Jun 2027 21:51:32.148   04 Jun 2027 21:53:07.654            95.506                Novosib          2984.562
       440   04 Jun 2027 22:05:24.650   04 Jun 2027 22:06:09.098            44.448                Sumatra          1389.000
       441   04 Jun 2027 23:13:40.383   04 Jun 2027 23:15:51.973           131.590                Anadyr2          4112.187
       442   04 Jun 2027 23:17:53.055   04 Jun 2027 23:18:07.674            14.619                Norilsk           456.844
       443   04 Jun 2027 23:18:28.771   04 Jun 2027 23:19:36.357            67.586               Magadan2          2112.062
       444   04 Jun 2027 23:21:13.862   04 Jun 2027 23:22:34.589            80.727              Murmansk2          2522.719
       445   04 Jun 2027 23:23:12.475   04 Jun 2027 23:23:59.549            47.074                Novosib          1471.063
       446   04 Jun 2027 23:28:07.257   04 Jun 2027 23:28:45.323            38.066                Novosib          1189.563
       447   04 Jun 2027 23:29:06.298   04 Jun 2027 23:30:00.506            54.208                  Delhi          1694.000
       448   04 Jun 2027 23:32:06.602   04 Jun 2027 23:32:18.375            11.773                  Delhi           367.906
       449   04 Jun 2027 23:32:29.091   04 Jun 2027 23:32:56.024            26.933                  Delhi           841.656
       450   04 Jun 2027 23:36:50.835   04 Jun 2027 23:37:14.292            23.457                  Delhi           733.031
       451   04 Jun 2027 23:37:28.280   04 Jun 2027 23:38:38.059            69.779                  Delhi          2180.594
       452   05 Jun 2027 00:47:00.261   05 Jun 2027 00:47:18.556            18.295                Anadyr1           571.719
       453   05 Jun 2027 00:48:34.410   05 Jun 2027 00:49:37.723            63.313                Anadyr2          1978.531
       454   05 Jun 2027 00:53:08.858   05 Jun 2027 00:55:50.635           161.777               Magadan2          5055.531
       455   05 Jun 2027 00:56:05.666   05 Jun 2027 00:57:21.026            75.360              Murmansk1          2355.000
       456   05 Jun 2027 00:59:50.498   05 Jun 2027 00:59:57.609             7.111              Murmansk2           222.219
       457   05 Jun 2027 01:00:04.789   05 Jun 2027 01:00:34.444            29.655                 Moscow           926.719
       458   05 Jun 2027 01:00:51.888   05 Jun 2027 01:01:10.731            18.843              Murmansk1           588.844
       459   05 Jun 2027 01:04:04.000   05 Jun 2027 01:04:13.634             9.634                 Moscow           301.062
       460   05 Jun 2027 01:05:06.167   05 Jun 2027 01:05:10.573             4.406                 Moscow           137.688
       461   05 Jun 2027 01:06:19.199   05 Jun 2027 01:06:39.844            20.645                 Moscow           645.156
       462   05 Jun 2027 01:09:51.023   05 Jun 2027 01:09:54.692             3.669                 Moscow           114.656
       463   05 Jun 2027 01:12:06.070   05 Jun 2027 01:12:31.897            25.827                  Delhi           807.094
       464   05 Jun 2027 01:26:59.290   05 Jun 2027 01:28:43.870           104.580               CapeTown          3268.125
       465   05 Jun 2027 02:20:41.896   05 Jun 2027 02:21:05.529            23.633                Anadyr2           738.531
       466   05 Jun 2027 02:21:32.227   05 Jun 2027 02:22:16.755            44.528                Anadyr1          1391.500
       467   05 Jun 2027 02:23:15.338   05 Jun 2027 02:23:37.944            22.606                Anadyr2           706.438
       468   05 Jun 2027 02:24:54.430   05 Jun 2027 02:26:14.718            80.288               Magadan1          2509.000
       469   05 Jun 2027 02:29:24.360   05 Jun 2027 02:29:52.357            27.997               Magadan1           874.906
       470   05 Jun 2027 02:31:59.091   05 Jun 2027 02:33:38.349            99.258              Murmansk2          3101.813
       471   05 Jun 2027 02:34:54.450   05 Jun 2027 02:35:46.037            51.587                Novosib          1612.094
       472   05 Jun 2027 02:37:03.042   05 Jun 2027 02:37:09.156             6.114                 Moscow           191.062
       473   05 Jun 2027 02:40:02.968   05 Jun 2027 02:40:12.240             9.272                 Moscow           289.750
       474   05 Jun 2027 02:41:46.255   05 Jun 2027 02:42:03.843            17.588                 Moscow           549.625
       475   05 Jun 2027 02:44:50.266   05 Jun 2027 02:46:07.923            77.657                 Moscow          2426.781
       476   05 Jun 2027 03:11:23.412   05 Jun 2027 03:11:54.947            31.535               CapeTown           985.469
       477   05 Jun 2027 04:02:06.196   05 Jun 2027 04:02:36.369            30.173               Magadan1           942.906
       478   05 Jun 2027 04:02:40.856   05 Jun 2027 04:03:36.383            55.527               Magadan1          1735.219
       479   05 Jun 2027 04:03:36.383   05 Jun 2027 04:06:22.582           166.199               Magadan2          5193.719
       480   05 Jun 2027 04:06:53.247   05 Jun 2027 04:06:57.941             4.694                Anadyr2           146.687
       481   05 Jun 2027 04:06:57.941   05 Jun 2027 04:08:45.727           107.786                Anadyr1          3368.313
       482   05 Jun 2027 05:40:31.401   05 Jun 2027 05:41:00.714            29.313               Magadan2           916.031
