uniorb/output/strategy_4/Drop/Drop_KinoSat_110704.txt

KinoSat_110704
-------------------------
    Access    *     Start Time (UTCG)     *     Stop Time (UTCG)  *   Duration (s)        *       Station  *  Data (Mbytes)
         1   01 Jun 2027 03:50:49.847   01 Jun 2027 03:51:00.027            10.180               Magadan2           318.125
         2   01 Jun 2027 03:51:08.349   01 Jun 2027 03:51:24.088            15.739                Anadyr1           491.844
         3   01 Jun 2027 03:51:24.088   01 Jun 2027 03:51:54.597            30.509                Anadyr2           953.406
         4   01 Jun 2027 03:52:00.395   01 Jun 2027 03:54:12.533           132.138                Anadyr1          4129.312
         5   01 Jun 2027 03:54:22.028   01 Jun 2027 03:55:11.665            49.637                Anadyr1          1551.156
         6   01 Jun 2027 05:24:59.593   01 Jun 2027 05:25:39.051            39.458               Magadan1          1233.063
         7   01 Jun 2027 05:25:40.504   01 Jun 2027 05:27:19.929            99.425                Anadyr2          3107.031
         8   01 Jun 2027 05:27:19.929   01 Jun 2027 05:28:24.151            64.222                Anadyr1          2006.938
         9   01 Jun 2027 05:28:25.867   01 Jun 2027 05:29:34.787            68.920                Anadyr2          2153.750
        10   01 Jun 2027 05:29:44.999   01 Jun 2027 05:30:45.352            60.353               Magadan1          1886.031
        11   01 Jun 2027 05:30:54.886   01 Jun 2027 05:31:22.350            27.464               Magadan1           858.250
        12   01 Jun 2027 06:06:23.693   01 Jun 2027 06:07:07.431            43.738            RioGallegos          1366.812
        13   01 Jun 2027 06:08:26.772   01 Jun 2027 06:09:18.073            51.301            RioGallegos          1603.156
        14   01 Jun 2027 06:43:16.646   01 Jun 2027 06:44:58.105           101.459                Sumatra          3170.594
        15   01 Jun 2027 07:00:39.866   01 Jun 2027 07:00:50.615            10.749                Novosib           335.906
        16   01 Jun 2027 07:02:20.829   01 Jun 2027 07:03:34.982            74.153                Novosib          2317.281
        17   01 Jun 2027 07:03:41.125   01 Jun 2027 07:04:22.722            41.597                Novosib          1299.906
        18   01 Jun 2027 07:04:44.148   01 Jun 2027 07:08:33.550           229.402              Murmansk2          7168.812
        19   01 Jun 2027 07:09:29.268   01 Jun 2027 07:09:46.135            16.867              Murmansk2           527.094
        20   01 Jun 2027 07:10:13.551   01 Jun 2027 07:10:28.778            15.227              Murmansk2           475.844
        21   01 Jun 2027 07:42:37.889   01 Jun 2027 07:42:38.862             0.973            RioGallegos            30.406
        22   01 Jun 2027 07:43:00.881   01 Jun 2027 07:43:20.570            19.689            RioGallegos           615.281
        23   01 Jun 2027 07:44:06.522   01 Jun 2027 07:44:50.589            44.067            RioGallegos          1377.094
        24   01 Jun 2027 08:17:02.414   01 Jun 2027 08:18:48.428           106.014                Sumatra          3312.938
        25   01 Jun 2027 08:20:54.877   01 Jun 2027 08:22:20.822            85.945                Sumatra          2685.781
        26   01 Jun 2027 08:26:10.708   01 Jun 2027 08:26:59.205            48.497                  Delhi          1515.531
        27   01 Jun 2027 08:27:28.599   01 Jun 2027 08:29:35.492           126.893                  Delhi          3965.406
        28   01 Jun 2027 08:40:08.273   01 Jun 2027 08:40:31.795            23.522                Norilsk           735.063
        29   01 Jun 2027 08:40:36.133   01 Jun 2027 08:42:03.518            87.385                 Moscow          2730.781
        30   01 Jun 2027 08:42:24.675   01 Jun 2027 08:42:46.723            22.048                Irkutsk           689.000
        31   01 Jun 2027 08:43:03.833   01 Jun 2027 08:45:55.440           171.607                Norilsk          5362.719
        32   01 Jun 2027 10:01:38.481   01 Jun 2027 10:06:35.294           296.813                  Delhi          9275.406
        33   01 Jun 2027 10:16:05.598   01 Jun 2027 10:16:16.838            11.240                Novosib           351.250
        34   01 Jun 2027 10:16:23.410   01 Jun 2027 10:16:55.650            32.240                Novosib          1007.500
        35   01 Jun 2027 10:17:08.440   01 Jun 2027 10:18:17.969            69.529                 Moscow          2172.781
        36   01 Jun 2027 10:18:21.856   01 Jun 2027 10:18:44.290            22.434                Norilsk           701.062
        37   01 Jun 2027 10:19:15.255   01 Jun 2027 10:19:35.321            20.066                Novosib           627.062
        38   01 Jun 2027 11:53:01.009   01 Jun 2027 11:55:11.721           130.712                 Moscow          4084.750
        39   01 Jun 2027 12:59:33.823   01 Jun 2027 13:03:08.350           214.527               CapeTown          6703.969
        40   01 Jun 2027 13:10:47.397   01 Jun 2027 13:11:17.325            29.928               CapeTown           935.250
        41   01 Jun 2027 13:26:33.650   01 Jun 2027 13:26:40.155             6.505              Murmansk1           203.281
        42   01 Jun 2027 13:27:14.647   01 Jun 2027 13:29:29.582           134.935              Murmansk2          4216.719
        43   01 Jun 2027 13:29:57.300   01 Jun 2027 13:30:15.843            18.543              Murmansk2           579.469
        44   01 Jun 2027 13:31:16.190   01 Jun 2027 13:32:31.617            75.427              Murmansk2          2357.094
        45   01 Jun 2027 13:33:39.518   01 Jun 2027 13:34:45.017            65.499              Murmansk2          2046.844
        46   01 Jun 2027 13:34:45.017   01 Jun 2027 13:35:06.961            21.944              Murmansk1           685.750
        47   01 Jun 2027 13:35:55.017   01 Jun 2027 13:36:47.118            52.101              Murmansk2          1628.156
        48   01 Jun 2027 13:37:00.975   01 Jun 2027 13:37:33.597            32.622              Murmansk1          1019.438
        49   01 Jun 2027 13:39:53.779   01 Jun 2027 13:41:59.306           125.527                Anadyr1          3922.719
        50   01 Jun 2027 13:43:04.564   01 Jun 2027 13:45:31.084           146.520                Anadyr1          4578.750
        51   01 Jun 2027 13:45:58.132   01 Jun 2027 13:47:54.340           116.208                Anadyr2          3631.500
        52   01 Jun 2027 13:48:21.929   01 Jun 2027 13:48:28.927             6.998                Anadyr2           218.688
        53   01 Jun 2027 13:48:36.686   01 Jun 2027 13:49:26.087            49.401                Anadyr1          1543.781
        54   01 Jun 2027 15:09:27.708   01 Jun 2027 15:09:48.445            20.737              Murmansk2           648.031
        55   01 Jun 2027 15:10:02.954   01 Jun 2027 15:10:31.958            29.004              Murmansk2           906.375
        56   01 Jun 2027 15:11:08.122   01 Jun 2027 15:11:15.144             7.022              Murmansk2           219.438
        57   01 Jun 2027 15:11:27.768   01 Jun 2027 15:11:48.489            20.721              Murmansk1           647.531
        58   01 Jun 2027 15:11:48.489   01 Jun 2027 15:12:24.634            36.145              Murmansk2          1129.531
        59   01 Jun 2027 15:12:59.380   01 Jun 2027 15:13:19.796            20.416              Murmansk2           638.000
        60   01 Jun 2027 15:16:38.787   01 Jun 2027 15:17:16.254            37.467                Anadyr2          1170.844
        61   01 Jun 2027 15:17:16.254   01 Jun 2027 15:17:58.244            41.990                Anadyr1          1312.187
        62   01 Jun 2027 15:18:34.930   01 Jun 2027 15:27:57.711           562.781               Magadan2         17586.906
        63   01 Jun 2027 16:54:27.325   01 Jun 2027 16:55:39.368            72.043               Magadan1          2251.344
        64   01 Jun 2027 16:57:50.344   01 Jun 2027 16:58:03.506            13.162               Magadan2           411.312
        65   01 Jun 2027 17:00:51.717   01 Jun 2027 17:01:23.127            31.410               Magadan1           981.562
        66   01 Jun 2027 17:01:23.127   01 Jun 2027 17:01:25.055             1.928               Magadan2            60.250
        67   01 Jun 2027 17:01:48.029   01 Jun 2027 17:02:10.678            22.649               Magadan2           707.781
        68   01 Jun 2027 17:02:19.643   01 Jun 2027 17:02:29.074             9.431               Magadan1           294.719
        69   01 Jun 2027 17:02:29.074   01 Jun 2027 17:03:47.660            78.586               Magadan2          2455.813
        70   01 Jun 2027 17:47:17.857   01 Jun 2027 17:50:20.839           182.982            RioGallegos          5718.188
        71   01 Jun 2027 17:52:03.020   01 Jun 2027 17:53:33.161            90.141            RioGallegos          2816.906
        72   01 Jun 2027 18:30:50.864   01 Jun 2027 18:32:49.413           118.549                Norilsk          3704.656
        73   01 Jun 2027 18:34:13.670   01 Jun 2027 18:38:57.824           284.154                Irkutsk          8879.812
        74   01 Jun 2027 18:48:52.522   01 Jun 2027 18:51:40.027           167.505                Sumatra          5234.531
        75   01 Jun 2027 18:53:15.236   01 Jun 2027 18:54:08.878            53.642                Sumatra          1676.312
        76   01 Jun 2027 18:55:34.726   01 Jun 2027 18:56:56.329            81.603                Sumatra          2550.094
        77   01 Jun 2027 20:11:14.996   01 Jun 2027 20:12:43.001            88.005                Novosib          2750.156
        78   01 Jun 2027 20:19:07.501   01 Jun 2027 20:21:30.920           143.419                  Delhi          4481.844
        79   01 Jun 2027 20:23:13.571   01 Jun 2027 20:25:13.386           119.815                  Delhi          3744.219
        80   01 Jun 2027 21:44:05.236   01 Jun 2027 21:49:59.799           354.563              Murmansk1         11080.094
        81   01 Jun 2027 23:15:43.600   01 Jun 2027 23:17:36.454           112.854               Magadan1          3526.688
        82   01 Jun 2027 23:19:25.077   01 Jun 2027 23:20:56.384            91.307              Murmansk2          2853.344
        83   01 Jun 2027 23:21:03.740   01 Jun 2027 23:22:51.957           108.217              Murmansk1          3381.781
        84   01 Jun 2027 23:23:07.444   01 Jun 2027 23:26:15.934           188.490                 Moscow          5890.313
        85   01 Jun 2027 23:50:17.164   01 Jun 2027 23:51:31.014            73.850               CapeTown          2307.812
        86   01 Jun 2027 23:53:16.874   01 Jun 2027 23:55:14.717           117.843               CapeTown          3682.594
        87   01 Jun 2027 23:56:11.122   01 Jun 2027 23:56:21.299            10.177               CapeTown           318.031
        88   02 Jun 2027 00:54:31.780   02 Jun 2027 00:54:50.713            18.933               Magadan2           591.656
        89   02 Jun 2027 00:55:20.779   02 Jun 2027 00:56:39.087            78.308              Murmansk2          2447.125
        90   02 Jun 2027 00:56:49.098   02 Jun 2027 00:57:06.150            17.052              Murmansk1           532.875
        91   02 Jun 2027 00:57:57.294   02 Jun 2027 00:58:25.691            28.397                Novosib           887.406
        92   02 Jun 2027 00:59:50.328   02 Jun 2027 01:00:17.388            27.060                 Moscow           845.625
        93   02 Jun 2027 01:02:31.036   02 Jun 2027 01:02:53.121            22.085                 Moscow           690.156
        94   02 Jun 2027 01:04:52.689   02 Jun 2027 01:06:14.696            82.007              Murmansk1          2562.719
        95   02 Jun 2027 01:23:35.060   02 Jun 2027 01:23:49.294            14.234               CapeTown           444.812
        96   02 Jun 2027 01:25:38.915   02 Jun 2027 01:26:20.312            41.397               CapeTown          1293.656
        97   02 Jun 2027 01:31:42.487   02 Jun 2027 01:32:08.029            25.542               CapeTown           798.188
        98   02 Jun 2027 01:33:53.244   02 Jun 2027 01:35:11.392            78.148               CapeTown          2442.125
        99   02 Jun 2027 02:20:03.175   02 Jun 2027 02:20:29.645            26.470               Magadan2           827.188
       100   02 Jun 2027 02:20:50.539   02 Jun 2027 02:21:18.804            28.265               Magadan1           883.281
       101   02 Jun 2027 02:22:06.349   02 Jun 2027 02:22:32.913            26.564               Magadan1           830.125
       102   02 Jun 2027 02:24:13.050   02 Jun 2027 02:24:38.241            25.191               Magadan1           787.219
       103   02 Jun 2027 02:27:00.219   02 Jun 2027 02:27:14.981            14.762               Magadan1           461.312
       104   02 Jun 2027 02:27:43.206   02 Jun 2027 02:28:04.565            21.359                Norilsk           667.469
       105   02 Jun 2027 02:28:52.984   02 Jun 2027 02:29:41.522            48.538               Magadan1          1516.812
       106   02 Jun 2027 02:31:17.067   02 Jun 2027 02:32:37.134            80.067              Murmansk2          2502.094
       107   02 Jun 2027 02:35:50.731   02 Jun 2027 02:36:10.852            20.121                 Moscow           628.781
       108   02 Jun 2027 02:38:12.016   02 Jun 2027 02:38:21.392             9.376              Murmansk1           293.000
       109   02 Jun 2027 02:39:15.932   02 Jun 2027 02:39:16.828             0.896                 Moscow            28.000
       110   02 Jun 2027 02:39:21.828   02 Jun 2027 02:39:40.521            18.693                 Moscow           584.156
       111   02 Jun 2027 02:40:02.671   02 Jun 2027 02:40:31.924            29.253              Murmansk1           914.156
       112   02 Jun 2027 02:43:13.972   02 Jun 2027 02:43:15.825             1.853              Murmansk2            57.906
       113   02 Jun 2027 02:43:19.386   02 Jun 2027 02:43:41.212            21.826                 Moscow           682.063
       114   02 Jun 2027 03:03:37.836   02 Jun 2027 03:04:20.136            42.300               CapeTown          1321.875
       115   02 Jun 2027 03:05:40.553   02 Jun 2027 03:05:59.190            18.637               CapeTown           582.406
       116   02 Jun 2027 04:01:38.716   02 Jun 2027 04:03:46.665           127.949                Anadyr2          3998.406
       117   02 Jun 2027 04:03:46.665   02 Jun 2027 04:03:53.312             6.647                Anadyr1           207.719
       118   02 Jun 2027 04:04:25.328   02 Jun 2027 04:05:21.155            55.827               Magadan2          1744.594
       119   02 Jun 2027 04:05:21.155   02 Jun 2027 04:06:38.230            77.075               Magadan1          2408.594
       120   02 Jun 2027 04:06:40.600   02 Jun 2027 04:07:43.894            63.294               Magadan1          1977.938
       121   02 Jun 2027 04:07:45.195   02 Jun 2027 04:07:49.732             4.537                Anadyr2           141.781
       122   02 Jun 2027 04:45:06.067   02 Jun 2027 04:47:50.242           164.175            RioGallegos          5130.469
       123   02 Jun 2027 04:49:34.120   02 Jun 2027 04:51:18.439           104.319            RioGallegos          3259.969
       124   02 Jun 2027 05:38:33.463   02 Jun 2027 05:40:27.008           113.545                Irkutsk          3548.281
       125   02 Jun 2027 05:40:28.057   02 Jun 2027 05:42:30.126           122.069               Magadan1          3814.656
       126   02 Jun 2027 05:42:36.390   02 Jun 2027 05:43:10.301            33.911                Irkutsk          1059.719
       127   02 Jun 2027 07:15:13.524   02 Jun 2027 07:16:22.045            68.521                Irkutsk          2141.281
       128   02 Jun 2027 07:16:28.822   02 Jun 2027 07:16:47.200            18.378                Novosib           574.313
       129   02 Jun 2027 07:17:42.549   02 Jun 2027 07:19:26.276           103.727                Irkutsk          3241.469
       130   02 Jun 2027 07:20:06.009   02 Jun 2027 07:20:50.753            44.744                Novosib          1398.250
       131   02 Jun 2027 08:52:42.189   02 Jun 2027 08:53:22.379            40.190                Irkutsk          1255.937
       132   02 Jun 2027 08:54:26.803   02 Jun 2027 08:55:05.621            38.818                Norilsk          1213.063
       133   02 Jun 2027 08:55:35.688   02 Jun 2027 08:56:53.463            77.775                Novosib          2430.469
       134   02 Jun 2027 10:14:03.508   02 Jun 2027 10:17:22.487           198.979                  Delhi          6218.094
       135   02 Jun 2027 10:28:18.343   02 Jun 2027 10:28:33.505            15.162                Novosib           473.812
       136   02 Jun 2027 10:29:25.547   02 Jun 2027 10:29:42.820            17.273                Norilsk           539.781
       137   02 Jun 2027 10:30:02.413   02 Jun 2027 10:30:09.172             6.759                Novosib           211.219
       138   02 Jun 2027 10:30:28.608   02 Jun 2027 10:30:43.454            14.846                Norilsk           463.937
       139   02 Jun 2027 10:30:56.815   02 Jun 2027 10:30:56.825             0.010                Norilsk             0.312
       140   02 Jun 2027 10:31:31.175   02 Jun 2027 10:31:33.292             2.117                Novosib            66.156
       141   02 Jun 2027 12:01:10.227   02 Jun 2027 12:01:41.292            31.065              Murmansk2           970.781
       142   02 Jun 2027 12:02:57.023   02 Jun 2027 12:03:25.926            28.903              Murmansk2           903.219
       143   02 Jun 2027 12:04:21.042   02 Jun 2027 12:04:45.275            24.233              Murmansk1           757.281
       144   02 Jun 2027 12:05:50.229   02 Jun 2027 12:05:55.944             5.715              Murmansk1           178.594
       145   02 Jun 2027 12:07:19.371   02 Jun 2027 12:09:32.359           132.988                Norilsk          4155.875
       146   02 Jun 2027 12:10:42.777   02 Jun 2027 12:10:51.051             8.274                Norilsk           258.563
       147   02 Jun 2027 12:17:45.869   02 Jun 2027 12:20:46.763           180.894                Anadyr2          5652.938
       148   02 Jun 2027 13:22:36.035   02 Jun 2027 13:23:35.420            59.385               CapeTown          1855.781
       149   02 Jun 2027 13:40:17.531   02 Jun 2027 13:40:26.636             9.105              Murmansk1           284.531
       150   02 Jun 2027 13:40:48.795   02 Jun 2027 13:40:56.604             7.809              Murmansk2           244.031
       151   02 Jun 2027 13:41:30.346   02 Jun 2027 13:42:12.129            41.783              Murmansk1          1305.719
       152   02 Jun 2027 13:43:14.250   02 Jun 2027 13:43:17.889             3.639              Murmansk2           113.719
       153   02 Jun 2027 13:43:44.212   02 Jun 2027 13:44:31.067            46.855              Murmansk2          1464.219
       154   02 Jun 2027 13:51:51.096   02 Jun 2027 13:53:45.504           114.408                Anadyr2          3575.250
       155   02 Jun 2027 13:54:53.241   02 Jun 2027 13:57:13.663           140.422                Anadyr1          4388.188
       156   02 Jun 2027 15:19:22.737   02 Jun 2027 15:21:12.993           110.256              Murmansk1          3445.500
       157   02 Jun 2027 15:27:35.557   02 Jun 2027 15:28:58.987            83.430                Anadyr2          2607.188
       158   02 Jun 2027 15:29:55.171   02 Jun 2027 15:30:41.663            46.492                Anadyr1          1452.875
       159   02 Jun 2027 15:31:46.927   02 Jun 2027 15:33:37.331           110.404               Magadan1          3450.125
       160   02 Jun 2027 15:36:06.565   02 Jun 2027 15:38:08.617           122.052               Magadan1          3814.125
       161   02 Jun 2027 15:38:17.052   02 Jun 2027 15:38:37.068            20.016               Magadan1           625.500
       162   02 Jun 2027 17:03:30.909   02 Jun 2027 17:04:54.961            84.052                Anadyr1          2626.625
       163   02 Jun 2027 17:05:48.323   02 Jun 2027 17:08:02.048           133.725               Magadan1          4178.906
       164   02 Jun 2027 17:14:03.400   02 Jun 2027 17:14:13.384             9.984               Magadan1           312.000
       165   02 Jun 2027 17:14:21.292   02 Jun 2027 17:14:31.167             9.875               Magadan1           308.594
       166   02 Jun 2027 17:58:46.583   02 Jun 2027 18:02:09.243           202.660            RioGallegos          6333.125
       167   02 Jun 2027 18:03:13.100   02 Jun 2027 18:04:10.585            57.485            RioGallegos          1796.406
       168   02 Jun 2027 18:05:35.842   02 Jun 2027 18:05:49.167            13.325            RioGallegos           416.406
       169   02 Jun 2027 18:40:40.551   02 Jun 2027 18:40:58.281            17.730                Anadyr1           554.063
       170   02 Jun 2027 18:41:26.084   02 Jun 2027 18:44:51.162           205.078                Norilsk          6408.687
       171   02 Jun 2027 18:45:58.830   02 Jun 2027 18:46:54.336            55.506                Irkutsk          1734.562
       172   02 Jun 2027 18:47:23.494   02 Jun 2027 18:48:50.791            87.297                Irkutsk          2728.031
       173   02 Jun 2027 18:49:53.419   02 Jun 2027 18:53:35.279           221.860                Irkutsk          6933.125
       174   02 Jun 2027 19:04:20.411   02 Jun 2027 19:06:07.501           107.090                Sumatra          3346.563
       175   02 Jun 2027 20:21:35.074   02 Jun 2027 20:23:24.820           109.746                Novosib          3429.562
       176   02 Jun 2027 20:24:45.518   02 Jun 2027 20:25:33.620            48.102                Novosib          1503.187
       177   02 Jun 2027 20:30:17.879   02 Jun 2027 20:33:14.012           176.133                  Delhi          5504.156
       178   02 Jun 2027 20:37:10.424   02 Jun 2027 20:38:25.523            75.099                  Delhi          2346.844
       179   02 Jun 2027 21:55:55.824   02 Jun 2027 21:59:55.887           240.063              Murmansk2          7501.969
       180   02 Jun 2027 22:00:57.785   02 Jun 2027 22:01:50.276            52.491              Murmansk1          1640.344
       181   02 Jun 2027 23:27:58.668   02 Jun 2027 23:28:07.449             8.781               Magadan2           274.406
       182   02 Jun 2027 23:28:12.176   02 Jun 2027 23:28:58.943            46.767               Magadan2          1461.469
       183   02 Jun 2027 23:30:24.466   02 Jun 2027 23:30:32.796             8.330               Magadan2           260.312
       184   02 Jun 2027 23:31:22.088   02 Jun 2027 23:31:40.296            18.208               Magadan1           569.000
       185   02 Jun 2027 23:31:54.855   02 Jun 2027 23:34:52.725           177.870              Murmansk2          5558.437
       186   02 Jun 2027 23:35:00.542   02 Jun 2027 23:37:01.142           120.600                 Moscow          3768.750
       187   02 Jun 2027 23:39:45.274   02 Jun 2027 23:40:54.414            69.140                 Moscow          2160.625
       188   03 Jun 2027 00:00:13.271   03 Jun 2027 00:01:14.882            61.611               CapeTown          1925.344
       189   03 Jun 2027 00:02:30.658   03 Jun 2027 00:03:13.965            43.307               CapeTown          1353.344
       190   03 Jun 2027 00:05:51.994   03 Jun 2027 00:07:14.289            82.295               CapeTown          2571.719
       191   03 Jun 2027 01:07:22.456   03 Jun 2027 01:09:48.524           146.068              Murmansk1          4564.625
       192   03 Jun 2027 01:13:21.515   03 Jun 2027 01:13:52.458            30.943                 Moscow           966.969
       193   03 Jun 2027 01:21:23.142   03 Jun 2027 01:21:33.921            10.779                 Moscow           336.844
       194   03 Jun 2027 01:34:35.470   03 Jun 2027 01:36:13.663            98.193               CapeTown          3068.531
       195   03 Jun 2027 02:31:21.665   03 Jun 2027 02:32:34.124            72.459                Anadyr1          2264.344
       196   03 Jun 2027 02:32:49.737   03 Jun 2027 02:33:39.879            50.142               Magadan2          1566.938
       197   03 Jun 2027 02:34:08.966   03 Jun 2027 02:35:21.646            72.680               Magadan2          2271.250
       198   03 Jun 2027 02:42:14.660   03 Jun 2027 02:42:32.835            18.175                Norilsk           567.969
       199   03 Jun 2027 02:43:17.727   03 Jun 2027 02:44:38.683            80.956              Murmansk1          2529.875
       200   03 Jun 2027 02:45:59.169   03 Jun 2027 02:46:26.907            27.738              Murmansk2           866.813
       201   03 Jun 2027 02:46:49.661   03 Jun 2027 02:47:53.785            64.124                 Moscow          2003.875
       202   03 Jun 2027 02:56:19.323   03 Jun 2027 02:56:28.971             9.648                 Moscow           301.500
       203   03 Jun 2027 04:13:59.484   03 Jun 2027 04:15:27.059            87.575                Anadyr1          2736.719
       204   03 Jun 2027 04:15:27.059   03 Jun 2027 04:15:30.575             3.516                Anadyr2           109.875
       205   03 Jun 2027 04:15:45.968   03 Jun 2027 04:17:32.923           106.955                Anadyr1          3342.344
       206   03 Jun 2027 04:17:44.539   03 Jun 2027 04:18:53.675            69.136                Anadyr2          2160.500
       207   03 Jun 2027 04:56:34.335   03 Jun 2027 04:58:49.198           134.863            RioGallegos          4214.469
       208   03 Jun 2027 05:50:46.807   03 Jun 2027 05:51:10.239            23.432                Irkutsk           732.250
       209   03 Jun 2027 05:51:45.972   03 Jun 2027 05:53:17.994            92.022                Irkutsk          2875.688
       210   03 Jun 2027 05:53:57.188   03 Jun 2027 05:55:16.982            79.794                Irkutsk          2493.562
       211   03 Jun 2027 07:27:41.152   03 Jun 2027 07:28:22.934            41.782                Novosib          1305.688
       212   03 Jun 2027 07:28:25.429   03 Jun 2027 07:28:41.441            16.012              Murmansk1           500.375
       213   03 Jun 2027 07:30:50.002   03 Jun 2027 07:31:26.475            36.473                Irkutsk          1139.781
       214   03 Jun 2027 08:07:23.934   03 Jun 2027 08:08:20.624            56.690            RioGallegos          1771.563
       215   03 Jun 2027 08:41:36.800   03 Jun 2027 08:42:23.173            46.373                Sumatra          1449.156
       216   03 Jun 2027 09:03:26.960   03 Jun 2027 09:03:27.538             0.578                Novosib            18.062
       217   03 Jun 2027 09:04:21.630   03 Jun 2027 09:04:22.847             1.217                Irkutsk            38.031
       218   03 Jun 2027 09:06:11.488   03 Jun 2027 09:06:36.324            24.836                Novosib           776.125
       219   03 Jun 2027 09:07:27.580   03 Jun 2027 09:07:47.576            19.996                Novosib           624.875
       220   03 Jun 2027 10:26:37.526   03 Jun 2027 10:29:21.249           163.723                  Delhi          5116.344
       221   03 Jun 2027 10:40:26.177   03 Jun 2027 10:41:04.772            38.595              Murmansk2          1206.094
       222   03 Jun 2027 10:43:11.148   03 Jun 2027 10:43:40.431            29.283                Norilsk           915.094
       223   03 Jun 2027 12:14:55.137   03 Jun 2027 12:16:01.308            66.171              Murmansk1          2067.844
       224   03 Jun 2027 12:16:16.260   03 Jun 2027 12:17:41.075            84.815              Murmansk2          2650.469
       225   03 Jun 2027 12:20:34.947   03 Jun 2027 12:22:02.711            87.764                Norilsk          2742.625
       226   03 Jun 2027 13:30:46.264   03 Jun 2027 13:32:06.906            80.642               CapeTown          2520.062
       227   03 Jun 2027 13:49:53.253   03 Jun 2027 13:50:37.676            44.423                 Moscow          1388.219
       228   03 Jun 2027 13:51:20.653   03 Jun 2027 13:52:48.750            88.097              Murmansk1          2753.031
       229   03 Jun 2027 13:53:30.637   03 Jun 2027 13:53:55.293            24.656              Murmansk2           770.500
       230   03 Jun 2027 13:54:56.504   03 Jun 2027 13:55:19.656            23.152              Murmansk1           723.500
       231   03 Jun 2027 13:55:33.156   03 Jun 2027 13:55:41.056             7.900              Murmansk2           246.875
       232   03 Jun 2027 13:57:51.225   03 Jun 2027 13:58:19.612            28.387              Murmansk1           887.094
       233   03 Jun 2027 13:59:48.847   03 Jun 2027 13:59:58.024             9.177              Murmansk2           286.781
       234   03 Jun 2027 14:00:37.661   03 Jun 2027 14:00:53.206            15.545              Murmansk1           485.781
       235   03 Jun 2027 14:01:04.246   03 Jun 2027 14:01:16.667            12.421              Murmansk2           388.156
       236   03 Jun 2027 14:01:39.213   03 Jun 2027 14:01:52.658            13.445              Murmansk2           420.156
       237   03 Jun 2027 14:03:49.287   03 Jun 2027 14:07:06.761           197.474                Anadyr2          6171.062
       238   03 Jun 2027 14:12:23.505   03 Jun 2027 14:13:57.918            94.413                Anadyr1          2950.406
       239   03 Jun 2027 15:32:19.362   03 Jun 2027 15:33:14.833            55.471              Murmansk2          1733.469
       240   03 Jun 2027 15:35:08.808   03 Jun 2027 15:35:19.022            10.214              Murmansk1           319.187
       241   03 Jun 2027 15:39:36.720   03 Jun 2027 15:40:58.959            82.239                Anadyr1          2569.969
       242   03 Jun 2027 15:41:50.385   03 Jun 2027 15:42:08.943            18.558                Anadyr2           579.938
       243   03 Jun 2027 15:42:18.464   03 Jun 2027 15:45:23.144           184.680               Magadan1          5771.250
       244   03 Jun 2027 15:45:23.144   03 Jun 2027 15:46:19.788            56.644               Magadan2          1770.125
       245   03 Jun 2027 15:47:55.104   03 Jun 2027 15:48:04.036             8.932               Magadan1           279.125
       246   03 Jun 2027 15:50:10.584   03 Jun 2027 15:50:36.800            26.216               Magadan2           819.250
       247   03 Jun 2027 15:50:57.003   03 Jun 2027 15:51:48.636            51.633               Magadan2          1613.531
       248   03 Jun 2027 17:15:31.854   03 Jun 2027 17:16:04.731            32.877                Anadyr2          1027.406
       249   03 Jun 2027 17:17:48.850   03 Jun 2027 17:19:54.942           126.092               Magadan2          3940.375
       250   03 Jun 2027 17:26:15.756   03 Jun 2027 17:27:06.875            51.119               Magadan2          1597.469
       251   03 Jun 2027 17:29:54.263   03 Jun 2027 17:30:12.034            17.771               Magadan1           555.344
       252   03 Jun 2027 18:10:24.799   03 Jun 2027 18:15:00.320           275.521            RioGallegos          8610.031
       253   03 Jun 2027 18:15:42.201   03 Jun 2027 18:16:51.660            69.459            RioGallegos          2170.594
       254   03 Jun 2027 18:53:25.120   03 Jun 2027 18:54:04.007            38.887                Norilsk          1215.219
       255   03 Jun 2027 18:55:11.825   03 Jun 2027 18:56:52.799           100.974                Norilsk          3155.437
       256   03 Jun 2027 18:57:47.679   03 Jun 2027 18:58:48.497            60.818                Irkutsk          1900.562
       257   03 Jun 2027 18:59:32.852   03 Jun 2027 19:00:52.757            79.905                Irkutsk          2497.031
       258   03 Jun 2027 19:11:47.529   03 Jun 2027 19:15:22.267           214.738                Sumatra          6710.562
       259   03 Jun 2027 20:33:09.620   03 Jun 2027 20:34:11.032            61.412                Irkutsk          1919.125
       260   03 Jun 2027 20:34:34.437   03 Jun 2027 20:36:47.622           133.185                Novosib          4162.031
       261   03 Jun 2027 20:41:44.033   03 Jun 2027 20:42:47.641            63.608                  Delhi          1987.750
       262   03 Jun 2027 20:44:20.497   03 Jun 2027 20:45:02.170            41.673                  Delhi          1302.281
       263   03 Jun 2027 20:47:36.888   03 Jun 2027 20:48:45.463            68.575                  Delhi          2142.969
       264   03 Jun 2027 22:07:49.531   03 Jun 2027 22:14:14.262           384.731              Murmansk2         12022.844
       265   03 Jun 2027 22:14:32.650   03 Jun 2027 22:16:57.220           144.570                 Moscow          4517.812
       266   03 Jun 2027 23:43:26.607   03 Jun 2027 23:44:52.023            85.416              Murmansk1          2669.250
       267   03 Jun 2027 23:46:53.250   03 Jun 2027 23:46:57.653             4.403              Murmansk2           137.594
       268   03 Jun 2027 23:47:30.372   03 Jun 2027 23:49:00.186            89.814                 Moscow          2806.687
       269   03 Jun 2027 23:50:52.118   03 Jun 2027 23:52:36.095           103.977                 Moscow          3249.281
       270   04 Jun 2027 00:11:43.298   04 Jun 2027 00:13:10.309            87.011               CapeTown          2719.094
       271   04 Jun 2027 00:14:50.290   04 Jun 2027 00:15:02.179            11.889               CapeTown           371.531
       272   04 Jun 2027 00:17:01.064   04 Jun 2027 00:17:40.240            39.176               CapeTown          1224.250
       273   04 Jun 2027 01:11:04.893   04 Jun 2027 01:11:23.507            18.614               Magadan2           581.688
       274   04 Jun 2027 01:13:45.241   04 Jun 2027 01:13:53.717             8.476               Magadan1           264.875
       275   04 Jun 2027 01:14:26.963   04 Jun 2027 01:15:13.647            46.684               Magadan2          1458.875
       276   04 Jun 2027 01:19:24.102   04 Jun 2027 01:20:52.205            88.103              Murmansk1          2753.219
       277   04 Jun 2027 01:22:29.680   04 Jun 2027 01:22:41.098            11.418              Murmansk2           356.813
       278   04 Jun 2027 01:22:49.121   04 Jun 2027 01:23:09.967            20.846                Novosib           651.438
       279   04 Jun 2027 01:23:14.008   04 Jun 2027 01:23:19.186             5.178              Murmansk2           161.813
       280   04 Jun 2027 01:23:22.774   04 Jun 2027 01:23:31.793             9.019                Novosib           281.844
       281   04 Jun 2027 01:23:44.854   04 Jun 2027 01:23:59.206            14.352                 Moscow           448.500
       282   04 Jun 2027 01:26:34.674   04 Jun 2027 01:26:43.872             9.198                 Moscow           287.438
       283   04 Jun 2027 01:26:51.074   04 Jun 2027 01:26:51.953             0.879                 Moscow            27.469
       284   04 Jun 2027 01:27:23.041   04 Jun 2027 01:27:53.381            30.340                 Moscow           948.125
       285   04 Jun 2027 01:31:19.313   04 Jun 2027 01:31:34.878            15.565                 Moscow           486.406
       286   04 Jun 2027 01:31:50.823   04 Jun 2027 01:32:03.989            13.166                 Moscow           411.437
       287   04 Jun 2027 01:46:48.641   04 Jun 2027 01:48:01.292            72.651               CapeTown          2270.344
       288   04 Jun 2027 02:43:30.573   04 Jun 2027 02:44:33.049            62.476                Anadyr2          1952.375
       289   04 Jun 2027 02:44:40.739   04 Jun 2027 02:45:07.692            26.953               Magadan1           842.281
       290   04 Jun 2027 02:45:08.903   04 Jun 2027 02:46:25.855            76.952               Magadan2          2404.750
       291   04 Jun 2027 02:48:38.395   04 Jun 2027 02:48:52.857            14.462               Magadan1           451.938
       292   04 Jun 2027 02:50:57.815   04 Jun 2027 02:51:21.622            23.807               Magadan2           743.969
       293   04 Jun 2027 02:53:11.543   04 Jun 2027 02:53:19.128             7.585               Magadan2           237.031
       294   04 Jun 2027 02:54:14.600   04 Jun 2027 02:54:25.207            10.607                Norilsk           331.469
       295   04 Jun 2027 02:55:11.234   04 Jun 2027 02:55:41.448            30.214                Norilsk           944.188
       296   04 Jun 2027 02:55:58.539   04 Jun 2027 02:56:31.221            32.682              Murmansk2          1021.312
       297   04 Jun 2027 02:56:32.546   04 Jun 2027 02:56:40.125             7.579              Murmansk1           236.844
       298   04 Jun 2027 02:57:19.060   04 Jun 2027 02:57:22.905             3.845              Murmansk1           120.156
       299   04 Jun 2027 02:57:29.709   04 Jun 2027 02:58:21.628            51.919              Murmansk2          1622.469
       300   04 Jun 2027 02:59:42.371   04 Jun 2027 03:00:55.650            73.279                 Moscow          2289.969
       301   04 Jun 2027 04:27:18.827   04 Jun 2027 04:28:32.713            73.886               Magadan1          2308.937
       302   04 Jun 2027 04:28:37.782   04 Jun 2027 04:28:58.389            20.607               Magadan2           643.969
       303   04 Jun 2027 04:29:13.881   04 Jun 2027 04:30:06.048            52.167                Anadyr1          1630.219
       304   04 Jun 2027 04:30:08.301   04 Jun 2027 04:30:12.323             4.022                Irkutsk           125.688
       305   04 Jun 2027 05:08:06.458   04 Jun 2027 05:11:15.444           188.986            RioGallegos          5905.812
       306   04 Jun 2027 06:03:35.150   04 Jun 2027 06:03:50.353            15.203               Magadan1           475.094
       307   04 Jun 2027 06:03:50.353   04 Jun 2027 06:04:56.631            66.278               Magadan2          2071.187
       308   04 Jun 2027 06:05:01.010   04 Jun 2027 06:07:22.773           141.763                Irkutsk          4430.094
       309   04 Jun 2027 07:38:12.269   04 Jun 2027 07:39:14.184            61.915                Irkutsk          1934.844
       310   04 Jun 2027 07:39:18.106   04 Jun 2027 07:40:21.619            63.513                Irkutsk          1984.781
       311   04 Jun 2027 07:40:40.059   04 Jun 2027 07:41:22.636            42.577                Irkutsk          1330.531
       312   04 Jun 2027 07:41:26.654   04 Jun 2027 07:41:59.150            32.496              Murmansk2          1015.500
       313   04 Jun 2027 07:42:33.001   04 Jun 2027 07:42:33.928             0.927                Norilsk            28.969
       314   04 Jun 2027 07:42:55.974   04 Jun 2027 07:43:14.825            18.851                Novosib           589.094
       315   04 Jun 2027 07:49:33.644   04 Jun 2027 07:49:56.830            23.186              Murmansk2           724.563
       316   04 Jun 2027 08:19:55.005   04 Jun 2027 08:20:26.184            31.179            RioGallegos           974.344
       317   04 Jun 2027 08:20:44.491   04 Jun 2027 08:21:10.609            26.118            RioGallegos           816.187
       318   04 Jun 2027 08:54:06.570   04 Jun 2027 08:54:19.472            12.902                Sumatra           403.188
       319   04 Jun 2027 08:54:58.439   04 Jun 2027 08:55:28.899            30.460                Sumatra           951.875
       320   04 Jun 2027 08:58:01.660   04 Jun 2027 08:58:40.728            39.068                Sumatra          1220.875
       321   04 Jun 2027 09:15:22.882   04 Jun 2027 09:15:26.829             3.947                Novosib           123.344
       322   04 Jun 2027 09:15:54.389   04 Jun 2027 09:16:43.362            48.973                Novosib          1530.406
       323   04 Jun 2027 09:16:46.550   04 Jun 2027 09:17:30.008            43.458                Novosib          1358.062
       324   04 Jun 2027 09:17:43.376   04 Jun 2027 09:17:56.272            12.896                Novosib           403.000
       325   04 Jun 2027 09:18:03.889   04 Jun 2027 09:18:14.937            11.048                Novosib           345.250
       326   04 Jun 2027 09:18:59.715   04 Jun 2027 09:19:16.855            17.140                Novosib           535.625
       327   04 Jun 2027 10:39:23.752   04 Jun 2027 10:41:39.543           135.791                  Delhi          4243.469
       328   04 Jun 2027 10:43:11.460   04 Jun 2027 10:43:26.197            14.737                  Delhi           460.531
       329   04 Jun 2027 10:47:52.909   04 Jun 2027 10:48:00.620             7.711                  Delhi           240.969
       330   04 Jun 2027 10:51:57.283   04 Jun 2027 10:52:02.434             5.151                Novosib           160.969
       331   04 Jun 2027 10:52:03.220   04 Jun 2027 10:52:03.593             0.373              Murmansk2            11.656
       332   04 Jun 2027 10:56:46.611   04 Jun 2027 10:57:21.083            34.472                Norilsk          1077.250
       333   04 Jun 2027 12:26:09.788   04 Jun 2027 12:26:21.459            11.671              Murmansk1           364.719
       334   04 Jun 2027 12:26:52.128   04 Jun 2027 12:27:19.988            27.860              Murmansk1           870.625
       335   04 Jun 2027 12:27:31.203   04 Jun 2027 12:28:24.398            53.195              Murmansk2          1662.344
       336   04 Jun 2027 12:28:34.369   04 Jun 2027 12:29:42.551            68.182              Murmansk1          2130.687
       337   04 Jun 2027 12:34:32.834   04 Jun 2027 12:35:18.756            45.922              Murmansk2          1435.062
       338   04 Jun 2027 12:40:48.352   04 Jun 2027 12:43:28.715           160.363                Anadyr2          5011.344
       339   04 Jun 2027 12:43:48.570   04 Jun 2027 12:44:30.378            41.808                Anadyr1          1306.500
       340   04 Jun 2027 12:45:43.980   04 Jun 2027 12:47:24.914           100.934                Anadyr2          3154.187
       341   04 Jun 2027 14:03:47.821   04 Jun 2027 14:04:13.780            25.959              Murmansk1           811.219
       342   04 Jun 2027 14:04:18.106   04 Jun 2027 14:05:32.597            74.491              Murmansk2          2327.844
       343   04 Jun 2027 14:10:07.136   04 Jun 2027 14:11:16.752            69.616              Murmansk2          2175.500
       344   04 Jun 2027 14:15:48.178   04 Jun 2027 14:17:28.703           100.525                Anadyr1          3141.406
       345   04 Jun 2027 14:17:35.050   04 Jun 2027 14:19:07.608            92.558                Anadyr2          2892.437
       346   04 Jun 2027 15:45:31.030   04 Jun 2027 15:47:16.983           105.953              Murmansk1          3311.031
       347   04 Jun 2027 15:47:21.034   04 Jun 2027 15:47:27.886             6.852              Murmansk1           214.125
       348   04 Jun 2027 15:48:08.890   04 Jun 2027 15:48:18.911            10.021              Murmansk1           313.156
       349   04 Jun 2027 15:51:37.989   04 Jun 2027 15:54:14.992           157.003                Anadyr2          4906.344
       350   04 Jun 2027 15:55:33.917   04 Jun 2027 15:58:17.992           164.075               Magadan1          5127.344
       351   04 Jun 2027 15:59:41.568   04 Jun 2027 16:00:51.593            70.025               Magadan2          2188.281
       352   04 Jun 2027 17:27:32.596   04 Jun 2027 17:28:53.611            81.015                Anadyr1          2531.719
       353   04 Jun 2027 17:29:38.863   04 Jun 2027 17:29:44.166             5.303                Anadyr2           165.719
       354   04 Jun 2027 17:29:49.781   04 Jun 2027 17:31:16.033            86.252               Magadan2          2695.375
       355   04 Jun 2027 17:31:45.652   04 Jun 2027 17:32:31.828            46.176               Magadan1          1443.000
       356   04 Jun 2027 17:33:49.360   04 Jun 2027 17:35:19.199            89.839               Magadan1          2807.469
       357   04 Jun 2027 18:22:08.814   04 Jun 2027 18:24:58.197           169.383            RioGallegos          5293.219
       358   04 Jun 2027 18:25:55.956   04 Jun 2027 18:28:18.211           142.255            RioGallegos          4445.469
       359   04 Jun 2027 19:05:24.867   04 Jun 2027 19:06:35.157            70.290                Norilsk          2196.562
       360   04 Jun 2027 19:07:27.087   04 Jun 2027 19:10:53.594           206.507                Norilsk          6453.344
       361   04 Jun 2027 19:11:17.821   04 Jun 2027 19:11:38.752            20.931                Irkutsk           654.094
       362   04 Jun 2027 19:12:10.315   04 Jun 2027 19:14:36.506           146.191                Novosib          4568.469
       363   04 Jun 2027 19:15:34.892   04 Jun 2027 19:15:52.742            17.850                Novosib           557.812
       364   04 Jun 2027 19:24:55.905   04 Jun 2027 19:27:21.958           146.053                Sumatra          4564.156
       365   04 Jun 2027 20:52:05.394   04 Jun 2027 20:52:34.184            28.790                Novosib           899.687
       366   04 Jun 2027 20:53:19.719   04 Jun 2027 20:56:33.791           194.072                  Delhi          6064.750
       367   04 Jun 2027 20:58:35.139   04 Jun 2027 20:59:52.046            76.907                  Delhi          2403.344
       368   04 Jun 2027 22:19:45.289   04 Jun 2027 22:22:10.948           145.659              Murmansk2          4551.844
       369   04 Jun 2027 22:23:00.326   04 Jun 2027 22:23:53.422            53.096              Murmansk1          1659.250
       370   04 Jun 2027 22:24:55.786   04 Jun 2027 22:30:36.251           340.465                 Moscow         10639.531
       371   04 Jun 2027 23:55:27.767   04 Jun 2027 23:55:28.479             0.712              Murmansk2            22.250
       372   04 Jun 2027 23:56:39.187   04 Jun 2027 23:57:29.029            49.842              Murmansk1          1557.562
       373   04 Jun 2027 23:58:51.727   04 Jun 2027 23:59:39.037            47.310                 Moscow          1478.438
       374   05 Jun 2027 00:00:19.634   05 Jun 2027 00:00:54.536            34.902                 Moscow          1090.687
       375   05 Jun 2027 00:02:23.444   05 Jun 2027 00:02:35.241            11.797                 Moscow           368.656
       376   05 Jun 2027 00:02:56.712   05 Jun 2027 00:04:15.394            78.682                 Moscow          2458.813
       377   05 Jun 2027 00:23:19.838   05 Jun 2027 00:24:31.255            71.417               CapeTown          2231.781
       378   05 Jun 2027 00:24:51.505   05 Jun 2027 00:25:25.682            34.177               CapeTown          1068.031
       379   05 Jun 2027 00:27:17.060   05 Jun 2027 00:28:06.614            49.554               CapeTown          1548.562
       380   05 Jun 2027 01:25:57.399   05 Jun 2027 01:26:29.652            32.253               Magadan2          1007.906
       381   05 Jun 2027 01:30:28.027   05 Jun 2027 01:30:58.596            30.569               Magadan2           955.281
       382   05 Jun 2027 01:31:25.692   05 Jun 2027 01:32:43.676            77.984              Murmansk1          2437.000
       383   05 Jun 2027 01:33:42.646   05 Jun 2027 01:34:26.405            43.759              Murmansk1          1367.469
       384   05 Jun 2027 01:35:24.637   05 Jun 2027 01:35:58.640            34.003                 Moscow          1062.594
       385   05 Jun 2027 01:39:49.261   05 Jun 2027 01:40:01.881            12.620                 Moscow           394.375
       386   05 Jun 2027 01:43:50.271   05 Jun 2027 01:44:04.338            14.067                 Moscow           439.594
       387   05 Jun 2027 01:59:07.915   05 Jun 2027 01:59:53.985            46.070               CapeTown          1439.688
       388   05 Jun 2027 02:01:20.666   05 Jun 2027 02:02:35.462            74.796               CapeTown          2337.375
       389   05 Jun 2027 02:55:24.385   05 Jun 2027 02:58:13.921           169.536               Magadan2          5298.000
       390   05 Jun 2027 03:01:36.507   05 Jun 2027 03:01:42.447             5.940                Anadyr1           185.625
       391   05 Jun 2027 03:01:50.082   05 Jun 2027 03:03:35.903           105.821               Magadan2          3306.906
       392   05 Jun 2027 03:03:35.951   05 Jun 2027 03:04:21.639            45.688                Anadyr2          1427.750
       393   05 Jun 2027 03:04:24.757   05 Jun 2027 03:04:51.783            27.026               Magadan1           844.563
       394   05 Jun 2027 03:05:22.603   05 Jun 2027 03:06:28.162            65.559                Anadyr1          2048.719
       395   05 Jun 2027 04:39:36.817   05 Jun 2027 04:40:48.069            71.252               Magadan1          2226.625
       396   05 Jun 2027 04:41:28.559   05 Jun 2027 04:42:28.571            60.012                Irkutsk          1875.375
       397   05 Jun 2027 06:14:05.808   05 Jun 2027 06:14:40.146            34.338               Magadan1          1073.062
       398   05 Jun 2027 06:15:06.902   05 Jun 2027 06:15:10.616             3.714               Magadan1           116.062
       399   05 Jun 2027 06:15:10.616   05 Jun 2027 06:15:15.423             4.807               Magadan2           150.219
       400   05 Jun 2027 06:15:35.314   05 Jun 2027 06:16:58.778            83.464               Magadan1          2608.250
       401   05 Jun 2027 06:17:00.651   05 Jun 2027 06:17:08.460             7.809               Magadan1           244.031
       402   05 Jun 2027 06:17:49.995   05 Jun 2027 06:18:13.028            23.033              Murmansk2           719.781
       403   05 Jun 2027 06:18:48.539   05 Jun 2027 06:18:53.055             4.516               Magadan1           141.125
       404   05 Jun 2027 06:21:11.216   05 Jun 2027 06:21:54.473            43.257              Murmansk2          1351.781
       405   05 Jun 2027 07:49:59.331   05 Jun 2027 07:50:06.140             6.809                Irkutsk           212.781
       406   05 Jun 2027 07:50:38.566   05 Jun 2027 07:50:56.860            18.294                Irkutsk           571.688
       407   05 Jun 2027 07:51:19.190   05 Jun 2027 07:52:33.356            74.166                Irkutsk          2317.687
       408   05 Jun 2027 07:52:43.749   05 Jun 2027 07:53:01.638            17.889                Novosib           559.031
       409   05 Jun 2027 07:53:12.647   05 Jun 2027 07:53:35.239            22.592                Irkutsk           706.000
       410   05 Jun 2027 07:53:40.690   05 Jun 2027 07:54:02.869            22.179                Irkutsk           693.094
       411   05 Jun 2027 07:55:06.124   05 Jun 2027 07:55:11.179             5.055                Novosib           157.969
       412   05 Jun 2027 07:56:39.723   05 Jun 2027 07:57:19.941            40.218              Murmansk1          1256.813
       413   05 Jun 2027 08:32:32.821   05 Jun 2027 08:33:08.945            36.124            RioGallegos          1128.875
       414   05 Jun 2027 08:35:43.042   05 Jun 2027 08:35:45.260             2.218            RioGallegos            69.312
       415   05 Jun 2027 09:06:49.168   05 Jun 2027 09:08:45.946           116.778                Sumatra          3649.313
       416   05 Jun 2027 09:27:17.089   05 Jun 2027 09:27:17.289             0.200                Novosib             6.250
       417   05 Jun 2027 09:28:01.042   05 Jun 2027 09:28:46.354            45.312                Novosib          1416.000
       418   05 Jun 2027 09:28:56.906   05 Jun 2027 09:29:41.152            44.246                Novosib          1382.687
       419   05 Jun 2027 09:29:56.478   05 Jun 2027 09:30:17.899            21.421                Novosib           669.406
       420   05 Jun 2027 09:30:19.774   05 Jun 2027 09:30:26.610             6.836                Novosib           213.625
       421   05 Jun 2027 09:30:39.545   05 Jun 2027 09:31:10.190            30.645                Norilsk           957.656
       422   05 Jun 2027 10:52:29.785   05 Jun 2027 10:54:22.565           112.780                  Delhi          3524.375
       423   05 Jun 2027 10:55:21.052   05 Jun 2027 10:55:58.586            37.534                  Delhi          1172.938
       424   05 Jun 2027 11:10:06.301   05 Jun 2027 11:10:07.213             0.912                Norilsk            28.500
       425   05 Jun 2027 12:34:15.926   05 Jun 2027 12:34:22.081             6.155                 Moscow           192.344
       426   05 Jun 2027 12:37:30.954   05 Jun 2027 12:38:15.027            44.073                 Moscow          1377.281
       427   05 Jun 2027 12:38:24.885   05 Jun 2027 12:39:17.720            52.835              Murmansk2          1651.094
       428   05 Jun 2027 12:40:26.032   05 Jun 2027 12:41:23.183            57.151              Murmansk2          1785.969
       429   05 Jun 2027 12:41:44.132   05 Jun 2027 12:42:04.390            20.258              Murmansk2           633.063
       430   05 Jun 2027 12:42:34.803   05 Jun 2027 12:42:44.417             9.614              Murmansk2           300.437
       431   05 Jun 2027 12:43:26.039   05 Jun 2027 12:43:57.416            31.377              Murmansk2           980.531
       432   05 Jun 2027 12:43:57.416   05 Jun 2027 12:44:04.446             7.030              Murmansk1           219.687
       433   05 Jun 2027 12:45:19.034   05 Jun 2027 12:45:27.104             8.070              Murmansk1           252.187
       434   05 Jun 2027 12:45:49.888   05 Jun 2027 12:46:02.354            12.466              Murmansk1           389.562
       435   05 Jun 2027 12:46:27.347   05 Jun 2027 12:47:20.148            52.801              Murmansk1          1650.031
       436   05 Jun 2027 12:52:34.435   05 Jun 2027 12:56:25.342           230.907                Anadyr1          7215.844
       437   05 Jun 2027 13:55:28.850   05 Jun 2027 13:55:43.888            15.038               CapeTown           469.937
       438   05 Jun 2027 14:16:17.642   05 Jun 2027 14:16:23.207             5.565              Murmansk1           173.906
       439   05 Jun 2027 14:17:34.019   05 Jun 2027 14:18:04.720            30.701              Murmansk2           959.406
       440   05 Jun 2027 14:19:10.519   05 Jun 2027 14:20:24.265            73.746              Murmansk2          2304.563
       441   05 Jun 2027 14:25:07.847   05 Jun 2027 14:25:33.363            25.516              Murmansk2           797.375
       442   05 Jun 2027 14:27:47.634   05 Jun 2027 14:31:54.809           247.175                Anadyr1          7724.219
       443   05 Jun 2027 14:32:26.691   05 Jun 2027 14:36:02.550           215.859               Magadan1          6745.594
       444   05 Jun 2027 14:36:02.550   05 Jun 2027 14:36:26.211            23.661               Magadan2           739.406
       445   05 Jun 2027 16:03:39.321   05 Jun 2027 16:04:59.951            80.630                Anadyr1          2519.687
       446   05 Jun 2027 16:06:09.252   05 Jun 2027 16:09:28.389           199.137               Magadan1          6223.031
       447   05 Jun 2027 17:39:33.103   05 Jun 2027 17:40:52.621            79.518                Anadyr2          2484.937
       448   05 Jun 2027 17:41:26.881   05 Jun 2027 17:41:54.163            27.282                Anadyr2           852.563
       449   05 Jun 2027 17:42:10.488   05 Jun 2027 17:44:09.904           119.416                Norilsk          3731.750
       450   05 Jun 2027 17:45:36.824   05 Jun 2027 17:46:52.409            75.585                Norilsk          2362.031
       451   05 Jun 2027 18:33:56.831   05 Jun 2027 18:37:00.346           183.515            RioGallegos          5734.844
       452   05 Jun 2027 18:37:16.326   05 Jun 2027 18:37:33.757            17.431            RioGallegos           544.719
       453   05 Jun 2027 18:44:11.140   05 Jun 2027 18:44:54.473            43.333            RioGallegos          1354.156
       454   05 Jun 2027 19:17:54.070   05 Jun 2027 19:18:26.332            32.262               Magadan1          1008.187
       455   05 Jun 2027 19:18:52.468   05 Jun 2027 19:18:56.997             4.529                Norilsk           141.531
       456   05 Jun 2027 19:19:25.971   05 Jun 2027 19:19:44.669            18.698               Magadan1           584.313
       457   05 Jun 2027 19:20:55.653   05 Jun 2027 19:21:05.300             9.647                Norilsk           301.469
       458   05 Jun 2027 19:21:33.043   05 Jun 2027 19:22:14.873            41.830                Irkutsk          1307.187
       459   05 Jun 2027 19:23:16.649   05 Jun 2027 19:29:20.671           364.022                Novosib         11375.688
       460   05 Jun 2027 19:35:15.693   05 Jun 2027 19:36:36.393            80.700                Sumatra          2521.875
       461   05 Jun 2027 19:36:36.623   05 Jun 2027 19:38:07.394            90.771                Sumatra          2836.594
       462   05 Jun 2027 19:38:32.211   05 Jun 2027 19:39:10.849            38.638                Sumatra          1207.438
       463   05 Jun 2027 20:58:04.700   05 Jun 2027 20:58:57.941            53.241                Novosib          1663.781
       464   05 Jun 2027 21:05:02.136   05 Jun 2027 21:09:59.328           297.192                  Delhi          9287.250
       465   05 Jun 2027 22:31:42.493   05 Jun 2027 22:37:49.410           366.917              Murmansk1         11466.156
       466   05 Jun 2027 22:38:16.329   05 Jun 2027 22:43:03.760           287.431                 Moscow          8982.219
       467   06 Jun 2027 00:10:49.228   06 Jun 2027 00:11:20.762            31.534                 Moscow           985.437
       468   06 Jun 2027 00:14:26.925   06 Jun 2027 00:15:00.868            33.943                 Moscow          1060.719
       469   06 Jun 2027 00:35:02.139   06 Jun 2027 00:37:12.706           130.567               CapeTown          4080.219
       470   06 Jun 2027 00:37:37.248   06 Jun 2027 00:38:12.692            35.444               CapeTown          1107.625
       471   06 Jun 2027 00:38:53.611   06 Jun 2027 00:39:04.261            10.650               CapeTown           332.813
       472   06 Jun 2027 00:46:15.162   06 Jun 2027 00:47:05.727            50.565               CapeTown          1580.156
       473   06 Jun 2027 01:38:36.816   06 Jun 2027 01:39:19.909            43.093               Magadan1          1346.656
       474   06 Jun 2027 01:43:27.191   06 Jun 2027 01:44:15.719            48.528              Murmansk1          1516.500
       475   06 Jun 2027 01:46:22.506   06 Jun 2027 01:46:58.466            35.960              Murmansk1          1123.750
       476   06 Jun 2027 01:47:01.764   06 Jun 2027 01:47:58.837            57.073                 Moscow          1783.531
       477   06 Jun 2027 01:51:00.058   06 Jun 2027 01:51:08.130             8.072                 Moscow           252.250
       478   06 Jun 2027 01:51:57.456   06 Jun 2027 01:52:11.078            13.622                 Moscow           425.687
       479   06 Jun 2027 01:53:37.982   06 Jun 2027 01:55:17.901            99.919                 Moscow          3122.469
       480   06 Jun 2027 02:20:36.728   06 Jun 2027 02:21:05.170            28.442               CapeTown           888.813
       481   06 Jun 2027 03:07:15.676   06 Jun 2027 03:07:26.775            11.099               Magadan1           346.844
       482   06 Jun 2027 03:07:38.130   06 Jun 2027 03:08:42.539            64.409               Magadan2          2012.781
