uniorb/output/strategy_4/Drop/Drop_KinoSat_110304.txt

KinoSat_110304
-------------------------
    Access    *     Start Time (UTCG)     *     Stop Time (UTCG)  *   Duration (s)        *       Station  *  Data (Mbytes)
         1   01 Jun 2027 04:07:54.083   01 Jun 2027 04:08:11.720            17.637               Magadan1          2204.625
         2   01 Jun 2027 04:08:28.362   01 Jun 2027 04:10:33.298           124.936               Magadan1         15617.000
         3   01 Jun 2027 04:10:42.595   01 Jun 2027 04:11:30.003            47.408               Magadan1          5926.000
         4   01 Jun 2027 04:11:49.704   01 Jun 2027 04:12:19.489            29.785               Magadan2          3723.125
         5   01 Jun 2027 04:12:41.173   01 Jun 2027 04:13:18.886            37.713                Irkutsk          4714.125
         6   01 Jun 2027 04:14:42.673   01 Jun 2027 04:14:51.979             9.306              Murmansk1          1163.250
         7   01 Jun 2027 04:15:06.628   01 Jun 2027 04:15:13.134             6.506                Norilsk           813.250
         8   01 Jun 2027 04:15:17.348   01 Jun 2027 04:15:24.580             7.232                Norilsk           904.000
         9   01 Jun 2027 04:48:55.349   01 Jun 2027 04:49:41.547            46.198            RioGallegos          5774.750
        10   01 Jun 2027 05:22:58.611   01 Jun 2027 05:24:02.302            63.691                Sumatra          7961.375
        11   01 Jun 2027 05:33:44.173   01 Jun 2027 05:36:28.850           164.677                  Delhi         20584.625
        12   01 Jun 2027 05:45:40.724   01 Jun 2027 05:46:06.713            25.989                Irkutsk          3248.625
        13   01 Jun 2027 05:46:31.458   01 Jun 2027 05:48:34.774           123.316                Irkutsk         15414.500
        14   01 Jun 2027 05:49:15.976   01 Jun 2027 05:49:53.605            37.629                 Moscow          4703.625
        15   01 Jun 2027 05:49:56.336   01 Jun 2027 05:50:03.881             7.545                Novosib           943.125
        16   01 Jun 2027 06:27:33.799   01 Jun 2027 06:27:49.948            16.149            RioGallegos          2018.625
        17   01 Jun 2027 07:02:30.723   01 Jun 2027 07:04:36.430           125.707                Sumatra         15713.375
        18   01 Jun 2027 07:23:32.897   01 Jun 2027 07:23:49.007            16.110              Murmansk1          2013.750
        19   01 Jun 2027 07:23:54.480   01 Jun 2027 07:24:06.969            12.489                Norilsk          1561.125
        20   01 Jun 2027 07:24:27.515   01 Jun 2027 07:24:39.211            11.696                Novosib          1462.000
        21   01 Jun 2027 07:24:44.823   01 Jun 2027 07:26:32.562           107.739                Novosib         13467.375
        22   01 Jun 2027 08:57:20.276   01 Jun 2027 08:58:07.235            46.959                 Moscow          5869.875
        23   01 Jun 2027 08:58:29.286   01 Jun 2027 09:00:10.550           101.264                Norilsk         12658.000
        24   01 Jun 2027 09:00:13.626   01 Jun 2027 09:00:23.609             9.983                Norilsk          1247.875
        25   01 Jun 2027 09:00:24.143   01 Jun 2027 09:04:26.290           242.147                 Moscow         30268.375
        26   01 Jun 2027 09:04:34.525   01 Jun 2027 09:07:55.255           200.730              Murmansk2         25091.250
        27   01 Jun 2027 10:06:32.591   01 Jun 2027 10:10:03.943           211.352               CapeTown         26419.000
        28   01 Jun 2027 10:12:35.648   01 Jun 2027 10:14:39.203           123.555               CapeTown         15444.375
        29   01 Jun 2027 10:48:32.920   01 Jun 2027 10:50:34.747           121.827                Anadyr2         15228.375
        30   01 Jun 2027 12:25:20.973   01 Jun 2027 12:26:02.570            41.597               Magadan2          5199.625
        31   01 Jun 2027 12:29:48.154   01 Jun 2027 12:32:03.124           134.970               Magadan1         16871.250
        32   01 Jun 2027 13:59:54.841   01 Jun 2027 14:01:07.755            72.914               Magadan2          9114.250
        33   01 Jun 2027 14:03:06.262   01 Jun 2027 14:04:32.616            86.354               Magadan1         10794.250
        34   01 Jun 2027 15:41:27.144   01 Jun 2027 15:44:40.095           192.951                Irkutsk         24118.875
        35   01 Jun 2027 15:58:34.792   01 Jun 2027 15:59:53.461            78.669                Sumatra          9833.625
        36   01 Jun 2027 17:15:16.331   01 Jun 2027 17:16:52.181            95.850                Irkutsk         11981.250
        37   01 Jun 2027 17:17:54.347   01 Jun 2027 17:20:17.547           143.200                Novosib         17900.000
        38   01 Jun 2027 17:21:34.148   01 Jun 2027 17:23:36.478           122.330                Novosib         15291.250
        39   01 Jun 2027 17:29:49.882   01 Jun 2027 17:31:37.405           107.523                Sumatra         13440.375
        40   01 Jun 2027 17:40:15.480   01 Jun 2027 17:40:49.716            34.236                Sumatra          4279.500
        41   01 Jun 2027 18:58:34.900   01 Jun 2027 19:00:43.625           128.725                  Delhi          4941.875
        42   02 Jun 2027 04:25:30.403   02 Jun 2027 04:26:42.594            72.191                Novosib          9023.875
        43   02 Jun 2027 04:26:46.851   02 Jun 2027 04:28:43.240           116.389              Murmansk1         14548.625
        44   02 Jun 2027 05:00:18.825   02 Jun 2027 05:00:58.495            39.670            RioGallegos          4958.750
        45   02 Jun 2027 05:02:03.896   02 Jun 2027 05:03:15.401            71.505            RioGallegos          8938.125
        46   02 Jun 2027 05:34:57.423   02 Jun 2027 05:37:29.031           151.608                Sumatra         18951.000
        47   02 Jun 2027 05:45:18.691   02 Jun 2027 05:46:25.748            67.057                  Delhi          8382.125
        48   02 Jun 2027 05:51:03.443   02 Jun 2027 05:52:40.311            96.868                  Delhi         12108.500
        49   02 Jun 2027 06:00:16.537   02 Jun 2027 06:01:02.847            46.310                Irkutsk          5788.750
        50   02 Jun 2027 06:01:17.939   02 Jun 2027 06:01:26.303             8.364                 Moscow          1045.500
        51   02 Jun 2027 06:01:32.900   02 Jun 2027 06:06:21.599           288.699                Norilsk         36087.375
        52   02 Jun 2027 06:06:36.196   02 Jun 2027 06:08:29.748           113.552              Murmansk2         14194.000
        53   02 Jun 2027 06:40:41.212   02 Jun 2027 06:44:49.943           248.731            RioGallegos         31091.375
        54   02 Jun 2027 06:45:56.595   02 Jun 2027 06:46:29.321            32.726            RioGallegos          4090.750
        55   02 Jun 2027 07:19:18.041   02 Jun 2027 07:24:09.123           291.082                  Delhi         36385.250
        56   02 Jun 2027 07:36:58.046   02 Jun 2027 07:37:30.395            32.349                Norilsk          4043.625
        57   02 Jun 2027 07:37:34.646   02 Jun 2027 07:40:17.566           162.920                 Moscow         20365.000
        58   02 Jun 2027 07:40:34.657   02 Jun 2027 07:42:21.849           107.192              Murmansk1         13399.000
        59   02 Jun 2027 07:44:01.616   02 Jun 2027 07:44:03.377             1.761              Murmansk2           220.125
        60   02 Jun 2027 09:03:33.450   02 Jun 2027 09:04:38.942            65.492                 Moscow          8186.500
        61   02 Jun 2027 09:13:08.866   02 Jun 2027 09:16:27.586           198.720                 Moscow         24840.000
        62   02 Jun 2027 09:16:38.354   02 Jun 2027 09:19:56.807           198.453              Murmansk2         24806.625
        63   02 Jun 2027 10:18:05.610   02 Jun 2027 10:28:40.087           634.477               CapeTown         79309.625
        64   02 Jun 2027 10:43:12.719   02 Jun 2027 10:45:00.179           107.460                 Moscow         13432.500
        65   02 Jun 2027 10:45:06.829   02 Jun 2027 10:48:26.584           199.755              Murmansk2         24969.375
        66   02 Jun 2027 10:48:31.861   02 Jun 2027 10:54:40.303           368.442              Murmansk1         46055.250
        67   02 Jun 2027 10:58:04.195   02 Jun 2027 10:59:48.614           104.419                Anadyr1         13052.375
        68   02 Jun 2027 10:59:48.614   02 Jun 2027 11:03:28.927           220.313                Anadyr2         27539.125
        69   02 Jun 2027 11:04:09.208   02 Jun 2027 11:07:18.225           189.017                Anadyr1         23627.125
        70   02 Jun 2027 12:37:00.016   02 Jun 2027 12:38:22.804            82.788               Magadan2         10348.500
        71   02 Jun 2027 12:41:14.466   02 Jun 2027 12:44:56.529           222.063               Magadan1         27757.875
        72   02 Jun 2027 15:07:05.739   02 Jun 2027 15:09:04.777           119.038            RioGallegos         14879.750
        73   02 Jun 2027 15:52:51.526   02 Jun 2027 15:54:03.015            71.489                Irkutsk          8936.125
        74   02 Jun 2027 15:56:29.671   02 Jun 2027 16:00:30.708           241.037                Irkutsk         30129.625
        75   02 Jun 2027 16:08:27.777   02 Jun 2027 16:10:26.624           118.847                Sumatra         14855.875
        76   02 Jun 2027 17:28:06.700   02 Jun 2027 17:28:50.406            43.706                Novosib          5463.250
        77   02 Jun 2027 17:30:08.477   02 Jun 2027 17:32:11.499           123.022                Novosib         15377.750
        78   02 Jun 2027 17:42:51.137   02 Jun 2027 17:43:06.603            15.466                Sumatra          1933.250
        79   02 Jun 2027 19:10:28.586   02 Jun 2027 19:13:18.269           169.683                  Delhi         21210.375
        80   02 Jun 2027 19:15:15.734   02 Jun 2027 19:15:57.730            41.996                  Delhi          5249.500
        81   02 Jun 2027 20:39:46.756   02 Jun 2027 20:40:08.254            21.498              Murmansk1          2687.250
        82   02 Jun 2027 20:41:20.358   02 Jun 2027 20:42:11.034            50.676              Murmansk1          6334.500
        83   02 Jun 2027 20:43:40.466   02 Jun 2027 20:45:38.633           118.167                 Moscow         14770.875
        84   02 Jun 2027 22:40:30.053   02 Jun 2027 22:42:19.443           109.390               CapeTown             6.251
        85   03 Jun 2027 04:13:51.417   03 Jun 2027 04:16:16.950           145.533                Sumatra         18191.625
        86   03 Jun 2027 04:37:35.074   03 Jun 2027 04:41:51.092           256.018                Norilsk         32002.250
        87   03 Jun 2027 04:42:14.227   03 Jun 2027 04:42:44.380            30.153              Murmansk2          3769.125
        88   03 Jun 2027 04:42:44.380   03 Jun 2027 04:43:25.265            40.885              Murmansk1          5110.625
        89   03 Jun 2027 05:47:01.837   03 Jun 2027 05:48:44.426           102.589                Sumatra         12823.625
        90   03 Jun 2027 05:57:43.508   03 Jun 2027 05:58:22.363            38.855                  Delhi          4856.875
        91   03 Jun 2027 06:12:01.392   03 Jun 2027 06:12:53.778            52.386                Irkutsk          6548.250
        92   03 Jun 2027 06:13:20.477   03 Jun 2027 06:15:38.003           137.526                 Moscow         17190.750
        93   03 Jun 2027 06:15:49.527   03 Jun 2027 06:17:38.081           108.554              Murmansk1         13569.250
        94   03 Jun 2027 06:17:38.081   03 Jun 2027 06:19:00.055            81.974              Murmansk2         10246.750
        95   03 Jun 2027 07:31:32.378   03 Jun 2027 07:36:07.700           275.322                  Delhi         34415.250
        96   03 Jun 2027 07:39:36.388   03 Jun 2027 07:39:46.988            10.600                Novosib          1325.000
        97   03 Jun 2027 07:41:35.140   03 Jun 2027 07:42:19.552            44.412                 Moscow          5551.500
        98   03 Jun 2027 07:42:30.247   03 Jun 2027 07:43:32.869            62.622                Novosib          7827.750
        99   03 Jun 2027 07:43:45.686   03 Jun 2027 07:44:14.800            29.114                 Moscow          3639.250
       100   03 Jun 2027 07:48:57.931   03 Jun 2027 07:50:18.982            81.051                Novosib         10131.375
       101   03 Jun 2027 07:50:19.966   03 Jun 2027 07:52:22.380           122.414                 Moscow         15301.750
       102   03 Jun 2027 07:52:30.514   03 Jun 2027 07:54:13.935           103.421              Murmansk1         12927.625
       103   03 Jun 2027 07:54:13.935   03 Jun 2027 07:54:38.067            24.132              Murmansk2          3016.500
       104   03 Jun 2027 07:56:03.204   03 Jun 2027 07:56:03.661             0.457              Murmansk1            57.125
       105   03 Jun 2027 09:18:10.551   03 Jun 2027 09:18:53.244            42.693                 Moscow          5336.625
       106   03 Jun 2027 09:19:04.792   03 Jun 2027 09:19:13.357             8.565              Murmansk2          1070.625
       107   03 Jun 2027 09:19:40.128   03 Jun 2027 09:20:08.746            28.618                 Moscow          3577.250
       108   03 Jun 2027 09:20:12.272   03 Jun 2027 09:20:35.364            23.092              Murmansk1          2886.500
       109   03 Jun 2027 09:20:35.364   03 Jun 2027 09:20:51.619            16.255              Murmansk2          2031.875
       110   03 Jun 2027 09:24:11.596   03 Jun 2027 09:29:49.971           338.375                Norilsk         42296.875
       111   03 Jun 2027 09:29:59.566   03 Jun 2027 09:31:10.002            70.436              Murmansk1          8804.500
       112   03 Jun 2027 09:31:10.002   03 Jun 2027 09:31:58.429            48.427              Murmansk2          6053.375
       113   03 Jun 2027 10:29:45.971   03 Jun 2027 10:31:12.102            86.131               CapeTown         10766.375
       114   03 Jun 2027 10:32:09.967   03 Jun 2027 10:33:52.751           102.784               CapeTown         12848.000
       115   03 Jun 2027 10:33:54.063   03 Jun 2027 10:36:02.977           128.914               CapeTown         16114.250
       116   03 Jun 2027 10:53:32.073   03 Jun 2027 10:57:18.480           226.407                 Moscow         28300.875
       117   03 Jun 2027 10:57:36.877   03 Jun 2027 10:58:44.463            67.586              Murmansk1          8448.250
       118   03 Jun 2027 10:59:10.509   03 Jun 2027 11:00:24.914            74.405              Murmansk2          9300.625
       119   03 Jun 2027 11:00:34.837   03 Jun 2027 11:00:55.034            20.197              Murmansk1          2524.625
       120   03 Jun 2027 11:01:35.908   03 Jun 2027 11:06:39.329           303.421              Murmansk1         37927.625
       121   03 Jun 2027 11:09:59.684   03 Jun 2027 11:13:23.084           203.400                Anadyr1         25425.000
       122   03 Jun 2027 11:15:50.815   03 Jun 2027 11:16:31.208            40.393                Anadyr2          5049.125
       123   03 Jun 2027 11:18:09.516   03 Jun 2027 11:19:18.904            69.388                Anadyr2          8673.500
       124   03 Jun 2027 12:36:14.379   03 Jun 2027 12:36:52.482            38.103              Murmansk1          4762.875
       125   03 Jun 2027 12:47:31.267   03 Jun 2027 12:48:40.216            68.949                Anadyr2          8618.625
       126   03 Jun 2027 12:48:45.154   03 Jun 2027 12:50:26.916           101.762               Magadan1         12720.250
       127   03 Jun 2027 12:50:39.705   03 Jun 2027 12:51:53.040            73.335               Magadan2          9166.875
       128   03 Jun 2027 12:54:24.411   03 Jun 2027 12:57:33.722           189.311               Magadan2         23663.875
       129   03 Jun 2027 15:17:45.036   03 Jun 2027 15:20:49.871           184.835            RioGallegos         23104.375
       130   03 Jun 2027 16:04:27.523   03 Jun 2027 16:06:17.093           109.570                Irkutsk         13696.250
       131   03 Jun 2027 16:19:22.116   03 Jun 2027 16:22:09.014           166.898                Sumatra         20862.250
       132   03 Jun 2027 17:39:53.393   03 Jun 2027 17:42:19.209           145.816                Novosib         18227.000
       133   03 Jun 2027 17:46:22.910   03 Jun 2027 17:48:46.723           143.813                Novosib         17976.625
       134   03 Jun 2027 17:49:49.537   03 Jun 2027 17:51:59.294           129.757                  Delhi         16219.625
       135   03 Jun 2027 20:49:51.465   03 Jun 2027 20:50:17.516            26.051              Murmansk1          3256.375
       136   03 Jun 2027 20:53:16.001   03 Jun 2027 20:53:54.243            38.242                 Moscow          4780.250
       137   03 Jun 2027 20:55:56.171   03 Jun 2027 20:57:35.256            99.085                 Moscow         12385.625
       138   03 Jun 2027 22:52:29.929   03 Jun 2027 22:52:49.057            19.128               CapeTown          2391.000
       139   04 Jun 2027 03:13:30.441   04 Jun 2027 03:22:54.919           564.478              Murmansk1         70559.750
       140   04 Jun 2027 03:48:23.562   04 Jun 2027 03:50:09.569           106.007            RioGallegos         13250.875
       141   04 Jun 2027 04:24:57.772   04 Jun 2027 04:28:02.695           184.923                Sumatra         23115.375
       142   04 Jun 2027 04:49:20.609   04 Jun 2027 04:49:29.877             9.268                Irkutsk          1158.500
       143   04 Jun 2027 04:49:38.120   04 Jun 2027 04:49:59.025            20.905              Murmansk1          2613.125
       144   04 Jun 2027 04:49:59.025   04 Jun 2027 04:53:53.465           234.440              Murmansk2         29305.000
       145   04 Jun 2027 04:53:53.465   04 Jun 2027 04:57:17.374           203.909              Murmansk1         25488.625
       146   04 Jun 2027 05:27:08.251   04 Jun 2027 05:27:48.517            40.266            RioGallegos          5033.250
       147   04 Jun 2027 05:28:23.357   04 Jun 2027 05:28:51.373            28.016            RioGallegos          3502.000
       148   04 Jun 2027 05:59:12.115   04 Jun 2027 06:00:17.600            65.485                Sumatra          8185.625
       149   04 Jun 2027 06:01:47.139   04 Jun 2027 06:03:58.718           131.579                Sumatra         16447.375
       150   04 Jun 2027 06:12:01.783   04 Jun 2027 06:13:52.995           111.212                  Delhi         13901.500
       151   04 Jun 2027 06:14:04.732   04 Jun 2027 06:15:39.397            94.665                Novosib         11833.125
       152   04 Jun 2027 06:17:34.382   04 Jun 2027 06:18:02.030            27.648                Irkutsk          3456.000
       153   04 Jun 2027 06:23:51.370   04 Jun 2027 06:23:55.047             3.677              Murmansk1           459.625
       154   04 Jun 2027 06:25:10.649   04 Jun 2027 06:25:42.081            31.432                Norilsk          3929.000
       155   04 Jun 2027 06:25:44.634   04 Jun 2027 06:27:49.284           124.650                 Moscow         15581.250
       156   04 Jun 2027 06:27:52.810   04 Jun 2027 06:30:57.137           184.327              Murmansk2         23040.875
       157   04 Jun 2027 07:43:53.414   04 Jun 2027 07:49:55.077           361.663                  Delhi         45207.875
       158   04 Jun 2027 07:51:19.251   04 Jun 2027 07:53:50.370           151.119                  Delhi         18889.875
       159   04 Jun 2027 07:54:08.354   04 Jun 2027 07:55:40.284            91.930                Novosib         11491.250
       160   04 Jun 2027 08:00:58.318   04 Jun 2027 08:08:04.213           425.895              Murmansk1         53236.875
       161   04 Jun 2027 09:27:39.199   04 Jun 2027 09:32:35.165           295.966                 Moscow         36995.750
       162   04 Jun 2027 09:32:41.523   04 Jun 2027 09:34:24.235           102.712              Murmansk2         12839.000
       163   04 Jun 2027 09:35:40.535   04 Jun 2027 09:38:05.124           144.589              Murmansk2         18073.625
       164   04 Jun 2027 09:39:20.602   04 Jun 2027 09:42:35.965           195.363              Murmansk1         24420.375
       165   04 Jun 2027 09:48:31.945   04 Jun 2027 09:50:08.795            96.850                Anadyr2         12106.250
       166   04 Jun 2027 10:46:58.245   04 Jun 2027 10:47:27.446            29.201               CapeTown          3650.125
       167   04 Jun 2027 11:08:47.996   04 Jun 2027 11:09:57.278            69.282              Murmansk1          8660.250
       168   04 Jun 2027 11:13:30.595   04 Jun 2027 11:14:50.045            79.450              Murmansk2          9931.250
       169   04 Jun 2027 11:15:18.650   04 Jun 2027 11:17:02.838           104.188              Murmansk1         13023.500
       170   04 Jun 2027 11:17:52.174   04 Jun 2027 11:18:13.748            21.574              Murmansk2          2696.750
       171   04 Jun 2027 11:18:38.955   04 Jun 2027 11:18:41.040             2.085              Murmansk2           260.625
       172   04 Jun 2027 11:21:56.452   04 Jun 2027 11:24:45.638           169.186                Anadyr2         21148.250
       173   04 Jun 2027 11:26:06.706   04 Jun 2027 11:26:31.787            25.081                Anadyr2          3135.125
       174   04 Jun 2027 11:31:19.818   04 Jun 2027 11:31:29.114             9.296                Anadyr2          1162.000
       175   04 Jun 2027 12:17:23.226   04 Jun 2027 12:18:08.525            45.299               CapeTown          5662.375
       176   04 Jun 2027 12:19:33.753   04 Jun 2027 12:22:00.724           146.971               CapeTown         18371.375
       177   04 Jun 2027 12:49:00.273   04 Jun 2027 12:52:03.572           183.299              Murmansk2         22912.375
       178   04 Jun 2027 12:52:21.648   04 Jun 2027 12:52:36.013            14.365              Murmansk1          1795.625
       179   04 Jun 2027 13:00:34.207   04 Jun 2027 13:06:48.633           374.426               Magadan2         46803.250
       180   04 Jun 2027 15:29:05.540   04 Jun 2027 15:32:38.678           213.138            RioGallegos         26642.250
       181   04 Jun 2027 16:30:37.214   04 Jun 2027 16:33:57.902           200.688                Sumatra         25086.000
       182   04 Jun 2027 16:36:54.028   04 Jun 2027 16:38:55.794           121.766                Sumatra         15220.750
       183   04 Jun 2027 17:54:26.721   04 Jun 2027 17:56:03.942            97.221                Novosib         12152.625
       184   04 Jun 2027 18:00:45.414   04 Jun 2027 18:03:43.052           177.638                  Delhi         22204.750
       185   04 Jun 2027 21:06:25.723   04 Jun 2027 21:08:01.253            95.530                 Moscow         11941.250
       186   04 Jun 2027 21:30:36.130   04 Jun 2027 21:31:49.943            73.813               CapeTown          9226.625
       187   04 Jun 2027 21:33:17.846   04 Jun 2027 21:33:43.074            25.228               CapeTown          3153.500
       188   04 Jun 2027 21:36:23.696   04 Jun 2027 21:36:31.892             8.196               CapeTown          1024.500
       189   05 Jun 2027 03:25:25.621   05 Jun 2027 03:29:34.320           248.699              Murmansk1         31087.375
       190   05 Jun 2027 04:36:19.734   05 Jun 2027 04:36:32.904            13.170                Sumatra          1646.250
       191   05 Jun 2027 04:37:04.278   05 Jun 2027 04:38:02.901            58.623                Sumatra          7327.875
       192   05 Jun 2027 04:42:58.050   05 Jun 2027 04:43:56.017            57.967                Sumatra          7245.875
       193   05 Jun 2027 05:01:38.347   05 Jun 2027 05:06:14.293           275.946                Norilsk         34493.250
       194   05 Jun 2027 05:06:20.372   05 Jun 2027 05:08:22.576           122.204              Murmansk2         15275.500
       195   05 Jun 2027 05:08:22.576   05 Jun 2027 05:09:10.080            47.504              Murmansk1          5938.000
       196   05 Jun 2027 05:37:13.948   05 Jun 2027 05:38:19.502            65.554            RioGallegos          8194.250
       197   05 Jun 2027 05:39:50.233   05 Jun 2027 05:40:30.083            39.850            RioGallegos          4981.250
       198   05 Jun 2027 05:41:09.185   05 Jun 2027 05:41:22.026            12.841            RioGallegos          1605.125
       199   05 Jun 2027 06:11:28.959   05 Jun 2027 06:13:39.797           130.838                Sumatra         16354.750
       200   05 Jun 2027 06:19:44.660   05 Jun 2027 06:19:57.135            12.475                  Delhi          1559.375
       201   05 Jun 2027 06:22:04.171   05 Jun 2027 06:24:03.449           119.278                  Delhi         14909.750
       202   05 Jun 2027 06:26:09.694   05 Jun 2027 06:27:05.244            55.550                Novosib          6943.750
       203   05 Jun 2027 06:29:05.672   05 Jun 2027 06:30:10.085            64.413                Irkutsk          8051.625
       204   05 Jun 2027 06:31:50.880   05 Jun 2027 06:32:26.506            35.626                 Moscow          4453.250
       205   05 Jun 2027 06:37:14.102   05 Jun 2027 06:39:58.851           164.749                 Moscow         20593.625
       206   05 Jun 2027 06:39:59.806   05 Jun 2027 06:42:16.364           136.558              Murmansk2         17069.750
       207   05 Jun 2027 06:44:10.720   05 Jun 2027 06:44:21.897            11.177              Murmansk2          1397.125
       208   05 Jun 2027 07:56:22.412   05 Jun 2027 08:00:21.109           238.697                  Delhi         29837.125
       209   05 Jun 2027 08:05:40.893   05 Jun 2027 08:08:15.171           154.278                Novosib         19284.750
       210   05 Jun 2027 08:12:50.997   05 Jun 2027 08:20:05.006           434.009              Murmansk2         54251.125
       211   05 Jun 2027 09:42:34.687   05 Jun 2027 09:42:53.600            18.913                 Moscow          2364.125
       212   05 Jun 2027 09:43:18.045   05 Jun 2027 09:48:53.281           335.236              Murmansk2         41904.500
       213   05 Jun 2027 09:49:55.546   05 Jun 2027 09:50:08.610            13.064                Norilsk          1633.000
       214   05 Jun 2027 09:51:22.084   05 Jun 2027 09:53:34.663           132.579              Murmansk2         16572.375
       215   05 Jun 2027 09:59:29.355   05 Jun 2027 10:01:43.414           134.059                Anadyr1         16757.375
       216   05 Jun 2027 10:01:43.414   05 Jun 2027 10:03:06.840            83.426                Anadyr2         10428.250
       217   05 Jun 2027 11:21:11.417   05 Jun 2027 11:22:21.888            70.471              Murmansk2          8808.875
       218   05 Jun 2027 11:28:59.718   05 Jun 2027 11:29:54.664            54.946              Murmansk2          6868.250
       219   05 Jun 2027 11:30:38.836   05 Jun 2027 11:31:06.375            27.539              Murmansk2          3442.375
       220   05 Jun 2027 11:33:54.200   05 Jun 2027 11:35:10.326            76.126                Anadyr1          9515.750
       221   05 Jun 2027 11:36:54.898   05 Jun 2027 11:41:07.014           252.116                Anadyr1         31514.500
       222   05 Jun 2027 12:31:48.036   05 Jun 2027 12:32:39.465            51.429               CapeTown          6428.625
       223   05 Jun 2027 12:37:01.240   05 Jun 2027 12:37:18.638            17.398               CapeTown          2174.750
       224   05 Jun 2027 12:38:59.289   05 Jun 2027 12:39:05.015             5.726               CapeTown           715.750
       225   05 Jun 2027 13:01:52.378   05 Jun 2027 13:04:36.449           164.071              Murmansk2         20508.875
       226   05 Jun 2027 13:12:25.993   05 Jun 2027 13:19:09.208           403.215               Magadan1         50401.875
       227   05 Jun 2027 15:40:39.436   05 Jun 2027 15:44:30.275           230.839            RioGallegos         28854.875
       228   05 Jun 2027 16:42:04.851   05 Jun 2027 16:43:21.085            76.234                Sumatra          9529.250
       229   05 Jun 2027 16:45:39.713   05 Jun 2027 16:49:00.613           200.900                Sumatra         25112.500
       230   05 Jun 2027 18:05:00.808   05 Jun 2027 18:06:18.615            77.807                Novosib          9725.875
       231   05 Jun 2027 18:12:04.457   05 Jun 2027 18:13:45.122           100.665                  Delhi         12583.125
       232   05 Jun 2027 18:18:09.577   05 Jun 2027 18:20:09.937           120.360                  Delhi         15045.000
       233   05 Jun 2027 21:15:58.907   05 Jun 2027 21:16:40.813            41.906              Murmansk1          5238.250
       234   05 Jun 2027 21:17:01.977   05 Jun 2027 21:18:52.152           110.175                 Moscow         13771.875
       235   05 Jun 2027 21:43:04.434   05 Jun 2027 21:43:48.992            44.558               CapeTown          5569.750
       236   05 Jun 2027 21:51:14.911   05 Jun 2027 21:52:53.502            98.591               CapeTown         12323.875
       237   06 Jun 2027 03:37:41.524   06 Jun 2027 03:38:29.885            48.361                Novosib          6045.125
       238   06 Jun 2027 03:38:52.686   06 Jun 2027 03:39:14.962            22.276              Murmansk1          2784.500
       239   06 Jun 2027 04:47:52.207   06 Jun 2027 04:49:35.204           102.997                Sumatra         12874.625
       240   06 Jun 2027 05:13:29.075   06 Jun 2027 05:14:03.232            34.157              Murmansk2          4269.625
       241   06 Jun 2027 05:14:03.232   06 Jun 2027 05:18:48.018           284.786              Murmansk1         35598.250
       242   06 Jun 2027 05:50:53.949   06 Jun 2027 05:51:51.031            57.082            RioGallegos          7135.250
       243   06 Jun 2027 05:52:35.822   06 Jun 2027 05:53:21.660            45.838            RioGallegos          5729.750
       244   06 Jun 2027 06:23:53.677   06 Jun 2027 06:25:17.586            83.909                Sumatra         10488.625
       245   06 Jun 2027 06:26:27.033   06 Jun 2027 06:28:04.106            97.073                Sumatra         12134.125
       246   06 Jun 2027 06:31:31.533   06 Jun 2027 06:33:48.072           136.539                  Delhi         17067.375
       247   06 Jun 2027 06:38:17.743   06 Jun 2027 06:40:48.076           150.333                Novosib         18791.625
       248   06 Jun 2027 06:41:09.260   06 Jun 2027 06:42:44.773            95.513                Irkutsk         11939.125
       249   06 Jun 2027 06:43:16.890   06 Jun 2027 06:44:46.149            89.259                 Moscow         11157.375
       250   06 Jun 2027 06:49:16.298   06 Jun 2027 06:49:57.520            41.222              Murmansk1          5152.750
       251   06 Jun 2027 06:50:03.806   06 Jun 2027 06:50:56.370            52.564                Novosib          6570.500
       252   06 Jun 2027 06:51:00.686   06 Jun 2027 06:52:07.160            66.474                 Moscow          8309.250
       253   06 Jun 2027 06:52:28.907   06 Jun 2027 06:54:22.692           113.785                Norilsk         14223.125
       254   06 Jun 2027 06:56:11.533   06 Jun 2027 06:56:20.312             8.779              Murmansk2          1097.375
       255   06 Jun 2027 08:09:01.653   06 Jun 2027 08:12:36.663           215.010                  Delhi         26876.250
       256   06 Jun 2027 08:17:39.030   06 Jun 2027 08:20:42.964           183.934                Novosib         22991.750
       257   06 Jun 2027 08:25:34.603   06 Jun 2027 08:28:33.906           179.303                 Moscow         22412.875
       258   06 Jun 2027 08:28:35.364   06 Jun 2027 08:30:22.658           107.294                Norilsk         13411.750
       259   06 Jun 2027 08:30:43.166   06 Jun 2027 08:32:06.011            82.845              Murmansk2         10355.625
       260   06 Jun 2027 09:54:00.135   06 Jun 2027 09:56:36.218           156.083                 Moscow         19510.375
       261   06 Jun 2027 09:56:52.204   06 Jun 2027 10:00:06.544           194.340              Murmansk1         24292.500
       262   06 Jun 2027 10:00:49.236   06 Jun 2027 10:01:19.891            30.655              Murmansk2          3831.875
       263   06 Jun 2027 10:03:54.094   06 Jun 2027 10:04:04.298            10.204                Norilsk          1275.500
       264   06 Jun 2027 10:11:02.201   06 Jun 2027 10:15:00.232           238.031                Anadyr2         29753.875
       265   06 Jun 2027 10:15:30.275   06 Jun 2027 10:16:59.544            89.269                Anadyr1         11158.625
       266   06 Jun 2027 11:33:37.250   06 Jun 2027 11:34:43.045            65.795              Murmansk1          8224.375
       267   06 Jun 2027 11:40:57.186   06 Jun 2027 11:41:48.144            50.958              Murmansk1          6369.750
       268   06 Jun 2027 11:43:17.936   06 Jun 2027 11:43:34.241            16.305              Murmansk1          2038.125
       269   06 Jun 2027 11:45:52.740   06 Jun 2027 11:46:55.258            62.518                Anadyr2          7814.750
       270   06 Jun 2027 11:47:04.901   06 Jun 2027 11:50:59.783           234.882                Anadyr1         29360.250
       271   06 Jun 2027 11:54:46.677   06 Jun 2027 11:55:26.563            39.886                Anadyr2          4985.750
       272   06 Jun 2027 12:41:57.414   06 Jun 2027 12:42:42.150            44.736               CapeTown          5592.000
       273   06 Jun 2027 12:43:22.232   06 Jun 2027 12:43:57.794            35.562               CapeTown          4445.250
       274   06 Jun 2027 12:44:44.017   06 Jun 2027 12:46:14.764            90.747               CapeTown         11343.375
       275   06 Jun 2027 12:49:37.158   06 Jun 2027 12:50:11.006            33.848               CapeTown          4231.000
       276   06 Jun 2027 13:14:54.467   06 Jun 2027 13:15:08.216            13.749              Murmansk2          1718.625
       277   06 Jun 2027 13:24:19.814   06 Jun 2027 13:27:12.475           172.661               Magadan1         21582.625
       278   06 Jun 2027 13:28:41.216   06 Jun 2027 13:29:43.602            62.386               Magadan1          7798.250
       279   06 Jun 2027 15:52:20.698   06 Jun 2027 15:58:36.625           375.927            RioGallegos         46990.875
       280   06 Jun 2027 16:41:07.152   06 Jun 2027 16:42:37.729            90.577                Irkutsk         11322.125
       281   06 Jun 2027 16:53:41.568   06 Jun 2027 16:55:38.947           117.379                Sumatra         14672.375
       282   06 Jun 2027 16:55:47.025   06 Jun 2027 16:57:53.022           125.997                Sumatra         15749.625
       283   06 Jun 2027 18:23:35.601   06 Jun 2027 18:27:24.610           229.009                  Delhi         28626.125
       284   06 Jun 2027 19:56:05.276   06 Jun 2027 19:57:54.236           108.960              Murmansk1         13620.000
       285   06 Jun 2027 19:58:02.377   06 Jun 2027 19:58:24.282            21.905                 Moscow          2738.125
       286   06 Jun 2027 21:33:08.044   06 Jun 2027 21:35:06.701           118.657              Murmansk1         14832.125
       287   06 Jun 2027 21:53:35.506   06 Jun 2027 21:55:22.170           106.664               CapeTown         13333.000
       288   07 Jun 2027 03:49:39.048   07 Jun 2027 03:50:37.980            58.932                Novosib          7366.500
       289   07 Jun 2027 03:50:45.975   07 Jun 2027 03:52:52.924           126.949              Murmansk1         15868.625
       290   07 Jun 2027 04:59:32.744   07 Jun 2027 05:01:27.362           114.618                Sumatra         14327.250
       291   07 Jun 2027 05:13:29.125   07 Jun 2027 05:16:24.336           175.211                  Delhi         21901.375
       292   07 Jun 2027 05:25:23.495   07 Jun 2027 05:27:03.765           100.270                Novosib         12533.750
       293   07 Jun 2027 05:27:11.053   07 Jun 2027 05:30:31.034           199.981                Norilsk         24997.625
       294   07 Jun 2027 06:08:07.933   07 Jun 2027 06:08:33.584            25.651            RioGallegos          3206.375
       295   07 Jun 2027 06:09:03.762   07 Jun 2027 06:09:26.632            22.870            RioGallegos          2858.750
       296   07 Jun 2027 06:36:28.841   07 Jun 2027 06:38:36.671           127.830                Sumatra         15978.750
       297   07 Jun 2027 06:42:53.194   07 Jun 2027 06:45:05.487           132.293                Sumatra         16536.625
       298   07 Jun 2027 06:50:29.025   07 Jun 2027 06:53:32.845           183.820                Novosib         22977.500
       299   07 Jun 2027 06:54:02.635   07 Jun 2027 06:55:23.798            81.163                Irkutsk         10145.375
       300   07 Jun 2027 06:55:53.652   07 Jun 2027 06:57:17.925            84.273                 Moscow         10534.125
       301   07 Jun 2027 07:01:16.336   07 Jun 2027 07:01:34.556            18.220              Murmansk2          2277.500
       302   07 Jun 2027 07:01:34.556   07 Jun 2027 07:01:45.487            10.931              Murmansk1          1366.375
       303   07 Jun 2027 07:01:45.997   07 Jun 2027 07:02:54.467            68.470                Novosib          8558.750
       304   07 Jun 2027 07:03:03.294   07 Jun 2027 07:04:14.513            71.219                 Moscow          8902.375
       305   07 Jun 2027 07:05:05.762   07 Jun 2027 07:05:57.523            51.761              Murmansk1          6470.125
       306   07 Jun 2027 08:21:55.777   07 Jun 2027 08:23:06.107            70.330                  Delhi          8791.250
       307   07 Jun 2027 08:29:05.597   07 Jun 2027 08:29:21.771            16.174                  Delhi          2021.750
       308   07 Jun 2027 08:30:28.796   07 Jun 2027 08:32:29.445           120.649                Novosib         15081.125
       309   07 Jun 2027 08:36:33.446   07 Jun 2027 08:37:08.570            35.124              Murmansk1          4390.500
       310   07 Jun 2027 08:37:54.888   07 Jun 2027 08:41:49.708           234.820              Murmansk1         29352.500
       311   07 Jun 2027 08:41:49.708   07 Jun 2027 08:44:07.194           137.486              Murmansk2         17185.750
       312   07 Jun 2027 10:04:11.176   07 Jun 2027 10:07:23.494           192.318                 Moscow         24039.750
       313   07 Jun 2027 10:07:38.295   07 Jun 2027 10:10:29.106           170.811              Murmansk1         21351.375
       314   07 Jun 2027 10:10:42.553   07 Jun 2027 10:13:17.324           154.771              Murmansk1         19346.375
       315   07 Jun 2027 10:22:45.162   07 Jun 2027 10:26:55.421           250.259                Anadyr2         31282.375
       316   07 Jun 2027 10:26:59.608   07 Jun 2027 10:29:12.855           133.247                Anadyr1         16655.875
       317   07 Jun 2027 11:46:05.644   07 Jun 2027 11:49:18.772           193.128              Murmansk2         24141.000
       318   07 Jun 2027 11:49:45.153   07 Jun 2027 11:50:37.304            52.151              Murmansk2          6518.875
       319   07 Jun 2027 11:57:51.911   07 Jun 2027 11:58:46.043            54.132                Anadyr2          6766.500
       320   07 Jun 2027 11:59:55.857   07 Jun 2027 12:00:24.213            28.356                Anadyr1          3544.500
       321   07 Jun 2027 12:01:06.994   07 Jun 2027 12:02:32.876            85.882                Anadyr1         10735.250
       322   07 Jun 2027 12:03:14.511   07 Jun 2027 12:05:26.013           131.502               Magadan1         16437.750
       323   07 Jun 2027 12:54:23.112   07 Jun 2027 12:55:03.430            40.318               CapeTown          5039.750
       324   07 Jun 2027 13:36:15.214   07 Jun 2027 13:38:01.478           106.264               Magadan1         13283.000
       325   07 Jun 2027 13:39:17.920   07 Jun 2027 13:40:47.559            89.639               Magadan2         11204.875
       326   07 Jun 2027 13:44:21.508   07 Jun 2027 13:45:46.972            85.464               Magadan2         10683.000
       327   07 Jun 2027 16:04:06.767   07 Jun 2027 16:06:41.875           155.108            RioGallegos         19388.500
       328   07 Jun 2027 16:07:21.734   07 Jun 2027 16:10:00.542           158.808            RioGallegos         19851.000
       329   07 Jun 2027 16:51:40.144   07 Jun 2027 16:53:33.909           113.765                Irkutsk         14220.625
       330   07 Jun 2027 16:54:25.749   07 Jun 2027 16:56:40.272           134.523                Novosib         16815.375
       331   07 Jun 2027 17:05:25.592   07 Jun 2027 17:07:13.655           108.063                Sumatra         13507.875
       332   07 Jun 2027 17:16:18.024   07 Jun 2027 17:16:21.130             3.106                Sumatra           388.250
       333   07 Jun 2027 18:27:26.050   07 Jun 2027 18:29:04.023            97.973                Novosib         12246.625
       334   07 Jun 2027 18:35:14.724   07 Jun 2027 18:36:48.450            93.726                  Delhi         11715.750
       335   07 Jun 2027 18:37:32.787   07 Jun 2027 18:39:21.118           108.331                  Delhi         13541.375
       336   07 Jun 2027 20:07:00.894   07 Jun 2027 20:10:12.999           192.105                 Moscow         24013.125
       337   07 Jun 2027 21:50:25.020   07 Jun 2027 21:50:27.315             2.295                 Moscow           286.875
       338   07 Jun 2027 22:05:14.841   07 Jun 2027 22:07:35.645           140.804               CapeTown         16197.125
       339   08 Jun 2027 04:01:46.137   08 Jun 2027 04:01:54.321             8.184                Norilsk          1023.000
       340   08 Jun 2027 04:02:08.028   08 Jun 2027 04:02:45.156            37.128                Novosib          4641.000
       341   08 Jun 2027 04:02:47.119   08 Jun 2027 04:05:55.062           187.943              Murmansk1         23492.875
       342   08 Jun 2027 05:11:20.010   08 Jun 2027 05:12:30.876            70.866                Sumatra          8858.250
       343   08 Jun 2027 05:14:11.163   08 Jun 2027 05:16:04.242           113.079                Sumatra         14134.875
       344   08 Jun 2027 05:26:53.206   08 Jun 2027 05:29:02.937           129.731                  Delhi         16216.375
       345   08 Jun 2027 05:37:29.701   08 Jun 2027 05:38:52.575            82.874                 Moscow         10359.250
       346   08 Jun 2027 05:38:55.233   08 Jun 2027 05:39:15.580            20.347                Norilsk          2543.375
       347   08 Jun 2027 05:39:24.115   08 Jun 2027 05:43:01.782           217.667              Murmansk2         27208.375
       348   08 Jun 2027 06:49:20.185   08 Jun 2027 06:52:33.797           193.612                Sumatra         24201.500
       349   08 Jun 2027 06:55:21.494   08 Jun 2027 06:57:14.829           113.335                  Delhi         14166.875
       350   08 Jun 2027 06:57:44.978   08 Jun 2027 06:57:45.109             0.131                  Delhi            16.375
       351   08 Jun 2027 07:00:36.311   08 Jun 2027 07:00:42.408             6.097                  Delhi           762.125
       352   08 Jun 2027 07:02:43.737   08 Jun 2027 07:04:07.128            83.391                Novosib         10423.875
       353   08 Jun 2027 07:05:15.937   08 Jun 2027 07:08:29.006           193.069                Irkutsk         24133.625
       354   08 Jun 2027 07:08:56.756   08 Jun 2027 07:09:14.059            17.303                Norilsk          2162.875
       355   08 Jun 2027 07:13:07.798   08 Jun 2027 07:14:03.073            55.275              Murmansk1          6909.375
       356   08 Jun 2027 07:14:21.453   08 Jun 2027 07:17:41.675           200.222                Norilsk         25027.750
       357   08 Jun 2027 07:20:13.773   08 Jun 2027 07:20:18.452             4.679              Murmansk2           584.875
       358   08 Jun 2027 08:35:18.110   08 Jun 2027 08:37:29.867           131.757                  Delhi         16469.625
       359   08 Jun 2027 08:38:35.737   08 Jun 2027 08:39:50.054            74.317                  Delhi          9289.625
       360   08 Jun 2027 08:49:41.915   08 Jun 2027 08:54:19.913           277.998                Norilsk         34749.750
       361   08 Jun 2027 08:54:26.912   08 Jun 2027 08:56:08.524           101.612              Murmansk2         12701.500
       362   08 Jun 2027 09:55:24.807   08 Jun 2027 10:03:24.970           480.163               CapeTown         60020.375
       363   08 Jun 2027 10:16:28.797   08 Jun 2027 10:25:42.061           553.264                 Moscow         69158.000
       364   08 Jun 2027 10:25:44.640   08 Jun 2027 10:30:11.379           266.739              Murmansk1         33342.375
       365   08 Jun 2027 10:30:11.379   08 Jun 2027 10:32:06.597           115.218              Murmansk2         14402.250
       366   08 Jun 2027 10:34:33.410   08 Jun 2027 10:42:39.281           485.871                Anadyr1         60733.875
       367   08 Jun 2027 11:58:52.308   08 Jun 2027 12:01:47.713           175.405              Murmansk2         21925.625
       368   08 Jun 2027 12:01:51.491   08 Jun 2027 12:02:11.534            20.043              Murmansk2          2505.375
       369   08 Jun 2027 12:03:22.660   08 Jun 2027 12:03:26.364             3.704              Murmansk2           463.000
       370   08 Jun 2027 12:10:01.508   08 Jun 2027 12:12:14.408           132.900                Anadyr1         16612.500
       371   08 Jun 2027 13:48:11.859   08 Jun 2027 13:49:38.359            86.500               Magadan2         10812.500
       372   08 Jun 2027 13:50:13.661   08 Jun 2027 13:53:25.445           191.784               Magadan1         23973.000
       373   08 Jun 2027 15:30:46.219   08 Jun 2027 15:32:40.547           114.328                Irkutsk         14291.000
       374   08 Jun 2027 16:15:56.290   08 Jun 2027 16:18:44.978           168.688            RioGallegos         21086.000
       375   08 Jun 2027 16:20:16.724   08 Jun 2027 16:21:36.147            79.423            RioGallegos          9927.875
       376   08 Jun 2027 17:03:34.769   08 Jun 2027 17:05:32.818           118.049                Irkutsk         14756.125
       377   08 Jun 2027 17:18:38.610   08 Jun 2027 17:20:15.947            97.337                Sumatra         12167.125
       378   08 Jun 2027 17:29:13.657   08 Jun 2027 17:29:55.064            41.407                Sumatra          5175.875
       379   08 Jun 2027 18:42:04.636   08 Jun 2027 18:42:27.202            22.566                Novosib          2820.750
       380   08 Jun 2027 18:44:01.071   08 Jun 2027 18:44:35.367            34.296                Novosib          4287.000
       381   08 Jun 2027 18:46:06.810   08 Jun 2027 18:47:19.176            72.366                Novosib          9045.750
       382   08 Jun 2027 18:49:14.563   08 Jun 2027 18:51:21.013           126.450                  Delhi         15806.250
       383   08 Jun 2027 20:18:14.395   08 Jun 2027 20:19:37.058            82.663                 Moscow         10332.875
       384   08 Jun 2027 20:22:04.492   08 Jun 2027 20:23:14.137            69.645                 Moscow          8705.625
       385   08 Jun 2027 21:52:52.463   08 Jun 2027 21:53:39.935            47.472                 Moscow          5934.000
       386   08 Jun 2027 21:56:33.556   08 Jun 2027 21:57:32.669            59.113                 Moscow          7389.125
       387   08 Jun 2027 22:16:59.693   08 Jun 2027 22:17:27.244            27.551               CapeTown          3443.875
       388   08 Jun 2027 22:19:27.275   08 Jun 2027 22:21:03.127            95.852               CapeTown          3083.750
       389   09 Jun 2027 04:13:33.628   09 Jun 2027 04:13:37.706             4.078                Irkutsk           509.750
       390   09 Jun 2027 04:13:47.212   09 Jun 2027 04:14:44.156            56.944                Norilsk          7118.000
       391   09 Jun 2027 04:14:59.963   09 Jun 2027 04:16:31.027            91.064              Murmansk1         11383.000
       392   09 Jun 2027 05:23:13.264   09 Jun 2027 05:25:19.925           126.661                Sumatra         15832.625
       393   09 Jun 2027 05:33:58.207   09 Jun 2027 05:36:43.381           165.174                  Delhi         20646.750
       394   09 Jun 2027 05:49:36.244   09 Jun 2027 05:51:20.776           104.532                 Moscow         13066.500
       395   09 Jun 2027 05:51:22.921   09 Jun 2027 05:53:55.829           152.908              Murmansk1         19113.500
       396   09 Jun 2027 05:53:55.829   09 Jun 2027 05:55:03.279            67.450              Murmansk2          8431.250
       397   09 Jun 2027 06:27:49.327   09 Jun 2027 06:28:47.745            58.418            RioGallegos          7302.250
       398   09 Jun 2027 06:29:49.798   09 Jun 2027 06:30:48.794            58.996            RioGallegos          7374.500
       399   09 Jun 2027 06:31:52.744   09 Jun 2027 06:33:05.311            72.567            RioGallegos          9070.875
       400   09 Jun 2027 06:34:28.274   09 Jun 2027 06:34:50.583            22.309            RioGallegos          2788.625
       401   09 Jun 2027 07:02:47.232   09 Jun 2027 07:05:00.267           133.035                Sumatra         16629.375
       402   09 Jun 2027 07:07:24.436   09 Jun 2027 07:10:11.710           167.274                  Delhi         20909.250
       403   09 Jun 2027 07:14:38.304   09 Jun 2027 07:15:27.473            49.169                  Delhi          6146.125
       404   09 Jun 2027 07:16:20.864   09 Jun 2027 07:19:20.402           179.538                Novosib         22442.250
       405   09 Jun 2027 07:19:27.035   09 Jun 2027 07:21:26.762           119.727                Irkutsk         14965.875
       406   09 Jun 2027 07:25:23.035   09 Jun 2027 07:26:38.339            75.304              Murmansk2          9413.000
       407   09 Jun 2027 07:26:47.975   09 Jun 2027 07:28:26.255            98.280                Norilsk         12285.000
       408   09 Jun 2027 07:28:53.583   09 Jun 2027 07:31:00.620           127.037              Murmansk2         15879.625
       409   09 Jun 2027 07:32:15.135   09 Jun 2027 07:32:18.101             2.966              Murmansk1           370.750
       410   09 Jun 2027 08:51:49.564   09 Jun 2027 08:52:33.271            43.707                 Moscow          5463.375
       411   09 Jun 2027 09:02:24.301   09 Jun 2027 09:04:41.022           136.721                 Moscow         17090.125
       412   09 Jun 2027 09:04:49.278   09 Jun 2027 09:08:09.987           200.709              Murmansk1         25088.625
       413   09 Jun 2027 10:06:46.845   09 Jun 2027 10:15:59.255           552.410               CapeTown         69051.250
       414   09 Jun 2027 10:31:26.662   09 Jun 2027 10:38:45.246           438.584                 Moscow         54823.000
       415   09 Jun 2027 10:39:07.192   09 Jun 2027 10:42:56.784           229.592              Murmansk1         28699.000
       416   09 Jun 2027 10:46:24.972   09 Jun 2027 10:51:59.208           334.236                Anadyr1         41779.500
       417   09 Jun 2027 10:51:59.507   09 Jun 2027 10:55:19.520           200.013                Anadyr2         25001.625
       418   09 Jun 2027 12:11:10.929   09 Jun 2027 12:16:04.439           293.510              Murmansk2         36688.750
       419   09 Jun 2027 12:25:35.307   09 Jun 2027 12:29:22.516           227.209               Magadan2         28401.125
       420   09 Jun 2027 14:00:09.519   09 Jun 2027 14:01:22.215            72.696               Magadan1          9087.000
       421   09 Jun 2027 14:02:33.390   09 Jun 2027 14:03:21.224            47.834               Magadan2          5979.250
       422   09 Jun 2027 15:41:41.195   09 Jun 2027 15:45:21.610           220.415                Irkutsk         27551.875
       423   09 Jun 2027 15:58:46.116   09 Jun 2027 16:01:28.051           161.935                Sumatra         20241.875
       424   09 Jun 2027 16:29:41.722   09 Jun 2027 16:30:32.615            50.893            RioGallegos          6361.625
       425   09 Jun 2027 17:15:30.989   09 Jun 2027 17:17:06.540            95.551                Irkutsk         11943.875
       426   09 Jun 2027 17:18:09.667   09 Jun 2027 17:20:32.243           142.576                Novosib         17822.000
       427   09 Jun 2027 17:31:54.018   09 Jun 2027 17:32:09.697            15.679                Sumatra          1959.875
       428   09 Jun 2027 17:34:29.914   09 Jun 2027 17:34:38.681             8.767                Sumatra          1095.875
       429   09 Jun 2027 17:36:51.785   09 Jun 2027 17:38:28.410            96.625                Sumatra         12078.125
       430   09 Jun 2027 18:58:49.491   09 Jun 2027 19:02:46.871           237.380                  Delhi         29672.500
       431   09 Jun 2027 20:29:55.220   09 Jun 2027 20:31:51.845           116.625                 Moscow         14578.125
       432   09 Jun 2027 22:01:35.399   09 Jun 2027 22:02:02.672            27.273              Murmansk2          3409.125
       433   09 Jun 2027 22:06:21.905   09 Jun 2027 22:06:32.174            10.269              Murmansk1          1283.625
       434   09 Jun 2027 22:06:46.025   09 Jun 2027 22:08:33.523           107.498              Murmansk1          6116.000
       435   10 Jun 2027 04:25:46.181   10 Jun 2027 04:26:57.376            71.195                Novosib          8899.375
       436   10 Jun 2027 04:27:01.908   10 Jun 2027 04:29:03.290           121.382              Murmansk1         15172.750
       437   10 Jun 2027 05:35:12.156   10 Jun 2027 05:37:43.065           150.909                Sumatra         18863.625
       438   10 Jun 2027 05:46:40.693   10 Jun 2027 05:47:55.075            74.382                  Delhi          9297.750
       439   10 Jun 2027 05:51:18.413   10 Jun 2027 05:52:53.852            95.439                  Delhi         11929.875
       440   10 Jun 2027 06:00:50.959   10 Jun 2027 06:01:21.853            30.894              Murmansk2          3861.750
       441   10 Jun 2027 06:01:43.527   10 Jun 2027 06:03:39.037           115.510                 Moscow         14438.750
       442   10 Jun 2027 06:03:42.352   10 Jun 2027 06:06:50.734           188.382              Murmansk2         23547.750
       443   10 Jun 2027 06:06:50.734   10 Jun 2027 06:08:44.408           113.674              Murmansk1         14209.250
       444   10 Jun 2027 06:43:10.968   10 Jun 2027 06:43:24.192            13.224            RioGallegos          1653.000
       445   10 Jun 2027 07:19:32.911   10 Jun 2027 07:24:23.712           290.801                  Delhi         36350.125
       446   10 Jun 2027 07:27:19.599   10 Jun 2027 07:27:32.898            13.299                  Delhi          1662.375
       447   10 Jun 2027 07:27:53.503   10 Jun 2027 07:28:47.667            54.164                  Delhi          6770.500
       448   10 Jun 2027 07:29:11.636   10 Jun 2027 07:31:32.327           140.691                Novosib         17586.375
       449   10 Jun 2027 07:32:13.160   10 Jun 2027 07:32:42.205            29.045                 Moscow          3630.625
       450   10 Jun 2027 07:37:12.355   10 Jun 2027 07:37:52.584            40.229                 Moscow          5028.625
       451   10 Jun 2027 07:37:56.026   10 Jun 2027 07:38:17.633            21.607                Norilsk          2700.875
       452   10 Jun 2027 07:38:25.478   10 Jun 2027 07:40:49.250           143.772              Murmansk2         17971.500
       453   10 Jun 2027 07:40:49.250   10 Jun 2027 07:42:36.556           107.306              Murmansk1         13413.250
       454   10 Jun 2027 07:43:19.833   10 Jun 2027 07:43:53.782            33.949              Murmansk2          4243.625
       455   10 Jun 2027 07:44:16.633   10 Jun 2027 07:44:18.087             1.454              Murmansk2           181.750
       456   10 Jun 2027 09:03:48.159   10 Jun 2027 09:04:54.403            66.244                 Moscow          8280.500
       457   10 Jun 2027 09:13:23.608   10 Jun 2027 09:16:42.310           198.702                 Moscow         24837.750
       458   10 Jun 2027 09:16:53.129   10 Jun 2027 09:20:11.538           198.409              Murmansk2         24801.125
       459   10 Jun 2027 10:18:19.988   10 Jun 2027 10:27:38.431           558.443               CapeTown         69805.375
       460   10 Jun 2027 10:43:27.342   10 Jun 2027 10:47:50.925           263.583                 Moscow         32947.875
       461   10 Jun 2027 10:48:22.406   10 Jun 2027 10:48:28.421             6.015                 Moscow           751.875
       462   10 Jun 2027 10:48:41.377   10 Jun 2027 10:52:07.863           206.486              Murmansk2         25810.750
       463   10 Jun 2027 10:52:07.863   10 Jun 2027 10:52:40.477            32.614              Murmansk1          4076.750
       464   10 Jun 2027 10:53:16.385   10 Jun 2027 10:53:22.651             6.266              Murmansk1           783.250
       465   10 Jun 2027 10:58:18.816   10 Jun 2027 11:03:43.399           324.583                Anadyr2         40572.875
       466   10 Jun 2027 11:04:24.439   10 Jun 2027 11:07:55.091           210.652                Anadyr1         26331.500
       467   10 Jun 2027 12:23:48.393   10 Jun 2027 12:28:05.907           257.514              Murmansk1         32189.250
       468   10 Jun 2027 12:33:52.142   10 Jun 2027 12:34:30.886            38.744                Anadyr2          4843.000
       469   10 Jun 2027 12:37:14.466   10 Jun 2027 12:38:38.179            83.713               Magadan2         10464.125
       470   10 Jun 2027 12:41:27.977   10 Jun 2027 12:45:11.936           223.959               Magadan1         27994.875
       471   10 Jun 2027 15:07:18.291   10 Jun 2027 15:09:19.298           121.007            RioGallegos         15125.875
       472   10 Jun 2027 15:53:05.818   10 Jun 2027 15:56:44.332           218.514                Irkutsk         27314.250
       473   10 Jun 2027 16:08:41.320   10 Jun 2027 16:12:36.964           235.644                Sumatra         29455.500
       474   10 Jun 2027 17:28:21.182   10 Jun 2027 17:29:06.697            45.515                Novosib          5689.375
       475   10 Jun 2027 17:30:23.721   10 Jun 2027 17:32:26.227           122.506                Novosib         15313.250
       476   10 Jun 2027 17:43:06.342   10 Jun 2027 17:43:20.728            14.386                Sumatra          1798.250
       477   10 Jun 2027 17:50:53.638   10 Jun 2027 17:51:33.450            39.812                Sumatra          4976.500
       478   10 Jun 2027 19:10:43.230   10 Jun 2027 19:13:32.228           168.998                  Delhi         21124.750
       479   10 Jun 2027 19:21:04.974   10 Jun 2027 19:21:23.551            18.577                  Delhi          2322.125
       480   10 Jun 2027 20:37:43.707   10 Jun 2027 20:38:07.816            24.109              Murmansk1          3013.625
       481   10 Jun 2027 20:41:35.470   10 Jun 2027 20:42:25.869            50.399              Murmansk1          6299.875
       482   10 Jun 2027 20:43:56.114   10 Jun 2027 20:45:53.382           117.268                 Moscow         14658.500
