uniorb/output/strategy_4/Drop/Drop_KinoSat_110206.txt

KinoSat_110206
-------------------------
    Access    *     Start Time (UTCG)     *     Stop Time (UTCG)  *   Duration (s)        *       Station  *  Data (Mbytes)
         1   01 Jun 2027 03:53:35.042   01 Jun 2027 03:54:12.440            37.398               Magadan2          4674.750
         2   01 Jun 2027 03:54:12.440   01 Jun 2027 03:54:36.146            23.706               Magadan1          2963.250
         3   01 Jun 2027 03:55:05.690   01 Jun 2027 03:56:36.886            91.196               Magadan1         11399.500
         4   01 Jun 2027 03:57:25.103   01 Jun 2027 03:57:42.865            17.762              Murmansk2          2220.250
         5   01 Jun 2027 03:57:42.865   01 Jun 2027 03:59:00.151            77.286              Murmansk1          9660.750
         6   01 Jun 2027 03:59:56.175   01 Jun 2027 04:00:07.273            11.098                Norilsk          1387.250
         7   01 Jun 2027 04:34:06.624   01 Jun 2027 04:34:47.763            41.139            RioGallegos          5142.375
         8   01 Jun 2027 04:40:59.626   01 Jun 2027 04:41:42.864            43.238            RioGallegos          5404.750
         9   01 Jun 2027 05:08:34.188   01 Jun 2027 05:10:11.126            96.938                Sumatra         12117.250
        10   01 Jun 2027 05:16:23.895   01 Jun 2027 05:18:07.514           103.619                Sumatra         12952.375
        11   01 Jun 2027 05:19:17.899   01 Jun 2027 05:21:40.806           142.907                  Delhi         17863.375
        12   01 Jun 2027 05:32:25.045   01 Jun 2027 05:33:11.846            46.801              Murmansk2          5850.125
        13   01 Jun 2027 05:33:12.766   01 Jun 2027 05:34:19.890            67.124                Irkutsk          8390.500
        14   01 Jun 2027 06:17:17.195   01 Jun 2027 06:18:00.012            42.817            RioGallegos          5352.125
        15   01 Jun 2027 06:53:06.379   01 Jun 2027 06:55:37.092           150.713                  Delhi         18839.125
        16   01 Jun 2027 07:08:01.626   01 Jun 2027 07:08:49.891            48.265                Novosib          6033.125
        17   01 Jun 2027 07:09:17.391   01 Jun 2027 07:11:02.571           105.180                 Moscow         13147.500
        18   01 Jun 2027 08:44:55.553   01 Jun 2027 08:45:22.554            27.001              Murmansk2          3375.125
        19   01 Jun 2027 08:45:23.057   01 Jun 2027 08:49:59.408           276.351                 Moscow         34543.875
        20   01 Jun 2027 08:50:06.132   01 Jun 2027 08:53:03.165           177.033              Murmansk1         22129.125
        21   01 Jun 2027 09:51:14.397   01 Jun 2027 09:52:48.190            93.793               CapeTown         11724.125
        22   01 Jun 2027 09:55:19.299   01 Jun 2027 09:57:27.323           128.024               CapeTown         16003.000
        23   01 Jun 2027 10:31:30.091   01 Jun 2027 10:33:24.245           114.154                Anadyr2         14269.250
        24   01 Jun 2027 12:11:10.160   01 Jun 2027 12:12:55.351           105.191               Magadan2         13148.875
        25   01 Jun 2027 12:13:57.350   01 Jun 2027 12:16:09.348           131.998               Magadan1         16499.750
        26   01 Jun 2027 13:45:23.512   01 Jun 2027 13:46:13.816            50.304               Magadan2          6288.000
        27   01 Jun 2027 13:49:21.218   01 Jun 2027 13:50:11.747            50.529               Magadan2          6316.125
        28   01 Jun 2027 14:43:18.923   01 Jun 2027 14:45:09.700           110.777            RioGallegos         13847.125
        29   01 Jun 2027 15:25:55.338   01 Jun 2027 15:26:40.130            44.792                Irkutsk          5599.000
        30   01 Jun 2027 15:31:52.806   01 Jun 2027 15:32:39.946            47.140                Irkutsk          5892.500
        31   01 Jun 2027 15:40:44.872   01 Jun 2027 15:43:42.023           177.151                Sumatra         22143.875
        32   01 Jun 2027 15:46:22.983   01 Jun 2027 15:49:44.354           201.371                Sumatra         25171.375
        33   01 Jun 2027 17:03:50.962   01 Jun 2027 17:05:42.994           112.032                Novosib         14004.000
        34   01 Jun 2027 17:11:07.537   01 Jun 2027 17:13:30.748           143.211                  Delhi         14835.500
        35   02 Jun 2027 04:10:46.777   02 Jun 2027 04:11:01.163            14.386                Irkutsk          1798.250
        36   02 Jun 2027 04:11:06.183   02 Jun 2027 04:12:24.315            78.132                Novosib          9766.500
        37   02 Jun 2027 04:51:18.439   02 Jun 2027 04:51:57.856            39.417            RioGallegos          4927.125
        38   02 Jun 2027 05:20:45.493   02 Jun 2027 05:21:39.619            54.126                Sumatra          6765.750
        39   02 Jun 2027 05:29:31.252   02 Jun 2027 05:31:35.563           124.311                  Delhi         15538.875
        40   02 Jun 2027 05:45:44.455   02 Jun 2027 05:46:15.216            30.761                Irkutsk          3845.125
        41   02 Jun 2027 05:46:36.337   02 Jun 2027 05:49:21.891           165.554                 Moscow         20694.250
        42   02 Jun 2027 05:49:27.048   02 Jun 2027 05:53:54.664           267.616              Murmansk1         33452.000
        43   02 Jun 2027 07:09:36.358   02 Jun 2027 07:16:45.466           429.108                  Delhi         53638.500
        44   02 Jun 2027 07:16:47.200   02 Jun 2027 07:17:29.942            42.742                Novosib          5342.750
        45   02 Jun 2027 07:22:31.687   02 Jun 2027 07:25:58.423           206.736                 Moscow         25842.000
        46   02 Jun 2027 07:26:15.224   02 Jun 2027 07:29:35.426           200.202              Murmansk2         25025.250
        47   02 Jun 2027 08:52:24.926   02 Jun 2027 08:53:39.551            74.625                 Moscow          9328.125
        48   02 Jun 2027 08:57:16.188   02 Jun 2027 09:01:59.286           283.098                 Moscow         35387.250
        49   02 Jun 2027 09:02:18.748   02 Jun 2027 09:05:31.510           192.762              Murmansk2         24095.250
        50   02 Jun 2027 09:09:44.971   02 Jun 2027 09:12:04.870           139.899                Anadyr2         17487.375
        51   02 Jun 2027 10:08:23.324   02 Jun 2027 10:15:04.734           401.410               CapeTown         50176.250
        52   02 Jun 2027 12:22:03.727   02 Jun 2027 12:22:53.074            49.347               Magadan1          6168.375
        53   02 Jun 2027 12:22:53.074   02 Jun 2027 12:24:16.040            82.966               Magadan2         10370.750
        54   02 Jun 2027 12:24:37.768   02 Jun 2027 12:26:28.843           111.075               Magadan1         13884.375
        55   02 Jun 2027 14:00:31.377   02 Jun 2027 14:02:13.161           101.784               Magadan1         12723.000
        56   02 Jun 2027 15:37:38.834   02 Jun 2027 15:41:51.669           252.835                Irkutsk         31604.375
        57   02 Jun 2027 15:52:02.350   02 Jun 2027 15:55:32.773           210.423                Sumatra         26302.875
        58   02 Jun 2027 15:58:33.751   02 Jun 2027 16:00:21.371           107.620                Sumatra         13452.500
        59   02 Jun 2027 17:16:55.257   02 Jun 2027 17:17:40.259            45.002                Novosib          5625.250
        60   02 Jun 2027 17:22:08.699   02 Jun 2027 17:25:16.158           187.459                  Delhi         23432.375
        61   02 Jun 2027 18:55:57.986   02 Jun 2027 18:57:23.545            85.559                  Delhi         10694.875
        62   02 Jun 2027 20:26:37.943   02 Jun 2027 20:29:35.455           177.512                 Moscow         17251.125
        63   03 Jun 2027 04:23:01.237   03 Jun 2027 04:23:01.720             0.483                Irkutsk            60.375
        64   03 Jun 2027 04:23:19.153   03 Jun 2027 04:23:40.848            21.695              Murmansk2          2711.875
        65   03 Jun 2027 05:33:03.520   03 Jun 2027 05:33:16.997            13.477                Sumatra          1684.625
        66   03 Jun 2027 05:35:07.862   03 Jun 2027 05:37:13.960           126.098                Sumatra         15762.250
        67   03 Jun 2027 05:41:13.286   03 Jun 2027 05:43:48.552           155.266                  Delhi         19408.250
        68   03 Jun 2027 05:58:37.136   03 Jun 2027 06:00:28.404           111.268                Novosib         13908.500
        69   03 Jun 2027 06:00:58.839   03 Jun 2027 06:01:31.268            32.429                 Moscow          4053.625
        70   03 Jun 2027 06:01:52.075   03 Jun 2027 06:05:52.689           240.614              Murmansk2         30076.750
        71   03 Jun 2027 07:24:39.360   03 Jun 2027 07:28:22.502           223.142                  Delhi         27892.750
        72   03 Jun 2027 07:28:22.934   03 Jun 2027 07:30:15.328           112.394                Novosib         14049.250
        73   03 Jun 2027 07:34:22.751   03 Jun 2027 07:38:02.211           219.460                 Moscow         27432.500
        74   03 Jun 2027 07:38:17.193   03 Jun 2027 07:41:36.270           199.077              Murmansk1         24884.625
        75   03 Jun 2027 09:04:24.655   03 Jun 2027 09:06:35.313           130.658                 Moscow         16332.250
        76   03 Jun 2027 09:08:08.265   03 Jun 2027 09:09:43.237            94.972              Murmansk1         11871.500
        77   03 Jun 2027 09:09:59.312   03 Jun 2027 09:13:58.365           239.053                 Moscow         29881.625
        78   03 Jun 2027 09:14:07.366   03 Jun 2027 09:15:57.501           110.135              Murmansk2         13766.875
        79   03 Jun 2027 11:00:10.084   03 Jun 2027 11:00:28.638            18.554                Anadyr2          2319.250
        80   03 Jun 2027 11:03:08.925   03 Jun 2027 11:03:26.973            18.048                Anadyr1          2256.000
        81   03 Jun 2027 11:04:40.166   03 Jun 2027 11:04:58.377            18.211                Anadyr1          2276.375
        82   03 Jun 2027 12:33:55.908   03 Jun 2027 12:39:22.092           326.184               Magadan1         40773.000
        83   03 Jun 2027 15:02:07.003   03 Jun 2027 15:02:35.266            28.263            RioGallegos          3532.875
        84   03 Jun 2027 15:05:28.493   03 Jun 2027 15:06:05.194            36.701            RioGallegos          4587.625
        85   03 Jun 2027 15:08:00.744   03 Jun 2027 15:09:06.385            65.641            RioGallegos          8205.125
        86   03 Jun 2027 15:49:26.491   03 Jun 2027 15:50:11.589            45.098                Irkutsk          5637.250
        87   03 Jun 2027 15:52:45.174   03 Jun 2027 15:53:48.039            62.865                Irkutsk          7858.125
        88   03 Jun 2027 16:03:31.636   03 Jun 2027 16:07:29.289           237.653                Sumatra         29706.625
        89   03 Jun 2027 17:25:05.854   03 Jun 2027 17:27:47.205           161.351                Novosib         20168.875
        90   03 Jun 2027 17:33:30.171   03 Jun 2027 17:37:06.234           216.063                  Delhi         27007.875
        91   03 Jun 2027 19:08:02.436   03 Jun 2027 19:08:59.659            57.223                  Delhi          7152.875
        92   03 Jun 2027 19:17:42.942   03 Jun 2027 19:18:19.949            37.007                  Delhi          4625.875
        93   03 Jun 2027 20:38:32.239   03 Jun 2027 20:40:34.584           122.345                 Moscow         15293.125
        94   03 Jun 2027 21:11:04.959   03 Jun 2027 21:12:31.908            86.949               CapeTown          7094.500
        95   04 Jun 2027 05:47:16.391   04 Jun 2027 05:49:28.891           132.500                Sumatra         16562.500
        96   04 Jun 2027 06:11:04.868   04 Jun 2027 06:13:39.443           154.575                 Moscow         19321.875
        97   04 Jun 2027 06:13:39.949   04 Jun 2027 06:17:51.197           251.248              Murmansk2         31406.000
        98   04 Jun 2027 07:39:11.596   04 Jun 2027 07:41:48.045           156.449                Novosib         19556.125
        99   04 Jun 2027 07:47:06.665   04 Jun 2027 07:50:05.521           178.856                 Moscow         22357.000
       100   04 Jun 2027 07:50:19.020   04 Jun 2027 07:53:37.328           198.308              Murmansk2         24788.500
       101   04 Jun 2027 08:57:11.116   04 Jun 2027 08:57:38.259            27.143               CapeTown          3392.875
       102   04 Jun 2027 09:16:23.556   04 Jun 2027 09:17:01.170            37.614                 Moscow          4701.750
       103   04 Jun 2027 09:20:09.403   04 Jun 2027 09:22:01.602           112.199              Murmansk1         14024.875
       104   04 Jun 2027 09:22:06.842   04 Jun 2027 09:25:56.527           229.685                 Moscow         28710.625
       105   04 Jun 2027 09:26:10.393   04 Jun 2027 09:28:38.711           148.318              Murmansk2         18539.750
       106   04 Jun 2027 09:28:38.711   04 Jun 2027 09:29:34.893            56.182              Murmansk1          7022.750
       107   04 Jun 2027 09:32:29.851   04 Jun 2027 09:38:40.259           370.408                Anadyr1         46301.000
       108   04 Jun 2027 10:33:43.761   04 Jun 2027 10:36:34.520           170.759               CapeTown         21344.875
       109   04 Jun 2027 11:07:39.759   04 Jun 2027 11:08:14.937            35.178                Anadyr1          4397.250
       110   04 Jun 2027 12:45:50.038   04 Jun 2027 12:51:08.156           318.118               Magadan2         39764.750
       111   04 Jun 2027 14:21:24.604   04 Jun 2027 14:21:50.162            25.558               Magadan1          3194.750
       112   04 Jun 2027 15:13:49.203   04 Jun 2027 15:17:59.602           250.399            RioGallegos         31299.875
       113   04 Jun 2027 16:01:17.197   04 Jun 2027 16:02:43.036            85.839                Irkutsk         10729.875
       114   04 Jun 2027 16:05:43.317   04 Jun 2027 16:05:45.744             2.427                Irkutsk           303.375
       115   04 Jun 2027 16:15:09.644   04 Jun 2027 16:19:31.391           261.747                Sumatra         32718.375
       116   04 Jun 2027 17:37:00.496   04 Jun 2027 17:39:01.166           120.670                Novosib         15083.750
       117   04 Jun 2027 17:45:02.833   04 Jun 2027 17:49:00.276           237.443                  Delhi         29680.375
       118   04 Jun 2027 20:49:03.428   04 Jun 2027 20:49:10.208             6.780              Murmansk1           847.500
       119   04 Jun 2027 20:50:28.080   04 Jun 2027 20:52:01.673            93.593                 Moscow         11699.125
       120   04 Jun 2027 21:15:02.916   04 Jun 2027 21:15:06.903             3.987               CapeTown           498.375
       121   04 Jun 2027 21:22:02.819   04 Jun 2027 21:22:14.218            11.399               CapeTown          1424.875
       122   04 Jun 2027 22:25:23.295   04 Jun 2027 22:25:34.256            10.961              Murmansk2          1370.125
       123   04 Jun 2027 22:51:24.835   04 Jun 2027 22:52:59.805            94.970               CapeTown          5848.626
       124   05 Jun 2027 03:11:15.906   05 Jun 2027 03:15:04.876           228.970                Norilsk         28621.250
       125   05 Jun 2027 04:21:01.383   05 Jun 2027 04:25:34.568           273.185                Sumatra         34148.125
       126   05 Jun 2027 04:46:48.595   05 Jun 2027 04:48:35.382           106.787                Novosib         13348.375
       127   05 Jun 2027 04:48:42.838   05 Jun 2027 04:52:02.465           199.627                Norilsk         24953.375
       128   05 Jun 2027 04:52:03.899   05 Jun 2027 04:54:27.924           144.025              Murmansk1         18003.125
       129   05 Jun 2027 06:12:02.315   05 Jun 2027 06:17:59.199           356.884                Novosib         44610.500
       130   05 Jun 2027 06:18:13.178   05 Jun 2027 06:18:33.757            20.579                 Moscow          2572.375
       131   05 Jun 2027 06:18:34.803   05 Jun 2027 06:19:14.477            39.674                Norilsk          4959.250
       132   05 Jun 2027 06:22:40.123   05 Jun 2027 06:25:46.688           186.565                 Moscow         23320.625
       133   05 Jun 2027 06:25:50.414   05 Jun 2027 06:29:50.149           239.735              Murmansk1         29966.875
       134   05 Jun 2027 07:50:32.736   05 Jun 2027 07:53:46.770           194.034                 Moscow         24254.250
       135   05 Jun 2027 07:58:07.583   05 Jun 2027 07:58:35.900            28.317                Novosib          3539.625
       136   05 Jun 2027 07:59:37.455   05 Jun 2027 08:02:06.496           149.041                Norilsk         18630.125
       137   05 Jun 2027 08:02:17.378   05 Jun 2027 08:05:38.557           201.179              Murmansk1         25147.375
       138   05 Jun 2027 09:09:46.810   05 Jun 2027 09:11:55.762           128.952               CapeTown         16119.000
       139   05 Jun 2027 09:28:21.516   05 Jun 2027 09:29:06.575            45.059                 Moscow          5632.375
       140   05 Jun 2027 09:32:10.690   05 Jun 2027 09:34:05.503           114.813              Murmansk2         14351.625
       141   05 Jun 2027 09:34:14.018   05 Jun 2027 09:37:53.621           219.603                 Moscow         27450.375
       142   05 Jun 2027 09:37:58.317   05 Jun 2027 09:40:28.772           150.455              Murmansk2         18806.875
       143   05 Jun 2027 09:40:28.772   05 Jun 2027 09:41:36.522            67.750              Murmansk1          8468.750
       144   05 Jun 2027 09:44:13.936   05 Jun 2027 09:51:32.523           438.587                Anadyr1         54823.375
       145   05 Jun 2027 10:46:09.642   05 Jun 2027 10:49:34.131           204.489               CapeTown         25561.125
       146   05 Jun 2027 11:24:10.243   05 Jun 2027 11:24:21.395            11.152                Anadyr2          1394.000
       147   05 Jun 2027 11:28:40.279   05 Jun 2027 11:28:57.242            16.963                Anadyr1          2120.375
       148   05 Jun 2027 12:57:45.681   05 Jun 2027 13:02:24.508           278.827               Magadan1         34853.375
       149   05 Jun 2027 13:02:48.017   05 Jun 2027 13:02:57.828             9.811               Magadan2          1226.375
       150   05 Jun 2027 15:25:35.933   05 Jun 2027 15:31:24.956           349.023            RioGallegos         43627.875
       151   05 Jun 2027 16:15:08.973   05 Jun 2027 16:15:39.428            30.455                Irkutsk          3806.875
       152   05 Jun 2027 16:26:54.759   05 Jun 2027 16:31:39.217           284.458                Sumatra         35557.250
       153   05 Jun 2027 17:56:43.042   05 Jun 2027 18:00:57.009           253.967                  Delhi         31745.875
       154   05 Jun 2027 20:59:03.772   05 Jun 2027 20:59:21.812            18.040              Murmansk1          2255.000
       155   05 Jun 2027 21:02:25.194   05 Jun 2027 21:03:39.549            74.355                 Moscow          9294.375
       156   05 Jun 2027 21:05:05.915   05 Jun 2027 21:07:09.068           123.153                 Moscow         15394.125
       157   06 Jun 2027 03:23:14.033   06 Jun 2027 03:24:17.324            63.291                Novosib          7911.375
       158   06 Jun 2027 03:24:18.970   06 Jun 2027 03:28:09.861           230.891                Norilsk         28861.375
       159   06 Jun 2027 03:28:26.317   06 Jun 2027 03:29:05.024            38.707              Murmansk1          4838.375
       160   06 Jun 2027 04:32:49.677   06 Jun 2027 04:35:44.047           174.370                Sumatra         21796.250
       161   06 Jun 2027 04:46:13.202   06 Jun 2027 04:46:33.952            20.750                  Delhi          2593.750
       162   06 Jun 2027 04:59:15.156   06 Jun 2027 05:00:29.146            73.990                 Moscow          9248.750
       163   06 Jun 2027 05:00:29.883   06 Jun 2027 05:00:38.105             8.222                Novosib          1027.750
       164   06 Jun 2027 05:00:47.621   06 Jun 2027 05:04:04.186           196.565                Norilsk         24570.625
       165   06 Jun 2027 05:04:27.260   06 Jun 2027 05:06:22.947           115.687              Murmansk1         14460.875
       166   06 Jun 2027 06:24:26.845   06 Jun 2027 06:29:39.433           312.588                  Delhi         39073.500
       167   06 Jun 2027 06:29:39.878   06 Jun 2027 06:30:40.017            60.139                 Moscow          7517.375
       168   06 Jun 2027 06:34:55.558   06 Jun 2027 06:37:53.182           177.624                 Moscow         22203.000
       169   06 Jun 2027 06:38:12.664   06 Jun 2027 06:41:49.506           216.842              Murmansk1         27105.250
       170   06 Jun 2027 08:10:08.141   06 Jun 2027 08:10:50.634            42.493                 Moscow          5311.625
       171   06 Jun 2027 08:11:39.285   06 Jun 2027 08:15:50.838           251.553                Norilsk         31444.125
       172   06 Jun 2027 08:15:55.368   06 Jun 2027 08:17:39.928           104.560              Murmansk2         13070.000
       173   06 Jun 2027 09:22:13.661   06 Jun 2027 09:25:05.809           172.148               CapeTown         21518.500
       174   06 Jun 2027 09:44:12.111   06 Jun 2027 09:45:24.872            72.761              Murmansk1          9095.125
       175   06 Jun 2027 09:45:44.288   06 Jun 2027 09:49:49.434           245.146                 Moscow         30643.250
       176   06 Jun 2027 09:50:04.777   06 Jun 2027 09:52:04.258           119.481              Murmansk2         14935.125
       177   06 Jun 2027 09:52:04.258   06 Jun 2027 09:53:38.059            93.801              Murmansk1         11725.125
       178   06 Jun 2027 09:56:02.861   06 Jun 2027 10:04:17.475           494.614                Anadyr2         61826.750
       179   06 Jun 2027 10:58:28.527   06 Jun 2027 11:03:29.491           300.964               CapeTown         37620.500
       180   06 Jun 2027 11:24:47.454   06 Jun 2027 11:29:25.672           278.218              Murmansk2         34777.250
       181   06 Jun 2027 11:31:22.715   06 Jun 2027 11:43:35.537           732.822                Anadyr2         91602.750
       182   06 Jun 2027 13:09:42.531   06 Jun 2027 13:14:24.390           281.859               Magadan1         35232.375
       183   06 Jun 2027 15:37:25.954   06 Jun 2027 15:43:00.647           334.693            RioGallegos         41836.625
       184   06 Jun 2027 16:38:46.067   06 Jun 2027 16:42:56.928           250.861                Sumatra         31357.625
       185   06 Jun 2027 18:03:38.292   06 Jun 2027 18:05:38.515           120.223                Novosib         15027.875
       186   06 Jun 2027 18:10:49.262   06 Jun 2027 18:12:58.816           129.554                  Delhi         16194.250
       187   06 Jun 2027 21:11:12.157   06 Jun 2027 21:11:20.925             8.768              Murmansk1          1096.000
       188   06 Jun 2027 21:19:10.277   06 Jun 2027 21:21:22.395           132.118                 Moscow         16514.750
       189   06 Jun 2027 21:38:28.911   06 Jun 2027 21:41:18.113           169.202               CapeTown         20149.875
       190   07 Jun 2027 03:35:15.286   07 Jun 2027 03:39:25.232           249.946              Murmansk2         31243.250
       191   07 Jun 2027 04:44:43.883   07 Jun 2027 04:47:51.193           187.310                Sumatra         23413.750
       192   07 Jun 2027 05:11:10.608   07 Jun 2027 05:12:55.078           104.470                 Moscow         13058.750
       193   07 Jun 2027 05:12:55.917   07 Jun 2027 05:16:05.994           190.077                Norilsk         23759.625
       194   07 Jun 2027 05:16:29.392   07 Jun 2027 05:18:18.643           109.251              Murmansk1         13656.375
       195   07 Jun 2027 06:36:52.260   07 Jun 2027 06:41:35.681           283.421                  Delhi         35427.625
       196   07 Jun 2027 06:41:37.661   07 Jun 2027 06:41:56.996            19.335                 Moscow          2416.875
       197   07 Jun 2027 06:46:55.109   07 Jun 2027 06:48:17.617            82.508                Novosib         10313.500
       198   07 Jun 2027 06:48:18.679   07 Jun 2027 06:49:59.026           100.347                 Moscow         12543.375
       199   07 Jun 2027 06:50:06.933   07 Jun 2027 06:53:49.231           222.298              Murmansk1         27787.250
       200   07 Jun 2027 08:21:23.499   07 Jun 2027 08:21:36.873            13.374              Murmansk1          1671.750
       201   07 Jun 2027 08:23:41.041   07 Jun 2027 08:27:47.561           246.520                Norilsk         30815.000
       202   07 Jun 2027 08:28:10.139   07 Jun 2027 08:29:41.425            91.286              Murmansk1         11410.750
       203   07 Jun 2027 09:34:33.354   07 Jun 2027 09:37:55.061           201.707               CapeTown         25213.375
       204   07 Jun 2027 09:52:44.529   07 Jun 2027 09:53:58.763            74.234                 Moscow          9279.250
       205   07 Jun 2027 09:56:03.838   07 Jun 2027 09:57:56.123           112.285              Murmansk1         14035.625
       206   07 Jun 2027 09:57:56.123   07 Jun 2027 09:58:02.348             6.225              Murmansk2           778.125
       207   07 Jun 2027 09:58:25.764   07 Jun 2027 09:59:47.912            82.148                 Moscow         10268.500
       208   07 Jun 2027 10:00:53.399   07 Jun 2027 10:03:44.972           171.573              Murmansk1         21446.625
       209   07 Jun 2027 10:03:44.972   07 Jun 2027 10:05:39.473           114.501              Murmansk2         14312.625
       210   07 Jun 2027 10:07:54.885   07 Jun 2027 10:16:56.907           542.022                Anadyr2         67752.750
       211   07 Jun 2027 11:10:41.356   07 Jun 2027 11:15:22.984           281.628               CapeTown         35203.500
       212   07 Jun 2027 11:36:47.686   07 Jun 2027 11:38:06.728            79.042              Murmansk2          9880.250
       213   07 Jun 2027 11:38:06.728   07 Jun 2027 11:41:23.215           196.487              Murmansk1         24560.875
       214   07 Jun 2027 11:46:03.963   07 Jun 2027 11:55:49.163           585.200                Anadyr1         73150.000
       215   07 Jun 2027 13:19:16.799   07 Jun 2027 13:22:27.646           190.847                Anadyr1         23855.875
       216   07 Jun 2027 13:22:56.262   07 Jun 2027 13:27:54.428           298.166               Magadan2         37270.750
       217   07 Jun 2027 15:08:03.749   07 Jun 2027 15:09:24.802            81.053                Irkutsk         10131.625
       218   07 Jun 2027 15:19:45.667   07 Jun 2027 15:20:34.700            49.033                Sumatra          6129.125
       219   07 Jun 2027 15:21:55.752   07 Jun 2027 15:23:29.547            93.795                Sumatra         11724.375
       220   07 Jun 2027 15:49:18.500   07 Jun 2027 15:52:00.311           161.811            RioGallegos         20226.375
       221   07 Jun 2027 16:37:01.660   07 Jun 2027 16:38:27.985            86.325                Irkutsk         10790.625
       222   07 Jun 2027 16:50:43.099   07 Jun 2027 16:53:36.979           173.880                Sumatra         21735.000
       223   07 Jun 2027 17:01:40.396   07 Jun 2027 17:02:28.749            48.353                Sumatra          6044.125
       224   07 Jun 2027 18:17:54.697   07 Jun 2027 18:19:51.012           116.315                Novosib         14539.375
       225   07 Jun 2027 18:20:19.376   07 Jun 2027 18:23:06.837           167.461                  Delhi         20932.625
       226   07 Jun 2027 19:51:32.989   07 Jun 2027 19:53:09.697            96.708                 Moscow         12088.500
       227   07 Jun 2027 21:50:19.764   07 Jun 2027 21:51:44.908            85.144               CapeTown         10643.000
       228   07 Jun 2027 21:53:24.601   07 Jun 2027 21:53:30.657             6.056               CapeTown           757.000
       229   07 Jun 2027 22:01:49.494   07 Jun 2027 22:02:26.870            37.376               CapeTown          4672.000
       230   08 Jun 2027 03:24:42.790   08 Jun 2027 03:26:22.422            99.632                Sumatra          1794.750
       231   08 Jun 2027 03:47:19.283   08 Jun 2027 03:51:42.941           263.658                Norilsk         32957.250
       232   08 Jun 2027 04:56:43.707   08 Jun 2027 04:59:08.762           145.055                Sumatra         18131.875
       233   08 Jun 2027 05:23:21.026   08 Jun 2027 05:28:07.869           286.843                Norilsk         35855.375
       234   08 Jun 2027 05:28:19.964   08 Jun 2027 05:30:14.988           115.024              Murmansk1         14378.000
       235   08 Jun 2027 06:48:57.675   08 Jun 2027 06:53:28.251           270.576                  Delhi         33822.000
       236   08 Jun 2027 06:53:32.629   08 Jun 2027 06:54:24.510            51.881                 Moscow          6485.125
       237   08 Jun 2027 06:58:58.103   08 Jun 2027 07:00:11.517            73.414                Novosib          9176.750
       238   08 Jun 2027 07:00:17.606   08 Jun 2027 07:04:06.951           229.345                Norilsk         28668.125
       239   08 Jun 2027 07:04:08.586   08 Jun 2027 07:05:49.287           100.701              Murmansk1         12587.625
       240   08 Jun 2027 08:28:38.632   08 Jun 2027 08:30:24.515           105.883                 Moscow         13235.375
       241   08 Jun 2027 08:34:55.223   08 Jun 2027 08:38:13.669           198.446                 Moscow         24805.750
       242   08 Jun 2027 08:38:24.292   08 Jun 2027 08:41:43.014           198.722              Murmansk2         24840.250
       243   08 Jun 2027 09:41:48.604   08 Jun 2027 09:50:31.814           523.210               CapeTown         65401.250
       244   08 Jun 2027 10:08:05.221   08 Jun 2027 10:11:53.494           228.273              Murmansk2         28534.125
       245   08 Jun 2027 10:12:55.050   08 Jun 2027 10:15:43.220           168.170              Murmansk1         21021.250
       246   08 Jun 2027 10:15:43.220   08 Jun 2027 10:17:40.707           117.487              Murmansk2         14685.875
       247   08 Jun 2027 10:19:49.069   08 Jun 2027 10:29:31.801           582.732                Anadyr2         72841.500
       248   08 Jun 2027 11:22:48.702   08 Jun 2027 11:27:11.449           262.747               CapeTown         32843.375
       249   08 Jun 2027 11:47:19.195   08 Jun 2027 11:48:02.689            43.494              Murmansk1          5436.750
       250   08 Jun 2027 11:59:39.250   08 Jun 2027 12:00:29.529            50.279               Magadan1          6284.875
       251   08 Jun 2027 12:02:46.157   08 Jun 2027 12:02:51.384             5.227               Magadan2           653.375
       252   08 Jun 2027 12:03:57.949   08 Jun 2027 12:05:19.155            81.206               Magadan2         10150.750
       253   08 Jun 2027 13:33:39.000   08 Jun 2027 13:34:29.990            50.990               Magadan2          6373.750
       254   08 Jun 2027 13:36:23.445   08 Jun 2027 13:40:20.831           237.386               Magadan1         29673.250
       255   08 Jun 2027 15:29:59.714   08 Jun 2027 15:34:20.996           261.282                Sumatra         32660.250
       256   08 Jun 2027 16:50:32.750   08 Jun 2027 16:51:58.097            85.347                Novosib         10668.375
       257   08 Jun 2027 17:01:39.126   08 Jun 2027 17:03:00.901            81.775                  Delhi         10221.875
       258   08 Jun 2027 17:08:45.023   08 Jun 2027 17:09:32.950            47.927                Sumatra          5990.875
       259   08 Jun 2027 17:12:26.427   08 Jun 2027 17:13:46.581            80.154                Sumatra         10019.250
       260   08 Jun 2027 18:29:14.360   08 Jun 2027 18:29:41.749            27.389                Novosib          3423.625
       261   08 Jun 2027 18:32:13.746   08 Jun 2027 18:35:18.130           184.384                  Delhi         23048.000
       262   08 Jun 2027 20:03:10.304   08 Jun 2027 20:05:21.649           131.345                 Moscow         16418.125
       263   08 Jun 2027 21:38:22.372   08 Jun 2027 21:40:05.318           102.946                 Moscow         12868.250
       264   08 Jun 2027 21:45:42.663   08 Jun 2027 21:46:00.799            18.136                 Moscow          2267.000
       265   08 Jun 2027 22:02:15.588   08 Jun 2027 22:04:21.281           125.693               CapeTown          6566.250
       266   09 Jun 2027 03:59:14.629   09 Jun 2027 04:03:05.812           231.183              Murmansk2         28897.875
       267   09 Jun 2027 05:08:49.151   09 Jun 2027 05:10:25.308            96.157                Sumatra         12019.625
       268   09 Jun 2027 05:11:48.529   09 Jun 2027 05:13:43.657           115.128                Sumatra         14391.000
       269   09 Jun 2027 05:35:00.471   09 Jun 2027 05:36:43.077           102.606                Novosib         12825.750
       270   09 Jun 2027 05:36:50.069   09 Jun 2027 05:37:25.887            35.818                 Moscow          4477.250
       271   09 Jun 2027 05:37:46.515   09 Jun 2027 05:42:11.931           265.416              Murmansk1         33177.000
       272   09 Jun 2027 07:00:59.785   09 Jun 2027 07:05:16.621           256.836                  Delhi         32104.500
       273   09 Jun 2027 07:05:24.837   09 Jun 2027 07:05:57.075            32.238                 Moscow          4029.750
       274   09 Jun 2027 07:11:20.096   09 Jun 2027 07:14:09.051           168.955                 Moscow         21119.375
       275   09 Jun 2027 07:14:17.412   09 Jun 2027 07:17:49.637           212.225              Murmansk2         26528.125
       276   09 Jun 2027 08:40:39.320   09 Jun 2027 08:42:44.727           125.407                 Moscow         15675.875
       277   09 Jun 2027 08:45:55.048   09 Jun 2027 08:50:14.242           259.194                 Moscow         32399.250
       278   09 Jun 2027 08:50:24.955   09 Jun 2027 08:53:44.670           199.715              Murmansk1         24964.375
       279   09 Jun 2027 09:55:35.110   09 Jun 2027 10:02:59.477           444.367               CapeTown         55545.875
       280   09 Jun 2027 10:20:16.884   09 Jun 2027 10:21:17.583            60.699              Murmansk1          7587.375
       281   09 Jun 2027 10:21:17.583   09 Jun 2027 10:23:50.887           153.304              Murmansk2         19163.000
       282   09 Jun 2027 10:24:56.635   09 Jun 2027 10:29:41.719           285.084              Murmansk1         35635.500
       283   09 Jun 2027 10:32:03.832   09 Jun 2027 10:39:33.472           449.640                Anadyr2         56205.000
       284   09 Jun 2027 12:11:26.664   09 Jun 2027 12:14:10.929           164.265               Magadan2         20533.125
       285   09 Jun 2027 13:45:38.326   09 Jun 2027 13:46:20.759            42.433               Magadan1          5304.125
       286   09 Jun 2027 13:49:36.518   09 Jun 2027 13:50:36.783            60.265               Magadan1          7533.125
       287   09 Jun 2027 13:55:12.724   09 Jun 2027 13:56:30.708            77.984               Magadan2          9748.000
       288   09 Jun 2027 14:43:33.954   09 Jun 2027 14:45:25.843           111.889            RioGallegos         13986.125
       289   09 Jun 2027 15:32:08.295   09 Jun 2027 15:32:53.482            45.187                Irkutsk          5648.375
       290   09 Jun 2027 15:40:58.839   09 Jun 2027 15:43:56.744           177.905                Sumatra         22238.125
       291   09 Jun 2027 15:46:38.252   09 Jun 2027 15:49:58.523           200.271                Sumatra         25033.875
       292   09 Jun 2027 17:04:06.742   09 Jun 2027 17:05:57.893           111.151                Novosib         13893.875
       293   09 Jun 2027 17:11:21.049   09 Jun 2027 17:13:45.360           144.311                  Delhi         18038.875
       294   09 Jun 2027 18:44:11.645   09 Jun 2027 18:46:10.889           119.244                  Delhi         14905.500
       295   09 Jun 2027 18:53:46.869   09 Jun 2027 18:55:11.898            85.029                  Delhi         10628.625
       296   09 Jun 2027 20:15:00.239   09 Jun 2027 20:15:46.254            46.015                 Moscow          5751.875
       297   09 Jun 2027 20:18:29.662   09 Jun 2027 20:19:26.410            56.748                 Moscow          7093.500
       298   09 Jun 2027 21:53:41.485   09 Jun 2027 21:55:17.226            95.741                 Moscow          3755.875
       299   10 Jun 2027 04:11:01.642   10 Jun 2027 04:11:16.005            14.363                Irkutsk          1795.375
       300   10 Jun 2027 04:11:17.439   10 Jun 2027 04:12:49.283            91.844              Murmansk1         11480.500
       301   10 Jun 2027 05:21:00.567   10 Jun 2027 05:21:53.925            53.358                Sumatra          6669.750
       302   10 Jun 2027 05:29:45.721   10 Jun 2027 05:31:50.640           124.919                  Delhi         15614.875
       303   10 Jun 2027 05:46:40.594   10 Jun 2027 05:49:36.869           176.275                 Moscow         22034.375
       304   10 Jun 2027 05:49:41.688   10 Jun 2027 05:54:09.443           267.755              Murmansk2         33469.375
       305   10 Jun 2027 07:12:58.609   10 Jun 2027 07:13:59.908            61.299                  Delhi          7662.375
       306   10 Jun 2027 07:15:14.571   10 Jun 2027 07:17:45.460           150.889                Novosib         18861.125
       307   10 Jun 2027 07:22:44.487   10 Jun 2027 07:26:13.311           208.824                 Moscow         26103.000
       308   10 Jun 2027 07:26:16.505   10 Jun 2027 07:29:50.261           213.756              Murmansk2         26719.500
       309   10 Jun 2027 08:52:39.758   10 Jun 2027 08:53:52.196            72.438                 Moscow          9054.750
       310   10 Jun 2027 08:57:30.924   10 Jun 2027 09:02:14.105           283.181                 Moscow         35397.625
       311   10 Jun 2027 09:02:33.444   10 Jun 2027 09:05:46.367           192.923              Murmansk2         24115.375
       312   10 Jun 2027 09:09:58.238   10 Jun 2027 09:12:21.971           143.733                Anadyr1         17966.625
       313   10 Jun 2027 10:08:38.793   10 Jun 2027 10:15:19.852           401.059               CapeTown         50132.375
       314   10 Jun 2027 10:33:52.312   10 Jun 2027 10:35:50.180           117.868                 Moscow         14733.500
       315   10 Jun 2027 10:36:58.126   10 Jun 2027 10:39:10.705           132.579              Murmansk2         16572.375
       316   10 Jun 2027 12:22:18.384   10 Jun 2027 12:26:43.758           265.374               Magadan1         33171.750
       317   10 Jun 2027 13:57:38.229   10 Jun 2027 13:59:02.536            84.307               Magadan1         10538.375
       318   10 Jun 2027 14:54:54.768   10 Jun 2027 14:55:49.545            54.777            RioGallegos          6847.125
       319   10 Jun 2027 15:37:53.403   10 Jun 2027 15:42:06.552           253.149                Irkutsk         31643.625
       320   10 Jun 2027 15:52:16.561   10 Jun 2027 15:55:47.623           211.062                Sumatra         26382.750
       321   10 Jun 2027 17:13:27.721   10 Jun 2027 17:17:55.189           267.468                Novosib         33433.500
       322   10 Jun 2027 17:22:22.724   10 Jun 2027 17:25:30.881           188.157                  Delhi         23519.625
       323   10 Jun 2027 20:26:52.646   10 Jun 2027 20:29:48.887           176.241                 Moscow         19446.375
       324   11 Jun 2027 04:23:13.188   11 Jun 2027 04:23:33.990            20.802              Murmansk1          2600.250
       325   11 Jun 2027 05:33:18.718   11 Jun 2027 05:33:31.401            12.683                Sumatra          1585.375
       326   11 Jun 2027 05:35:22.354   11 Jun 2027 05:37:27.283           124.929                Sumatra         15616.125
       327   11 Jun 2027 05:41:27.856   11 Jun 2027 05:44:03.559           155.703                  Delhi         19462.875
       328   11 Jun 2027 05:58:59.551   11 Jun 2027 06:00:43.217           103.666                Novosib         12958.250
       329   11 Jun 2027 06:01:12.463   11 Jun 2027 06:01:46.224            33.761                 Moscow          4220.125
       330   11 Jun 2027 06:01:58.564   11 Jun 2027 06:06:07.478           248.914              Murmansk1         31114.250
       331   11 Jun 2027 07:24:53.980   11 Jun 2027 07:28:36.876           222.896                  Delhi         27862.000
       332   11 Jun 2027 07:28:39.590   11 Jun 2027 07:30:21.652           102.062                 Moscow         12757.750
       333   11 Jun 2027 07:34:40.457   11 Jun 2027 07:38:17.088           216.631                 Moscow         27078.875
       334   11 Jun 2027 07:38:35.278   11 Jun 2027 07:41:51.110           195.832              Murmansk2         24479.000
       335   11 Jun 2027 09:04:39.467   11 Jun 2027 09:07:24.677           165.210                 Moscow         20651.250
       336   11 Jun 2027 09:08:22.918   11 Jun 2027 09:09:59.749            96.831              Murmansk2         12103.875
       337   11 Jun 2027 09:10:14.168   11 Jun 2027 09:14:13.171           239.003                 Moscow         29875.375
       338   11 Jun 2027 09:14:24.528   11 Jun 2027 09:17:04.929           160.401              Murmansk2         20050.125
       339   11 Jun 2027 11:03:24.227   11 Jun 2027 11:03:39.479            15.252                Anadyr2          1906.500
       340   11 Jun 2027 11:04:57.413   11 Jun 2027 11:05:13.174            15.761                Anadyr2          1970.125
       341   11 Jun 2027 12:34:10.606   11 Jun 2027 12:34:42.553            31.947               Magadan2          3993.375
       342   11 Jun 2027 12:34:42.553   11 Jun 2027 12:38:41.553           239.000               Magadan1         29875.000
       343   11 Jun 2027 14:18:21.714   11 Jun 2027 14:19:13.766            52.052               Magadan1          6506.500
       344   11 Jun 2027 15:02:21.460   11 Jun 2027 15:03:09.656            48.196            RioGallegos          6024.500
       345   11 Jun 2027 15:05:33.208   11 Jun 2027 15:06:20.034            46.826            RioGallegos          5853.250
       346   11 Jun 2027 15:08:16.238   11 Jun 2027 15:09:19.620            63.382            RioGallegos          7922.750
       347   11 Jun 2027 15:49:41.124   11 Jun 2027 15:53:00.834           199.710                Irkutsk         24963.750
       348   11 Jun 2027 16:05:12.352   11 Jun 2027 16:07:44.259           151.907                Sumatra         18988.375
       349   11 Jun 2027 17:25:20.564   11 Jun 2027 17:28:00.912           160.348                Novosib         20043.500
       350   11 Jun 2027 17:33:44.441   11 Jun 2027 17:37:21.049           216.608                  Delhi         27076.000
       351   11 Jun 2027 19:10:27.046   11 Jun 2027 19:11:18.829            51.783                  Delhi          6472.875
       352   11 Jun 2027 20:38:46.973   11 Jun 2027 20:43:23.616           276.643                 Moscow         23017.000
       353   12 Jun 2027 05:47:27.015   12 Jun 2027 05:47:57.823            30.808                Sumatra          3851.000
       354   12 Jun 2027 05:53:15.737   12 Jun 2027 05:56:12.576           176.839                  Delhi         22104.875
       355   12 Jun 2027 06:11:23.766   12 Jun 2027 06:13:54.385           150.619                 Moscow         18827.375
       356   12 Jun 2027 06:13:55.034   12 Jun 2027 06:18:05.995           250.961              Murmansk1         31370.125
       357   12 Jun 2027 07:36:45.580   12 Jun 2027 07:40:04.830           199.250                  Delhi         24906.250
       358   12 Jun 2027 07:40:43.280   12 Jun 2027 07:42:20.518            97.238                 Moscow         12154.750
       359   12 Jun 2027 07:47:21.350   12 Jun 2027 07:50:20.395           179.045                 Moscow         22380.625
       360   12 Jun 2027 07:50:37.088   12 Jun 2027 07:53:52.167           195.079              Murmansk2         24384.875
       361   12 Jun 2027 08:57:26.958   12 Jun 2027 08:57:58.031            31.073               CapeTown          3884.125
       362   12 Jun 2027 09:16:38.359   12 Jun 2027 09:17:15.893            37.534                 Moscow          4691.750
       363   12 Jun 2027 09:20:24.057   12 Jun 2027 09:21:54.333            90.276              Murmansk2         11284.500
       364   12 Jun 2027 09:22:21.132   12 Jun 2027 09:26:11.322           230.190                 Moscow         28773.750
       365   12 Jun 2027 09:26:12.533   12 Jun 2027 09:28:40.051           147.518              Murmansk1         18439.750
       366   12 Jun 2027 09:28:40.051   12 Jun 2027 09:29:49.751            69.700              Murmansk2          8712.500
       367   12 Jun 2027 09:32:44.321   12 Jun 2027 09:38:01.095           316.774                Anadyr1         39596.750
       368   12 Jun 2027 11:07:55.955   12 Jun 2027 11:08:29.438            33.483                Anadyr1          4185.375
       369   12 Jun 2027 12:46:04.768   12 Jun 2027 12:50:21.681           256.913               Magadan1         32114.125
       370   12 Jun 2027 14:21:39.445   12 Jun 2027 14:23:56.306           136.861               Magadan1         17107.625
       371   12 Jun 2027 15:14:03.757   12 Jun 2027 15:15:36.461            92.704            RioGallegos         11588.000
       372   12 Jun 2027 16:01:31.877   12 Jun 2027 16:05:58.759           266.882                Irkutsk         33360.250
       373   12 Jun 2027 16:15:24.157   12 Jun 2027 16:17:36.713           132.556                Sumatra         16569.500
       374   12 Jun 2027 17:37:15.237   12 Jun 2027 17:39:16.379           121.142                Novosib         15142.750
       375   12 Jun 2027 17:45:17.258   12 Jun 2027 17:49:15.171           237.913                  Delhi         29739.125
       376   12 Jun 2027 20:47:17.303   12 Jun 2027 20:47:18.366             1.063              Murmansk2           132.875
       377   12 Jun 2027 20:49:18.584   12 Jun 2027 20:49:24.476             5.892              Murmansk1           736.500
       378   12 Jun 2027 20:50:42.841   12 Jun 2027 20:52:15.983            93.142                 Moscow         11642.750
       379   12 Jun 2027 21:15:17.358   12 Jun 2027 21:15:29.146            11.788               CapeTown          1473.500
       380   12 Jun 2027 21:22:14.298   12 Jun 2027 21:22:29.255            14.957               CapeTown          1869.625
       381   12 Jun 2027 22:53:14.462   12 Jun 2027 22:55:10.734           116.272               CapeTown          8770.500
       382   13 Jun 2027 03:11:37.640   13 Jun 2027 03:15:21.065           223.425                Norilsk         27928.125
       383   13 Jun 2027 04:21:15.954   13 Jun 2027 04:23:45.862           149.908                Sumatra         18738.500
       384   13 Jun 2027 04:47:02.893   13 Jun 2027 04:48:50.255           107.362                Novosib         13420.250
       385   13 Jun 2027 04:48:57.731   13 Jun 2027 04:52:17.320           199.589                Norilsk         24948.625
       386   13 Jun 2027 04:52:35.670   13 Jun 2027 04:54:42.651           126.981              Murmansk1         15872.625
       387   13 Jun 2027 06:12:17.369   13 Jun 2027 06:18:13.368           355.999                Novosib         44499.875
       388   13 Jun 2027 06:18:30.857   13 Jun 2027 06:20:04.539            93.682                 Moscow         11710.250
       389   13 Jun 2027 06:22:56.282   13 Jun 2027 06:26:01.619           185.337                 Moscow         23167.125
       390   13 Jun 2027 06:26:07.139   13 Jun 2027 06:30:04.956           237.817              Murmansk2         29727.125
       391   13 Jun 2027 07:52:26.356   13 Jun 2027 07:54:10.912           104.556                Novosib         13069.500
       392   13 Jun 2027 07:58:22.711   13 Jun 2027 07:58:50.157            27.446                Novosib          3430.750
       393   13 Jun 2027 07:59:52.091   13 Jun 2027 08:02:22.617           150.526                Norilsk         18815.750
       394   13 Jun 2027 08:02:32.209   13 Jun 2027 08:05:53.404           201.195              Murmansk1         25149.375
       395   13 Jun 2027 09:10:02.442   13 Jun 2027 09:12:12.068           129.626               CapeTown         16203.250
       396   13 Jun 2027 09:28:36.302   13 Jun 2027 09:29:05.584            29.282                 Moscow          3660.250
       397   13 Jun 2027 09:32:25.347   13 Jun 2027 09:33:07.700            42.353              Murmansk2          5294.125
       398   13 Jun 2027 09:33:08.912   13 Jun 2027 09:38:08.392           299.480                 Moscow         37435.000
       399   13 Jun 2027 09:38:14.206   13 Jun 2027 09:41:51.380           217.174              Murmansk2         27146.750
       400   13 Jun 2027 09:44:28.518   13 Jun 2027 09:51:48.185           439.667                Anadyr1         54958.375
       401   13 Jun 2027 10:46:24.667   13 Jun 2027 10:50:01.426           216.759               CapeTown         27094.875
       402   13 Jun 2027 11:22:57.667   13 Jun 2027 11:24:25.241            87.574                Anadyr2         10946.750
       403   13 Jun 2027 12:58:00.436   13 Jun 2027 13:02:39.479           279.043               Magadan1         34880.375
       404   13 Jun 2027 13:03:03.277   13 Jun 2027 13:03:12.405             9.128               Magadan2          1141.000
       405   13 Jun 2027 15:25:50.554   13 Jun 2027 15:29:02.781           192.227            RioGallegos         24028.375
       406   13 Jun 2027 15:30:10.612   13 Jun 2027 15:31:39.248            88.636            RioGallegos         11079.500
       407   13 Jun 2027 16:13:24.967   13 Jun 2027 16:15:24.201           119.234                Irkutsk         14904.250
       408   13 Jun 2027 16:27:09.385   13 Jun 2027 16:29:53.266           163.881                Sumatra         20485.125
       409   13 Jun 2027 17:49:11.387   13 Jun 2027 17:51:36.802           145.415                Novosib         18176.875
       410   13 Jun 2027 17:56:57.578   13 Jun 2027 17:58:39.757           102.179                  Delhi         12772.375
       411   13 Jun 2027 18:01:12.838   13 Jun 2027 18:01:12.851             0.013                  Delhi             1.625
       412   13 Jun 2027 20:59:18.616   13 Jun 2027 20:59:36.437            17.821              Murmansk2          2227.625
       413   13 Jun 2027 21:00:05.174   13 Jun 2027 21:00:06.064             0.890              Murmansk1           111.250
       414   13 Jun 2027 21:02:39.976   13 Jun 2027 21:03:53.958            73.982                 Moscow          9247.750
       415   13 Jun 2027 21:05:21.007   13 Jun 2027 21:07:24.070           123.063                 Moscow         15382.875
       416   13 Jun 2027 21:26:57.727   13 Jun 2027 21:28:33.768            96.041               CapeTown         12005.125
