uniorb/output/strategy_4/Drop/Drop_KinoSat_112001.txt

KinoSat_112001
-------------------------
    Access    *     Start Time (UTCG)     *     Stop Time (UTCG)  *   Duration (s)        *       Station  *  Data (Mbytes)
         1   01 Jun 2027 03:36:31.282   01 Jun 2027 03:36:47.461            16.179               Magadan2           505.594
         2   01 Jun 2027 03:37:09.537   01 Jun 2027 03:38:42.536            92.999                Irkutsk          2906.219
         3   01 Jun 2027 03:39:27.647   01 Jun 2027 03:39:50.379            22.732                Novosib           710.375
         4   01 Jun 2027 03:39:55.263   01 Jun 2027 03:40:31.843            36.580              Murmansk2          1143.125
         5   01 Jun 2027 03:40:32.438   01 Jun 2027 03:40:41.920             9.482                Norilsk           296.313
         6   01 Jun 2027 03:40:52.186   01 Jun 2027 03:41:57.982            65.796                Norilsk          2056.125
         7   01 Jun 2027 03:42:05.808   01 Jun 2027 03:44:28.877           143.069                Irkutsk          4470.906
         8   01 Jun 2027 03:44:42.004   01 Jun 2027 03:45:08.379            26.375                Novosib           824.219
         9   01 Jun 2027 03:45:38.451   01 Jun 2027 03:46:36.906            58.455                  Delhi          1826.719
        10   01 Jun 2027 03:51:57.381   01 Jun 2027 03:53:53.513           116.132                  Delhi          3629.125
        11   01 Jun 2027 04:24:47.755   01 Jun 2027 04:28:50.627           242.872            RioGallegos          7589.750
        12   01 Jun 2027 05:15:27.486   01 Jun 2027 05:15:56.305            28.819                Irkutsk           900.594
        13   01 Jun 2027 05:16:00.424   01 Jun 2027 05:16:24.873            24.449                Norilsk           764.031
        14   01 Jun 2027 05:16:35.288   01 Jun 2027 05:16:38.142             2.854                Irkutsk            89.187
        15   01 Jun 2027 05:16:55.298   01 Jun 2027 05:20:40.918           225.620              Murmansk1          7050.625
        16   01 Jun 2027 05:20:42.899   01 Jun 2027 05:22:04.191            81.292                Novosib          2540.375
        17   01 Jun 2027 05:22:31.367   01 Jun 2027 05:26:03.111           211.744                  Delhi          6617.000
        18   01 Jun 2027 06:53:38.357   01 Jun 2027 06:53:47.781             9.424              Murmansk1           294.500
        19   01 Jun 2027 06:53:51.607   01 Jun 2027 06:54:15.642            24.035                Norilsk           751.094
        20   01 Jun 2027 06:54:16.124   01 Jun 2027 06:55:19.550            63.426              Murmansk1          1982.063
        21   01 Jun 2027 06:55:21.199   01 Jun 2027 06:57:18.015           116.816                 Moscow          3650.500
        22   01 Jun 2027 07:12:35.217   01 Jun 2027 07:15:42.578           187.361               CapeTown          5855.031
        23   01 Jun 2027 08:16:30.985   01 Jun 2027 08:17:57.827            86.842                Anadyr1          2713.813
        24   01 Jun 2027 08:19:51.125   01 Jun 2027 08:20:03.534            12.409               Magadan2           387.781
        25   01 Jun 2027 08:20:19.849   01 Jun 2027 08:21:37.826            77.977                Anadyr2          2436.781
        26   01 Jun 2027 08:21:44.866   01 Jun 2027 08:21:47.250             2.384               Magadan2            74.500
        27   01 Jun 2027 09:47:15.939   01 Jun 2027 09:48:22.607            66.668                Anadyr1          2083.375
        28   01 Jun 2027 09:52:06.065   01 Jun 2027 09:52:29.949            23.884                Anadyr1           746.375
        29   01 Jun 2027 09:52:55.461   01 Jun 2027 09:57:55.340           299.879                Anadyr1          9371.219
        30   01 Jun 2027 11:25:59.786   01 Jun 2027 11:27:08.572            68.786               Magadan2          2149.562
        31   01 Jun 2027 11:27:25.912   01 Jun 2027 11:30:37.819           191.907               Magadan1          5997.094
        32   01 Jun 2027 11:32:29.568   01 Jun 2027 11:33:21.865            52.297               Magadan2          1634.281
        33   01 Jun 2027 13:51:04.510   01 Jun 2027 13:56:05.578           301.068            RioGallegos          9408.375
        34   01 Jun 2027 14:19:30.495   01 Jun 2027 14:21:45.467           134.972                Sumatra          4217.875
        35   01 Jun 2027 14:24:30.739   01 Jun 2027 14:24:51.523            20.784                Sumatra           649.500
        36   01 Jun 2027 14:29:24.423   01 Jun 2027 14:30:57.448            93.025                Sumatra          2907.031
        37   01 Jun 2027 14:34:40.249   01 Jun 2027 14:37:39.588           179.339                Irkutsk          5604.344
        38   01 Jun 2027 14:39:49.706   01 Jun 2027 14:40:37.976            48.270                Irkutsk          1508.438
        39   01 Jun 2027 14:41:35.938   01 Jun 2027 14:42:50.420            74.482                Irkutsk          2327.563
        40   01 Jun 2027 16:04:23.581   01 Jun 2027 16:10:32.600           369.019                  Delhi         11531.844
        41   01 Jun 2027 16:12:46.021   01 Jun 2027 16:18:59.767           373.746                Novosib         11679.563
        42   01 Jun 2027 19:26:52.175   01 Jun 2027 19:28:00.453            68.278                 Moscow          2133.688
        43   01 Jun 2027 19:28:42.026   01 Jun 2027 19:33:41.814           299.788                 Moscow          9368.375
        44   01 Jun 2027 20:42:14.627   01 Jun 2027 20:42:39.220            24.593               CapeTown           768.531
        45   01 Jun 2027 20:45:53.585   01 Jun 2027 20:47:30.798            97.213               CapeTown          3037.906
        46   01 Jun 2027 21:09:47.689   01 Jun 2027 21:15:16.829           329.140              Murmansk2         10285.625
        47   02 Jun 2027 02:12:00.346   02 Jun 2027 02:12:02.267             1.921                Novosib            60.031
        48   02 Jun 2027 02:12:14.040   02 Jun 2027 02:12:27.230            13.190                Irkutsk           412.187
        49   02 Jun 2027 02:13:43.034   02 Jun 2027 02:14:31.828            48.794                Irkutsk          1524.813
        50   02 Jun 2027 02:20:01.559   02 Jun 2027 02:20:31.809            30.250                  Delhi           945.312
        51   02 Jun 2027 02:23:44.353   02 Jun 2027 02:24:27.694            43.341                  Delhi          1354.406
        52   02 Jun 2027 02:25:42.316   02 Jun 2027 02:31:22.057           339.741                Sumatra         10616.906
        53   02 Jun 2027 03:47:59.946   02 Jun 2027 03:48:15.893            15.947               Magadan2           498.344
        54   02 Jun 2027 03:50:19.711   02 Jun 2027 03:51:51.244            91.533                Norilsk          2860.406
        55   02 Jun 2027 03:51:52.707   02 Jun 2027 03:58:02.146           369.439                Irkutsk         11544.969
        56   02 Jun 2027 03:58:10.249   02 Jun 2027 03:59:00.393            50.144                Novosib          1567.000
        57   02 Jun 2027 04:37:22.302   02 Jun 2027 04:41:19.976           237.674            RioGallegos          7427.313
        58   02 Jun 2027 05:29:53.227   02 Jun 2027 05:33:56.910           243.683                Novosib          7615.094
        59   02 Jun 2027 07:02:27.309   02 Jun 2027 07:03:21.376            54.067                Novosib          1689.594
        60   02 Jun 2027 07:06:36.447   02 Jun 2027 07:08:12.901            96.454              Murmansk2          3014.187
        61   02 Jun 2027 07:08:38.241   02 Jun 2027 07:08:41.337             3.096                 Moscow            96.750
        62   02 Jun 2027 07:09:37.711   02 Jun 2027 07:10:17.120            39.409                 Moscow          1231.531
        63   02 Jun 2027 07:11:20.189   02 Jun 2027 07:13:27.458           127.269                 Moscow          3977.156
        64   02 Jun 2027 07:24:46.059   02 Jun 2027 07:37:07.792           741.733               CapeTown         23179.156
        65   02 Jun 2027 08:28:38.308   02 Jun 2027 08:28:48.438            10.130               Magadan1           316.562
        66   02 Jun 2027 08:29:44.785   02 Jun 2027 08:34:13.266           268.481                Anadyr1          8390.031
        67   02 Jun 2027 10:05:09.781   02 Jun 2027 10:05:23.476            13.695                Anadyr1           427.969
        68   02 Jun 2027 10:05:25.976   02 Jun 2027 10:06:38.226            72.250               Magadan2          2257.812
        69   02 Jun 2027 10:06:51.575   02 Jun 2027 10:09:50.172           178.597               Magadan1          5581.156
        70   02 Jun 2027 11:35:02.288   02 Jun 2027 11:36:25.965            83.677               Magadan1          2614.906
        71   02 Jun 2027 11:38:57.924   02 Jun 2027 11:40:35.704            97.780               Magadan1          3055.625
        72   02 Jun 2027 11:40:47.056   02 Jun 2027 11:45:15.640           268.584               Magadan2          8393.250
        73   02 Jun 2027 12:55:51.442   02 Jun 2027 12:56:27.546            36.104                Sumatra          1128.250
        74   02 Jun 2027 13:02:09.499   02 Jun 2027 13:02:23.009            13.510                Sumatra           422.188
        75   02 Jun 2027 13:07:22.341   02 Jun 2027 13:07:28.612             6.271                Sumatra           195.969
        76   02 Jun 2027 13:08:41.907   02 Jun 2027 13:11:57.151           195.244                Irkutsk          6101.375
        77   02 Jun 2027 13:13:32.896   02 Jun 2027 13:14:26.570            53.674                Norilsk          1677.313
        78   02 Jun 2027 13:57:42.766   02 Jun 2027 13:59:26.007           103.241            RioGallegos          3226.281
        79   02 Jun 2027 14:02:12.811   02 Jun 2027 14:03:19.049            66.238            RioGallegos          2069.938
        80   02 Jun 2027 14:07:27.575   02 Jun 2027 14:07:43.903            16.328            RioGallegos           510.250
        81   02 Jun 2027 14:31:56.416   02 Jun 2027 14:38:01.778           365.362                Sumatra         11417.562
        82   02 Jun 2027 14:47:21.583   02 Jun 2027 14:53:56.957           395.374                Irkutsk         12355.438
        83   02 Jun 2027 16:19:10.056   02 Jun 2027 16:24:45.353           335.297                  Delhi         10478.031
        84   02 Jun 2027 16:27:02.108   02 Jun 2027 16:32:37.639           335.531                Novosib         10485.344
        85   02 Jun 2027 19:39:46.513   02 Jun 2027 19:46:51.968           425.455                 Moscow         13295.469
        86   02 Jun 2027 20:50:01.398   02 Jun 2027 20:51:27.564            86.166               CapeTown          2692.688
        87   02 Jun 2027 20:52:01.275   02 Jun 2027 20:52:16.361            15.086               CapeTown           471.438
        88   02 Jun 2027 20:52:34.784   02 Jun 2027 20:55:27.111           172.327               CapeTown          5385.219
        89   02 Jun 2027 21:22:48.300   02 Jun 2027 21:26:59.666           251.366              Murmansk1          7855.187
        90   02 Jun 2027 23:05:38.353   02 Jun 2027 23:05:43.243             4.890                Anadyr1           152.813
        91   02 Jun 2027 23:05:50.042   02 Jun 2027 23:06:10.741            20.699                Anadyr2           646.844
        92   02 Jun 2027 23:06:55.846   02 Jun 2027 23:07:27.009            31.163                Anadyr2           973.844
        93   02 Jun 2027 23:07:53.564   02 Jun 2027 23:08:07.374            13.810                Anadyr1           431.562
        94   02 Jun 2027 23:08:17.508   02 Jun 2027 23:08:28.220            10.712                Anadyr1           334.750
        95   02 Jun 2027 23:08:37.328   02 Jun 2027 23:09:47.293            69.965               Magadan2          2186.406
        96   02 Jun 2027 23:10:52.212   02 Jun 2027 23:11:12.842            20.630               Magadan1           644.687
        97   02 Jun 2027 23:11:26.023   02 Jun 2027 23:11:32.060             6.037               Magadan1           188.656
        98   02 Jun 2027 23:11:37.761   02 Jun 2027 23:12:14.223            36.462               Magadan1          1139.437
        99   02 Jun 2027 23:18:40.249   02 Jun 2027 23:19:23.255            43.006               Magadan1          1343.937
       100   02 Jun 2027 23:20:41.184   02 Jun 2027 23:20:49.437             8.253               Magadan2           257.906
       101   03 Jun 2027 00:00:17.973   03 Jun 2027 00:03:09.881           171.908            RioGallegos          5372.125
       102   03 Jun 2027 00:05:53.897   03 Jun 2027 00:06:04.530            10.633            RioGallegos           332.281
       103   03 Jun 2027 00:07:18.316   03 Jun 2027 00:08:02.259            43.943            RioGallegos          1373.219
       104   03 Jun 2027 00:41:19.620   03 Jun 2027 00:42:31.083            71.463                Anadyr1          2233.219
       105   03 Jun 2027 00:42:31.790   03 Jun 2027 00:42:37.626             5.836                Anadyr2           182.375
       106   03 Jun 2027 00:43:03.411   03 Jun 2027 00:43:42.972            39.561                Anadyr2          1236.281
       107   03 Jun 2027 00:43:56.580   03 Jun 2027 00:45:43.521           106.941               Magadan1          3341.906
       108   03 Jun 2027 00:46:22.178   03 Jun 2027 00:46:35.062            12.884               Magadan1           402.625
       109   03 Jun 2027 00:47:05.341   03 Jun 2027 00:47:22.104            16.763               Magadan1           523.844
       110   03 Jun 2027 00:47:46.004   03 Jun 2027 00:48:39.558            53.554                Irkutsk          1673.563
       111   03 Jun 2027 00:49:10.508   03 Jun 2027 00:49:18.755             8.247                Irkutsk           257.719
       112   03 Jun 2027 00:50:11.274   03 Jun 2027 00:51:24.056            72.782                Irkutsk          2274.437
       113   03 Jun 2027 00:56:14.511   03 Jun 2027 00:56:15.900             1.389                Irkutsk            43.406
       114   03 Jun 2027 00:56:48.466   03 Jun 2027 00:57:39.664            51.198                Irkutsk          1599.938
       115   03 Jun 2027 01:01:41.128   03 Jun 2027 01:02:25.970            44.842                Sumatra          1401.312
       116   03 Jun 2027 01:08:11.382   03 Jun 2027 01:08:47.492            36.110                Sumatra          1128.438
       117   03 Jun 2027 01:35:20.322   03 Jun 2027 01:35:57.895            37.573            RioGallegos          1174.156
       118   03 Jun 2027 01:39:12.397   03 Jun 2027 01:39:42.095            29.698            RioGallegos           928.063
       119   03 Jun 2027 01:42:34.278   03 Jun 2027 01:43:14.538            40.260            RioGallegos          1258.125
       120   03 Jun 2027 02:16:13.426   03 Jun 2027 02:16:21.672             8.246                Anadyr2           257.688
       121   03 Jun 2027 02:16:40.693   03 Jun 2027 02:17:35.041            54.348                Anadyr2          1698.375
       122   03 Jun 2027 02:18:47.974   03 Jun 2027 02:18:56.348             8.374                Anadyr1           261.688
       123   03 Jun 2027 02:19:14.571   03 Jun 2027 02:19:19.785             5.214                Anadyr2           162.937
       124   03 Jun 2027 02:19:23.144   03 Jun 2027 02:20:39.002            75.858                Norilsk          2370.562
       125   03 Jun 2027 02:23:15.743   03 Jun 2027 02:25:55.913           160.170                Irkutsk          5005.313
       126   03 Jun 2027 02:31:33.683   03 Jun 2027 02:31:54.678            20.995                  Delhi           656.094
       127   03 Jun 2027 02:32:16.189   03 Jun 2027 02:32:25.335             9.146                  Delhi           285.813
       128   03 Jun 2027 02:34:36.408   03 Jun 2027 02:34:44.913             8.505                  Delhi           265.781
       129   03 Jun 2027 02:36:39.653   03 Jun 2027 02:37:20.177            40.524                  Delhi          1266.375
       130   03 Jun 2027 02:38:13.179   03 Jun 2027 02:47:54.870           581.691                Sumatra         18177.844
       131   03 Jun 2027 04:02:11.744   03 Jun 2027 04:02:14.878             3.134              Murmansk1            97.937
       132   03 Jun 2027 04:02:24.929   03 Jun 2027 04:02:52.892            27.963                Novosib           873.844
       133   03 Jun 2027 04:03:09.243   03 Jun 2027 04:03:43.358            34.115                Norilsk          1066.094
       134   03 Jun 2027 04:03:45.551   03 Jun 2027 04:09:34.064           348.513                Irkutsk         10891.031
       135   03 Jun 2027 04:09:50.743   03 Jun 2027 04:11:55.907           125.164                Novosib          3911.375
       136   03 Jun 2027 04:12:12.469   03 Jun 2027 04:16:20.149           247.680                  Delhi          7740.000
       137   03 Jun 2027 05:40:25.502   03 Jun 2027 05:40:48.502            23.000                Norilsk           718.750
       138   03 Jun 2027 05:40:55.826   03 Jun 2027 05:41:27.688            31.862                Norilsk           995.687
       139   03 Jun 2027 05:41:38.884   03 Jun 2027 05:45:31.454           232.570                Novosib          7267.812
       140   03 Jun 2027 05:47:25.734   03 Jun 2027 05:47:51.242            25.508                 Moscow           797.125
       141   03 Jun 2027 05:48:21.829   03 Jun 2027 05:48:47.588            25.759                 Moscow           804.969
       142   03 Jun 2027 06:01:35.865   03 Jun 2027 06:02:48.098            72.233               CapeTown          2257.281
       143   03 Jun 2027 06:03:22.427   03 Jun 2027 06:04:45.943            83.516               CapeTown          2609.875
       144   03 Jun 2027 06:09:07.159   03 Jun 2027 06:10:53.537           106.378               CapeTown          3324.312
       145   03 Jun 2027 07:16:11.049   03 Jun 2027 07:16:21.634            10.585                Norilsk           330.781
       146   03 Jun 2027 07:16:48.178   03 Jun 2027 07:16:54.661             6.483                Norilsk           202.594
       147   03 Jun 2027 07:17:13.587   03 Jun 2027 07:17:34.351            20.764                Norilsk           648.875
       148   03 Jun 2027 07:17:45.747   03 Jun 2027 07:18:03.428            17.681              Murmansk2           552.531
       149   03 Jun 2027 07:18:26.773   03 Jun 2027 07:19:20.924            54.151                 Moscow          1692.219
       150   03 Jun 2027 07:23:46.198   03 Jun 2027 07:24:41.682            55.484                 Moscow          1733.875
       151   03 Jun 2027 07:37:02.772   03 Jun 2027 07:37:55.500            52.728               CapeTown          1647.750
       152   03 Jun 2027 07:39:31.810   03 Jun 2027 07:42:10.208           158.398               CapeTown          4949.937
       153   03 Jun 2027 08:40:32.632   03 Jun 2027 08:41:59.095            86.463                Anadyr2          2701.969
       154   03 Jun 2027 08:42:24.050   03 Jun 2027 08:44:03.732            99.682                Anadyr1          3115.062
       155   03 Jun 2027 10:16:07.393   03 Jun 2027 10:17:16.481            69.088               Magadan2          2159.000
       156   03 Jun 2027 10:18:04.775   03 Jun 2027 10:18:09.326             4.551               Magadan1           142.219
       157   03 Jun 2027 10:18:47.533   03 Jun 2027 10:19:50.010            62.477               Magadan2          1952.406
       158   03 Jun 2027 10:57:59.826   03 Jun 2027 10:58:20.532            20.706            RioGallegos           647.062
       159   03 Jun 2027 11:47:39.862   03 Jun 2027 11:49:51.291           131.429               Magadan2          4107.156
       160   03 Jun 2027 11:50:49.943   03 Jun 2027 11:53:29.257           159.314               Magadan2          4978.563
       161   03 Jun 2027 11:53:51.563   03 Jun 2027 11:57:07.155           195.592               Magadan2          6112.250
       162   03 Jun 2027 11:57:28.237   03 Jun 2027 11:57:55.083            26.846                Norilsk           838.938
       163   03 Jun 2027 12:02:20.205   03 Jun 2027 12:02:25.738             5.533                Norilsk           172.906
       164   03 Jun 2027 12:32:14.751   03 Jun 2027 12:33:20.464            65.713            RioGallegos          2053.531
       165   03 Jun 2027 12:41:51.615   03 Jun 2027 12:42:58.124            66.509            RioGallegos          2078.406
       166   03 Jun 2027 13:07:32.654   03 Jun 2027 13:08:22.948            50.294                Sumatra          1571.687
       167   03 Jun 2027 13:11:05.001   03 Jun 2027 13:13:47.191           162.190                Sumatra          5068.437
       168   03 Jun 2027 13:25:07.574   03 Jun 2027 13:25:15.126             7.552                Irkutsk           236.000
       169   03 Jun 2027 13:25:35.179   03 Jun 2027 13:26:43.389            68.210                Norilsk          2131.563
       170   03 Jun 2027 13:30:32.132   03 Jun 2027 13:31:15.741            43.609                Irkutsk          1362.781
       171   03 Jun 2027 14:10:17.551   03 Jun 2027 14:14:07.923           230.372            RioGallegos          7199.125
       172   03 Jun 2027 14:14:30.980   03 Jun 2027 14:16:19.570           108.590            RioGallegos          3393.438
       173   03 Jun 2027 14:44:33.183   03 Jun 2027 14:53:47.649           554.466                Sumatra         17327.063
       174   03 Jun 2027 15:00:54.090   03 Jun 2027 15:07:56.125           422.035                Irkutsk         13188.594
       175   03 Jun 2027 16:29:59.419   03 Jun 2027 16:37:43.759           464.340                  Delhi         14510.625
       176   03 Jun 2027 16:38:29.325   03 Jun 2027 16:45:15.113           405.788                Novosib         12680.875
       177   03 Jun 2027 19:52:56.804   03 Jun 2027 19:58:15.574           318.770                 Moscow          9961.563
       178   03 Jun 2027 21:03:18.740   03 Jun 2027 21:09:08.261           349.521               CapeTown         10922.531
       179   03 Jun 2027 21:36:09.698   03 Jun 2027 21:38:23.778           134.080              Murmansk1          4190.000
       180   04 Jun 2027 00:14:25.565   04 Jun 2027 00:15:15.325            49.760            RioGallegos          1555.000
       181   04 Jun 2027 00:53:17.016   04 Jun 2027 00:53:58.231            41.215                Anadyr2          1287.969
       182   04 Jun 2027 00:54:19.959   04 Jun 2027 00:54:43.071            23.112                Anadyr1           722.250
       183   04 Jun 2027 00:55:27.404   04 Jun 2027 00:57:28.333           120.929                Norilsk          3779.031
       184   04 Jun 2027 00:57:56.855   04 Jun 2027 00:58:34.018            37.163               Magadan1          1161.344
       185   04 Jun 2027 00:58:34.018   04 Jun 2027 00:59:22.634            48.616               Magadan2          1519.250
       186   04 Jun 2027 00:59:39.485   04 Jun 2027 00:59:56.995            17.510                Irkutsk           547.187
       187   04 Jun 2027 01:00:46.062   04 Jun 2027 01:01:20.568            34.506                Irkutsk          1078.312
       188   04 Jun 2027 01:01:35.179   04 Jun 2027 01:02:21.719            46.540                Novosib          1454.375
       189   04 Jun 2027 01:03:27.719   04 Jun 2027 01:03:53.805            26.086                Novosib           815.188
       190   04 Jun 2027 01:06:27.863   04 Jun 2027 01:06:55.414            27.551                Novosib           860.969
       191   04 Jun 2027 01:13:25.877   04 Jun 2027 01:16:06.571           160.694                Sumatra          5021.687
       192   04 Jun 2027 01:54:59.694   04 Jun 2027 01:55:20.377            20.683            RioGallegos           646.344
       193   04 Jun 2027 01:56:57.764   04 Jun 2027 01:57:23.486            25.722            RioGallegos           803.813
       194   04 Jun 2027 01:59:22.404   04 Jun 2027 01:59:51.460            29.056            RioGallegos           908.000
       195   04 Jun 2027 02:28:01.883   04 Jun 2027 02:28:03.289             1.406                Anadyr2            43.937
       196   04 Jun 2027 02:28:42.038   04 Jun 2027 02:29:07.849            25.811                Anadyr2           806.594
       197   04 Jun 2027 02:30:20.992   04 Jun 2027 02:30:24.726             3.734                Anadyr1           116.687
       198   04 Jun 2027 02:30:24.726   04 Jun 2027 02:30:45.316            20.590                Anadyr2           643.438
       199   04 Jun 2027 02:31:25.634   04 Jun 2027 02:32:30.745            65.111                Norilsk          2034.719
       200   04 Jun 2027 02:33:44.986   04 Jun 2027 02:34:21.392            36.406               Magadan2          1137.688
       201   04 Jun 2027 02:35:18.763   04 Jun 2027 02:38:03.471           164.708                Irkutsk          5147.125
       202   04 Jun 2027 02:43:59.733   04 Jun 2027 02:44:42.432            42.699                  Delhi          1334.344
       203   04 Jun 2027 02:50:57.296   04 Jun 2027 02:59:21.289           503.993                Sumatra         15749.781
       204   04 Jun 2027 04:14:27.886   04 Jun 2027 04:15:52.151            84.265              Murmansk2          2633.281
       205   04 Jun 2027 04:15:52.460   04 Jun 2027 04:21:02.206           309.746                Irkutsk          9679.563
       206   04 Jun 2027 05:53:28.420   04 Jun 2027 05:56:10.444           162.024                Novosib          5063.250
       207   04 Jun 2027 05:56:27.644   04 Jun 2027 05:57:03.146            35.502                Novosib          1109.438
       208   04 Jun 2027 05:59:32.055   04 Jun 2027 05:59:52.833            20.778                 Moscow           649.313
       209   04 Jun 2027 06:00:24.844   04 Jun 2027 06:00:31.814             6.970                 Moscow           217.813
       210   04 Jun 2027 06:13:15.557   04 Jun 2027 06:15:02.975           107.418               CapeTown          3356.813
       211   04 Jun 2027 06:15:36.644   04 Jun 2027 06:15:56.083            19.439               CapeTown           607.469
       212   04 Jun 2027 06:16:39.403   04 Jun 2027 06:17:39.503            60.100               CapeTown          1878.125
       213   04 Jun 2027 07:16:40.796   04 Jun 2027 07:17:02.387            21.591                Anadyr2           674.719
       214   04 Jun 2027 07:17:18.770   04 Jun 2027 07:19:02.232           103.462                Anadyr2          3233.188
       215   04 Jun 2027 07:28:23.488   04 Jun 2027 07:28:45.318            21.830                Norilsk           682.188
       216   04 Jun 2027 07:29:14.830   04 Jun 2027 07:29:22.819             7.989                Norilsk           249.656
       217   04 Jun 2027 07:30:18.436   04 Jun 2027 07:30:28.895            10.459              Murmansk2           326.844
       218   04 Jun 2027 07:30:42.103   04 Jun 2027 07:30:42.429             0.326              Murmansk2            10.188
       219   04 Jun 2027 07:30:50.969   04 Jun 2027 07:32:31.115           100.146                 Moscow          3129.563
       220   04 Jun 2027 07:49:26.144   04 Jun 2027 07:51:31.971           125.827               CapeTown          3932.094
       221   04 Jun 2027 07:54:18.789   04 Jun 2027 07:54:59.089            40.300               CapeTown          1259.375
       222   04 Jun 2027 08:50:46.653   04 Jun 2027 08:51:16.699            30.046               Magadan1           938.937
       223   04 Jun 2027 08:51:42.359   04 Jun 2027 08:51:44.658             2.299               Magadan1            71.844
       224   04 Jun 2027 08:52:17.615   04 Jun 2027 08:52:50.337            32.722               Magadan2          1022.562
       225   04 Jun 2027 08:53:52.334   04 Jun 2027 08:55:15.285            82.951                Anadyr2          2592.219
       226   04 Jun 2027 08:57:03.940   04 Jun 2027 08:58:15.487            71.547                Anadyr2          2235.844
       227   04 Jun 2027 10:26:42.771   04 Jun 2027 10:28:06.296            83.525               Magadan2          2610.156
       228   04 Jun 2027 10:29:03.543   04 Jun 2027 10:30:31.295            87.752               Magadan1          2742.250
       229   04 Jun 2027 10:30:58.082   04 Jun 2027 10:30:59.711             1.629               Magadan2            50.906
       230   04 Jun 2027 10:31:46.346   04 Jun 2027 10:33:51.043           124.697               Magadan2          3896.781
       231   04 Jun 2027 12:02:38.515   04 Jun 2027 12:08:55.569           377.054               Magadan1         11782.938
       232   04 Jun 2027 13:28:49.777   04 Jun 2027 13:28:55.018             5.241                Sumatra           163.781
       233   04 Jun 2027 13:36:51.175   04 Jun 2027 13:37:38.179            47.004                Irkutsk          1468.875
       234   04 Jun 2027 13:39:38.901   04 Jun 2027 13:42:46.258           187.357                Irkutsk          5854.906
       235   04 Jun 2027 14:22:59.934   04 Jun 2027 14:29:44.688           404.754            RioGallegos         12648.563
       236   04 Jun 2027 14:57:27.027   04 Jun 2027 15:04:49.087           442.060                Sumatra         13814.375
       237   04 Jun 2027 15:13:17.731   04 Jun 2027 15:19:21.576           363.845                Irkutsk         11370.156
       238   04 Jun 2027 16:43:24.348   04 Jun 2027 16:48:33.114           308.766                  Delhi          9648.937
       239   04 Jun 2027 16:51:44.803   04 Jun 2027 16:56:34.205           289.402                Novosib          9043.813
       240   04 Jun 2027 20:06:53.148   04 Jun 2027 20:08:56.339           123.191                 Moscow          3849.719
       241   04 Jun 2027 20:10:12.687   04 Jun 2027 20:12:04.463           111.776              Murmansk2          3493.000
       242   04 Jun 2027 20:13:44.857   04 Jun 2027 20:13:51.298             6.441              Murmansk1           201.281
       243   04 Jun 2027 21:15:06.903   04 Jun 2027 21:22:02.819           415.916               CapeTown         12997.375
       244   04 Jun 2027 23:31:57.811   04 Jun 2027 23:32:21.892            24.081               Magadan1           752.531
       245   04 Jun 2027 23:32:40.638   04 Jun 2027 23:32:57.650            17.012               Magadan1           531.625
       246   04 Jun 2027 23:33:06.075   04 Jun 2027 23:33:08.248             2.173                Norilsk            67.906
       247   04 Jun 2027 23:33:48.215   04 Jun 2027 23:33:57.988             9.773               Magadan2           305.406
       248   04 Jun 2027 23:34:28.234   04 Jun 2027 23:35:15.859            47.625               Magadan2          1488.281
       249   04 Jun 2027 23:38:31.218   04 Jun 2027 23:39:05.447            34.229                Irkutsk          1069.656
       250   04 Jun 2027 23:39:35.521   04 Jun 2027 23:39:56.533            21.012                Irkutsk           656.625
       251   04 Jun 2027 23:40:29.099   04 Jun 2027 23:40:51.697            22.598               Magadan2           706.187
       252   05 Jun 2027 00:23:55.454   05 Jun 2027 00:27:21.715           206.261            RioGallegos          6445.656
       253   05 Jun 2027 00:32:22.381   05 Jun 2027 00:33:05.916            43.535            RioGallegos          1360.469
       254   05 Jun 2027 01:05:13.580   05 Jun 2027 01:06:02.389            48.809                Anadyr1          1525.281
       255   05 Jun 2027 01:07:28.664   05 Jun 2027 01:09:23.099           114.435                Norilsk          3576.094
       256   05 Jun 2027 01:09:45.613   05 Jun 2027 01:09:55.858            10.245               Magadan1           320.156
       257   05 Jun 2027 01:10:03.492   05 Jun 2027 01:11:18.316            74.824               Magadan1          2338.250
       258   05 Jun 2027 01:11:34.890   05 Jun 2027 01:13:23.203           108.313                Irkutsk          3384.781
       259   05 Jun 2027 01:16:56.275   05 Jun 2027 01:17:51.138            54.863                Novosib          1714.469
       260   05 Jun 2027 01:25:17.026   05 Jun 2027 01:28:18.020           180.994                Sumatra          5656.063
       261   05 Jun 2027 02:09:00.840   05 Jun 2027 02:09:18.214            17.374            RioGallegos           542.937
       262   05 Jun 2027 02:39:49.014   05 Jun 2027 02:40:43.429            54.415                Anadyr1          1700.469
       263   05 Jun 2027 02:42:41.554   05 Jun 2027 02:42:41.910             0.356                Anadyr1            11.125
       264   05 Jun 2027 02:43:01.146   05 Jun 2027 02:43:05.786             4.640                Anadyr1           145.000
       265   05 Jun 2027 02:43:28.136   05 Jun 2027 02:44:21.867            53.731                Norilsk          1679.094
       266   05 Jun 2027 02:44:40.121   05 Jun 2027 02:44:53.683            13.562                Norilsk           423.813
       267   05 Jun 2027 02:45:01.839   05 Jun 2027 02:45:30.756            28.917                Norilsk           903.656
       268   05 Jun 2027 02:47:22.575   05 Jun 2027 02:49:43.481           140.906                Irkutsk          4403.312
       269   05 Jun 2027 02:52:28.723   05 Jun 2027 02:53:19.351            50.628                Irkutsk          1582.125
       270   05 Jun 2027 03:04:05.391   05 Jun 2027 03:10:07.995           362.604                Sumatra         11331.375
       271   05 Jun 2027 04:25:27.010   05 Jun 2027 04:27:57.175           150.165                Irkutsk          4692.656
       272   05 Jun 2027 04:27:57.229   05 Jun 2027 04:28:44.759            47.530                Irkutsk          1485.312
       273   05 Jun 2027 04:29:29.215   05 Jun 2027 04:31:21.613           112.398                Irkutsk          3512.438
       274   05 Jun 2027 04:34:02.234   05 Jun 2027 04:35:17.534            75.300                Novosib          2353.125
       275   05 Jun 2027 04:35:42.915   05 Jun 2027 04:36:11.653            28.738                  Delhi           898.062
       276   05 Jun 2027 06:06:20.988   05 Jun 2027 06:06:54.129            33.141                Novosib          1035.656
       277   05 Jun 2027 06:07:01.984   05 Jun 2027 06:07:30.852            28.868                 Moscow           902.125
       278   05 Jun 2027 06:07:47.527   05 Jun 2027 06:08:25.497            37.970              Murmansk1          1186.562
       279   05 Jun 2027 06:10:49.298   05 Jun 2027 06:11:37.753            48.455                 Moscow          1514.219
       280   05 Jun 2027 06:25:00.894   05 Jun 2027 06:27:24.219           143.325               CapeTown          4478.906
       281   05 Jun 2027 07:28:11.166   05 Jun 2027 07:28:37.074            25.908                Anadyr1           809.625
       282   05 Jun 2027 07:28:37.074   05 Jun 2027 07:28:42.650             5.576                Anadyr2           174.250
       283   05 Jun 2027 07:28:52.714   05 Jun 2027 07:28:59.379             6.665               Magadan2           208.281
       284   05 Jun 2027 07:29:27.165   05 Jun 2027 07:30:28.653            61.488                Anadyr2          1921.500
       285   05 Jun 2027 07:31:49.456   05 Jun 2027 07:32:10.047            20.591               Magadan2           643.469
       286   05 Jun 2027 07:41:45.237   05 Jun 2027 07:41:46.611             1.374              Murmansk1            42.937
       287   05 Jun 2027 07:42:26.018   05 Jun 2027 07:42:30.358             4.340              Murmansk2           135.625
       288   05 Jun 2027 07:42:49.288   05 Jun 2027 07:43:09.561            20.273              Murmansk1           633.531
       289   05 Jun 2027 08:01:57.442   05 Jun 2027 08:08:08.019           370.577               CapeTown         11580.531
       290   05 Jun 2027 09:02:21.900   05 Jun 2027 09:02:33.809            11.909               Magadan1           372.156
       291   05 Jun 2027 09:02:50.419   05 Jun 2027 09:04:32.598           102.179                Anadyr1          3193.094
       292   05 Jun 2027 09:04:55.077   05 Jun 2027 09:06:02.857            67.780               Magadan2          2118.125
       293   05 Jun 2027 09:06:48.254   05 Jun 2027 09:06:58.304            10.050               Magadan2           314.063
       294   05 Jun 2027 09:07:45.039   05 Jun 2027 09:07:56.621            11.582                Anadyr1           361.937
       295   05 Jun 2027 09:09:16.888   05 Jun 2027 09:10:16.098            59.210                Anadyr1          1850.312
       296   05 Jun 2027 10:37:38.347   05 Jun 2027 10:38:06.552            28.205               Magadan1           881.406
       297   05 Jun 2027 10:38:12.089   05 Jun 2027 10:40:04.323           112.234               Magadan1          3507.313
       298   05 Jun 2027 10:40:45.432   05 Jun 2027 10:41:29.143            43.711               Magadan1          1365.969
       299   05 Jun 2027 10:42:39.225   05 Jun 2027 10:43:02.113            22.888               Magadan1           715.250
       300   05 Jun 2027 10:43:02.113   05 Jun 2027 10:43:14.913            12.800               Magadan2           400.000
       301   05 Jun 2027 10:43:41.216   05 Jun 2027 10:43:57.546            16.330               Magadan1           510.313
       302   05 Jun 2027 10:43:57.546   05 Jun 2027 10:44:03.728             6.182               Magadan2           193.187
       303   05 Jun 2027 10:45:13.651   05 Jun 2027 10:45:15.315             1.664                Norilsk            52.000
       304   05 Jun 2027 11:21:18.220   05 Jun 2027 11:21:50.327            32.107            RioGallegos          1003.344
       305   05 Jun 2027 11:23:21.770   05 Jun 2027 11:24:35.378            73.608            RioGallegos          2300.250
       306   05 Jun 2027 12:09:10.670   05 Jun 2027 12:11:02.502           111.832                Irkutsk          3494.750
       307   05 Jun 2027 12:12:43.354   05 Jun 2027 12:13:08.191            24.837                Novosib           776.156
       308   05 Jun 2027 12:14:04.170   05 Jun 2027 12:20:18.939           374.769               Magadan2         11711.531
       309   05 Jun 2027 13:43:13.665   05 Jun 2027 13:43:58.131            44.466                Sumatra          1389.562
       310   05 Jun 2027 13:49:51.198   05 Jun 2027 13:51:03.265            72.067                Irkutsk          2252.094
       311   05 Jun 2027 14:35:52.544   05 Jun 2027 14:43:26.451           453.907            RioGallegos         14184.594
       312   05 Jun 2027 15:11:00.646   05 Jun 2027 15:15:09.730           249.084                Sumatra          7783.875
       313   05 Jun 2027 15:26:55.332   05 Jun 2027 15:30:17.970           202.638                Irkutsk          6332.438
       314   05 Jun 2027 18:36:53.150   05 Jun 2027 18:37:30.493            37.343                 Moscow          1166.969
       315   05 Jun 2027 18:38:46.887   05 Jun 2027 18:41:11.124           144.237                 Moscow          4507.406
       316   05 Jun 2027 18:42:35.905   05 Jun 2027 18:44:30.867           114.962              Murmansk1          3592.563
       317   05 Jun 2027 19:49:16.579   05 Jun 2027 19:51:36.912           140.333               CapeTown          4385.406
       318   05 Jun 2027 19:57:47.047   05 Jun 2027 19:57:59.547            12.500               CapeTown           390.625
       319   05 Jun 2027 20:19:12.475   05 Jun 2027 20:20:28.785            76.310              Murmansk2          2384.688
       320   05 Jun 2027 20:20:42.330   05 Jun 2027 20:24:48.652           246.322              Murmansk1          7697.562
       321   05 Jun 2027 20:25:32.486   05 Jun 2027 20:27:58.265           145.779              Murmansk2          4555.594
       322   05 Jun 2027 21:28:07.735   05 Jun 2027 21:32:38.368           270.633               CapeTown          8457.281
       323   05 Jun 2027 22:09:31.013   05 Jun 2027 22:09:50.002            18.989               Magadan2           593.406
       324   05 Jun 2027 22:10:07.121   05 Jun 2027 22:10:26.432            19.311               Magadan2           603.469
       325   05 Jun 2027 22:10:51.190   05 Jun 2027 22:11:19.997            28.807               Magadan2           900.219
       326   05 Jun 2027 22:17:39.924   05 Jun 2027 22:18:45.589            65.665               Magadan2          2052.031
       327   05 Jun 2027 23:41:41.131   05 Jun 2027 23:45:10.254           209.123                Anadyr2          6535.094
       328   05 Jun 2027 23:45:10.254   05 Jun 2027 23:45:40.884            30.630                Anadyr1           957.188
       329   05 Jun 2027 23:45:51.323   05 Jun 2027 23:47:32.490           101.167               Magadan1          3161.469
       330   05 Jun 2027 23:47:42.254   05 Jun 2027 23:47:50.451             8.197               Magadan1           256.156
       331   05 Jun 2027 23:49:12.726   05 Jun 2027 23:49:20.023             7.297                Norilsk           228.031
       332   05 Jun 2027 23:49:26.734   05 Jun 2027 23:49:55.576            28.842               Magadan1           901.312
       333   05 Jun 2027 23:50:37.951   05 Jun 2027 23:51:07.289            29.338                Irkutsk           916.813
       334   05 Jun 2027 23:51:44.181   05 Jun 2027 23:51:51.539             7.358                Irkutsk           229.938
       335   05 Jun 2027 23:51:58.786   05 Jun 2027 23:52:21.134            22.348                Irkutsk           698.375
       336   05 Jun 2027 23:52:39.761   05 Jun 2027 23:53:17.495            37.734                Irkutsk          1179.188
       337   05 Jun 2027 23:54:47.266   05 Jun 2027 23:54:56.415             9.149                Irkutsk           285.906
       338   06 Jun 2027 00:06:32.276   06 Jun 2027 00:06:58.312            26.036                Sumatra           813.625
       339   06 Jun 2027 00:08:46.517   06 Jun 2027 00:09:42.964            56.447                Sumatra          1763.969
       340   06 Jun 2027 00:35:48.449   06 Jun 2027 00:37:28.690           100.241            RioGallegos          3132.531
       341   06 Jun 2027 00:39:29.140   06 Jun 2027 00:39:29.982             0.842            RioGallegos            26.313
       342   06 Jun 2027 00:40:45.115   06 Jun 2027 00:41:04.220            19.105            RioGallegos           597.031
       343   06 Jun 2027 00:43:49.291   06 Jun 2027 00:44:15.061            25.770            RioGallegos           805.313
       344   06 Jun 2027 01:17:09.219   06 Jun 2027 01:17:57.382            48.163                Anadyr1          1505.094
       345   06 Jun 2027 01:18:25.458   06 Jun 2027 01:18:37.629            12.171                Anadyr2           380.344
       346   06 Jun 2027 01:19:05.844   06 Jun 2027 01:19:46.937            41.093                Anadyr1          1284.156
       347   06 Jun 2027 01:19:47.953   06 Jun 2027 01:21:33.032           105.079                Norilsk          3283.719
       348   06 Jun 2027 01:21:33.993   06 Jun 2027 01:21:53.794            19.801               Magadan1           618.781
       349   06 Jun 2027 01:22:46.360   06 Jun 2027 01:23:20.322            33.962               Magadan2          1061.312
       350   06 Jun 2027 01:23:31.875   06 Jun 2027 01:25:26.603           114.728                Irkutsk          3585.250
       351   06 Jun 2027 01:28:29.611   06 Jun 2027 01:29:05.065            35.454                Novosib          1107.938
       352   06 Jun 2027 01:37:14.052   06 Jun 2027 01:39:56.781           162.729                Sumatra          5085.281
       353   06 Jun 2027 02:13:59.894   06 Jun 2027 02:14:34.668            34.774            RioGallegos          1086.687
       354   06 Jun 2027 02:17:27.824   06 Jun 2027 02:18:01.647            33.823            RioGallegos          1056.969
       355   06 Jun 2027 02:23:41.470   06 Jun 2027 02:23:45.647             4.177            RioGallegos           130.531
       356   06 Jun 2027 02:52:34.909   06 Jun 2027 02:52:44.836             9.927                Anadyr1           310.219
       357   06 Jun 2027 02:53:59.637   06 Jun 2027 02:54:23.284            23.647                Anadyr2           738.969
       358   06 Jun 2027 02:54:36.371   06 Jun 2027 02:54:44.218             7.847                Anadyr2           245.219
       359   06 Jun 2027 02:55:02.725   06 Jun 2027 02:55:22.196            19.471                Anadyr2           608.469
       360   06 Jun 2027 02:55:30.633   06 Jun 2027 02:56:12.399            41.766                Norilsk          1305.188
       361   06 Jun 2027 02:56:28.612   06 Jun 2027 02:56:34.128             5.516                Norilsk           172.375
       362   06 Jun 2027 02:57:13.991   06 Jun 2027 02:57:50.116            36.125               Magadan2          1128.906
       363   06 Jun 2027 02:59:10.265   06 Jun 2027 03:00:09.158            58.893              Murmansk2          1840.406
       364   06 Jun 2027 03:00:26.676   06 Jun 2027 03:00:39.866            13.190               Magadan1           412.187
       365   06 Jun 2027 03:00:39.866   06 Jun 2027 03:01:43.062            63.196               Magadan2          1974.875
       366   06 Jun 2027 03:01:53.191   06 Jun 2027 03:02:40.070            46.879               Magadan1          1464.969
       367   06 Jun 2027 03:03:02.694   06 Jun 2027 03:05:24.775           142.081                Novosib          4440.031
       368   06 Jun 2027 03:05:36.270   06 Jun 2027 03:07:19.925           103.655                Irkutsk          3239.219
       369   06 Jun 2027 03:07:53.527   06 Jun 2027 03:09:06.375            72.848                  Delhi          2276.500
       370   06 Jun 2027 03:48:10.767   06 Jun 2027 03:51:07.521           176.754            RioGallegos          5523.563
       371   06 Jun 2027 03:51:16.214   06 Jun 2027 03:52:47.067            90.853            RioGallegos          2839.156
       372   06 Jun 2027 04:37:13.717   06 Jun 2027 04:37:40.815            27.098                Irkutsk           846.813
       373   06 Jun 2027 04:39:33.853   06 Jun 2027 04:43:45.360           251.507                Irkutsk          7859.594
       374   06 Jun 2027 04:44:14.398   06 Jun 2027 04:49:04.872           290.474                  Delhi          9077.313
       375   06 Jun 2027 06:17:44.810   06 Jun 2027 06:18:33.427            48.617                 Moscow          1519.281
       376   06 Jun 2027 06:18:47.086   06 Jun 2027 06:19:50.834            63.748                 Moscow          1992.125
       377   06 Jun 2027 06:20:05.565   06 Jun 2027 06:20:12.953             7.388              Murmansk2           230.875
       378   06 Jun 2027 06:23:42.902   06 Jun 2027 06:23:47.383             4.481                 Moscow           140.031
       379   06 Jun 2027 06:23:52.225   06 Jun 2027 06:23:55.086             2.861                 Moscow            89.406
       380   06 Jun 2027 06:36:51.510   06 Jun 2027 06:39:52.931           181.421               CapeTown          5669.406
       381   06 Jun 2027 07:39:44.087   06 Jun 2027 07:40:10.209            26.122                Anadyr2           816.312
       382   06 Jun 2027 07:40:18.220   06 Jun 2027 07:40:31.795            13.575               Magadan1           424.219
       383   06 Jun 2027 07:40:35.265   06 Jun 2027 07:40:44.410             9.145                Anadyr1           285.781
       384   06 Jun 2027 07:41:01.889   06 Jun 2027 07:41:37.795            35.906                Anadyr1          1122.062
       385   06 Jun 2027 07:41:56.573   06 Jun 2027 07:42:14.929            18.356               Magadan2           573.625
       386   06 Jun 2027 07:42:28.480   06 Jun 2027 07:43:03.815            35.335                Anadyr2          1104.219
       387   06 Jun 2027 07:52:27.261   06 Jun 2027 07:52:41.173            13.912                Norilsk           434.750
       388   06 Jun 2027 07:54:32.103   06 Jun 2027 07:54:40.391             8.288                 Moscow           259.000
       389   06 Jun 2027 08:14:38.923   06 Jun 2027 08:16:29.903           110.980               CapeTown          3468.125
       390   06 Jun 2027 08:20:25.466   06 Jun 2027 08:22:14.878           109.412               CapeTown          3419.125
       391   06 Jun 2027 09:14:13.269   06 Jun 2027 09:15:15.385            62.116                Anadyr1          1941.125
       392   06 Jun 2027 09:15:29.039   06 Jun 2027 09:15:30.205             1.166               Magadan2            36.438
       393   06 Jun 2027 09:15:51.740   06 Jun 2027 09:16:21.744            30.004               Magadan2           937.625
       394   06 Jun 2027 09:16:31.682   06 Jun 2027 09:17:29.257            57.575                Anadyr1          1799.219
       395   06 Jun 2027 09:18:01.180   06 Jun 2027 09:18:43.991            42.811               Magadan1          1337.844
       396   06 Jun 2027 09:20:11.861   06 Jun 2027 09:20:31.185            19.324               Magadan2           603.875
       397   06 Jun 2027 10:01:07.542   06 Jun 2027 10:01:12.227             4.685            RioGallegos           146.406
       398   06 Jun 2027 10:01:28.818   06 Jun 2027 10:01:42.156            13.338            RioGallegos           416.812
       399   06 Jun 2027 10:05:24.914   06 Jun 2027 10:05:52.602            27.688            RioGallegos           865.250
       400   06 Jun 2027 10:48:16.162   06 Jun 2027 10:49:26.827            70.665               Magadan1          2208.281
       401   06 Jun 2027 10:50:31.258   06 Jun 2027 10:50:58.029            26.771               Magadan1           836.594
       402   06 Jun 2027 10:52:01.290   06 Jun 2027 10:55:33.326           212.036               Magadan1          6626.125
       403   06 Jun 2027 10:55:48.050   06 Jun 2027 10:56:45.522            57.472                Irkutsk          1796.000
       404   06 Jun 2027 10:57:03.739   06 Jun 2027 10:57:07.560             3.821                Irkutsk           119.406
       405   06 Jun 2027 10:57:14.220   06 Jun 2027 10:57:19.193             4.973                Norilsk           155.406
       406   06 Jun 2027 10:57:42.530   06 Jun 2027 10:57:49.324             6.794               Magadan1           212.312
       407   06 Jun 2027 11:33:02.495   06 Jun 2027 11:33:52.971            50.476            RioGallegos          1577.375
       408   06 Jun 2027 11:35:31.733   06 Jun 2027 11:36:27.985            56.252            RioGallegos          1757.875
       409   06 Jun 2027 12:11:21.920   06 Jun 2027 12:12:22.831            60.911                Sumatra          1903.469
       410   06 Jun 2027 12:21:02.264   06 Jun 2027 12:22:18.737            76.473                Irkutsk          2389.781
       411   06 Jun 2027 12:24:18.519   06 Jun 2027 12:25:18.782            60.263                Novosib          1883.219
       412   06 Jun 2027 12:26:05.419   06 Jun 2027 12:32:15.822           370.403               Magadan2         11575.094
       413   06 Jun 2027 13:57:34.591   06 Jun 2027 13:59:50.778           136.187                Irkutsk          4255.844
       414   06 Jun 2027 14:49:01.348   06 Jun 2027 14:54:48.174           346.826            RioGallegos         10838.312
       415   06 Jun 2027 15:39:29.835   06 Jun 2027 15:39:54.094            24.259                Norilsk           758.094
       416   06 Jun 2027 15:39:57.035   06 Jun 2027 15:40:40.712            43.677                Novosib          1364.906
       417   06 Jun 2027 15:44:25.681   06 Jun 2027 15:44:40.378            14.697                Norilsk           459.281
       418   06 Jun 2027 15:44:59.501   06 Jun 2027 15:45:39.395            39.894                Norilsk          1246.688
       419   06 Jun 2027 17:11:50.645   06 Jun 2027 17:13:15.290            84.645                 Moscow          2645.156
       420   06 Jun 2027 17:14:09.446   06 Jun 2027 17:14:48.268            38.822                 Moscow          1213.188
       421   06 Jun 2027 17:16:51.404   06 Jun 2027 17:16:55.421             4.017              Murmansk2           125.531
       422   06 Jun 2027 17:17:04.887   06 Jun 2027 17:18:09.118            64.231              Murmansk1          2007.219
       423   06 Jun 2027 17:19:27.993   06 Jun 2027 17:22:13.080           165.087                Norilsk          5158.969
       424   06 Jun 2027 17:23:24.203   06 Jun 2027 17:24:48.912            84.709                Norilsk          2647.156
       425   06 Jun 2027 17:25:37.533   06 Jun 2027 17:26:19.863            42.330                Norilsk          1322.813
       426   06 Jun 2027 18:49:19.876   06 Jun 2027 18:50:29.039            69.163                 Moscow          2161.344
       427   06 Jun 2027 18:52:25.693   06 Jun 2027 18:53:23.343            57.650              Murmansk1          1801.563
       428   06 Jun 2027 18:54:08.256   06 Jun 2027 18:54:21.809            13.553                 Moscow           423.531
       429   06 Jun 2027 18:56:30.132   06 Jun 2027 18:57:06.642            36.510              Murmansk2          1140.937
       430   06 Jun 2027 19:01:32.949   06 Jun 2027 19:02:15.196            42.247              Murmansk1          1320.219
       431   06 Jun 2027 19:12:56.336   06 Jun 2027 19:13:11.141            14.805                Anadyr2           462.656
       432   06 Jun 2027 20:01:22.630   06 Jun 2027 20:02:39.917            77.287               CapeTown          2415.219
       433   06 Jun 2027 20:04:18.475   06 Jun 2027 20:05:43.300            84.825               CapeTown          2650.781
       434   06 Jun 2027 20:09:54.699   06 Jun 2027 20:10:27.702            33.003               CapeTown          1031.344
       435   06 Jun 2027 20:31:50.444   06 Jun 2027 20:39:55.523           485.079              Murmansk1         15158.719
       436   06 Jun 2027 22:17:49.771   06 Jun 2027 22:19:05.277            75.506                Anadyr2          2359.562
       437   06 Jun 2027 22:19:14.722   06 Jun 2027 22:19:20.407             5.685                Anadyr2           177.656
       438   06 Jun 2027 22:19:34.105   06 Jun 2027 22:21:02.253            88.148                Anadyr2          2754.625
       439   06 Jun 2027 22:21:04.679   06 Jun 2027 22:21:52.877            48.198               Magadan2          1506.187
       440   06 Jun 2027 22:21:57.729   06 Jun 2027 22:22:18.043            20.314               Magadan1           634.812
       441   06 Jun 2027 22:23:21.675   06 Jun 2027 22:23:30.567             8.892               Magadan2           277.875
       442   06 Jun 2027 22:23:36.178   06 Jun 2027 22:23:50.423            14.245               Magadan1           445.156
       443   06 Jun 2027 22:28:19.139   06 Jun 2027 22:28:29.106             9.967               Magadan1           311.469
       444   06 Jun 2027 22:29:32.392   06 Jun 2027 22:29:43.407            11.015               Magadan2           344.219
       445   06 Jun 2027 23:14:57.558   06 Jun 2027 23:16:52.275           114.717            RioGallegos          3584.906
       446   06 Jun 2027 23:53:41.375   06 Jun 2027 23:55:15.166            93.791                Anadyr1          2930.969
       447   06 Jun 2027 23:55:18.390   06 Jun 2027 23:55:53.651            35.261                Anadyr2          1101.906
       448   06 Jun 2027 23:56:02.727   06 Jun 2027 23:58:10.447           127.720               Magadan1          3991.250
       449   06 Jun 2027 23:58:27.284   06 Jun 2027 23:59:24.688            57.404               Magadan1          1793.875
       450   06 Jun 2027 23:59:44.456   06 Jun 2027 23:59:56.845            12.389               Magadan1           387.156
       451   07 Jun 2027 00:01:01.620   07 Jun 2027 00:01:38.170            36.550                Irkutsk          1142.187
       452   07 Jun 2027 00:02:07.965   07 Jun 2027 00:02:42.234            34.269                Irkutsk          1070.906
       453   07 Jun 2027 00:06:20.434   07 Jun 2027 00:07:34.803            74.369                Irkutsk          2324.031
       454   07 Jun 2027 00:16:36.321   07 Jun 2027 00:18:19.327           103.006                Sumatra          3218.937
       455   07 Jun 2027 00:47:43.502   07 Jun 2027 00:48:22.662            39.160            RioGallegos          1223.750
       456   07 Jun 2027 00:51:28.818   07 Jun 2027 00:51:37.749             8.931            RioGallegos           279.094
       457   07 Jun 2027 00:53:23.418   07 Jun 2027 00:54:31.105            67.687            RioGallegos          2115.219
       458   07 Jun 2027 01:29:03.826   07 Jun 2027 01:29:43.535            39.709                Anadyr2          1240.906
       459   07 Jun 2027 01:30:33.139   07 Jun 2027 01:31:48.251            75.112                Anadyr2          2347.250
       460   07 Jun 2027 01:32:10.062   07 Jun 2027 01:33:53.093           103.031               Magadan2          3219.719
       461   07 Jun 2027 01:35:30.203   07 Jun 2027 01:38:30.696           180.493                Irkutsk          5640.406
       462   07 Jun 2027 01:49:16.775   07 Jun 2027 01:50:46.424            89.649                Sumatra          2801.531
       463   07 Jun 2027 01:52:23.109   07 Jun 2027 01:55:45.960           202.851                Sumatra          6339.094
       464   07 Jun 2027 03:11:38.370   07 Jun 2027 03:14:07.551           149.181               Magadan2          4661.906
       465   07 Jun 2027 03:15:45.786   07 Jun 2027 03:17:34.457           108.671                Irkutsk          3395.969
       466   07 Jun 2027 03:18:45.010   07 Jun 2027 03:22:34.542           229.532                  Delhi          7172.875
       467   07 Jun 2027 04:00:25.628   07 Jun 2027 04:01:06.269            40.641            RioGallegos          1270.031
       468   07 Jun 2027 04:03:23.949   07 Jun 2027 04:05:16.392           112.443            RioGallegos          3513.844
       469   07 Jun 2027 04:49:57.334   07 Jun 2027 04:50:22.269            24.935                Novosib           779.219
       470   07 Jun 2027 04:51:32.554   07 Jun 2027 04:53:29.466           116.912                Irkutsk          3653.500
       471   07 Jun 2027 04:54:25.580   07 Jun 2027 04:54:58.543            32.963                Irkutsk          1030.094
       472   07 Jun 2027 04:55:03.468   07 Jun 2027 04:55:34.296            30.828                Novosib           963.375
       473   07 Jun 2027 04:55:59.620   07 Jun 2027 05:03:20.935           441.315                  Delhi         13791.094
       474   07 Jun 2027 05:04:07.754   07 Jun 2027 05:04:40.867            33.113                  Delhi          1034.781
       475   07 Jun 2027 06:30:52.314   07 Jun 2027 06:31:17.990            25.676                 Moscow           802.375
       476   07 Jun 2027 06:31:30.123   07 Jun 2027 06:32:00.183            30.060              Murmansk2           939.375
       477   07 Jun 2027 06:35:47.534   07 Jun 2027 06:36:27.762            40.228                 Moscow          1257.125
       478   07 Jun 2027 06:48:47.213   07 Jun 2027 06:49:50.032            62.819               CapeTown          1963.094
       479   07 Jun 2027 06:51:59.425   07 Jun 2027 06:52:31.005            31.580               CapeTown           986.875
       480   07 Jun 2027 07:52:02.923   07 Jun 2027 07:52:46.047            43.124                Anadyr1          1347.625
       481   07 Jun 2027 07:52:58.575   07 Jun 2027 07:53:50.764            52.189                Anadyr1          1630.906
       482   07 Jun 2027 08:07:00.310   07 Jun 2027 08:07:47.327            47.017                 Moscow          1469.281
