uniorb/output/strategy_4/Drop/Drop_KinoSat_110505.txt

KinoSat_110505
-------------------------
    Access    *     Start Time (UTCG)     *     Stop Time (UTCG)  *   Duration (s)        *       Station  *  Data (Mbytes)
         1   01 Jun 2027 03:47:39.106   01 Jun 2027 03:49:20.654           101.548                Anadyr2         12693.500
         2   01 Jun 2027 03:49:48.915   01 Jun 2027 03:51:08.349            79.434                Anadyr2          9929.250
         3   01 Jun 2027 03:51:24.088   01 Jun 2027 03:52:00.395            36.307                Anadyr1          4538.375
         4   01 Jun 2027 03:52:00.395   01 Jun 2027 03:53:21.228            80.833                Anadyr2         10104.125
         5   01 Jun 2027 03:54:12.533   01 Jun 2027 03:54:22.028             9.495                Anadyr1          1186.875
         6   01 Jun 2027 05:25:24.651   01 Jun 2027 05:25:32.118             7.467                Irkutsk           933.375
         7   01 Jun 2027 05:25:33.401   01 Jun 2027 05:26:28.945            55.544               Magadan2          6943.000
         8   01 Jun 2027 05:26:52.894   01 Jun 2027 05:28:20.883            87.989                Novosib         10998.625
         9   01 Jun 2027 05:28:37.598   01 Jun 2027 05:29:16.148            38.550                Novosib          4818.750
        10   01 Jun 2027 05:29:25.874   01 Jun 2027 05:29:41.158            15.284              Murmansk2          1910.500
        11   01 Jun 2027 05:29:44.935   01 Jun 2027 05:30:28.346            43.411              Murmansk2          5426.375
        12   01 Jun 2027 05:32:45.712   01 Jun 2027 05:32:55.166             9.454                Norilsk          1181.750
        13   01 Jun 2027 05:33:17.075   01 Jun 2027 05:33:39.190            22.115                Norilsk          2764.375
        14   01 Jun 2027 06:05:19.814   01 Jun 2027 06:05:44.827            25.013            RioGallegos          3126.625
        15   01 Jun 2027 06:40:08.092   01 Jun 2027 06:41:07.818            59.726                Sumatra          7465.750
        16   01 Jun 2027 06:43:15.133   01 Jun 2027 06:43:16.646             1.513                Sumatra           189.125
        17   01 Jun 2027 06:51:09.078   01 Jun 2027 06:53:06.379           117.301                  Delhi         14662.625
        18   01 Jun 2027 07:02:46.881   01 Jun 2027 07:03:34.756            47.875                Norilsk          5984.375
        19   01 Jun 2027 07:03:34.982   01 Jun 2027 07:03:41.125             6.143                Novosib           767.875
        20   01 Jun 2027 07:03:45.937   01 Jun 2027 07:04:11.886            25.949              Murmansk1          3243.625
        21   01 Jun 2027 07:04:19.346   01 Jun 2027 07:04:37.219            17.873              Murmansk1          2234.125
        22   01 Jun 2027 07:04:43.844   01 Jun 2027 07:04:44.148             0.304              Murmansk2            38.000
        23   01 Jun 2027 07:04:48.240   01 Jun 2027 07:05:18.531            30.291                Novosib          3786.375
        24   01 Jun 2027 07:05:27.386   01 Jun 2027 07:06:17.479            50.093                Irkutsk          6261.625
        25   01 Jun 2027 07:06:27.467   01 Jun 2027 07:06:37.331             9.864                Norilsk          1233.000
        26   01 Jun 2027 07:06:44.926   01 Jun 2027 07:07:50.265            65.339                Novosib          8167.375
        27   01 Jun 2027 08:24:20.479   01 Jun 2027 08:25:03.624            43.145                  Delhi          5393.125
        28   01 Jun 2027 08:40:32.277   01 Jun 2027 08:41:24.094            51.817              Murmansk2          6477.125
        29   01 Jun 2027 08:41:32.458   01 Jun 2027 08:41:52.612            20.154                Novosib          2519.250
        30   01 Jun 2027 08:42:03.155   01 Jun 2027 08:43:41.774            98.619                Novosib         12327.375
        31   01 Jun 2027 08:43:47.827   01 Jun 2027 08:46:16.792           148.965                Norilsk         18620.625
        32   01 Jun 2027 10:15:08.609   01 Jun 2027 10:16:52.659           104.050                 Moscow         13006.250
        33   01 Jun 2027 10:17:08.440   01 Jun 2027 10:21:36.496           268.056                 Moscow         33507.000
        34   01 Jun 2027 10:21:36.814   01 Jun 2027 10:23:11.436            94.622                Norilsk         11827.750
        35   01 Jun 2027 10:23:35.729   01 Jun 2027 10:25:05.445            89.716              Murmansk2         11214.500
        36   01 Jun 2027 11:23:38.273   01 Jun 2027 11:31:05.157           446.884               CapeTown         55860.500
        37   01 Jun 2027 12:03:19.473   01 Jun 2027 12:08:36.319           316.846                Anadyr1         39605.750
        38   01 Jun 2027 12:12:00.024   01 Jun 2027 12:12:19.473            19.449                Anadyr1          2431.125
        39   01 Jun 2027 13:42:27.645   01 Jun 2027 13:46:06.224           218.579               Magadan1         27322.375
        40   01 Jun 2027 13:46:13.816   01 Jun 2027 13:48:21.313           127.497               Magadan2         15937.125
        41   01 Jun 2027 16:58:31.184   01 Jun 2027 17:03:54.174           322.990                Irkutsk         40373.750
        42   01 Jun 2027 17:15:15.916   01 Jun 2027 17:16:44.357            88.441                Sumatra         11055.125
        43   01 Jun 2027 17:17:29.657   01 Jun 2027 17:18:47.904            78.247                Sumatra          9780.875
        44   01 Jun 2027 18:33:31.906   01 Jun 2027 18:37:15.785           223.879                Novosib         27984.875
        45   01 Jun 2027 18:38:25.795   01 Jun 2027 18:39:52.753            86.958                Novosib         10869.750
        46   01 Jun 2027 18:41:29.145   01 Jun 2027 18:41:33.544             4.399                Novosib           549.875
        47   01 Jun 2027 21:42:39.554   01 Jun 2027 21:44:30.331           110.777              Murmansk2          1949.000
        48   02 Jun 2027 04:01:25.577   02 Jun 2027 04:01:35.043             9.466                Irkutsk          1183.250
        49   02 Jun 2027 04:03:46.665   02 Jun 2027 04:03:53.312             6.647                Anadyr2           830.875
        50   02 Jun 2027 04:03:58.593   02 Jun 2027 04:05:22.402            83.809                Anadyr2         10476.125
        51   02 Jun 2027 04:05:59.441   02 Jun 2027 04:06:07.113             7.672                Anadyr2           959.000
        52   02 Jun 2027 04:06:09.465   02 Jun 2027 04:06:38.230            28.765               Magadan1          3595.625
        53   02 Jun 2027 05:20:10.602   02 Jun 2027 05:21:39.619            89.017                Sumatra         11127.125
        54   02 Jun 2027 05:23:24.006   02 Jun 2027 05:25:23.395           119.389                Sumatra         14923.625
        55   02 Jun 2027 05:38:33.463   02 Jun 2027 05:39:24.501            51.038                Irkutsk          6379.750
        56   02 Jun 2027 05:40:27.008   02 Jun 2027 05:41:38.105            71.097                Irkutsk          8887.125
        57   02 Jun 2027 05:42:01.551   02 Jun 2027 05:42:36.390            34.839                Irkutsk          4354.875
        58   02 Jun 2027 05:42:42.447   02 Jun 2027 05:48:28.882           346.435              Murmansk1         43304.375
        59   02 Jun 2027 05:49:01.611   02 Jun 2027 05:50:42.968           101.357              Murmansk1         12669.625
        60   02 Jun 2027 06:17:30.558   02 Jun 2027 06:19:52.545           141.987            RioGallegos         17748.375
        61   02 Jun 2027 06:52:07.675   02 Jun 2027 06:54:09.803           122.128                Sumatra         15266.000
        62   02 Jun 2027 07:17:44.070   02 Jun 2027 07:20:06.009           141.939                Novosib         17742.375
        63   02 Jun 2027 07:20:07.886   02 Jun 2027 07:20:36.461            28.575                 Moscow          3571.875
        64   02 Jun 2027 07:21:02.065   02 Jun 2027 07:23:31.813           149.748                Norilsk         18718.500
        65   02 Jun 2027 07:23:44.378   02 Jun 2027 07:25:39.291           114.913              Murmansk2         14364.125
        66   02 Jun 2027 07:58:02.888   02 Jun 2027 08:03:31.875           328.987            RioGallegos         41123.375
        67   02 Jun 2027 08:36:29.660   02 Jun 2027 08:39:24.219           174.559                  Delhi         21819.875
        68   02 Jun 2027 08:40:05.653   02 Jun 2027 08:40:45.255            39.602                  Delhi          4950.250
        69   02 Jun 2027 08:44:23.041   02 Jun 2027 08:50:00.713           337.672                Novosib         42209.000
        70   02 Jun 2027 08:54:14.161   02 Jun 2027 09:01:13.393           419.232              Murmansk1         52404.000
        71   02 Jun 2027 10:24:11.105   02 Jun 2027 10:24:17.657             6.552              Murmansk2           819.000
        72   02 Jun 2027 10:24:17.657   02 Jun 2027 10:24:41.178            23.521              Murmansk1          2940.125
        73   02 Jun 2027 10:25:14.749   02 Jun 2027 10:26:00.790            46.041              Murmansk2          5755.125
        74   02 Jun 2027 10:30:14.880   02 Jun 2027 10:37:06.990           412.110              Murmansk1         51513.750
        75   02 Jun 2027 11:35:51.370   02 Jun 2027 11:44:31.535           520.165               CapeTown         65020.625
        76   02 Jun 2027 11:59:31.969   02 Jun 2027 12:08:14.604           522.635                 Moscow         65329.375
        77   02 Jun 2027 12:08:15.008   02 Jun 2027 12:10:20.823           125.815              Murmansk2         15726.875
        78   02 Jun 2027 12:15:13.536   02 Jun 2027 12:16:57.142           103.606                Anadyr2         12950.750
        79   02 Jun 2027 12:22:21.548   02 Jun 2027 12:24:01.422            99.874                Anadyr1         12484.250
        80   02 Jun 2027 13:54:07.718   02 Jun 2027 13:58:47.503           279.785               Magadan1         34973.125
        81   02 Jun 2027 16:23:57.748   02 Jun 2027 16:26:04.897           127.149            RioGallegos         15893.625
        82   02 Jun 2027 17:09:57.702   02 Jun 2027 17:13:28.260           210.558                Irkutsk         26319.750
        83   02 Jun 2027 17:14:31.386   02 Jun 2027 17:16:00.023            88.637                Irkutsk         11079.625
        84   02 Jun 2027 17:17:37.477   02 Jun 2027 17:17:41.202             3.725                Irkutsk           465.625
        85   02 Jun 2027 17:25:26.602   02 Jun 2027 17:27:27.324           120.722                Sumatra         15090.250
        86   02 Jun 2027 17:29:14.366   02 Jun 2027 17:31:22.670           128.304                Sumatra         16038.000
        87   02 Jun 2027 18:48:37.569   02 Jun 2027 18:49:09.378            31.809                Novosib          3976.125
        88   02 Jun 2027 18:50:53.218   02 Jun 2027 18:51:25.920            32.702                Novosib          4087.750
        89   02 Jun 2027 20:21:00.368   02 Jun 2027 20:21:35.235            34.867              Murmansk1          4358.375
        90   02 Jun 2027 21:55:50.841   02 Jun 2027 21:56:45.880            55.039              Murmansk1          6879.875
        91   02 Jun 2027 21:58:34.983   02 Jun 2027 22:00:25.625           110.642                 Moscow         13830.250
        92   02 Jun 2027 22:01:38.339   02 Jun 2027 22:04:42.493           184.154                 Moscow         18834.126
        93   03 Jun 2027 04:17:32.923   03 Jun 2027 04:17:44.539            11.616                Anadyr2          1452.000
        94   03 Jun 2027 04:18:41.591   03 Jun 2027 04:23:51.980           310.389                Norilsk         38798.625
        95   03 Jun 2027 04:23:55.547   03 Jun 2027 04:25:12.779            77.232              Murmansk2          9654.000
        96   03 Jun 2027 05:30:52.546   03 Jun 2027 05:33:03.520           130.974                Sumatra         16371.750
        97   03 Jun 2027 05:54:43.515   03 Jun 2027 05:55:58.537            75.022                Novosib          9377.750
        98   03 Jun 2027 05:55:59.521   03 Jun 2027 05:59:35.838           216.317                Norilsk         27039.625
        99   03 Jun 2027 05:59:35.839   03 Jun 2027 06:02:34.273           178.434              Murmansk1         22304.250
       100   03 Jun 2027 06:29:45.188   03 Jun 2027 06:33:24.956           219.768            RioGallegos         27471.000
       101   03 Jun 2027 06:34:20.742   03 Jun 2027 06:35:27.691            66.949            RioGallegos          8368.625
       102   03 Jun 2027 06:36:22.035   03 Jun 2027 06:37:41.433            79.398            RioGallegos          9924.750
       103   03 Jun 2027 06:38:45.186   03 Jun 2027 06:38:54.136             8.950            RioGallegos          1118.750
       104   03 Jun 2027 07:04:12.874   03 Jun 2027 07:08:33.106           260.232                Sumatra         32529.000
       105   03 Jun 2027 07:14:56.461   03 Jun 2027 07:16:33.410            96.949                  Delhi         12118.625
       106   03 Jun 2027 07:18:52.602   03 Jun 2027 07:25:26.048           393.446                Irkutsk         49180.750
       107   03 Jun 2027 07:30:31.208   03 Jun 2027 07:30:57.810            26.602                Norilsk          3325.250
       108   03 Jun 2027 07:31:09.021   03 Jun 2027 07:34:20.158           191.137              Murmansk1         23892.125
       109   03 Jun 2027 07:34:20.158   03 Jun 2027 07:35:17.895            57.737              Murmansk2          7217.125
       110   03 Jun 2027 07:36:51.710   03 Jun 2027 07:37:36.185            44.475              Murmansk1          5559.375
       111   03 Jun 2027 08:12:06.721   03 Jun 2027 08:14:00.631           113.910            RioGallegos         14238.750
       112   03 Jun 2027 08:48:44.874   03 Jun 2027 08:51:16.098           151.224                  Delhi         18903.000
       113   03 Jun 2027 08:51:45.905   03 Jun 2027 08:52:17.116            31.211                  Delhi          3901.375
       114   03 Jun 2027 08:53:29.872   03 Jun 2027 08:55:07.955            98.083                  Delhi         12260.375
       115   03 Jun 2027 08:57:59.697   03 Jun 2027 09:01:26.428           206.731                Novosib         25841.375
       116   03 Jun 2027 09:06:08.270   03 Jun 2027 09:11:25.716           317.446              Murmansk1         39680.750
       117   03 Jun 2027 09:12:46.809   03 Jun 2027 09:13:13.698            26.889              Murmansk2          3361.125
       118   03 Jun 2027 10:33:35.834   03 Jun 2027 10:33:36.141             0.307                 Moscow            38.375
       119   03 Jun 2027 10:36:15.473   03 Jun 2027 10:36:35.059            19.586              Murmansk2          2448.250
       120   03 Jun 2027 10:37:11.050   03 Jun 2027 10:38:47.282            96.232              Murmansk2         12029.000
       121   03 Jun 2027 10:41:10.505   03 Jun 2027 10:49:08.605           478.100              Murmansk1         59762.500
       122   03 Jun 2027 11:48:26.414   03 Jun 2027 11:56:16.986           470.572               CapeTown         58821.500
       123   03 Jun 2027 11:58:16.570   03 Jun 2027 11:58:22.598             6.028               CapeTown           753.500
       124   03 Jun 2027 12:10:46.877   03 Jun 2027 12:18:02.075           435.198                 Moscow         54399.750
       125   03 Jun 2027 12:18:10.088   03 Jun 2027 12:19:59.122           109.034              Murmansk2         13629.250
       126   03 Jun 2027 12:27:09.207   03 Jun 2027 12:29:12.145           122.938                Anadyr2         15367.250
       127   03 Jun 2027 14:05:53.479   03 Jun 2027 14:09:23.790           210.311               Magadan1         26288.875
       128   03 Jun 2027 14:11:16.503   03 Jun 2027 14:12:38.701            82.198               Magadan1         10274.750
       129   03 Jun 2027 16:34:48.340   03 Jun 2027 16:37:49.160           180.820            RioGallegos         22602.500
       130   03 Jun 2027 17:22:15.318   03 Jun 2027 17:25:19.979           184.661                Irkutsk         23082.625
       131   03 Jun 2027 17:27:00.380   03 Jun 2027 17:28:08.433            68.053                Irkutsk          8506.625
       132   03 Jun 2027 17:36:24.800   03 Jun 2027 17:40:57.129           272.329                Sumatra         34041.125
       133   03 Jun 2027 19:00:21.295   03 Jun 2027 19:01:04.648            43.353                Novosib          5419.125
       134   03 Jun 2027 19:06:48.205   03 Jun 2027 19:08:59.659           131.454                  Delhi         16431.750
       135   03 Jun 2027 19:10:11.977   03 Jun 2027 19:11:04.135            52.158                  Delhi          6519.750
       136   03 Jun 2027 20:32:40.049   03 Jun 2027 20:33:48.130            68.081              Murmansk2          8510.125
       137   03 Jun 2027 22:08:59.407   03 Jun 2027 22:10:58.691           119.284              Murmansk1         14910.500
       138   03 Jun 2027 22:36:22.017   03 Jun 2027 22:38:18.368           116.351               CapeTown          5512.750
       139   04 Jun 2027 04:30:38.671   04 Jun 2027 04:36:15.531           336.860              Murmansk2         42107.500
       140   04 Jun 2027 05:42:01.611   04 Jun 2027 05:44:11.827           130.216                Sumatra         16277.000
       141   04 Jun 2027 05:47:43.012   04 Jun 2027 05:49:28.891           105.879                Sumatra         13234.875
       142   04 Jun 2027 06:06:24.631   04 Jun 2027 06:11:36.913           312.282                Norilsk         39035.250
       143   04 Jun 2027 06:11:46.325   04 Jun 2027 06:14:20.079           153.754              Murmansk1         19219.250
       144   04 Jun 2027 06:42:04.025   04 Jun 2027 06:45:33.697           209.672            RioGallegos         26209.000
       145   04 Jun 2027 06:51:44.686   04 Jun 2027 06:51:56.927            12.241            RioGallegos          1530.125
       146   04 Jun 2027 07:16:24.007   04 Jun 2027 07:22:33.159           369.152                Sumatra         46144.000
       147   04 Jun 2027 07:31:15.201   04 Jun 2027 07:32:10.720            55.519                Novosib          6939.875
       148   04 Jun 2027 07:32:11.457   04 Jun 2027 07:36:32.760           261.303                Irkutsk         32662.875
       149   04 Jun 2027 07:42:05.529   04 Jun 2027 07:45:00.811           175.282                 Moscow         21910.250
       150   04 Jun 2027 07:45:23.842   04 Jun 2027 07:49:33.644           249.802              Murmansk2         31225.250
       151   04 Jun 2027 09:01:06.926   04 Jun 2027 09:08:15.560           428.634                  Delhi         53579.250
       152   04 Jun 2027 09:09:23.336   04 Jun 2027 09:12:55.049           211.713                Novosib         26464.125
       153   04 Jun 2027 09:13:10.676   04 Jun 2027 09:13:29.500            18.824                Novosib          2353.000
       154   04 Jun 2027 09:18:00.199   04 Jun 2027 09:21:31.294           211.095              Murmansk2         26386.875
       155   04 Jun 2027 09:21:42.578   04 Jun 2027 09:22:32.930            50.352                Norilsk          6294.000
       156   04 Jun 2027 09:22:42.396   04 Jun 2027 09:23:32.488            50.092                Norilsk          6261.500
       157   04 Jun 2027 09:24:48.395   04 Jun 2027 09:25:14.277            25.882              Murmansk1          3235.250
       158   04 Jun 2027 10:48:21.485   04 Jun 2027 10:50:12.898           111.413              Murmansk2         13926.625
       159   04 Jun 2027 10:51:34.398   04 Jun 2027 10:51:56.732            22.334              Murmansk1          2791.750
       160   04 Jun 2027 10:53:23.802   04 Jun 2027 10:58:02.032           278.230              Murmansk1         34778.750
       161   04 Jun 2027 10:58:08.846   04 Jun 2027 10:58:45.710            36.864                Norilsk          4608.000
       162   04 Jun 2027 10:59:30.943   04 Jun 2027 11:00:00.223            29.280              Murmansk1          3660.000
       163   04 Jun 2027 11:05:26.947   04 Jun 2027 11:07:39.759           132.812                Anadyr2         16601.500
       164   04 Jun 2027 12:00:49.203   04 Jun 2027 12:07:12.101           382.898               CapeTown         47862.250
       165   04 Jun 2027 12:23:24.507   04 Jun 2027 12:26:00.378           155.871                 Moscow         19483.875
       166   04 Jun 2027 12:39:06.104   04 Jun 2027 12:39:56.874            50.770                Anadyr1          6346.250
       167   04 Jun 2027 14:17:42.948   04 Jun 2027 14:21:50.162           247.214               Magadan1         30901.750
       168   04 Jun 2027 14:23:41.380   04 Jun 2027 14:24:43.402            62.022               Magadan1          7752.750
       169   04 Jun 2027 16:46:11.348   04 Jun 2027 16:49:37.357           206.009            RioGallegos         25751.125
       170   04 Jun 2027 16:53:45.582   04 Jun 2027 16:53:52.398             6.816            RioGallegos           852.000
       171   04 Jun 2027 17:36:04.446   04 Jun 2027 17:40:01.894           237.448                Irkutsk         29681.000
       172   04 Jun 2027 17:47:41.981   04 Jun 2027 17:48:14.218            32.237                Sumatra          4029.625
       173   04 Jun 2027 17:49:11.170   04 Jun 2027 17:53:49.071           277.901                Sumatra         34737.625
       174   04 Jun 2027 19:17:48.685   04 Jun 2027 19:20:10.293           141.608                  Delhi         17701.000
       175   04 Jun 2027 19:22:53.777   04 Jun 2027 19:24:51.183           117.406                  Delhi         14675.750
       176   04 Jun 2027 20:46:26.162   04 Jun 2027 20:46:56.218            30.056              Murmansk2          3757.000
       177   04 Jun 2027 22:21:54.734   04 Jun 2027 22:23:00.326            65.592              Murmansk1          8199.000
       178   04 Jun 2027 22:52:59.805   04 Jun 2027 22:54:55.976           116.171               CapeTown         13285.625
       179   05 Jun 2027 04:42:41.132   05 Jun 2027 04:47:17.081           275.949                Norilsk         34493.625
       180   05 Jun 2027 04:50:13.031   05 Jun 2027 04:50:26.393            13.362              Murmansk2          1670.250
       181   05 Jun 2027 04:50:44.785   05 Jun 2027 04:51:50.914            66.129              Murmansk2          8266.125
       182   05 Jun 2027 05:17:26.282   05 Jun 2027 05:17:30.666             4.384            RioGallegos           548.000
       183   05 Jun 2027 06:05:47.697   05 Jun 2027 06:09:49.307           241.610                Irkutsk         30201.250
       184   05 Jun 2027 06:10:37.264   05 Jun 2027 06:10:43.534             6.270                Irkutsk           783.750
       185   05 Jun 2027 06:18:33.524   05 Jun 2027 06:20:07.284            93.760                Novosib         11720.000
       186   05 Jun 2027 06:20:09.361   05 Jun 2027 06:23:38.176           208.815                Norilsk         26101.875
       187   05 Jun 2027 06:23:55.002   05 Jun 2027 06:25:00.939            65.937              Murmansk1          8242.125
       188   05 Jun 2027 06:25:00.939   05 Jun 2027 06:26:19.120            78.181              Murmansk2          9772.625
       189   05 Jun 2027 06:54:27.516   05 Jun 2027 07:01:03.350           395.834            RioGallegos         49479.250
       190   05 Jun 2027 07:28:41.830   05 Jun 2027 07:35:40.483           418.653                Sumatra         52331.625
       191   05 Jun 2027 07:43:20.583   05 Jun 2027 07:44:15.153            54.570                Novosib          6821.250
       192   05 Jun 2027 07:44:17.185   05 Jun 2027 07:49:53.332           336.147                Irkutsk         42018.375
       193   05 Jun 2027 07:54:19.173   05 Jun 2027 07:58:53.691           274.518                Norilsk         34314.750
       194   05 Jun 2027 08:00:54.867   05 Jun 2027 08:01:31.627            36.760              Murmansk2          4595.000
       195   05 Jun 2027 09:13:37.179   05 Jun 2027 09:22:24.562           527.383                  Delhi         65922.875
       196   05 Jun 2027 09:23:16.482   05 Jun 2027 09:25:50.935           154.453                Novosib         19306.625
       197   05 Jun 2027 09:29:55.606   05 Jun 2027 09:30:05.905            10.299                 Moscow          1287.375
       198   05 Jun 2027 09:30:17.899   05 Jun 2027 09:31:02.565            44.666                Novosib          5583.250
       199   05 Jun 2027 09:31:10.190   05 Jun 2027 09:35:32.719           262.529                Norilsk         32816.125
       200   05 Jun 2027 11:00:29.183   05 Jun 2027 11:01:26.054            56.871              Murmansk1          7108.875
       201   05 Jun 2027 11:01:56.285   05 Jun 2027 11:02:23.596            27.311              Murmansk2          3413.875
       202   05 Jun 2027 11:04:28.264   05 Jun 2027 11:05:11.175            42.911              Murmansk2          5363.875
       203   05 Jun 2027 11:05:27.404   05 Jun 2027 11:05:42.301            14.897              Murmansk2          1862.125
       204   05 Jun 2027 11:06:24.901   05 Jun 2027 11:07:41.590            76.689              Murmansk2          9586.125
       205   05 Jun 2027 11:07:44.367   05 Jun 2027 11:10:22.864           158.497                Norilsk         19812.125
       206   05 Jun 2027 11:16:34.775   05 Jun 2027 11:21:13.314           278.539                Anadyr2         34817.375
       207   05 Jun 2027 12:10:30.610   05 Jun 2027 12:12:35.457           124.847               CapeTown         15605.875
       208   05 Jun 2027 12:36:09.707   05 Jun 2027 12:37:05.029            55.322                 Moscow          6915.250
       209   05 Jun 2027 14:29:35.033   05 Jun 2027 14:33:25.777           230.744               Magadan2         28843.000
       210   05 Jun 2027 14:33:39.290   05 Jun 2027 14:33:47.408             8.118               Magadan2          1014.750
       211   05 Jun 2027 14:36:26.211   05 Jun 2027 14:38:17.787           111.576               Magadan2         13947.000
       212   05 Jun 2027 16:57:49.848   05 Jun 2027 17:03:08.035           318.187            RioGallegos         39773.375
       213   05 Jun 2027 17:04:09.653   05 Jun 2027 17:04:28.753            19.100            RioGallegos          2387.500
       214   05 Jun 2027 17:42:53.110   05 Jun 2027 17:44:09.904            76.794                Norilsk          9599.250
       215   05 Jun 2027 18:03:48.689   05 Jun 2027 18:06:05.664           136.975                Sumatra         17121.875
       216   05 Jun 2027 19:29:09.815   05 Jun 2027 19:32:30.261           200.446                  Delhi         25055.750
       217   05 Jun 2027 20:55:13.783   05 Jun 2027 20:55:42.047            28.264              Murmansk2          3533.000
       218   05 Jun 2027 20:56:31.530   05 Jun 2027 20:57:16.551            45.021              Murmansk1          5627.625
       219   05 Jun 2027 20:59:00.799   05 Jun 2027 20:59:21.812            21.013              Murmansk1          2626.625
       220   05 Jun 2027 20:59:49.741   05 Jun 2027 21:00:46.031            56.290              Murmansk1          7036.250
       221   05 Jun 2027 23:04:20.142   05 Jun 2027 23:05:59.886            99.744               CapeTown         12468.000
       222   06 Jun 2027 04:54:37.135   06 Jun 2027 04:55:41.128            63.993                Novosib          7999.125
       223   06 Jun 2027 04:55:57.052   06 Jun 2027 04:56:53.743            56.691                Norilsk          7086.375
       224   06 Jun 2027 04:57:26.450   06 Jun 2027 04:59:09.834           103.384                Norilsk         12923.000
       225   06 Jun 2027 05:02:05.287   06 Jun 2027 05:03:35.336            90.049              Murmansk1         11256.125
       226   06 Jun 2027 06:17:51.811   06 Jun 2027 06:19:10.136            78.325                Irkutsk          9790.625
       227   06 Jun 2027 06:19:46.228   06 Jun 2027 06:23:00.130           193.902                Irkutsk         24237.750
       228   06 Jun 2027 06:30:28.268   06 Jun 2027 06:35:19.887           291.619                Norilsk         36452.375
       229   06 Jun 2027 06:35:43.224   06 Jun 2027 06:38:12.664           149.440              Murmansk1         18680.000
       230   06 Jun 2027 07:06:56.296   06 Jun 2027 07:14:03.238           426.942            RioGallegos         53367.750
       231   06 Jun 2027 07:41:07.793   06 Jun 2027 07:43:14.862           127.069                Sumatra         15883.625
       232   06 Jun 2027 07:43:45.693   06 Jun 2027 07:51:10.728           445.035                Sumatra         55629.375
       233   06 Jun 2027 07:56:37.446   06 Jun 2027 08:01:46.333           308.887                Irkutsk         38610.875
       234   06 Jun 2027 08:06:32.655   06 Jun 2027 08:09:18.276           165.621                 Moscow         20702.625
       235   06 Jun 2027 08:09:29.545   06 Jun 2027 08:10:16.698            47.153              Murmansk1          5894.125
       236   06 Jun 2027 08:10:45.446   06 Jun 2027 08:11:39.285            53.839                Norilsk          6729.875
       237   06 Jun 2027 08:12:56.556   06 Jun 2027 08:13:30.089            33.533              Murmansk1          4191.625
       238   06 Jun 2027 09:26:18.119   06 Jun 2027 09:35:30.084           551.965                  Delhi         68995.625
       239   06 Jun 2027 09:35:32.143   06 Jun 2027 09:38:21.083           168.940                Novosib         21117.500
       240   06 Jun 2027 09:42:52.387   06 Jun 2027 09:47:56.135           303.748              Murmansk2         37968.500
       241   06 Jun 2027 11:12:38.646   06 Jun 2027 11:14:45.968           127.322              Murmansk2         15915.250
       242   06 Jun 2027 11:14:45.968   06 Jun 2027 11:16:29.555           103.587              Murmansk1         12948.375
       243   06 Jun 2027 11:16:46.534   06 Jun 2027 11:16:58.528            11.994              Murmansk1          1499.250
       244   06 Jun 2027 11:17:09.049   06 Jun 2027 11:17:24.130            15.081              Murmansk1          1885.125
       245   06 Jun 2027 11:17:51.253   06 Jun 2027 11:18:19.880            28.627              Murmansk1          3578.375
       246   06 Jun 2027 11:18:36.394   06 Jun 2027 11:19:40.641            64.247              Murmansk1          8030.875
       247   06 Jun 2027 11:20:10.140   06 Jun 2027 11:22:22.042           131.902              Murmansk2         16487.750
       248   06 Jun 2027 11:23:14.314   06 Jun 2027 11:23:38.398            24.084              Murmansk1          3010.500
       249   06 Jun 2027 11:28:09.506   06 Jun 2027 11:29:40.644            91.138                Anadyr1         11392.250
       250   06 Jun 2027 11:31:13.649   06 Jun 2027 11:31:22.715             9.066                Anadyr2          1133.250
       251   06 Jun 2027 11:33:48.388   06 Jun 2027 11:34:17.418            29.030                Anadyr2          3628.750
       252   06 Jun 2027 12:22:24.639   06 Jun 2027 12:24:16.301           111.662               CapeTown         13957.750
       253   06 Jun 2027 12:24:59.024   06 Jun 2027 12:26:42.005           102.981               CapeTown         12872.625
       254   06 Jun 2027 12:34:07.618   06 Jun 2027 12:35:06.256            58.638               CapeTown          7329.750
       255   06 Jun 2027 12:49:05.400   06 Jun 2027 12:50:15.915            70.515                 Moscow          8814.375
       256   06 Jun 2027 14:41:29.079   06 Jun 2027 14:43:53.200           144.121               Magadan1         18015.125
       257   06 Jun 2027 14:46:24.895   06 Jun 2027 14:48:20.321           115.426               Magadan1         14428.250
       258   06 Jun 2027 14:49:45.042   06 Jun 2027 14:50:18.168            33.126               Magadan2          4140.750
       259   06 Jun 2027 17:12:03.603   06 Jun 2027 17:15:41.307           217.704            RioGallegos         27213.000
       260   06 Jun 2027 18:00:06.695   06 Jun 2027 18:02:10.279           123.584                Novosib         15448.000
       261   06 Jun 2027 18:16:52.386   06 Jun 2027 18:17:15.070            22.684                Sumatra          2835.500
       262   06 Jun 2027 19:44:05.810   06 Jun 2027 19:47:27.914           202.104                  Delhi         25263.000
       263   06 Jun 2027 21:08:17.321   06 Jun 2027 21:09:05.107            47.786              Murmansk1          5973.250
       264   06 Jun 2027 21:09:26.649   06 Jun 2027 21:12:32.170           185.521              Murmansk2         23190.125
       265   06 Jun 2027 21:12:53.449   06 Jun 2027 21:14:51.303           117.854                 Moscow         14731.750
       266   07 Jun 2027 05:06:53.421   07 Jun 2027 05:13:10.708           377.287              Murmansk1         47160.875
       267   07 Jun 2027 05:13:10.708   07 Jun 2027 05:15:21.908           131.200              Murmansk2         16400.000
       268   07 Jun 2027 05:41:23.711   07 Jun 2027 05:42:15.502            51.791            RioGallegos          6473.875
       269   07 Jun 2027 05:43:50.097   07 Jun 2027 05:44:25.021            34.924            RioGallegos          4365.500
       270   07 Jun 2027 05:46:05.647   07 Jun 2027 05:46:18.445            12.798            RioGallegos          1599.750
       271   07 Jun 2027 06:16:40.509   07 Jun 2027 06:18:22.721           102.212                Sumatra         12776.500
       272   07 Jun 2027 06:20:19.913   07 Jun 2027 06:20:51.062            31.149                Sumatra          3893.625
       273   07 Jun 2027 06:23:57.377   07 Jun 2027 06:24:41.579            44.202                Sumatra          5525.250
       274   07 Jun 2027 06:29:59.305   07 Jun 2027 06:34:55.345           296.040                Irkutsk         37005.000
       275   07 Jun 2027 06:35:50.827   07 Jun 2027 06:36:20.744            29.917                Irkutsk          3739.625
       276   07 Jun 2027 06:42:22.423   07 Jun 2027 06:50:06.933           464.510              Murmansk1         58063.750
       277   07 Jun 2027 07:19:31.323   07 Jun 2027 07:22:30.264           178.941            RioGallegos         22367.625
       278   07 Jun 2027 07:22:48.551   07 Jun 2027 07:27:27.863           279.312            RioGallegos         34914.000
       279   07 Jun 2027 07:53:44.725   07 Jun 2027 08:02:51.193           546.468                Sumatra         68308.500
       280   07 Jun 2027 08:09:17.327   07 Jun 2027 08:09:54.789            37.462                Novosib          4682.750
       281   07 Jun 2027 08:10:15.575   07 Jun 2027 08:14:27.239           251.664                Irkutsk         31458.000
       282   07 Jun 2027 08:18:18.457   07 Jun 2027 08:18:36.925            18.468              Murmansk1          2308.500
       283   07 Jun 2027 08:18:37.603   07 Jun 2027 08:19:14.763            37.160                Norilsk          4645.000
       284   07 Jun 2027 08:19:33.597   07 Jun 2027 08:20:03.991            30.394                Novosib          3799.250
       285   07 Jun 2027 08:20:05.708   07 Jun 2027 08:22:48.952           163.244              Murmansk2         20405.500
       286   07 Jun 2027 08:23:13.807   07 Jun 2027 08:23:41.041            27.234                Norilsk          3404.250
       287   07 Jun 2027 09:39:14.991   07 Jun 2027 09:46:44.379           449.388                  Delhi         56173.500
       288   07 Jun 2027 09:47:47.941   07 Jun 2027 09:49:56.510           128.569                Novosib         16071.125
       289   07 Jun 2027 09:53:52.167   07 Jun 2027 09:54:12.241            20.074              Murmansk1          2509.250
       290   07 Jun 2027 09:55:12.061   07 Jun 2027 09:57:58.945           166.884                Norilsk         20860.500
       291   07 Jun 2027 09:58:02.348   07 Jun 2027 09:59:16.274            73.926              Murmansk1          9240.750
       292   07 Jun 2027 11:24:49.917   07 Jun 2027 11:31:35.853           405.936              Murmansk1         50742.000
       293   07 Jun 2027 11:32:11.407   07 Jun 2027 11:35:28.440           197.033              Murmansk1         24629.125
       294   07 Jun 2027 11:39:53.349   07 Jun 2027 11:43:22.895           209.546                Anadyr2         26193.250
       295   07 Jun 2027 11:43:50.160   07 Jun 2027 11:46:03.963           133.803                Anadyr1         16725.375
       296   07 Jun 2027 12:34:21.750   07 Jun 2027 12:34:36.138            14.388               CapeTown          1798.500
       297   07 Jun 2027 12:37:32.836   07 Jun 2027 12:39:00.260            87.424               CapeTown         10928.000
       298   07 Jun 2027 13:20:09.661   07 Jun 2027 13:21:40.361            90.700               Magadan2         11337.500
       299   07 Jun 2027 14:53:24.651   07 Jun 2027 14:55:31.756           127.105               Magadan2         15888.125
       300   07 Jun 2027 17:25:15.613   07 Jun 2027 17:27:11.608           115.995            RioGallegos         14499.375
       301   07 Jun 2027 18:10:47.321   07 Jun 2027 18:16:05.108           317.787                Novosib         39723.375
       302   07 Jun 2027 19:57:28.262   07 Jun 2027 19:58:40.996            72.734                  Delhi          9091.750
       303   07 Jun 2027 21:20:10.484   07 Jun 2027 21:24:23.221           252.737              Murmansk1         31592.125
       304   07 Jun 2027 21:24:54.387   07 Jun 2027 21:29:30.110           275.723                 Moscow         34465.375
       305   08 Jun 2027 03:41:08.426   08 Jun 2027 03:41:59.680            51.254               Magadan1          6406.750
       306   08 Jun 2027 05:17:26.487   08 Jun 2027 05:17:56.920            30.433                Irkutsk          3804.125
       307   08 Jun 2027 05:18:42.391   08 Jun 2027 05:18:44.385             1.994                Irkutsk           249.250
       308   08 Jun 2027 05:18:48.303   08 Jun 2027 05:23:21.026           272.723                Norilsk         34090.375
       309   08 Jun 2027 05:23:34.014   08 Jun 2027 05:27:16.996           222.982              Murmansk2         27872.750
       310   08 Jun 2027 05:53:27.392   08 Jun 2027 05:55:40.013           132.621            RioGallegos         16577.625
       311   08 Jun 2027 05:56:42.000   08 Jun 2027 05:57:28.824            46.824            RioGallegos          5853.000
       312   08 Jun 2027 06:00:52.001   08 Jun 2027 06:01:53.513            61.512            RioGallegos          7689.000
       313   08 Jun 2027 06:29:57.229   08 Jun 2027 06:31:22.561            85.332                Sumatra         10666.500
       314   08 Jun 2027 06:32:35.103   08 Jun 2027 06:32:58.906            23.803                Sumatra          2975.375
       315   08 Jun 2027 06:39:54.439   08 Jun 2027 06:41:06.045            71.606                  Delhi          8950.750
       316   08 Jun 2027 06:42:10.345   08 Jun 2027 06:46:54.749           284.404                Irkutsk         35550.500
       317   08 Jun 2027 06:47:44.307   08 Jun 2027 06:48:39.582            55.275                Irkutsk          6909.375
       318   08 Jun 2027 06:54:40.235   08 Jun 2027 06:59:10.572           270.337                Norilsk         33792.125
       319   08 Jun 2027 06:59:17.924   08 Jun 2027 07:02:01.917           163.993              Murmansk2         20499.125
       320   08 Jun 2027 07:32:14.124   08 Jun 2027 07:33:24.675            70.551            RioGallegos          8818.875
       321   08 Jun 2027 07:33:53.205   08 Jun 2027 07:40:54.445           421.240            RioGallegos         52655.000
       322   08 Jun 2027 08:06:39.185   08 Jun 2027 08:13:50.797           431.612                Sumatra         53951.500
       323   08 Jun 2027 08:21:00.918   08 Jun 2027 08:22:01.075            60.157                Novosib          7519.625
       324   08 Jun 2027 08:22:28.913   08 Jun 2027 08:22:44.399            15.486                Novosib          1935.750
       325   08 Jun 2027 08:23:18.299   08 Jun 2027 08:26:35.653           197.354                Irkutsk         24669.250
       326   08 Jun 2027 08:30:12.183   08 Jun 2027 08:30:34.273            22.090                Norilsk          2761.250
       327   08 Jun 2027 08:31:41.562   08 Jun 2027 08:32:00.821            19.259                Novosib          2407.375
       328   08 Jun 2027 08:32:07.222   08 Jun 2027 08:34:43.563           156.341              Murmansk1         19542.625
       329   08 Jun 2027 08:35:13.330   08 Jun 2027 08:35:42.684            29.354                Norilsk          3669.250
       330   08 Jun 2027 09:52:44.158   08 Jun 2027 09:57:28.351           284.193                  Delhi         35524.125
       331   08 Jun 2027 10:05:45.584   08 Jun 2027 10:06:30.151            44.567              Murmansk1          5570.875
       332   08 Jun 2027 10:07:24.648   08 Jun 2027 10:13:18.620           353.972              Murmansk2         44246.500
       333   08 Jun 2027 11:12:28.601   08 Jun 2027 11:20:43.117           494.516               CapeTown         61814.500
       334   08 Jun 2027 11:33:41.489   08 Jun 2027 11:39:44.922           363.433                 Moscow         45429.125
       335   08 Jun 2027 11:39:54.320   08 Jun 2027 11:48:37.161           522.841              Murmansk2         65355.125
       336   08 Jun 2027 11:48:47.419   08 Jun 2027 11:49:16.657            29.238              Murmansk2          3654.750
       337   08 Jun 2027 11:51:42.112   08 Jun 2027 11:56:22.544           280.432                Anadyr2         35054.000
       338   08 Jun 2027 11:58:17.105   08 Jun 2027 11:59:54.995            97.890                Anadyr2         12236.250
       339   08 Jun 2027 12:46:21.696   08 Jun 2027 12:46:57.814            36.118               CapeTown          4514.750
       340   08 Jun 2027 12:49:07.274   08 Jun 2027 12:49:35.349            28.075               CapeTown          3509.375
       341   08 Jun 2027 13:31:11.982   08 Jun 2027 13:34:29.990           198.008               Magadan2         24751.000
       342   08 Jun 2027 13:36:23.445   08 Jun 2027 13:36:31.694             8.249               Magadan1          1031.125
       343   08 Jun 2027 16:47:43.382   08 Jun 2027 16:51:31.410           228.028                Irkutsk         28503.500
       344   08 Jun 2027 18:22:10.392   08 Jun 2027 18:29:14.360           423.968                Novosib         52996.000
       345   08 Jun 2027 21:31:47.498   08 Jun 2027 21:32:34.455            46.957              Murmansk2          5869.625
       346   08 Jun 2027 21:33:56.608   08 Jun 2027 21:36:17.218           140.610              Murmansk1         17576.250
       347   08 Jun 2027 21:36:52.486   08 Jun 2027 21:43:14.391           381.905                 Moscow         47738.125
       348   08 Jun 2027 22:04:48.437   08 Jun 2027 22:06:36.581           108.144               CapeTown         13518.000
       349   09 Jun 2027 03:53:27.414   09 Jun 2027 03:54:57.156            89.742               Magadan2         11217.750
       350   09 Jun 2027 03:54:58.152   09 Jun 2027 03:55:46.075            47.923                Norilsk          5990.375
       351   09 Jun 2027 03:56:03.790   09 Jun 2027 03:56:36.011            32.221              Murmansk2          4027.625
       352   09 Jun 2027 05:30:52.033   09 Jun 2027 05:39:06.892           494.859              Murmansk1         61857.375
       353   09 Jun 2027 06:05:34.535   09 Jun 2027 06:10:55.844           321.309            RioGallegos         40163.625
       354   09 Jun 2027 06:11:11.132   09 Jun 2027 06:12:33.908            82.776            RioGallegos         10347.000
       355   09 Jun 2027 06:14:49.912   09 Jun 2027 06:15:17.391            27.479            RioGallegos          3434.875
       356   09 Jun 2027 06:40:22.672   09 Jun 2027 06:41:37.985            75.313                Sumatra          9414.125
       357   09 Jun 2027 06:43:29.804   09 Jun 2027 06:45:12.968           103.164                Sumatra         12895.500
       358   09 Jun 2027 06:51:01.538   09 Jun 2027 06:51:23.831            22.293                  Delhi          2786.625
       359   09 Jun 2027 06:54:25.167   09 Jun 2027 07:00:19.915           354.748                Irkutsk         44343.500
       360   09 Jun 2027 07:06:52.776   09 Jun 2027 07:11:44.617           291.841                Norilsk         36480.125
       361   09 Jun 2027 07:11:51.470   09 Jun 2027 07:13:57.570           126.100              Murmansk1         15762.500
       362   09 Jun 2027 07:45:07.582   09 Jun 2027 07:52:27.362           439.780            RioGallegos         54972.500
       363   09 Jun 2027 08:20:16.409   09 Jun 2027 08:24:06.610           230.201                Sumatra         28775.125
       364   09 Jun 2027 08:32:14.945   09 Jun 2027 08:32:40.158            25.213                Novosib          3151.625
       365   09 Jun 2027 08:34:25.490   09 Jun 2027 08:36:47.369           141.879                Novosib         17734.875
       366   09 Jun 2027 08:36:53.410   09 Jun 2027 08:38:17.080            83.670                Irkutsk         10458.750
       367   09 Jun 2027 08:42:33.057   09 Jun 2027 08:45:53.118           200.061                Norilsk         25007.625
       368   09 Jun 2027 08:46:08.456   09 Jun 2027 08:47:52.637           104.181              Murmansk1         13022.625
       369   09 Jun 2027 08:48:58.652   09 Jun 2027 08:49:27.999            29.347              Murmansk2          3668.375
       370   09 Jun 2027 10:08:59.086   09 Jun 2027 10:09:08.763             9.677                 Moscow          1209.625
       371   09 Jun 2027 10:17:58.052   09 Jun 2027 10:23:25.999           327.947                Norilsk         40993.375
       372   09 Jun 2027 10:23:50.887   09 Jun 2027 10:25:20.076            89.189              Murmansk2         11148.625
       373   09 Jun 2027 11:23:52.531   09 Jun 2027 11:33:05.909           553.378               CapeTown         69172.250
       374   09 Jun 2027 11:46:03.637   09 Jun 2027 11:55:59.030           595.393                 Moscow         74424.125
       375   09 Jun 2027 11:56:12.188   09 Jun 2027 12:01:18.033           305.845              Murmansk1         38230.625
       376   09 Jun 2027 12:03:34.012   09 Jun 2027 12:12:34.533           540.521                Anadyr2         67565.125
       377   09 Jun 2027 12:58:24.384   09 Jun 2027 13:01:32.881           188.497               CapeTown         23562.125
       378   09 Jun 2027 13:42:41.983   09 Jun 2027 13:48:36.332           354.349               Magadan2         44293.625
       379   09 Jun 2027 16:58:45.311   09 Jun 2027 17:04:09.125           323.814                Irkutsk         40476.750
       380   09 Jun 2027 17:15:28.455   09 Jun 2027 17:17:44.321           135.866                Sumatra         16983.250
       381   09 Jun 2027 18:33:46.287   09 Jun 2027 18:38:40.811           294.524                Novosib         36815.500
       382   09 Jun 2027 18:40:07.664   09 Jun 2027 18:41:44.187            96.523                Novosib         12065.375
       383   09 Jun 2027 21:42:54.165   09 Jun 2027 21:44:19.824            85.659              Murmansk2         10707.375
       384   09 Jun 2027 21:46:38.255   09 Jun 2027 21:48:51.207           132.952              Murmansk1         16619.000
       385   09 Jun 2027 21:50:22.971   09 Jun 2027 21:52:33.690           130.719                 Moscow         16339.875
       386   09 Jun 2027 22:14:39.273   09 Jun 2027 22:16:06.664            87.391               CapeTown          4376.626
       387   10 Jun 2027 04:05:35.646   10 Jun 2027 04:06:04.874            29.228               Magadan2          3653.500
       388   10 Jun 2027 04:06:53.763   10 Jun 2027 04:06:55.189             1.426               Magadan2           178.250
       389   10 Jun 2027 04:06:56.984   10 Jun 2027 04:12:08.492           311.508                Norilsk         38938.500
       390   10 Jun 2027 04:12:23.138   10 Jun 2027 04:15:46.925           203.787              Murmansk2         25473.375
       391   10 Jun 2027 05:20:23.991   10 Jun 2027 05:21:00.567            36.576                Sumatra          4572.000
       392   10 Jun 2027 05:23:38.613   10 Jun 2027 05:25:38.064           119.451                Sumatra         14931.375
       393   10 Jun 2027 05:42:59.774   10 Jun 2027 05:50:57.479           477.705              Murmansk1         59713.125
       394   10 Jun 2027 06:17:45.328   10 Jun 2027 06:22:36.246           290.918            RioGallegos         36364.750
       395   10 Jun 2027 06:52:22.324   10 Jun 2027 06:54:39.478           137.154                Sumatra         17144.250
       396   10 Jun 2027 06:57:30.271   10 Jun 2027 06:57:34.270             3.999                Sumatra           499.875
       397   10 Jun 2027 07:00:31.185   10 Jun 2027 07:01:10.945            39.760                Sumatra          4970.000
       398   10 Jun 2027 07:02:20.889   10 Jun 2027 07:03:25.285            64.396                  Delhi          8049.500
       399   10 Jun 2027 07:06:44.090   10 Jun 2027 07:12:15.282           331.192                Irkutsk         41399.000
       400   10 Jun 2027 07:17:58.333   10 Jun 2027 07:18:17.825            19.492                Novosib          2436.500
       401   10 Jun 2027 07:18:54.820   10 Jun 2027 07:25:53.870           419.050              Murmansk1         52381.250
       402   10 Jun 2027 07:58:18.525   10 Jun 2027 08:03:45.839           327.314            RioGallegos         40914.250
       403   10 Jun 2027 08:36:44.427   10 Jun 2027 08:39:38.761           174.334                  Delhi         21791.750
       404   10 Jun 2027 08:40:20.571   10 Jun 2027 08:42:36.029           135.458                  Delhi         16932.250
       405   10 Jun 2027 08:44:37.962   10 Jun 2027 08:50:15.169           337.207                Novosib         42150.875
       406   10 Jun 2027 08:54:31.100   10 Jun 2027 09:01:28.014           416.914              Murmansk1         52114.250
       407   10 Jun 2027 10:24:25.766   10 Jun 2027 10:26:15.948           110.182              Murmansk1         13772.750
       408   10 Jun 2027 10:30:31.199   10 Jun 2027 10:37:21.625           410.426              Murmansk2         51303.250
       409   10 Jun 2027 11:36:06.469   10 Jun 2027 11:44:45.956           519.487               CapeTown         64935.875
       410   10 Jun 2027 11:59:11.368   10 Jun 2027 12:07:01.523           470.155                 Moscow         58769.375
       411   10 Jun 2027 12:07:13.814   10 Jun 2027 12:08:31.607            77.793              Murmansk1          9724.125
       412   10 Jun 2027 12:08:31.607   10 Jun 2027 12:12:03.883           212.276              Murmansk2         26534.500
       413   10 Jun 2027 12:12:44.811   10 Jun 2027 12:13:19.228            34.417              Murmansk1          4302.125
       414   10 Jun 2027 12:15:28.098   10 Jun 2027 12:17:12.086           103.988                Anadyr2         12998.500
       415   10 Jun 2027 12:22:36.503   10 Jun 2027 12:24:16.435            99.932                Anadyr1         12491.500
       416   10 Jun 2027 13:54:22.142   10 Jun 2027 13:57:38.229           196.087               Magadan2         24510.875
       417   10 Jun 2027 14:00:46.351   10 Jun 2027 14:02:28.252           101.901               Magadan1         12737.625
       418   10 Jun 2027 16:24:11.034   10 Jun 2027 16:26:19.308           128.274            RioGallegos         16034.250
       419   10 Jun 2027 17:10:12.001   10 Jun 2027 17:13:42.779           210.778                Irkutsk         26347.250
       420   10 Jun 2027 17:14:46.420   10 Jun 2027 17:16:14.920            88.500                Irkutsk         11062.500
       421   10 Jun 2027 17:17:52.537   10 Jun 2027 17:17:55.869             3.332                Irkutsk           416.500
       422   10 Jun 2027 17:25:40.308   10 Jun 2027 17:27:41.681           121.373                Sumatra         15171.625
       423   10 Jun 2027 17:29:29.319   10 Jun 2027 17:31:37.376           128.057                Sumatra         16007.125
       424   10 Jun 2027 18:48:52.412   10 Jun 2027 18:51:08.171           135.759                Novosib         16969.875
       425   10 Jun 2027 18:57:31.975   10 Jun 2027 18:57:37.830             5.855                  Delhi           731.875
       426   10 Jun 2027 20:21:10.302   10 Jun 2027 20:21:56.635            46.333              Murmansk1          5791.625
       427   10 Jun 2027 21:56:06.990   10 Jun 2027 21:56:10.461             3.471              Murmansk1           433.875
       428   10 Jun 2027 21:58:49.464   10 Jun 2027 22:00:40.423           110.959                 Moscow         13869.875
       429   10 Jun 2027 22:01:53.833   10 Jun 2027 22:04:57.403           183.570                 Moscow         22412.499
       430   11 Jun 2027 04:18:56.222   11 Jun 2027 04:24:06.579           310.357                Norilsk         38794.625
       431   11 Jun 2027 04:24:10.274   11 Jun 2027 04:26:27.571           137.297              Murmansk1         17162.125
       432   11 Jun 2027 05:31:06.434   11 Jun 2027 05:33:18.718           132.284                Sumatra         16535.500
       433   11 Jun 2027 05:54:58.714   11 Jun 2027 05:56:13.215            74.501                Novosib          9312.625
       434   11 Jun 2027 05:56:14.447   11 Jun 2027 06:02:48.792           394.345              Murmansk2         49293.125
       435   11 Jun 2027 06:30:00.006   11 Jun 2027 06:35:47.404           347.398            RioGallegos         43424.750
       436   11 Jun 2027 06:39:00.104   11 Jun 2027 06:39:49.277            49.173            RioGallegos          6146.625
       437   11 Jun 2027 07:04:27.584   11 Jun 2027 07:07:27.341           179.757                Sumatra         22469.625
       438   11 Jun 2027 07:12:41.308   11 Jun 2027 07:14:10.571            89.263                Sumatra         11157.875
       439   11 Jun 2027 07:16:51.312   11 Jun 2027 07:17:17.971            26.659                  Delhi          3332.375
       440   11 Jun 2027 07:19:07.530   11 Jun 2027 07:25:39.954           392.424                Irkutsk         49053.000
       441   11 Jun 2027 07:30:40.389   11 Jun 2027 07:33:04.616           144.227                 Moscow         18028.375
       442   11 Jun 2027 07:33:42.965   11 Jun 2027 07:35:32.595           109.630              Murmansk1         13703.750
       443   11 Jun 2027 07:37:06.725   11 Jun 2027 07:37:50.766            44.041              Murmansk1          5505.125
       444   11 Jun 2027 08:12:24.266   11 Jun 2027 08:14:12.726           108.460            RioGallegos         13557.500
       445   11 Jun 2027 08:48:59.713   11 Jun 2027 08:55:23.288           383.575                  Delhi         47946.875
       446   11 Jun 2027 08:58:14.222   11 Jun 2027 09:01:41.295           207.073                Novosib         25884.125
       447   11 Jun 2027 09:06:22.802   11 Jun 2027 09:10:41.836           259.034              Murmansk2         32379.250
       448   11 Jun 2027 09:10:41.836   11 Jun 2027 09:11:10.781            28.945              Murmansk1          3618.125
       449   11 Jun 2027 09:11:10.781   11 Jun 2027 09:11:41.227            30.446              Murmansk2          3805.750
       450   11 Jun 2027 09:13:01.541   11 Jun 2027 09:13:28.321            26.780              Murmansk1          3347.500
       451   11 Jun 2027 10:36:30.152   11 Jun 2027 10:36:50.803            20.651              Murmansk2          2581.375
       452   11 Jun 2027 10:37:25.722   11 Jun 2027 10:38:13.983            48.261              Murmansk2          6032.625
       453   11 Jun 2027 10:41:28.503   11 Jun 2027 10:45:52.859           264.356                 Moscow         33044.500
       454   11 Jun 2027 10:45:55.996   11 Jun 2027 10:47:12.857            76.861                Norilsk          9607.625
       455   11 Jun 2027 10:47:47.247   11 Jun 2027 10:49:23.241            95.994              Murmansk1         11999.250
       456   11 Jun 2027 11:47:08.104   11 Jun 2027 11:58:33.242           685.138               CapeTown         85642.250
       457   11 Jun 2027 12:11:01.910   11 Jun 2027 12:18:17.608           435.698                 Moscow         54462.250
       458   11 Jun 2027 12:18:24.925   11 Jun 2027 12:20:13.759           108.834              Murmansk2         13604.250
       459   11 Jun 2027 12:27:23.785   11 Jun 2027 12:29:27.055           123.270                Anadyr2         15408.750
       460   11 Jun 2027 14:06:07.957   11 Jun 2027 14:10:08.602           240.645               Magadan2         30080.625
       461   11 Jun 2027 16:35:02.409   11 Jun 2027 16:38:03.628           181.219            RioGallegos         22652.375
       462   11 Jun 2027 17:22:32.066   11 Jun 2027 17:27:15.348           283.282                Irkutsk         35410.250
       463   11 Jun 2027 17:36:38.812   11 Jun 2027 17:39:22.903           164.091                Sumatra         20511.375
       464   11 Jun 2027 17:41:11.557   11 Jun 2027 17:42:40.589            89.032                Sumatra         11129.000
       465   11 Jun 2027 17:43:40.184   11 Jun 2027 17:45:38.193           118.009                Sumatra         14751.125
       466   11 Jun 2027 19:07:01.906   11 Jun 2027 19:09:14.045           132.139                  Delhi         16517.375
       467   11 Jun 2027 19:11:18.829   11 Jun 2027 19:13:07.883           109.054                  Delhi         13631.750
       468   11 Jun 2027 22:10:39.276   11 Jun 2027 22:12:30.347           111.071                 Moscow         13883.875
       469   11 Jun 2027 22:36:36.079   11 Jun 2027 22:38:33.431           117.352               CapeTown          5598.250
       470   12 Jun 2027 04:30:53.139   12 Jun 2027 04:36:31.582           338.443              Murmansk1         42305.375
       471   12 Jun 2027 05:42:15.723   12 Jun 2027 05:44:31.027           135.304                Sumatra         16913.000
       472   12 Jun 2027 05:47:57.823   12 Jun 2027 05:49:43.722           105.899                Sumatra         13237.375
       473   12 Jun 2027 06:06:39.494   12 Jun 2027 06:11:21.648           282.154                Norilsk         35269.250
       474   12 Jun 2027 06:11:36.720   12 Jun 2027 06:14:32.965           176.245              Murmansk1         22030.625
       475   12 Jun 2027 06:14:32.965   12 Jun 2027 06:14:40.848             7.883              Murmansk2           985.375
       476   12 Jun 2027 06:42:18.896   12 Jun 2027 06:45:41.618           202.722            RioGallegos         25340.250
       477   12 Jun 2027 06:46:23.269   12 Jun 2027 06:46:50.025            26.756            RioGallegos          3344.500
       478   12 Jun 2027 06:47:58.883   12 Jun 2027 06:48:00.460             1.577            RioGallegos           197.125
       479   12 Jun 2027 06:48:02.701   12 Jun 2027 06:48:26.396            23.695            RioGallegos          2961.875
       480   12 Jun 2027 07:16:38.794   12 Jun 2027 07:21:36.059           297.265                Sumatra         37158.125
       481   12 Jun 2027 07:22:14.396   12 Jun 2027 07:22:48.458            34.062                Sumatra          4257.750
       482   12 Jun 2027 07:31:29.865   12 Jun 2027 07:34:47.295           197.430                Novosib         24678.750
