uniorb/output/strategy_4/Drop/Drop_KinoSat_110506.txt

KinoSat_110506
-------------------------
    Access    *     Start Time (UTCG)     *     Stop Time (UTCG)  *   Duration (s)        *       Station  *  Data (Mbytes)
         1   01 Jun 2027 03:38:49.485   01 Jun 2027 03:39:21.527            32.042               Magadan2          4005.250
         2   01 Jun 2027 03:39:33.572   01 Jun 2027 03:39:51.131            17.559                Anadyr2          2194.875
         3   01 Jun 2027 03:39:51.131   01 Jun 2027 03:40:27.072            35.941                Anadyr1          4492.625
         4   01 Jun 2027 03:40:48.867   01 Jun 2027 03:42:16.178            87.311               Magadan2         10913.875
         5   01 Jun 2027 03:42:16.178   01 Jun 2027 03:42:23.230             7.052               Magadan1           881.500
         6   01 Jun 2027 03:42:28.074   01 Jun 2027 03:43:45.719            77.645                Anadyr1          9705.625
         7   01 Jun 2027 05:16:03.803   01 Jun 2027 05:16:19.398            15.595               Magadan1          1949.375
         8   01 Jun 2027 05:16:38.142   01 Jun 2027 05:18:02.939            84.797                Irkutsk         10599.625
         9   01 Jun 2027 05:18:19.524   01 Jun 2027 05:20:47.914           148.390                Irkutsk         18548.750
        10   01 Jun 2027 06:30:37.909   01 Jun 2027 06:31:04.239            26.330                Sumatra          3291.250
        11   01 Jun 2027 06:33:35.231   01 Jun 2027 06:34:31.524            56.293                Sumatra          7036.625
        12   01 Jun 2027 06:49:51.030   01 Jun 2027 06:49:56.985             5.955                  Delhi           744.375
        13   01 Jun 2027 06:52:51.605   01 Jun 2027 06:53:37.933            46.328                Novosib          5791.000
        14   01 Jun 2027 06:53:47.781   01 Jun 2027 06:54:16.124            28.343              Murmansk2          3542.875
        15   01 Jun 2027 06:54:33.853   01 Jun 2027 06:55:04.328            30.475                Irkutsk          3809.375
        16   01 Jun 2027 06:55:10.553   01 Jun 2027 06:57:25.154           134.601                Novosib         16825.125
        17   01 Jun 2027 08:14:42.612   01 Jun 2027 08:15:09.606            26.994                  Delhi          3374.250
        18   01 Jun 2027 08:30:59.844   01 Jun 2027 08:31:56.805            56.961                 Moscow          7120.125
        19   01 Jun 2027 08:32:16.988   01 Jun 2027 08:35:11.340           174.352                 Moscow         21794.000
        20   01 Jun 2027 10:04:38.777   01 Jun 2027 10:04:54.613            15.836                Novosib          1979.500
        21   01 Jun 2027 10:05:07.362   01 Jun 2027 10:06:51.900           104.538                Novosib         13067.250
        22   01 Jun 2027 10:07:11.700   01 Jun 2027 10:08:20.235            68.535              Murmansk1          8566.875
        23   01 Jun 2027 10:08:31.590   01 Jun 2027 10:09:00.606            29.016                Norilsk          3627.000
        24   01 Jun 2027 10:09:14.721   01 Jun 2027 10:12:00.590           165.869                 Moscow         20733.625
        25   01 Jun 2027 10:12:00.738   01 Jun 2027 10:13:39.646            98.908                Norilsk         12363.500
        26   01 Jun 2027 10:14:03.299   01 Jun 2027 10:15:29.735            86.436              Murmansk2         10804.500
        27   01 Jun 2027 11:14:31.561   01 Jun 2027 11:21:47.796           436.235               CapeTown         54529.375
        28   01 Jun 2027 11:22:46.457   01 Jun 2027 11:23:04.575            18.118               CapeTown          2264.750
        29   01 Jun 2027 11:53:51.215   01 Jun 2027 11:57:59.609           248.394                Anadyr2         31049.250
        30   01 Jun 2027 11:58:39.058   01 Jun 2027 12:00:29.929           110.871                Anadyr1         13858.875
        31   01 Jun 2027 13:33:15.957   01 Jun 2027 13:36:38.866           202.909               Magadan1         25363.625
        32   01 Jun 2027 13:38:36.702   01 Jun 2027 13:38:56.218            19.516               Magadan2          2439.500
        33   01 Jun 2027 16:49:39.481   01 Jun 2027 16:54:03.299           263.818                Irkutsk         32977.250
        34   01 Jun 2027 18:24:15.950   01 Jun 2027 18:31:36.264           440.314                Novosib         55039.250
        35   01 Jun 2027 21:33:51.565   01 Jun 2027 21:34:41.921            50.356              Murmansk1          6294.500
        36   01 Jun 2027 21:36:15.623   01 Jun 2027 21:38:27.131           131.508              Murmansk1         16438.500
        37   01 Jun 2027 21:39:02.360   01 Jun 2027 21:40:33.090            90.730                 Moscow          8717.874
        38   02 Jun 2027 03:54:25.711   02 Jun 2027 03:55:46.998            81.287                Anadyr1         10160.875
        39   02 Jun 2027 04:34:33.697   02 Jun 2027 04:34:47.112            13.415            RioGallegos          1676.875
        40   02 Jun 2027 04:34:53.626   02 Jun 2027 04:35:59.916            66.290            RioGallegos          8286.250
        41   02 Jun 2027 05:28:24.671   02 Jun 2027 05:29:39.993            75.322                Irkutsk          9415.250
        42   02 Jun 2027 05:29:54.504   02 Jun 2027 05:31:14.094            79.590                Irkutsk          9948.750
        43   02 Jun 2027 05:32:29.460   02 Jun 2027 05:32:59.553            30.093                Irkutsk          3761.625
        44   02 Jun 2027 05:33:00.637   02 Jun 2027 05:38:03.537           302.900              Murmansk1         37862.500
        45   02 Jun 2027 05:38:23.042   02 Jun 2027 05:39:02.274            39.232              Murmansk1          4904.000
        46   02 Jun 2027 05:39:27.860   02 Jun 2027 05:41:15.898           108.038              Murmansk2         13504.750
        47   02 Jun 2027 06:07:47.139   02 Jun 2027 06:07:54.348             7.209            RioGallegos           901.125
        48   02 Jun 2027 06:12:18.111   02 Jun 2027 06:12:39.762            21.651            RioGallegos          2706.375
        49   02 Jun 2027 06:16:00.306   02 Jun 2027 06:17:01.642            61.336            RioGallegos          7667.000
        50   02 Jun 2027 06:42:33.024   02 Jun 2027 06:43:58.237            85.213                Sumatra         10651.625
        51   02 Jun 2027 06:45:41.372   02 Jun 2027 06:47:27.211           105.839                Sumatra         13229.875
        52   02 Jun 2027 07:08:33.913   02 Jun 2027 07:10:30.198           116.285                Novosib         14535.625
        53   02 Jun 2027 07:10:31.182   02 Jun 2027 07:16:07.664           336.482              Murmansk1         42060.250
        54   02 Jun 2027 07:47:30.160   02 Jun 2027 07:54:31.803           421.643            RioGallegos         52705.375
        55   02 Jun 2027 08:23:02.095   02 Jun 2027 08:25:41.168           159.073                Sumatra         19884.125
        56   02 Jun 2027 08:34:29.813   02 Jun 2027 08:34:51.342            21.529                Novosib          2691.125
        57   02 Jun 2027 08:36:35.543   02 Jun 2027 08:39:16.967           161.424                Novosib         20178.000
        58   02 Jun 2027 08:39:48.796   02 Jun 2027 08:40:37.273            48.477                Irkutsk          6059.625
        59   02 Jun 2027 08:44:43.296   02 Jun 2027 08:49:22.482           279.186                Norilsk         34898.250
        60   02 Jun 2027 08:49:30.616   02 Jun 2027 08:51:38.821           128.205              Murmansk2         16025.625
        61   02 Jun 2027 10:21:12.205   02 Jun 2027 10:25:36.034           263.829                Norilsk         32978.625
        62   02 Jun 2027 10:26:00.790   02 Jun 2027 10:27:31.208            90.418              Murmansk2         11302.250
        63   02 Jun 2027 11:25:57.853   02 Jun 2027 11:35:51.370           593.517               CapeTown         74189.625
        64   02 Jun 2027 11:48:19.150   02 Jun 2027 11:59:31.969           672.819                 Moscow         84102.375
        65   02 Jun 2027 11:59:55.102   02 Jun 2027 12:03:29.120           214.018              Murmansk2         26752.250
        66   02 Jun 2027 12:05:43.586   02 Jun 2027 12:14:52.324           548.738                Anadyr2         68592.250
        67   02 Jun 2027 13:00:36.039   02 Jun 2027 13:01:44.194            68.155               CapeTown          8519.375
        68   02 Jun 2027 13:44:48.490   02 Jun 2027 13:51:57.964           429.474               Magadan2         53684.250
        69   02 Jun 2027 17:00:48.667   02 Jun 2027 17:07:25.519           396.852                Irkutsk         49606.500
        70   02 Jun 2027 17:17:10.831   02 Jun 2027 17:18:13.456            62.625                Sumatra          7828.125
        71   02 Jun 2027 17:19:16.729   02 Jun 2027 17:21:42.408           145.679                Sumatra         18209.875
        72   02 Jun 2027 18:35:53.445   02 Jun 2027 18:36:59.725            66.280                Novosib          8285.000
        73   02 Jun 2027 18:37:30.762   02 Jun 2027 18:39:02.424            91.662                Novosib         11457.750
        74   02 Jun 2027 21:45:04.857   02 Jun 2027 21:46:28.489            83.632              Murmansk1         10454.000
        75   02 Jun 2027 21:48:56.489   02 Jun 2027 21:50:23.388            86.899              Murmansk2         10862.375
        76   02 Jun 2027 21:51:00.451   02 Jun 2027 21:53:05.651           125.200                 Moscow         15650.000
        77   02 Jun 2027 21:54:49.328   02 Jun 2027 21:55:52.588            63.260                 Moscow          7907.500
        78   02 Jun 2027 22:16:34.633   02 Jun 2027 22:18:11.389            96.756               CapeTown          4275.000
        79   03 Jun 2027 04:07:48.141   03 Jun 2027 04:08:21.971            33.830                Anadyr1          4228.750
        80   03 Jun 2027 04:09:07.634   03 Jun 2027 04:14:18.937           311.303                Norilsk         38912.875
        81   03 Jun 2027 04:14:31.306   03 Jun 2027 04:17:27.750           176.444              Murmansk2         22055.500
        82   03 Jun 2027 05:22:16.762   03 Jun 2027 05:23:14.033            57.271                Sumatra          7158.875
        83   03 Jun 2027 05:45:08.594   03 Jun 2027 05:53:06.621           478.027              Murmansk2         59753.375
        84   03 Jun 2027 06:19:58.642   03 Jun 2027 06:25:37.959           339.317            RioGallegos         42414.625
        85   03 Jun 2027 06:26:58.366   03 Jun 2027 06:28:07.059            68.693            RioGallegos          8586.625
        86   03 Jun 2027 06:29:07.020   03 Jun 2027 06:29:41.282            34.262            RioGallegos          4282.750
        87   03 Jun 2027 06:54:33.730   03 Jun 2027 06:57:05.839           152.109                Sumatra         19013.625
        88   03 Jun 2027 07:02:44.387   03 Jun 2027 07:03:04.832            20.445                Sumatra          2555.625
        89   03 Jun 2027 07:04:11.521   03 Jun 2027 07:04:12.874             1.353                Sumatra           169.125
        90   03 Jun 2027 07:04:25.120   03 Jun 2027 07:07:36.371           191.251                  Delhi         23906.375
        91   03 Jun 2027 07:08:59.003   03 Jun 2027 07:14:20.448           321.445                Irkutsk         40180.625
        92   03 Jun 2027 07:20:01.848   03 Jun 2027 07:20:35.233            33.385                Novosib          4173.125
        93   03 Jun 2027 07:21:03.470   03 Jun 2027 07:25:00.101           236.631              Murmansk1         29578.875
        94   03 Jun 2027 07:25:00.101   03 Jun 2027 07:25:50.581            50.480              Murmansk2          6310.000
        95   03 Jun 2027 07:27:16.063   03 Jun 2027 07:28:04.081            48.018              Murmansk1          6002.250
        96   03 Jun 2027 08:00:46.154   03 Jun 2027 08:05:45.824           299.670            RioGallegos         37458.750
        97   03 Jun 2027 08:38:57.679   03 Jun 2027 08:40:10.619            72.940                  Delhi          9117.500
        98   03 Jun 2027 08:41:22.234   03 Jun 2027 08:42:33.760            71.526                  Delhi          8940.750
        99   03 Jun 2027 08:46:53.661   03 Jun 2027 08:51:16.251           262.590                Novosib         32823.750
       100   03 Jun 2027 08:51:47.551   03 Jun 2027 08:52:12.336            24.785                Norilsk          3098.125
       101   03 Jun 2027 08:56:33.917   03 Jun 2027 08:57:59.697            85.780                Novosib         10722.500
       102   03 Jun 2027 08:58:12.469   03 Jun 2027 09:01:21.510           189.041              Murmansk2         23630.125
       103   03 Jun 2027 09:01:21.510   03 Jun 2027 09:01:47.027            25.517              Murmansk1          3189.625
       104   03 Jun 2027 09:03:11.079   03 Jun 2027 09:03:38.895            27.816              Murmansk2          3477.000
       105   03 Jun 2027 10:23:09.034   03 Jun 2027 10:23:42.732            33.698                 Moscow          4212.250
       106   03 Jun 2027 10:27:57.122   03 Jun 2027 10:28:12.185            15.063                 Moscow          1882.875
       107   03 Jun 2027 10:31:46.643   03 Jun 2027 10:39:32.772           466.129              Murmansk1         58266.125
       108   03 Jun 2027 11:37:33.673   03 Jun 2027 11:48:26.414           652.741               CapeTown         81592.625
       109   03 Jun 2027 12:00:46.654   03 Jun 2027 12:10:46.877           600.223                 Moscow         75027.875
       110   03 Jun 2027 12:11:05.562   03 Jun 2027 12:15:30.278           264.716              Murmansk2         33089.500
       111   03 Jun 2027 12:17:38.013   03 Jun 2027 12:21:55.524           257.511                Anadyr2         32188.875
       112   03 Jun 2027 12:23:52.614   03 Jun 2027 12:24:48.508            55.894                Anadyr2          6986.750
       113   03 Jun 2027 13:56:29.940   03 Jun 2027 14:00:23.534           233.594               Magadan2         29199.250
       114   03 Jun 2027 14:01:19.162   03 Jun 2027 14:02:58.553            99.391               Magadan1         12423.875
       115   03 Jun 2027 16:26:03.440   03 Jun 2027 16:28:26.809           143.369            RioGallegos         17921.125
       116   03 Jun 2027 17:12:17.901   03 Jun 2027 17:15:51.860           213.959                Irkutsk         26744.875
       117   03 Jun 2027 17:17:03.138   03 Jun 2027 17:18:26.282            83.144                Irkutsk         10393.000
       118   03 Jun 2027 17:27:37.438   03 Jun 2027 17:29:48.410           130.972                Sumatra         16371.500
       119   03 Jun 2027 17:33:48.237   03 Jun 2027 17:35:09.003            80.766                Sumatra         10095.750
       120   03 Jun 2027 18:49:48.079   03 Jun 2027 18:53:23.633           215.554                Novosib         26944.250
       121   03 Jun 2027 18:58:45.096   03 Jun 2027 18:59:43.565            58.469                  Delhi          7308.625
       122   03 Jun 2027 20:23:07.457   03 Jun 2027 20:23:40.423            32.966              Murmansk1          4120.750
       123   03 Jun 2027 22:00:58.152   03 Jun 2027 22:02:49.314           111.162                 Moscow         13895.250
       124   03 Jun 2027 22:04:17.194   03 Jun 2027 22:07:12.225           175.031                 Moscow         15794.250
       125   04 Jun 2027 04:21:06.946   04 Jun 2027 04:26:17.113           310.167                Norilsk         38770.875
       126   04 Jun 2027 04:26:18.462   04 Jun 2027 04:28:43.943           145.481              Murmansk2         18185.125
       127   04 Jun 2027 05:33:06.206   04 Jun 2027 05:35:33.569           147.363                Sumatra         18420.375
       128   04 Jun 2027 05:56:57.397   04 Jun 2027 06:02:01.504           304.107                Norilsk         38013.375
       129   04 Jun 2027 06:02:03.949   04 Jun 2027 06:04:58.073           174.124              Murmansk2         21765.500
       130   04 Jun 2027 06:32:14.090   04 Jun 2027 06:37:59.888           345.798            RioGallegos         43224.750
       131   04 Jun 2027 06:40:06.752   04 Jun 2027 06:41:11.512            64.760            RioGallegos          8095.000
       132   04 Jun 2027 07:06:40.082   04 Jun 2027 07:08:20.232           100.150                Sumatra         12518.750
       133   04 Jun 2027 07:09:36.788   04 Jun 2027 07:11:48.905           132.117                Sumatra         16514.625
       134   04 Jun 2027 07:21:23.362   04 Jun 2027 07:28:02.006           398.644                Irkutsk         49830.500
       135   04 Jun 2027 07:32:49.496   04 Jun 2027 07:35:17.672           148.176                 Moscow         18522.000
       136   04 Jun 2027 07:35:52.875   04 Jun 2027 07:37:41.636           108.761              Murmansk2         13595.125
       137   04 Jun 2027 07:39:17.511   04 Jun 2027 07:40:01.088            43.577              Murmansk2          5447.125
       138   04 Jun 2027 08:51:14.189   04 Jun 2027 08:55:44.677           270.488                  Delhi         33811.000
       139   04 Jun 2027 08:56:53.725   04 Jun 2027 08:57:44.951            51.226                  Delhi          6403.250
       140   04 Jun 2027 08:59:08.905   04 Jun 2027 08:59:43.322            34.417                  Delhi          4302.125
       141   04 Jun 2027 09:00:23.621   04 Jun 2027 09:03:48.088           204.467                Novosib         25558.375
       142   04 Jun 2027 09:08:32.029   04 Jun 2027 09:13:18.856           286.827              Murmansk1         35853.375
       143   04 Jun 2027 09:13:18.856   04 Jun 2027 09:15:39.255           140.399              Murmansk2         17549.875
       144   04 Jun 2027 10:36:03.156   04 Jun 2027 10:36:06.825             3.669                 Moscow           458.625
       145   04 Jun 2027 10:38:42.010   04 Jun 2027 10:38:59.500            17.490              Murmansk2          2186.250
       146   04 Jun 2027 10:39:35.933   04 Jun 2027 10:41:10.486            94.553              Murmansk2         11819.125
       147   04 Jun 2027 10:43:39.425   04 Jun 2027 10:48:03.729           264.304                 Moscow         33038.000
       148   04 Jun 2027 10:48:06.664   04 Jun 2027 10:49:21.760            75.096                Norilsk          9387.000
       149   04 Jun 2027 10:49:57.326   04 Jun 2027 10:51:34.398            97.072              Murmansk1         12134.000
       150   04 Jun 2027 11:50:57.811   04 Jun 2027 12:00:49.203           591.392               CapeTown         73924.000
       151   04 Jun 2027 12:13:19.388   04 Jun 2027 12:20:40.279           440.891                 Moscow         55111.375
       152   04 Jun 2027 12:29:33.953   04 Jun 2027 12:31:40.346           126.393                Anadyr1         15799.125
       153   04 Jun 2027 14:08:16.570   04 Jun 2027 14:12:18.607           242.037               Magadan1         30254.625
       154   04 Jun 2027 14:15:05.336   04 Jun 2027 14:16:40.884            95.548               Magadan1         11943.500
       155   04 Jun 2027 16:37:04.897   04 Jun 2027 16:40:11.971           187.074            RioGallegos         23384.250
       156   04 Jun 2027 17:25:10.613   04 Jun 2027 17:27:44.050           153.437                Irkutsk         19179.625
       157   04 Jun 2027 17:29:31.031   04 Jun 2027 17:30:23.469            52.438                Irkutsk          6554.750
       158   04 Jun 2027 17:38:40.451   04 Jun 2027 17:41:30.955           170.504                Sumatra         21313.000
       159   04 Jun 2027 17:43:17.724   04 Jun 2027 17:44:29.409            71.685                Sumatra          8960.625
       160   04 Jun 2027 19:02:59.404   04 Jun 2027 19:03:29.328            29.924                Novosib          3740.500
       161   04 Jun 2027 19:08:59.068   04 Jun 2027 19:10:29.223            90.155                  Delhi         11269.375
       162   04 Jun 2027 19:12:44.155   04 Jun 2027 19:13:27.965            43.810                  Delhi          5476.250
       163   04 Jun 2027 20:35:05.274   04 Jun 2027 20:37:27.051           141.777              Murmansk1         17722.125
       164   04 Jun 2027 22:12:48.490   04 Jun 2027 22:14:38.755           110.265                 Moscow         13783.125
       165   04 Jun 2027 22:38:38.401   04 Jun 2027 22:39:13.680            35.279               CapeTown          4409.875
       166   04 Jun 2027 22:39:54.982   04 Jun 2027 22:40:46.783            51.801               CapeTown          3572.250
       167   05 Jun 2027 04:33:01.589   05 Jun 2027 04:38:05.793           304.204              Murmansk1         38025.500
       168   05 Jun 2027 05:44:18.791   05 Jun 2027 05:47:24.703           185.912                Sumatra         23239.000
       169   05 Jun 2027 06:08:50.496   05 Jun 2027 06:14:02.614           312.118                Norilsk         39014.750
       170   05 Jun 2027 06:14:14.049   05 Jun 2027 06:16:46.336           152.287              Murmansk2         19035.875
       171   05 Jun 2027 06:44:33.827   05 Jun 2027 06:48:53.232           259.405            RioGallegos         32425.625
       172   05 Jun 2027 06:50:07.495   05 Jun 2027 06:50:50.436            42.941            RioGallegos          5367.625
       173   05 Jun 2027 06:54:10.754   05 Jun 2027 06:54:27.516            16.762            RioGallegos          2095.250
       174   05 Jun 2027 07:18:52.479   05 Jun 2027 07:23:46.931           294.452                Sumatra         36806.500
       175   05 Jun 2027 07:24:16.643   05 Jun 2027 07:25:09.651            53.008                Sumatra          6626.000
       176   05 Jun 2027 07:33:41.502   05 Jun 2027 07:34:41.599            60.097                Novosib          7512.125
       177   05 Jun 2027 07:34:47.664   05 Jun 2027 07:38:59.834           252.170                Irkutsk         31521.250
       178   05 Jun 2027 07:44:04.272   05 Jun 2027 07:44:17.185            12.913                Irkutsk          1614.125
       179   05 Jun 2027 07:44:23.833   05 Jun 2027 07:47:48.472           204.639              Murmansk2         25579.875
       180   05 Jun 2027 07:47:48.472   05 Jun 2027 07:49:33.425           104.953              Murmansk1         13119.125
       181   05 Jun 2027 07:51:19.927   05 Jun 2027 07:51:58.659            38.732              Murmansk2          4841.500
       182   05 Jun 2027 09:03:37.754   05 Jun 2027 09:10:58.870           441.116                  Delhi         55139.500
       183   05 Jun 2027 09:11:56.108   05 Jun 2027 09:15:55.857           239.749                Novosib         29968.625
       184   05 Jun 2027 09:20:32.267   05 Jun 2027 09:21:39.769            67.502                Novosib          8437.750
       185   05 Jun 2027 09:21:42.951   05 Jun 2027 09:23:58.724           135.773                Norilsk         16971.625
       186   05 Jun 2027 09:24:38.776   05 Jun 2027 09:27:39.884           181.108              Murmansk2         22638.500
       187   05 Jun 2027 10:50:48.355   05 Jun 2027 10:52:22.599            94.244              Murmansk2         11780.500
       188   05 Jun 2027 10:52:22.599   05 Jun 2027 10:52:35.943            13.344              Murmansk1          1668.000
       189   05 Jun 2027 10:54:00.192   05 Jun 2027 10:54:28.473            28.281              Murmansk2          3535.125
       190   05 Jun 2027 10:55:18.861   05 Jun 2027 11:00:29.183           310.322              Murmansk1         38790.250
       191   05 Jun 2027 11:00:34.255   05 Jun 2027 11:01:07.709            33.454                Norilsk          4181.750
       192   05 Jun 2027 11:07:36.688   05 Jun 2027 11:10:29.467           172.779                Anadyr1         21597.375
       193   05 Jun 2027 12:03:12.323   05 Jun 2027 12:05:08.673           116.350               CapeTown         14543.750
       194   05 Jun 2027 12:07:19.324   05 Jun 2027 12:08:27.590            68.266               CapeTown          8533.250
       195   05 Jun 2027 12:10:02.880   05 Jun 2027 12:10:30.610            27.730               CapeTown          3466.250
       196   05 Jun 2027 12:12:35.457   05 Jun 2027 12:13:12.013            36.556               CapeTown          4569.500
       197   05 Jun 2027 12:25:58.388   05 Jun 2027 12:27:39.952           101.564                 Moscow         12695.500
       198   05 Jun 2027 12:41:31.063   05 Jun 2027 12:42:28.018            56.955                Anadyr1          7119.375
       199   05 Jun 2027 14:20:06.634   05 Jun 2027 14:25:52.286           345.652               Magadan1         43206.500
       200   05 Jun 2027 16:48:31.075   05 Jun 2027 16:52:00.817           209.742            RioGallegos         26217.750
       201   05 Jun 2027 16:54:33.689   05 Jun 2027 16:56:11.889            98.200            RioGallegos         12275.000
       202   05 Jun 2027 17:38:45.403   05 Jun 2027 17:39:38.276            52.873                Irkutsk          6609.125
       203   05 Jun 2027 17:52:38.662   05 Jun 2027 17:57:29.356           290.694                Sumatra         36336.750
       204   05 Jun 2027 19:20:05.118   05 Jun 2027 19:23:05.036           179.918                  Delhi         22489.750
       205   05 Jun 2027 20:47:01.629   05 Jun 2027 20:48:58.856           117.227              Murmansk1         14653.375
       206   05 Jun 2027 22:54:04.156   05 Jun 2027 22:55:23.211            79.055               CapeTown          9881.875
       207   06 Jun 2027 04:45:06.623   06 Jun 2027 04:49:41.754           275.131                Norilsk         34391.375
       208   06 Jun 2027 04:52:36.881   06 Jun 2027 04:52:52.344            15.463              Murmansk2          1932.875
       209   06 Jun 2027 04:53:08.538   06 Jun 2027 04:54:13.959            65.421              Murmansk2          8177.625
       210   06 Jun 2027 05:19:50.900   06 Jun 2027 05:19:59.808             8.908            RioGallegos          1113.500
       211   06 Jun 2027 05:55:44.730   06 Jun 2027 05:56:51.497            66.767                Sumatra          8345.875
       212   06 Jun 2027 06:08:13.722   06 Jun 2027 06:12:15.812           242.090                Irkutsk         30261.250
       213   06 Jun 2027 06:13:02.604   06 Jun 2027 06:13:12.015             9.411                Irkutsk          1176.375
       214   06 Jun 2027 06:21:00.497   06 Jun 2027 06:26:03.912           303.415                Norilsk         37926.875
       215   06 Jun 2027 06:26:18.520   06 Jun 2027 06:28:43.223           144.703              Murmansk2         18087.875
       216   06 Jun 2027 06:56:58.318   06 Jun 2027 07:03:39.638           401.320            RioGallegos         50165.000
       217   06 Jun 2027 07:31:11.798   06 Jun 2027 07:38:25.078           433.280                Sumatra         54160.000
       218   06 Jun 2027 07:45:47.496   06 Jun 2027 07:46:42.217            54.721                Novosib          6840.125
       219   06 Jun 2027 07:47:00.645   06 Jun 2027 07:52:17.551           316.906                Irkutsk         39613.250
       220   06 Jun 2027 07:56:43.161   06 Jun 2027 08:02:03.290           320.129                Norilsk         40016.125
       221   06 Jun 2027 08:03:20.374   06 Jun 2027 08:03:56.742            36.368              Murmansk1          4546.000
       222   06 Jun 2027 09:16:09.910   06 Jun 2027 09:18:24.404           134.494                  Delhi         16811.750
       223   06 Jun 2027 09:19:01.886   06 Jun 2027 09:26:18.119           436.233                  Delhi         54529.125
       224   06 Jun 2027 09:26:29.327   06 Jun 2027 09:28:22.053           112.726                Novosib         14090.750
       225   06 Jun 2027 09:32:29.687   06 Jun 2027 09:32:32.740             3.053                 Moscow           381.625
       226   06 Jun 2027 09:32:43.018   06 Jun 2027 09:33:11.657            28.639              Murmansk1          3579.875
       227   06 Jun 2027 09:33:19.246   06 Jun 2027 09:33:24.593             5.347                Novosib           668.375
       228   06 Jun 2027 09:33:35.044   06 Jun 2027 09:37:58.164           263.120                Norilsk         32890.000
       229   06 Jun 2027 11:02:56.405   06 Jun 2027 11:03:33.066            36.661              Murmansk1          4582.625
       230   06 Jun 2027 11:03:33.066   06 Jun 2027 11:05:16.206           103.140              Murmansk2         12892.500
       231   06 Jun 2027 11:09:58.180   06 Jun 2027 11:12:41.023           162.843                Norilsk         20355.375
       232   06 Jun 2027 11:18:54.020   06 Jun 2027 11:22:29.124           215.104                Anadyr2         26888.000
       233   06 Jun 2027 12:12:54.606   06 Jun 2027 12:17:15.684           261.078               CapeTown         32634.750
       234   06 Jun 2027 12:38:45.394   06 Jun 2027 12:40:06.049            80.655                 Moscow         10081.875
       235   06 Jun 2027 14:31:59.156   06 Jun 2027 14:34:41.217           162.061               Magadan1         20257.625
       236   06 Jun 2027 14:36:14.575   06 Jun 2027 14:37:36.719            82.144               Magadan2         10268.000
       237   06 Jun 2027 14:40:43.297   06 Jun 2027 14:41:29.079            45.782               Magadan1          5722.750
       238   06 Jun 2027 17:00:58.363   06 Jun 2027 17:06:42.256           343.893            RioGallegos         42986.625
       239   06 Jun 2027 17:45:16.811   06 Jun 2027 17:46:00.384            43.573                Norilsk          5446.625
       240   06 Jun 2027 18:06:29.714   06 Jun 2027 18:08:19.407           109.693                Sumatra         13711.625
       241   06 Jun 2027 19:31:28.980   06 Jun 2027 19:36:59.340           330.360                  Delhi         41295.000
       242   06 Jun 2027 20:57:53.321   06 Jun 2027 20:58:22.429            29.108              Murmansk1          3638.500
       243   06 Jun 2027 20:59:44.239   06 Jun 2027 21:01:29.542           105.303              Murmansk2         13162.875
       244   06 Jun 2027 21:04:03.814   06 Jun 2027 21:04:38.694            34.880                 Moscow          4360.000
       245   06 Jun 2027 23:06:53.851   06 Jun 2027 23:08:15.133            81.282               CapeTown         10160.250
       246   07 Jun 2027 04:57:03.999   07 Jun 2027 04:58:08.267            64.268                Novosib          8033.500
       247   07 Jun 2027 04:59:27.360   07 Jun 2027 04:59:50.812            23.452                Norilsk          2931.500
       248   07 Jun 2027 05:00:07.319   07 Jun 2027 05:01:33.796            86.477                Norilsk         10809.625
       249   07 Jun 2027 05:02:20.644   07 Jun 2027 05:03:04.338            43.694              Murmansk1          5461.750
       250   07 Jun 2027 05:04:29.288   07 Jun 2027 05:06:02.214            92.926              Murmansk2         11615.750
       251   07 Jun 2027 06:20:18.503   07 Jun 2027 06:21:33.298            74.795                Irkutsk          9349.375
       252   07 Jun 2027 06:22:04.098   07 Jun 2027 06:24:33.900           149.802                Irkutsk         18725.250
       253   07 Jun 2027 06:25:14.723   07 Jun 2027 06:25:29.437            14.714                Irkutsk          1839.250
       254   07 Jun 2027 06:32:36.443   07 Jun 2027 06:37:01.051           264.608              Murmansk1         33076.000
       255   07 Jun 2027 06:37:01.051   07 Jun 2027 06:39:39.066           158.015              Murmansk2         19751.875
       256   07 Jun 2027 06:39:39.066   07 Jun 2027 06:40:36.916            57.850              Murmansk1          7231.250
       257   07 Jun 2027 07:09:28.264   07 Jun 2027 07:13:11.175           222.911            RioGallegos         27863.875
       258   07 Jun 2027 07:13:38.000   07 Jun 2027 07:16:43.033           185.033            RioGallegos         23129.125
       259   07 Jun 2027 07:44:43.474   07 Jun 2027 07:53:44.725           541.251                Sumatra         67656.375
       260   07 Jun 2027 07:59:12.420   07 Jun 2027 08:04:13.335           300.915                Irkutsk         37614.375
       261   07 Jun 2027 08:08:52.217   07 Jun 2027 08:09:23.089            30.872                 Moscow          3859.000
       262   07 Jun 2027 08:09:24.848   07 Jun 2027 08:12:54.120           209.272                Norilsk         26159.000
       263   07 Jun 2027 08:13:08.771   07 Jun 2027 08:14:05.108            56.337                Norilsk          7042.125
       264   07 Jun 2027 08:15:34.971   07 Jun 2027 08:15:55.297            20.326              Murmansk1          2540.750
       265   07 Jun 2027 09:28:53.487   07 Jun 2027 09:37:47.731           534.244                  Delhi         66780.500
       266   07 Jun 2027 09:37:55.678   07 Jun 2027 09:40:48.425           172.747                Novosib         21593.375
       267   07 Jun 2027 09:45:15.975   07 Jun 2027 09:49:47.558           271.583              Murmansk1         33947.875
       268   07 Jun 2027 09:49:47.558   07 Jun 2027 09:50:25.185            37.627              Murmansk2          4703.375
       269   07 Jun 2027 09:51:10.369   07 Jun 2027 09:51:41.787            31.418              Murmansk2          3927.250
       270   07 Jun 2027 11:15:06.228   07 Jun 2027 11:17:15.970           129.742              Murmansk2         16217.750
       271   07 Jun 2027 11:17:15.970   07 Jun 2027 11:22:05.972           290.002              Murmansk1         36250.250
       272   07 Jun 2027 11:22:35.874   07 Jun 2027 11:25:09.911           154.037              Murmansk2         19254.625
       273   07 Jun 2027 11:30:31.183   07 Jun 2027 11:32:08.011            96.828                Anadyr1         12103.500
       274   07 Jun 2027 11:33:46.824   07 Jun 2027 11:33:48.204             1.380                Anadyr2           172.500
       275   07 Jun 2027 11:36:17.217   07 Jun 2027 11:36:54.176            36.959                Anadyr2          4619.875
       276   07 Jun 2027 12:24:49.281   07 Jun 2027 12:26:07.501            78.220               CapeTown          9777.500
       277   07 Jun 2027 12:26:37.217   07 Jun 2027 12:27:17.256            40.039               CapeTown          5004.875
       278   07 Jun 2027 12:27:52.612   07 Jun 2027 12:28:56.242            63.630               CapeTown          7953.750
       279   07 Jun 2027 12:51:43.830   07 Jun 2027 12:52:13.036            29.206                 Moscow          3650.750
       280   07 Jun 2027 14:43:53.539   07 Jun 2027 14:46:04.010           130.471               Magadan1         16308.875
       281   07 Jun 2027 14:48:58.660   07 Jun 2027 14:50:48.970           110.310               Magadan2         13788.750
       282   07 Jun 2027 14:52:43.769   07 Jun 2027 14:52:47.547             3.778               Magadan2           472.250
       283   07 Jun 2027 17:14:45.731   07 Jun 2027 17:17:59.813           194.082            RioGallegos         24260.250
       284   07 Jun 2027 17:57:02.887   07 Jun 2027 17:59:24.504           141.617                Norilsk         17702.125
       285   07 Jun 2027 18:02:06.718   07 Jun 2027 18:05:08.573           181.855                Novosib         22731.875
       286   07 Jun 2027 18:19:27.566   07 Jun 2027 18:19:32.296             4.730                Sumatra           591.250
       287   07 Jun 2027 19:46:51.720   07 Jun 2027 19:49:42.276           170.556                  Delhi         21319.500
       288   07 Jun 2027 21:10:46.989   07 Jun 2027 21:11:58.264            71.275              Murmansk2          8909.375
       289   07 Jun 2027 21:13:20.290   07 Jun 2027 21:14:55.525            95.235              Murmansk2         11904.375
       290   07 Jun 2027 21:15:19.370   07 Jun 2027 21:17:46.364           146.994                 Moscow         18374.250
       291   08 Jun 2027 05:09:19.580   08 Jun 2027 05:15:06.401           346.821              Murmansk1         43352.625
       292   08 Jun 2027 05:15:06.401   08 Jun 2027 05:17:50.553           164.152              Murmansk2         20519.000
       293   08 Jun 2027 05:43:49.640   08 Jun 2027 05:44:46.609            56.969            RioGallegos          7121.125
       294   08 Jun 2027 05:47:07.211   08 Jun 2027 05:47:50.082            42.871            RioGallegos          5358.875
       295   08 Jun 2027 06:20:43.725   08 Jun 2027 06:22:27.544           103.819                Sumatra         12977.375
       296   08 Jun 2027 06:25:14.010   08 Jun 2027 06:25:48.702            34.692                Sumatra          4336.500
       297   08 Jun 2027 06:26:21.983   08 Jun 2027 06:27:47.151            85.168                Sumatra         10646.000
       298   08 Jun 2027 06:31:15.998   08 Jun 2027 06:31:23.544             7.546                  Delhi           943.250
       299   08 Jun 2027 06:32:26.696   08 Jun 2027 06:37:23.157           296.461                Irkutsk         37057.625
       300   08 Jun 2027 06:38:19.930   08 Jun 2027 06:38:33.536            13.606                Irkutsk          1700.750
       301   08 Jun 2027 06:44:51.196   08 Jun 2027 06:49:34.676           283.480              Murmansk2         35435.000
       302   08 Jun 2027 06:49:34.676   08 Jun 2027 06:52:31.334           176.658              Murmansk1         22082.250
       303   08 Jun 2027 07:22:04.706   08 Jun 2027 07:23:35.380            90.674            RioGallegos         11334.250
       304   08 Jun 2027 07:24:51.666   08 Jun 2027 07:30:16.993           325.327            RioGallegos         40665.875
       305   08 Jun 2027 07:56:19.395   08 Jun 2027 08:05:06.319           526.924                Sumatra         65865.500
       306   08 Jun 2027 08:11:39.883   08 Jun 2027 08:12:29.463            49.580                Novosib          6197.500
       307   08 Jun 2027 08:12:38.512   08 Jun 2027 08:16:54.659           256.147                Irkutsk         32018.375
       308   08 Jun 2027 08:20:40.669   08 Jun 2027 08:21:01.662            20.993                Norilsk          2624.125
       309   08 Jun 2027 08:22:01.075   08 Jun 2027 08:22:28.913            27.838                Novosib          3479.750
       310   08 Jun 2027 08:22:31.488   08 Jun 2027 08:26:03.061           211.573              Murmansk1         26446.625
       311   08 Jun 2027 09:41:54.795   08 Jun 2027 09:48:57.989           423.194                  Delhi         52899.250
       312   08 Jun 2027 09:50:27.164   08 Jun 2027 09:52:24.417           117.253                Novosib         14656.625
       313   08 Jun 2027 09:56:22.772   08 Jun 2027 09:56:33.233            10.461                Novosib          1307.625
       314   08 Jun 2027 09:57:37.634   08 Jun 2027 10:01:56.470           258.836                Norilsk         32354.500
       315   08 Jun 2027 10:03:19.206   08 Jun 2027 10:03:43.007            23.801              Murmansk2          2975.125
       316   08 Jun 2027 11:25:57.292   08 Jun 2027 11:29:42.586           225.294                 Moscow         28161.750
       317   08 Jun 2027 11:30:05.141   08 Jun 2027 11:33:58.937           233.796              Murmansk2         29224.500
       318   08 Jun 2027 11:33:58.937   08 Jun 2027 11:36:14.901           135.964              Murmansk1         16995.500
       319   08 Jun 2027 11:37:09.997   08 Jun 2027 11:37:52.202            42.205              Murmansk1          5275.625
       320   08 Jun 2027 11:38:37.431   08 Jun 2027 11:39:13.147            35.716              Murmansk1          4464.500
       321   08 Jun 2027 11:42:16.228   08 Jun 2027 11:46:22.452           246.224                Anadyr2         30778.000
       322   08 Jun 2027 12:36:46.977   08 Jun 2027 12:38:10.855            83.878               CapeTown         10484.750
       323   08 Jun 2027 12:39:48.952   08 Jun 2027 12:39:59.213            10.261               CapeTown          1282.625
       324   08 Jun 2027 12:41:27.434   08 Jun 2027 12:44:10.603           163.169               CapeTown         20396.125
       325   08 Jun 2027 13:22:18.527   08 Jun 2027 13:25:05.022           166.495               Magadan2         20811.875
       326   08 Jun 2027 14:55:49.375   08 Jun 2027 14:57:34.059           104.684               Magadan1         13085.500
       327   08 Jun 2027 17:27:53.052   08 Jun 2027 17:29:32.311            99.259            RioGallegos         12407.375
       328   08 Jun 2027 18:08:34.844   08 Jun 2027 18:11:35.143           180.299                Norilsk         22537.375
       329   08 Jun 2027 18:13:03.735   08 Jun 2027 18:18:46.366           342.631                Novosib         42828.875
       330   08 Jun 2027 20:00:06.220   08 Jun 2027 20:00:59.031            52.811                  Delhi          6601.375
       331   08 Jun 2027 21:22:32.595   08 Jun 2027 21:23:19.176            46.581              Murmansk1          5822.625
       332   08 Jun 2027 21:23:45.438   08 Jun 2027 21:26:47.282           181.844              Murmansk2         22730.500
       333   08 Jun 2027 21:26:51.731   08 Jun 2027 21:28:19.635            87.904              Murmansk1         10988.000
       334   08 Jun 2027 21:28:47.875   08 Jun 2027 21:30:04.302            76.427                 Moscow          9553.375
       335   09 Jun 2027 03:43:34.191   09 Jun 2027 03:44:18.730            44.539               Magadan1          5567.375
       336   09 Jun 2027 05:20:46.086   09 Jun 2027 05:21:10.654            24.568                Irkutsk          3071.000
       337   09 Jun 2027 05:21:11.641   09 Jun 2027 05:25:46.812           275.171                Norilsk         34396.375
       338   09 Jun 2027 05:25:57.037   09 Jun 2027 05:29:40.371           223.334              Murmansk2         27916.750
       339   09 Jun 2027 05:55:54.008   09 Jun 2027 05:59:55.268           241.260            RioGallegos         30157.500
       340   09 Jun 2027 06:01:03.578   09 Jun 2027 06:01:04.250             0.672            RioGallegos            84.000
       341   09 Jun 2027 06:03:13.574   09 Jun 2027 06:03:26.364            12.790            RioGallegos          1598.750
       342   09 Jun 2027 06:04:19.406   09 Jun 2027 06:05:10.283            50.877            RioGallegos          6359.625
       343   09 Jun 2027 06:30:52.435   09 Jun 2027 06:31:29.832            37.397                Sumatra          4674.625
       344   09 Jun 2027 06:32:16.471   09 Jun 2027 06:33:49.958            93.487                Sumatra         11685.875
       345   09 Jun 2027 06:38:14.278   09 Jun 2027 06:40:22.672           128.394                Sumatra         16049.250
       346   09 Jun 2027 06:44:38.478   09 Jun 2027 06:48:27.475           228.997                Irkutsk         28624.625
       347   09 Jun 2027 06:48:38.513   09 Jun 2027 06:49:43.893            65.380                Novosib          8172.500
       348   09 Jun 2027 06:56:36.337   09 Jun 2027 06:56:51.901            15.564              Murmansk2          1945.500
       349   09 Jun 2027 06:56:57.162   09 Jun 2027 07:02:08.658           311.496                Norilsk         38937.000
       350   09 Jun 2027 07:02:25.255   09 Jun 2027 07:04:26.452           121.197              Murmansk1         15149.625
       351   09 Jun 2027 07:34:49.354   09 Jun 2027 07:35:49.541            60.187            RioGallegos          7523.375
       352   09 Jun 2027 07:35:56.242   09 Jun 2027 07:43:15.204           438.962            RioGallegos         54870.250
       353   09 Jun 2027 08:09:19.055   09 Jun 2027 08:16:00.542           401.487                Sumatra         50185.875
       354   09 Jun 2027 08:23:01.489   09 Jun 2027 08:25:21.217           139.728                Novosib         17466.000
       355   09 Jun 2027 08:25:43.884   09 Jun 2027 08:29:02.837           198.953                Irkutsk         24869.125
       356   09 Jun 2027 08:32:40.158   09 Jun 2027 08:34:25.490           105.332                Novosib         13166.500
       357   09 Jun 2027 08:34:33.022   09 Jun 2027 08:36:36.852           123.830              Murmansk2         15478.750
       358   09 Jun 2027 08:36:36.852   09 Jun 2027 08:37:08.045            31.193              Murmansk1          3899.125
       359   09 Jun 2027 09:55:36.939   09 Jun 2027 09:59:29.380           232.441                  Delhi         29055.125
       360   09 Jun 2027 10:08:20.333   09 Jun 2027 10:08:43.639            23.306                Norilsk          2913.250
       361   09 Jun 2027 10:09:48.375   09 Jun 2027 10:15:44.368           355.993              Murmansk2         44499.125
       362   09 Jun 2027 11:14:45.701   09 Jun 2027 11:23:19.843           514.142               CapeTown         64267.750
       363   09 Jun 2027 11:36:11.076   09 Jun 2027 11:42:18.024           366.948                 Moscow         45868.500
       364   09 Jun 2027 11:42:19.638   09 Jun 2027 11:46:04.730           225.092              Murmansk2         28136.500
       365   09 Jun 2027 11:46:04.730   09 Jun 2027 11:49:55.866           231.136              Murmansk1         28892.000
       366   09 Jun 2027 11:50:24.541   09 Jun 2027 11:51:08.792            44.251              Murmansk1          5531.375
       367   09 Jun 2027 11:51:12.765   09 Jun 2027 11:51:42.406            29.641              Murmansk1          3705.125
       368   09 Jun 2027 11:54:05.732   09 Jun 2027 11:57:49.025           223.293                Anadyr2         27911.625
       369   09 Jun 2027 11:58:54.072   09 Jun 2027 11:59:55.050            60.978                Anadyr1          7622.250
       370   09 Jun 2027 12:00:44.953   09 Jun 2027 12:02:28.817           103.864                Anadyr1         12983.000
       371   09 Jun 2027 12:51:39.785   09 Jun 2027 12:52:00.707            20.922               CapeTown          2615.250
       372   09 Jun 2027 13:33:30.176   09 Jun 2027 13:36:04.295           154.119               Magadan2         19264.875
       373   09 Jun 2027 13:36:23.601   09 Jun 2027 13:36:53.382            29.781               Magadan2          3722.625
       374   09 Jun 2027 13:38:51.765   09 Jun 2027 13:39:11.666            19.901               Magadan2          2487.625
       375   09 Jun 2027 16:49:53.264   09 Jun 2027 16:54:19.150           265.886                Irkutsk         33235.750
       376   09 Jun 2027 18:24:30.256   09 Jun 2027 18:31:51.557           441.301                Novosib         55162.625
       377   09 Jun 2027 21:34:05.777   09 Jun 2027 21:34:56.374            50.597              Murmansk2          6324.625
       378   09 Jun 2027 21:36:30.796   09 Jun 2027 21:38:41.732           130.936              Murmansk1         16367.000
       379   09 Jun 2027 21:38:41.895   09 Jun 2027 21:45:40.423           418.528                 Moscow         52316.000
       380   09 Jun 2027 22:06:33.868   09 Jun 2027 22:06:52.675            18.807               CapeTown          2350.875
       381   09 Jun 2027 22:07:54.185   09 Jun 2027 22:09:36.495           102.310               CapeTown          7053.624
       382   10 Jun 2027 03:55:53.359   10 Jun 2027 03:56:32.566            39.207                Norilsk          4900.875
       383   10 Jun 2027 03:56:50.707   10 Jun 2027 03:57:22.289            31.582               Magadan1          3947.750
       384   10 Jun 2027 03:57:23.347   10 Jun 2027 03:58:10.558            47.211                Norilsk          5901.375
       385   10 Jun 2027 03:58:28.766   10 Jun 2027 04:00:54.903           146.137              Murmansk1         18267.125
       386   10 Jun 2027 05:13:19.160   10 Jun 2027 05:14:07.055            47.895                Sumatra          5986.875
       387   10 Jun 2027 05:33:15.561   10 Jun 2027 05:41:30.403           494.842              Murmansk1         61855.250
       388   10 Jun 2027 06:08:01.873   10 Jun 2027 06:11:06.578           184.705            RioGallegos         23088.125
       389   10 Jun 2027 06:11:52.827   10 Jun 2027 06:12:54.975            62.148            RioGallegos          7768.500
       390   10 Jun 2027 06:14:50.664   10 Jun 2027 06:14:56.140             5.476            RioGallegos           684.500
       391   10 Jun 2027 06:15:20.661   10 Jun 2027 06:16:14.246            53.585            RioGallegos          6698.125
       392   10 Jun 2027 06:42:47.617   10 Jun 2027 06:44:13.702            86.085                Sumatra         10760.625
       393   10 Jun 2027 06:45:45.906   10 Jun 2027 06:45:56.029            10.123                Sumatra          1265.375
       394   10 Jun 2027 06:48:24.689   10 Jun 2027 06:50:00.506            95.817                Sumatra         11977.125
       395   10 Jun 2027 06:53:17.978   10 Jun 2027 06:53:49.862            31.884                  Delhi          3985.500
       396   10 Jun 2027 06:56:05.135   10 Jun 2027 06:58:15.069           129.934                  Delhi         16241.750
       397   10 Jun 2027 06:58:24.282   10 Jun 2027 07:02:47.844           263.562                Irkutsk         32945.250
       398   10 Jun 2027 07:08:51.158   10 Jun 2027 07:08:54.846             3.688              Murmansk1           461.000
       399   10 Jun 2027 07:09:16.014   10 Jun 2027 07:14:10.443           294.429                Norilsk         36803.625
       400   10 Jun 2027 07:14:14.926   10 Jun 2027 07:16:22.237           127.311              Murmansk1         15913.875
       401   10 Jun 2027 07:47:45.548   10 Jun 2027 07:54:45.990           420.442            RioGallegos         52555.250
       402   10 Jun 2027 08:23:19.515   10 Jun 2027 08:25:52.885           153.370                Sumatra         19171.250
       403   10 Jun 2027 08:28:45.614   10 Jun 2027 08:29:56.702            71.088                  Delhi          8886.000
       404   10 Jun 2027 08:34:44.695   10 Jun 2027 08:35:06.690            21.995                Novosib          2749.375
       405   10 Jun 2027 08:36:50.106   10 Jun 2027 08:39:31.657           161.551                Novosib         20193.875
       406   10 Jun 2027 08:39:34.346   10 Jun 2027 08:40:51.189            76.843                Irkutsk          9605.375
       407   10 Jun 2027 08:44:58.487   10 Jun 2027 08:49:21.384           262.897                Norilsk         32862.125
       408   10 Jun 2027 08:49:47.552   10 Jun 2027 08:51:53.438           125.886              Murmansk2         15735.750
       409   10 Jun 2027 10:20:20.659   10 Jun 2027 10:25:50.590           329.931                Norilsk         41241.375
       410   10 Jun 2027 10:26:15.948   10 Jun 2027 10:27:45.843            89.895              Murmansk1         11236.875
       411   10 Jun 2027 11:26:12.136   10 Jun 2027 11:36:06.469           594.333               CapeTown         74291.625
       412   10 Jun 2027 11:48:34.070   10 Jun 2027 11:59:11.368           637.298                 Moscow         79662.250
       413   10 Jun 2027 11:59:18.622   10 Jun 2027 12:03:43.750           265.128              Murmansk2         33141.000
       414   10 Jun 2027 12:05:58.130   10 Jun 2027 12:14:42.533           524.403                Anadyr2         65550.375
       415   10 Jun 2027 13:00:50.711   10 Jun 2027 13:01:59.426            68.715               CapeTown          8589.375
       416   10 Jun 2027 13:45:02.846   10 Jun 2027 13:49:01.558           238.712               Magadan2         29839.000
       417   10 Jun 2027 13:51:04.065   10 Jun 2027 13:52:13.239            69.174               Magadan2          8646.750
       418   10 Jun 2027 17:01:02.840   10 Jun 2027 17:07:40.940           398.100                Irkutsk         49762.500
       419   10 Jun 2027 17:17:23.858   10 Jun 2027 17:18:27.732            63.874                Sumatra          7984.250
       420   10 Jun 2027 17:19:31.780   10 Jun 2027 17:21:58.531           146.751                Sumatra         18343.875
       421   10 Jun 2027 18:36:07.841   10 Jun 2027 18:37:45.651            97.810                Novosib         12226.250
       422   10 Jun 2027 18:39:17.253   10 Jun 2027 18:39:54.357            37.104                Novosib          4638.000
       423   10 Jun 2027 18:41:12.173   10 Jun 2027 18:42:34.104            81.931                Novosib         10241.375
       424   10 Jun 2027 21:45:19.470   10 Jun 2027 21:46:43.089            83.619              Murmansk2         10452.375
       425   10 Jun 2027 21:49:11.611   10 Jun 2027 21:51:21.176           129.565              Murmansk1         16195.625
       426   10 Jun 2027 21:52:48.653   10 Jun 2027 21:53:20.221            31.568                 Moscow          3946.000
       427   10 Jun 2027 21:55:04.282   10 Jun 2027 21:56:07.449            63.167                 Moscow          7895.875
       428   10 Jun 2027 21:57:42.870   10 Jun 2027 21:58:47.461            64.591                 Moscow          8073.875
       429   10 Jun 2027 22:18:25.633   10 Jun 2027 22:19:17.396            51.763               CapeTown          6470.375
       430   11 Jun 2027 04:08:03.368   11 Jun 2027 04:08:37.984            34.616                Anadyr2          4327.000
       431   11 Jun 2027 04:09:22.000   11 Jun 2027 04:09:36.318            14.318                Novosib          1789.750
       432   11 Jun 2027 04:09:38.287   11 Jun 2027 04:17:42.420           484.133              Murmansk2         60516.625
       433   11 Jun 2027 05:22:30.307   11 Jun 2027 05:23:29.131            58.824                Sumatra          7353.000
       434   11 Jun 2027 05:26:01.352   11 Jun 2027 05:28:03.095           121.743                Sumatra         15217.875
       435   11 Jun 2027 05:45:25.918   11 Jun 2027 05:53:21.135           475.217              Murmansk1         59402.125
       436   11 Jun 2027 06:20:13.422   11 Jun 2027 06:25:43.250           329.828            RioGallegos         41228.500
       437   11 Jun 2027 06:28:21.704   11 Jun 2027 06:29:21.950            60.246            RioGallegos          7530.750
       438   11 Jun 2027 06:54:48.389   11 Jun 2027 06:57:21.820           153.431                Sumatra         19178.875
       439   11 Jun 2027 07:03:18.178   11 Jun 2027 07:04:24.987            66.809                Sumatra          8351.125
       440   11 Jun 2027 07:05:18.464   11 Jun 2027 07:05:50.652            32.188                  Delhi          4023.500
       441   11 Jun 2027 07:05:54.030   11 Jun 2027 07:08:14.821           140.791                  Delhi         17598.875
       442   11 Jun 2027 07:09:13.885   11 Jun 2027 07:14:34.949           321.064                Irkutsk         40133.000
       443   11 Jun 2027 07:20:13.057   11 Jun 2027 07:20:52.705            39.648                Novosib          4956.000
       444   11 Jun 2027 07:21:20.676   11 Jun 2027 07:26:20.681           300.005              Murmansk2         37500.625
       445   11 Jun 2027 07:27:31.075   11 Jun 2027 07:28:18.661            47.586              Murmansk1          5948.250
       446   11 Jun 2027 08:01:01.900   11 Jun 2027 08:05:59.689           297.789            RioGallegos         37223.625
       447   11 Jun 2027 08:40:25.082   11 Jun 2027 08:41:38.946            73.864                  Delhi          9233.000
       448   11 Jun 2027 08:42:02.894   11 Jun 2027 08:42:48.665            45.771                  Delhi          5721.375
       449   11 Jun 2027 08:47:08.589   11 Jun 2027 08:51:31.098           262.509                Novosib         32813.625
       450   11 Jun 2027 08:52:02.241   11 Jun 2027 08:52:29.465            27.224                Norilsk          3403.000
       451   11 Jun 2027 08:56:49.237   11 Jun 2027 08:58:14.222            84.985                Novosib         10623.125
       452   11 Jun 2027 08:58:27.507   11 Jun 2027 09:01:38.374           190.867              Murmansk1         23858.375
       453   11 Jun 2027 09:01:38.374   11 Jun 2027 09:02:03.063            24.689              Murmansk2          3086.125
       454   11 Jun 2027 09:03:25.806   11 Jun 2027 09:03:53.515            27.709              Murmansk1          3463.625
       455   11 Jun 2027 10:27:54.031   11 Jun 2027 10:28:28.828            34.797              Murmansk1          4349.625
       456   11 Jun 2027 10:32:01.287   11 Jun 2027 10:39:47.407           466.120              Murmansk1         58265.000
       457   11 Jun 2027 11:37:48.047   11 Jun 2027 11:47:08.104           560.057               CapeTown         70007.125
       458   11 Jun 2027 12:01:01.633   11 Jun 2027 12:11:01.910           600.277                 Moscow         75034.625
       459   11 Jun 2027 12:11:20.221   11 Jun 2027 12:15:44.904           264.683              Murmansk2         33085.375
       460   11 Jun 2027 12:17:52.579   11 Jun 2027 12:22:10.147           257.568                Anadyr2         32196.000
       461   11 Jun 2027 12:26:42.218   11 Jun 2027 12:26:42.780             0.562                Anadyr2            70.250
       462   11 Jun 2027 13:56:44.382   11 Jun 2027 14:00:38.101           233.719               Magadan1         29214.875
       463   11 Jun 2027 14:01:34.181   11 Jun 2027 14:03:13.518            99.337               Magadan2         12417.125
       464   11 Jun 2027 16:26:17.048   11 Jun 2027 16:28:41.234           144.186            RioGallegos         18023.250
       465   11 Jun 2027 17:12:32.223   11 Jun 2027 17:16:06.386           214.163                Irkutsk         26770.375
       466   11 Jun 2027 17:17:18.161   11 Jun 2027 17:18:41.167            83.006                Irkutsk         10375.750
       467   11 Jun 2027 17:27:51.227   11 Jun 2027 17:30:02.783           131.556                Sumatra         16444.500
       468   11 Jun 2027 17:31:53.398   11 Jun 2027 17:31:59.625             6.227                Sumatra           778.375
       469   11 Jun 2027 17:34:02.962   11 Jun 2027 17:35:24.376            81.414                Sumatra         10176.750
       470   11 Jun 2027 18:50:03.771   11 Jun 2027 18:51:18.124            74.353                Novosib          9294.125
       471   11 Jun 2027 18:54:37.059   11 Jun 2027 18:56:11.878            94.819                Novosib         11852.375
       472   11 Jun 2027 18:58:57.429   11 Jun 2027 18:59:57.876            60.447                  Delhi          7555.875
       473   11 Jun 2027 20:23:25.169   11 Jun 2027 20:24:30.273            65.104              Murmansk1          8138.000
       474   11 Jun 2027 22:01:12.642   11 Jun 2027 22:03:04.100           111.458                 Moscow         13932.250
       475   11 Jun 2027 22:04:32.638   11 Jun 2027 22:07:27.124           174.486                 Moscow         14269.501
       476   12 Jun 2027 04:21:21.579   12 Jun 2027 04:26:31.713           310.134                Norilsk         38766.750
       477   12 Jun 2027 04:26:33.188   12 Jun 2027 04:28:58.372           145.184              Murmansk2         18148.000
       478   12 Jun 2027 05:33:20.150   12 Jun 2027 05:35:48.796           148.646                Sumatra         18580.750
       479   12 Jun 2027 05:57:12.054   12 Jun 2027 06:02:16.133           304.079                Norilsk         38009.875
       480   12 Jun 2027 06:02:22.590   12 Jun 2027 06:05:12.596           170.006              Murmansk1         21250.750
       481   12 Jun 2027 06:32:28.918   12 Jun 2027 06:37:10.529           281.611            RioGallegos         35201.375
       482   12 Jun 2027 06:38:15.803   12 Jun 2027 06:38:25.720             9.917            RioGallegos          1239.625
