uniorb/output/strategy_4/Drop/Drop_KinoSat_112008.txt

KinoSat_112008
-------------------------
    Access    *     Start Time (UTCG)     *     Stop Time (UTCG)  *   Duration (s)        *       Station  *  Data (Mbytes)
         1   01 Jun 2027 04:06:36.305   01 Jun 2027 04:10:21.616           225.311                Irkutsk          7040.969
         2   01 Jun 2027 04:10:27.471   01 Jun 2027 04:10:57.540            30.069              Murmansk1           939.656
         3   01 Jun 2027 04:11:26.337   01 Jun 2027 04:16:17.544           291.207                  Delhi          9100.219
         4   01 Jun 2027 05:45:10.669   01 Jun 2027 05:45:24.412            13.743              Murmansk2           429.469
         5   01 Jun 2027 05:45:30.936   01 Jun 2027 05:46:29.027            58.091                Norilsk          1815.344
         6   01 Jun 2027 05:46:36.279   01 Jun 2027 05:49:10.108           153.829              Murmansk2          4807.156
         7   01 Jun 2027 05:49:10.108   01 Jun 2027 05:50:10.677            60.569              Murmansk1          1892.781
         8   01 Jun 2027 05:50:12.439   01 Jun 2027 05:51:05.785            53.346                 Moscow          1667.062
         9   01 Jun 2027 07:22:07.356   01 Jun 2027 07:23:13.804            66.448                 Moscow          2076.500
        10   01 Jun 2027 07:23:32.117   01 Jun 2027 07:27:04.433           212.316                 Moscow          6634.875
        11   01 Jun 2027 07:27:05.239   01 Jun 2027 07:27:15.770            10.531                 Moscow           329.094
        12   01 Jun 2027 07:41:53.259   01 Jun 2027 07:47:09.462           316.203               CapeTown          9881.344
        13   01 Jun 2027 08:46:39.739   01 Jun 2027 08:50:57.544           257.805                Anadyr1          8056.406
        14   01 Jun 2027 10:17:14.365   01 Jun 2027 10:26:29.093           554.728                Anadyr1         17335.250
        15   01 Jun 2027 11:52:34.621   01 Jun 2027 11:55:30.886           176.265               Magadan2          5508.281
        16   01 Jun 2027 11:55:35.712   01 Jun 2027 12:01:45.907           370.195               Magadan2         11568.594
        17   01 Jun 2027 14:18:21.117   01 Jun 2027 14:21:29.915           188.798            RioGallegos          5899.937
        18   01 Jun 2027 14:49:45.586   01 Jun 2027 14:58:11.148           505.562                Sumatra         15798.812
        19   01 Jun 2027 15:05:17.197   01 Jun 2027 15:12:27.680           430.483                Irkutsk         13452.594
        20   01 Jun 2027 16:35:08.703   01 Jun 2027 16:42:04.809           416.106                  Delhi         13003.312
        21   01 Jun 2027 16:43:37.096   01 Jun 2027 16:49:45.094           367.998                Novosib         11499.938
        22   01 Jun 2027 19:58:12.951   01 Jun 2027 20:02:38.112           265.161                 Moscow          8286.281
        23   01 Jun 2027 20:02:57.108   01 Jun 2027 20:04:21.641            84.533              Murmansk1          2641.656
        24   01 Jun 2027 21:07:24.041   01 Jun 2027 21:15:24.173           480.132               CapeTown         15004.125
        25   01 Jun 2027 21:41:50.190   01 Jun 2027 21:42:25.992            35.802              Murmansk2          1118.812
        26   02 Jun 2027 02:56:01.386   02 Jun 2027 03:03:40.646           459.260                Sumatra         14351.875
        27   02 Jun 2027 04:18:38.738   02 Jun 2027 04:19:43.544            64.806                Irkutsk          2025.188
        28   02 Jun 2027 04:20:37.633   02 Jun 2027 04:21:13.210            35.577                Irkutsk          1111.781
        29   02 Jun 2027 04:22:12.016   02 Jun 2027 04:22:45.643            33.627                Norilsk          1050.844
        30   02 Jun 2027 04:22:50.918   02 Jun 2027 04:24:19.275            88.357                Irkutsk          2761.156
        31   02 Jun 2027 04:26:42.594   02 Jun 2027 04:27:00.338            17.744                Novosib           554.500
        32   02 Jun 2027 05:58:13.378   02 Jun 2027 06:01:02.274           168.896                Novosib          5278.000
        33   02 Jun 2027 06:03:03.288   02 Jun 2027 06:05:08.109           124.821                 Moscow          3900.656
        34   02 Jun 2027 06:24:32.817   02 Jun 2027 06:25:18.441            45.624               CapeTown          1425.750
        35   02 Jun 2027 07:21:37.403   02 Jun 2027 07:22:04.431            27.028                Anadyr2           844.625
        36   02 Jun 2027 07:34:28.833   02 Jun 2027 07:35:51.001            82.168              Murmansk1          2567.750
        37   02 Jun 2027 07:35:51.001   02 Jun 2027 07:36:58.313            67.312              Murmansk2          2103.500
        38   02 Jun 2027 07:40:32.614   02 Jun 2027 07:41:26.116            53.502                 Moscow          1671.937
        39   02 Jun 2027 07:54:19.390   02 Jun 2027 08:04:20.243           600.853               CapeTown         18776.656
        40   02 Jun 2027 08:58:32.063   02 Jun 2027 09:02:58.388           266.325                Anadyr1          8322.656
        41   02 Jun 2027 10:32:31.853   02 Jun 2027 10:33:13.498            41.645                Irkutsk          1301.406
        42   02 Jun 2027 10:33:40.365   02 Jun 2027 10:35:25.097           104.732               Magadan2          3272.875
        43   02 Jun 2027 10:35:47.625   02 Jun 2027 10:36:02.049            14.424               Magadan2           450.750
        44   02 Jun 2027 10:36:11.609   02 Jun 2027 10:38:33.573           141.964               Magadan1          4436.375
        45   02 Jun 2027 12:04:41.047   02 Jun 2027 12:05:30.824            49.777                Irkutsk          1555.531
        46   02 Jun 2027 12:07:10.491   02 Jun 2027 12:11:50.516           280.025               Magadan1          8750.781
        47   02 Jun 2027 12:12:37.271   02 Jun 2027 12:13:32.846            55.575               Magadan2          1736.719
        48   02 Jun 2027 13:30:54.783   02 Jun 2027 13:32:20.554            85.771                Sumatra          2680.344
        49   02 Jun 2027 13:36:31.322   02 Jun 2027 13:36:39.083             7.761                Sumatra           242.531
        50   02 Jun 2027 13:43:40.359   02 Jun 2027 13:44:19.467            39.108                Irkutsk          1222.125
        51   02 Jun 2027 13:47:43.814   02 Jun 2027 13:50:10.679           146.865                Irkutsk          4589.531
        52   02 Jun 2027 14:28:00.719   02 Jun 2027 14:35:15.300           434.581            RioGallegos         13580.656
        53   02 Jun 2027 15:02:37.098   02 Jun 2027 15:09:02.279           385.181                Sumatra         12036.906
        54   02 Jun 2027 15:18:30.727   02 Jun 2027 15:23:46.095           315.368                Irkutsk          9855.250
        55   02 Jun 2027 16:48:57.559   02 Jun 2027 16:52:31.007           213.448                  Delhi          6670.250
        56   02 Jun 2027 16:57:05.075   02 Jun 2027 17:00:52.871           227.796                Novosib          7118.625
        57   02 Jun 2027 20:12:03.288   02 Jun 2027 20:12:36.746            33.458              Murmansk2          1045.562
        58   02 Jun 2027 20:13:25.583   02 Jun 2027 20:14:00.616            35.033              Murmansk1          1094.781
        59   02 Jun 2027 20:14:54.095   02 Jun 2027 20:17:03.117           129.022              Murmansk1          4031.938
        60   02 Jun 2027 20:18:23.687   02 Jun 2027 20:19:42.411            78.724              Murmansk2          2460.125
        61   02 Jun 2027 21:20:08.206   02 Jun 2027 21:26:18.356           370.150               CapeTown         11567.188
        62   02 Jun 2027 23:34:23.413   02 Jun 2027 23:36:04.399           100.986                Anadyr2          3155.813
        63   02 Jun 2027 23:36:07.950   02 Jun 2027 23:36:56.929            48.979                Anadyr2          1530.594
        64   02 Jun 2027 23:37:03.404   02 Jun 2027 23:38:34.260            90.856               Magadan1          2839.250
        65   02 Jun 2027 23:38:59.234   02 Jun 2027 23:39:56.133            56.899               Magadan1          1778.094
        66   02 Jun 2027 23:39:56.414   02 Jun 2027 23:39:57.965             1.551               Magadan2            48.469
        67   02 Jun 2027 23:40:14.836   02 Jun 2027 23:40:24.669             9.833               Magadan2           307.281
        68   02 Jun 2027 23:41:39.284   02 Jun 2027 23:42:16.808            37.524               Magadan2          1172.625
        69   02 Jun 2027 23:43:16.640   02 Jun 2027 23:43:54.179            37.539                Irkutsk          1173.094
        70   02 Jun 2027 23:44:27.719   02 Jun 2027 23:45:14.605            46.886                Irkutsk          1465.187
        71   02 Jun 2027 23:47:43.228   02 Jun 2027 23:47:44.433             1.205                Irkutsk            37.656
        72   03 Jun 2027 00:28:35.197   03 Jun 2027 00:32:07.562           212.365            RioGallegos          6636.406
        73   03 Jun 2027 00:39:46.248   03 Jun 2027 00:40:07.275            21.027            RioGallegos           657.094
        74   03 Jun 2027 01:09:54.706   03 Jun 2027 01:10:16.715            22.009                Anadyr2           687.781
        75   03 Jun 2027 01:11:23.256   03 Jun 2027 01:11:49.129            25.873                Anadyr2           808.531
        76   03 Jun 2027 01:12:11.840   03 Jun 2027 01:14:14.403           122.563                Norilsk          3830.094
        77   03 Jun 2027 01:14:15.244   03 Jun 2027 01:14:22.897             7.653               Magadan1           239.156
        78   03 Jun 2027 01:14:35.265   03 Jun 2027 01:16:04.833            89.568               Magadan2          2799.000
        79   03 Jun 2027 01:16:16.225   03 Jun 2027 01:17:35.520            79.295                Irkutsk          2477.969
        80   03 Jun 2027 01:19:57.074   03 Jun 2027 01:20:03.545             6.471                Novosib           202.219
        81   03 Jun 2027 01:20:26.077   03 Jun 2027 01:20:40.417            14.340                Novosib           448.125
        82   03 Jun 2027 01:23:01.271   03 Jun 2027 01:23:34.949            33.678                Novosib          1052.438
        83   03 Jun 2027 01:27:31.092   03 Jun 2027 01:27:41.916            10.824                Irkutsk           338.250
        84   03 Jun 2027 01:29:57.874   03 Jun 2027 01:33:03.334           185.460                Sumatra          5795.625
        85   03 Jun 2027 02:13:30.577   03 Jun 2027 02:13:44.840            14.263            RioGallegos           445.719
        86   03 Jun 2027 02:14:00.542   03 Jun 2027 02:15:09.462            68.920            RioGallegos          2153.750
        87   03 Jun 2027 02:48:11.694   03 Jun 2027 02:49:01.776            50.082                Norilsk          1565.062
        88   03 Jun 2027 02:49:02.664   03 Jun 2027 02:49:07.218             4.554               Magadan1           142.313
        89   03 Jun 2027 02:49:19.061   03 Jun 2027 02:49:46.160            27.099                Norilsk           846.844
        90   03 Jun 2027 02:52:01.669   03 Jun 2027 02:52:08.927             7.258                Norilsk           226.812
        91   03 Jun 2027 02:52:11.697   03 Jun 2027 02:54:13.272           121.575                Novosib          3799.219
        92   03 Jun 2027 02:54:20.003   03 Jun 2027 02:54:39.475            19.472                Irkutsk           608.500
        93   03 Jun 2027 02:55:44.429   03 Jun 2027 02:56:29.264            44.835                Irkutsk          1401.094
        94   03 Jun 2027 03:01:14.020   03 Jun 2027 03:02:08.294            54.274                  Delhi          1696.063
        95   03 Jun 2027 03:09:26.482   03 Jun 2027 03:14:09.950           283.468                Sumatra          8858.375
        96   03 Jun 2027 03:44:47.267   03 Jun 2027 03:45:15.912            28.645            RioGallegos           895.156
        97   03 Jun 2027 04:31:14.642   03 Jun 2027 04:31:51.183            36.541              Murmansk2          1141.906
        98   03 Jun 2027 04:31:51.183   03 Jun 2027 04:32:46.981            55.798              Murmansk1          1743.688
        99   03 Jun 2027 04:33:02.458   03 Jun 2027 04:33:16.370            13.912                 Moscow           434.750
       100   03 Jun 2027 04:33:19.886   03 Jun 2027 04:33:49.597            29.711              Murmansk1           928.469
       101   03 Jun 2027 04:33:49.857   03 Jun 2027 04:35:18.653            88.796                Novosib          2774.875
       102   03 Jun 2027 04:35:56.643   03 Jun 2027 04:36:54.226            57.583                Irkutsk          1799.469
       103   03 Jun 2027 04:37:21.432   03 Jun 2027 04:41:11.360           229.928                  Delhi          7185.250
       104   03 Jun 2027 06:11:12.394   03 Jun 2027 06:11:27.046            14.652                 Moscow           457.875
       105   03 Jun 2027 06:12:02.396   03 Jun 2027 06:12:27.658            25.262              Murmansk1           789.438
       106   03 Jun 2027 06:13:04.047   03 Jun 2027 06:13:22.458            18.411              Murmansk1           575.344
       107   03 Jun 2027 06:13:24.766   03 Jun 2027 06:13:56.103            31.337              Murmansk1           979.281
       108   03 Jun 2027 06:15:38.003   03 Jun 2027 06:16:23.356            45.353                 Moscow          1417.281
       109   03 Jun 2027 06:29:39.424   03 Jun 2027 06:32:16.956           157.532               CapeTown          4922.875
       110   03 Jun 2027 07:32:32.675   03 Jun 2027 07:32:53.125            20.450                Anadyr2           639.063
       111   03 Jun 2027 07:32:57.831   03 Jun 2027 07:32:58.842             1.011               Magadan2            31.594
       112   03 Jun 2027 07:33:05.194   03 Jun 2027 07:33:09.772             4.578                Anadyr2           143.062
       113   03 Jun 2027 07:33:26.011   03 Jun 2027 07:34:13.655            47.644                Anadyr2          1488.875
       114   03 Jun 2027 07:34:56.542   03 Jun 2027 07:35:22.245            25.703               Magadan2           803.219
       115   03 Jun 2027 07:36:22.866   03 Jun 2027 07:37:17.033            54.167                Anadyr2          1692.719
       116   03 Jun 2027 07:46:28.882   03 Jun 2027 07:46:44.127            15.245              Murmansk2           476.406
       117   03 Jun 2027 08:06:54.134   03 Jun 2027 08:13:25.845           391.711               CapeTown         12240.969
       118   03 Jun 2027 09:07:04.842   03 Jun 2027 09:07:50.058            45.216               Magadan1          1413.000
       119   03 Jun 2027 09:08:54.009   03 Jun 2027 09:09:03.270             9.261               Magadan2           289.406
       120   03 Jun 2027 09:09:10.017   03 Jun 2027 09:09:15.039             5.022                Anadyr1           156.937
       121   03 Jun 2027 09:09:40.305   03 Jun 2027 09:10:45.262            64.957               Magadan2          2029.906
       122   03 Jun 2027 09:11:29.412   03 Jun 2027 09:11:36.533             7.121               Magadan1           222.531
       123   03 Jun 2027 09:12:54.099   03 Jun 2027 09:12:56.529             2.430               Magadan2            75.938
       124   03 Jun 2027 09:14:19.704   03 Jun 2027 09:14:27.307             7.603               Magadan2           237.594
       125   03 Jun 2027 09:14:53.865   03 Jun 2027 09:14:58.848             4.983                Anadyr2           155.719
       126   03 Jun 2027 09:54:21.723   03 Jun 2027 09:55:24.748            63.025            RioGallegos          1969.531
       127   03 Jun 2027 10:40:59.267   03 Jun 2027 10:42:17.276            78.009               Magadan1          2437.781
       128   03 Jun 2027 10:42:58.022   03 Jun 2027 10:43:11.380            13.358               Magadan2           417.437
       129   03 Jun 2027 10:44:46.025   03 Jun 2027 10:45:41.571            55.546               Magadan2          1735.812
       130   03 Jun 2027 10:47:57.685   03 Jun 2027 10:48:03.995             6.310               Magadan1           197.187
       131   03 Jun 2027 10:48:21.614   03 Jun 2027 10:49:07.270            45.656               Magadan1          1426.750
       132   03 Jun 2027 10:50:52.281   03 Jun 2027 10:51:20.930            28.649                Norilsk           895.281
       133   03 Jun 2027 11:26:34.194   03 Jun 2027 11:27:07.258            33.064            RioGallegos          1033.250
       134   03 Jun 2027 11:30:22.205   03 Jun 2027 11:30:29.874             7.669            RioGallegos           239.656
       135   03 Jun 2027 11:35:17.088   03 Jun 2027 11:35:38.884            21.796            RioGallegos           681.125
       136   03 Jun 2027 12:05:45.174   03 Jun 2027 12:07:37.699           112.525                Sumatra          3516.406
       137   03 Jun 2027 12:13:49.806   03 Jun 2027 12:15:01.166            71.360                Irkutsk          2230.000
       138   03 Jun 2027 12:18:09.752   03 Jun 2027 12:25:14.414           424.662               Magadan1         13270.688
       139   03 Jun 2027 13:56:12.298   03 Jun 2027 13:56:13.928             1.630                Irkutsk            50.937
       140   03 Jun 2027 13:59:28.596   03 Jun 2027 13:59:54.943            26.347                Irkutsk           823.344
       141   03 Jun 2027 14:05:05.284   03 Jun 2027 14:05:34.736            29.452                Norilsk           920.375
       142   03 Jun 2027 14:40:58.317   03 Jun 2027 14:47:56.922           418.605            RioGallegos         13081.406
       143   03 Jun 2027 15:17:05.664   03 Jun 2027 15:18:27.534            81.870                Sumatra          2558.437
       144   03 Jun 2027 15:32:51.019   03 Jun 2027 15:34:01.046            70.027                Irkutsk          2188.344
       145   03 Jun 2027 17:05:58.639   03 Jun 2027 17:07:00.306            61.667                 Moscow          1927.094
       146   03 Jun 2027 17:10:06.227   03 Jun 2027 17:10:42.573            36.346              Murmansk2          1135.812
       147   03 Jun 2027 17:11:43.323   03 Jun 2027 17:14:32.404           169.081                Norilsk          5283.781
       148   03 Jun 2027 17:16:09.008   03 Jun 2027 17:17:38.339            89.331                Norilsk          2791.594
       149   03 Jun 2027 18:41:45.163   03 Jun 2027 18:42:33.638            48.475                 Moscow          1514.844
       150   03 Jun 2027 18:43:11.884   03 Jun 2027 18:46:25.203           193.319                 Moscow          6041.219
       151   03 Jun 2027 18:51:19.837   03 Jun 2027 18:51:41.513            21.676                 Moscow           677.375
       152   03 Jun 2027 18:54:27.702   03 Jun 2027 18:54:39.091            11.389              Murmansk1           355.906
       153   03 Jun 2027 19:02:13.555   03 Jun 2027 19:02:17.622             4.067                Anadyr2           127.094
       154   03 Jun 2027 19:54:01.121   03 Jun 2027 19:55:51.775           110.654               CapeTown          3457.938
       155   03 Jun 2027 19:57:05.982   03 Jun 2027 19:57:58.317            52.335               CapeTown          1635.469
       156   03 Jun 2027 20:24:08.808   03 Jun 2027 20:32:40.049           511.241              Murmansk2         15976.281
       157   03 Jun 2027 21:33:29.169   03 Jun 2027 21:36:32.592           183.423               CapeTown          5731.969
       158   03 Jun 2027 22:13:03.069   03 Jun 2027 22:14:07.354            64.285               Magadan2          2008.906
       159   03 Jun 2027 22:16:04.204   03 Jun 2027 22:16:12.402             8.198               Magadan1           256.187
       160   03 Jun 2027 22:16:38.816   03 Jun 2027 22:16:44.792             5.976               Magadan2           186.750
       161   03 Jun 2027 22:18:04.008   03 Jun 2027 22:18:27.871            23.863               Magadan2           745.719
       162   03 Jun 2027 23:46:23.899   03 Jun 2027 23:50:13.983           230.084                Anadyr2          7190.125
       163   03 Jun 2027 23:50:15.944   03 Jun 2027 23:53:10.991           175.047               Magadan1          5470.219
       164   03 Jun 2027 23:53:42.259   03 Jun 2027 23:53:52.503            10.244                Norilsk           320.125
       165   03 Jun 2027 23:53:59.948   03 Jun 2027 23:54:16.879            16.931               Magadan1           529.094
       166   03 Jun 2027 23:55:16.593   03 Jun 2027 23:56:21.842            65.249                Irkutsk          2039.031
       167   03 Jun 2027 23:56:49.225   03 Jun 2027 23:56:58.309             9.084                Irkutsk           283.875
       168   03 Jun 2027 23:57:36.500   03 Jun 2027 23:58:03.843            27.343               Magadan2           854.469
       169   03 Jun 2027 23:59:05.909   04 Jun 2027 00:00:21.297            75.388                Irkutsk          2355.875
       170   04 Jun 2027 00:10:19.049   04 Jun 2027 00:11:26.236            67.187                Sumatra          2099.594
       171   04 Jun 2027 00:14:11.363   04 Jun 2027 00:15:19.090            67.727                Sumatra          2116.469
       172   04 Jun 2027 00:46:03.261   04 Jun 2027 00:47:12.390            69.129            RioGallegos          2160.281
       173   04 Jun 2027 01:21:49.973   04 Jun 2027 01:22:19.791            29.818                Anadyr1           931.812
       174   04 Jun 2027 01:22:35.166   04 Jun 2027 01:23:19.573            44.407                Anadyr2          1387.719
       175   04 Jun 2027 01:23:49.602   04 Jun 2027 01:24:31.071            41.469                Anadyr1          1295.906
       176   04 Jun 2027 01:24:50.556   04 Jun 2027 01:26:06.233            75.677               Magadan1          2364.906
       177   04 Jun 2027 01:26:06.774   04 Jun 2027 01:26:16.771             9.997                Norilsk           312.406
       178   04 Jun 2027 01:27:17.006   04 Jun 2027 01:28:03.001            45.995               Magadan1          1437.344
       179   04 Jun 2027 01:28:13.729   04 Jun 2027 01:29:36.444            82.715                Irkutsk          2584.844
       180   04 Jun 2027 01:30:03.449   04 Jun 2027 01:30:10.975             7.526                Irkutsk           235.188
       181   04 Jun 2027 01:31:24.772   04 Jun 2027 01:32:12.619            47.847                Novosib          1495.219
       182   04 Jun 2027 01:41:57.021   04 Jun 2027 01:44:16.772           139.751                Sumatra          4367.219
       183   04 Jun 2027 01:51:25.426   04 Jun 2027 01:51:34.598             9.172                Sumatra           286.625
       184   04 Jun 2027 02:16:11.457   04 Jun 2027 02:16:22.067            10.610            RioGallegos           331.562
       185   04 Jun 2027 02:18:38.692   04 Jun 2027 02:19:06.720            28.028            RioGallegos           875.875
       186   04 Jun 2027 02:19:55.768   04 Jun 2027 02:20:15.515            19.747            RioGallegos           617.094
       187   04 Jun 2027 02:22:07.488   04 Jun 2027 02:22:32.226            24.738            RioGallegos           773.063
       188   04 Jun 2027 02:22:38.951   04 Jun 2027 02:23:01.506            22.555            RioGallegos           704.844
       189   04 Jun 2027 02:25:38.898   04 Jun 2027 02:25:49.126            10.228            RioGallegos           319.625
       190   04 Jun 2027 02:27:39.558   04 Jun 2027 02:27:39.978             0.420            RioGallegos            13.125
       191   04 Jun 2027 02:58:38.916   04 Jun 2027 02:58:50.690            11.774                Anadyr1           367.938
       192   04 Jun 2027 03:00:55.537   04 Jun 2027 03:00:59.600             4.063               Magadan1           126.969
       193   04 Jun 2027 03:01:15.592   04 Jun 2027 03:02:06.647            51.055               Magadan1          1595.469
       194   04 Jun 2027 03:04:20.360   04 Jun 2027 03:05:44.589            84.229               Magadan1          2632.156
       195   04 Jun 2027 03:05:54.874   04 Jun 2027 03:06:37.775            42.901               Magadan1          1340.656
       196   04 Jun 2027 03:06:56.206   04 Jun 2027 03:07:19.963            23.757                Irkutsk           742.406
       197   04 Jun 2027 03:07:57.860   04 Jun 2027 03:08:44.435            46.575                Novosib          1455.469
       198   04 Jun 2027 03:08:56.979   04 Jun 2027 03:09:50.311            53.332                Norilsk          1666.625
       199   04 Jun 2027 03:09:56.378   04 Jun 2027 03:10:54.605            58.227                Novosib          1819.594
       200   04 Jun 2027 03:11:06.344   04 Jun 2027 03:12:40.543            94.199                Norilsk          2943.719
       201   04 Jun 2027 03:52:58.604   04 Jun 2027 03:57:39.440           280.836            RioGallegos          8776.125
       202   04 Jun 2027 04:44:27.740   04 Jun 2027 04:44:51.251            23.511                 Moscow           734.719
       203   04 Jun 2027 04:44:55.926   04 Jun 2027 04:48:11.353           195.427                Irkutsk          6107.094
       204   04 Jun 2027 04:48:22.640   04 Jun 2027 04:57:02.460           519.820                  Delhi         16244.375
       205   04 Jun 2027 06:21:29.806   04 Jun 2027 06:21:42.959            13.153                 Moscow           411.031
       206   04 Jun 2027 06:21:54.032   04 Jun 2027 06:22:17.108            23.076                 Moscow           721.125
       207   04 Jun 2027 06:22:23.714   04 Jun 2027 06:23:19.811            56.097                 Moscow          1753.031
       208   04 Jun 2027 06:23:31.952   04 Jun 2027 06:24:23.059            51.107                 Moscow          1597.094
       209   04 Jun 2027 06:24:51.396   04 Jun 2027 06:25:20.927            29.531              Murmansk2           922.844
       210   04 Jun 2027 06:27:49.284   04 Jun 2027 06:28:14.618            25.334                 Moscow           791.687
       211   04 Jun 2027 06:41:31.947   04 Jun 2027 06:44:39.473           187.526               CapeTown          5860.187
       212   04 Jun 2027 07:44:49.210   04 Jun 2027 07:45:06.982            17.772                Anadyr2           555.375
       213   04 Jun 2027 07:45:26.699   04 Jun 2027 07:46:25.150            58.451                Anadyr2          1826.594
       214   04 Jun 2027 07:57:11.619   04 Jun 2027 07:57:19.934             8.315                Norilsk           259.844
       215   04 Jun 2027 07:59:07.005   04 Jun 2027 07:59:22.835            15.830                 Moscow           494.687
       216   04 Jun 2027 07:59:29.774   04 Jun 2027 08:00:20.863            51.089                 Moscow          1596.531
       217   04 Jun 2027 08:19:40.368   04 Jun 2027 08:20:32.927            52.559               CapeTown          1642.469
       218   04 Jun 2027 08:25:56.679   04 Jun 2027 08:28:24.216           147.537               CapeTown          4610.531
       219   04 Jun 2027 09:19:04.673   04 Jun 2027 09:20:10.044            65.371               Magadan2          2042.844
       220   04 Jun 2027 09:20:27.013   04 Jun 2027 09:20:42.844            15.831               Magadan2           494.719
       221   04 Jun 2027 09:21:05.069   04 Jun 2027 09:21:48.727            43.658               Magadan1          1364.312
       222   04 Jun 2027 09:22:23.443   04 Jun 2027 09:22:43.246            19.803               Magadan1           618.844
       223   04 Jun 2027 09:23:20.271   04 Jun 2027 09:23:27.084             6.813               Magadan2           212.906
       224   04 Jun 2027 09:24:54.859   04 Jun 2027 09:25:25.969            31.110               Magadan1           972.188
       225   04 Jun 2027 10:05:32.954   04 Jun 2027 10:06:11.817            38.863            RioGallegos          1214.469
       226   04 Jun 2027 10:53:27.735   04 Jun 2027 10:53:36.050             8.315                Irkutsk           259.844
       227   04 Jun 2027 10:54:04.291   04 Jun 2027 10:55:24.201            79.910               Magadan1          2497.188
       228   04 Jun 2027 10:56:00.424   04 Jun 2027 10:56:42.535            42.111               Magadan2          1315.969
       229   04 Jun 2027 10:56:46.899   04 Jun 2027 11:00:13.759           206.860               Magadan1          6464.375
       230   04 Jun 2027 11:00:35.532   04 Jun 2027 11:02:31.269           115.737               Magadan1          3616.781
       231   04 Jun 2027 12:15:29.337   04 Jun 2027 12:17:07.319            97.982                Sumatra          3061.938
       232   04 Jun 2027 12:25:42.562   04 Jun 2027 12:27:01.530            78.968                Irkutsk          2467.750
       233   04 Jun 2027 12:31:13.732   04 Jun 2027 12:36:46.536           332.804               Magadan2         10400.125
       234   04 Jun 2027 13:51:06.091   04 Jun 2027 13:52:22.445            76.354                Sumatra          2386.062
       235   04 Jun 2027 14:02:25.446   04 Jun 2027 14:03:00.454            35.008                Irkutsk          1094.000
       236   04 Jun 2027 14:04:31.687   04 Jun 2027 14:05:07.903            36.216                Irkutsk          1131.750
       237   04 Jun 2027 14:06:38.303   04 Jun 2027 14:07:32.749            54.446                Irkutsk          1701.438
       238   04 Jun 2027 14:54:16.790   04 Jun 2027 14:59:10.170           293.380            RioGallegos          9168.125
       239   04 Jun 2027 15:40:20.332   04 Jun 2027 15:41:15.411            55.079                Novosib          1721.219
       240   04 Jun 2027 15:44:20.974   04 Jun 2027 15:44:54.810            33.836                Norilsk          1057.375
       241   04 Jun 2027 15:45:08.969   04 Jun 2027 15:45:38.671            29.702                Novosib           928.188
       242   04 Jun 2027 15:48:27.399   04 Jun 2027 15:50:17.521           110.122                Novosib          3441.313
       243   04 Jun 2027 17:17:57.540   04 Jun 2027 17:19:43.643           106.103                 Moscow          3315.719
       244   04 Jun 2027 17:24:27.552   04 Jun 2027 17:28:08.329           220.777                Norilsk          6899.281
       245   04 Jun 2027 17:29:41.319   04 Jun 2027 17:30:40.354            59.035                Norilsk          1844.844
       246   04 Jun 2027 18:54:13.695   04 Jun 2027 18:55:38.088            84.393                 Moscow          2637.281
       247   04 Jun 2027 18:57:15.343   04 Jun 2027 18:58:42.119            86.776              Murmansk1          2711.750
       248   04 Jun 2027 18:59:28.124   04 Jun 2027 18:59:45.019            16.895                 Moscow           527.969
       249   04 Jun 2027 19:01:12.497   04 Jun 2027 19:01:21.463             8.966              Murmansk1           280.188
       250   04 Jun 2027 19:01:36.813   04 Jun 2027 19:02:04.486            27.673              Murmansk2           864.781
       251   04 Jun 2027 19:07:04.199   04 Jun 2027 19:07:22.675            18.476              Murmansk2           577.375
       252   04 Jun 2027 19:13:51.175   04 Jun 2027 19:13:59.074             7.899                Anadyr2           246.844
       253   04 Jun 2027 20:06:08.258   04 Jun 2027 20:08:57.254           168.996               CapeTown          5281.125
       254   04 Jun 2027 20:12:43.335   04 Jun 2027 20:13:34.737            51.402               CapeTown          1606.313
       255   04 Jun 2027 20:15:18.005   04 Jun 2027 20:15:23.592             5.587               CapeTown           174.594
       256   04 Jun 2027 20:36:48.116   04 Jun 2027 20:38:47.204           119.088              Murmansk2          3721.500
       257   04 Jun 2027 20:39:12.935   04 Jun 2027 20:42:41.004           208.069              Murmansk1          6502.156
       258   04 Jun 2027 20:42:55.125   04 Jun 2027 20:44:36.750           101.625              Murmansk2          3175.781
       259   04 Jun 2027 22:22:33.096   04 Jun 2027 22:23:51.899            78.803                Anadyr2          2462.594
       260   04 Jun 2027 22:24:04.053   04 Jun 2027 22:24:28.888            24.835                Anadyr2           776.094
       261   04 Jun 2027 22:24:51.844   04 Jun 2027 22:26:19.239            87.395               Magadan2          2731.094
       262   04 Jun 2027 22:26:19.239   04 Jun 2027 22:26:56.037            36.798               Magadan1          1149.937
       263   04 Jun 2027 22:27:19.329   04 Jun 2027 22:27:42.197            22.868               Magadan1           714.625
       264   04 Jun 2027 22:28:06.032   04 Jun 2027 22:28:39.941            33.909               Magadan2          1059.656
       265   04 Jun 2027 22:30:01.582   04 Jun 2027 22:30:14.178            12.596               Magadan2           393.625
       266   04 Jun 2027 22:33:00.354   04 Jun 2027 22:33:02.940             2.586               Magadan2            80.812
       267   04 Jun 2027 22:33:23.045   04 Jun 2027 22:34:11.365            48.320               Magadan2          1510.000
       268   04 Jun 2027 23:19:08.671   04 Jun 2027 23:21:26.789           138.118            RioGallegos          4316.187
       269   04 Jun 2027 23:58:23.992   04 Jun 2027 23:59:56.186            92.194                Anadyr2          2881.062
       270   04 Jun 2027 23:59:57.131   05 Jun 2027 00:00:37.526            40.395                Anadyr1          1262.344
       271   05 Jun 2027 00:00:46.368   05 Jun 2027 00:02:34.138           107.770               Magadan2          3367.812
       272   05 Jun 2027 00:02:58.969   05 Jun 2027 00:03:49.544            50.575               Magadan1          1580.469
       273   05 Jun 2027 00:05:28.368   05 Jun 2027 00:05:57.655            29.287               Magadan2           915.219
       274   05 Jun 2027 00:07:26.017   05 Jun 2027 00:09:06.393           100.376                Irkutsk          3136.750
       275   05 Jun 2027 00:13:13.471   05 Jun 2027 00:13:28.922            15.451                Irkutsk           482.844
       276   05 Jun 2027 00:20:52.276   05 Jun 2027 00:22:18.418            86.142                Sumatra          2691.937
       277   05 Jun 2027 00:22:44.834   05 Jun 2027 00:22:54.620             9.786                Sumatra           305.813
       278   05 Jun 2027 00:26:42.385   05 Jun 2027 00:28:40.347           117.962                Sumatra          3686.312
       279   05 Jun 2027 01:33:44.178   05 Jun 2027 01:34:20.853            36.675                Anadyr2          1146.094
       280   05 Jun 2027 01:34:34.090   05 Jun 2027 01:35:14.480            40.390                Anadyr2          1262.187
       281   05 Jun 2027 01:35:49.752   05 Jun 2027 01:35:58.814             9.062                Anadyr2           283.188
       282   05 Jun 2027 01:36:15.525   05 Jun 2027 01:38:19.119           123.594                Norilsk          3862.312
       283   05 Jun 2027 01:38:44.562   05 Jun 2027 01:39:08.963            24.401               Magadan1           762.531
       284   05 Jun 2027 01:40:12.501   05 Jun 2027 01:43:17.422           184.921                Irkutsk          5778.781
       285   05 Jun 2027 01:51:40.847   05 Jun 2027 01:52:20.712            39.865                  Delhi          1245.781
       286   05 Jun 2027 01:54:01.888   05 Jun 2027 01:54:50.545            48.657                Sumatra          1520.531
       287   05 Jun 2027 01:57:04.157   05 Jun 2027 01:58:34.336            90.179                Sumatra          2818.094
       288   05 Jun 2027 02:02:41.928   05 Jun 2027 02:03:44.156            62.228                Sumatra          1944.625
       289   05 Jun 2027 02:39:41.760   05 Jun 2027 02:40:32.764            51.004            RioGallegos          1593.875
       290   05 Jun 2027 03:16:22.525   05 Jun 2027 03:18:24.200           121.675               Magadan1          3802.344
       291   05 Jun 2027 03:19:22.270   05 Jun 2027 03:20:26.820            64.550                Irkutsk          2017.188
       292   05 Jun 2027 03:20:39.363   05 Jun 2027 03:21:38.600            59.237                Irkutsk          1851.156
       293   05 Jun 2027 03:23:17.916   05 Jun 2027 03:23:58.416            40.500                Novosib          1265.625
       294   05 Jun 2027 03:24:19.283   05 Jun 2027 03:26:19.883           120.600                  Delhi          3768.750
       295   05 Jun 2027 03:29:01.182   05 Jun 2027 03:30:25.728            84.546                  Delhi          2642.063
       296   05 Jun 2027 04:05:14.616   05 Jun 2027 04:05:44.137            29.521            RioGallegos           922.531
       297   05 Jun 2027 04:08:12.091   05 Jun 2027 04:10:14.119           122.028            RioGallegos          3813.375
       298   05 Jun 2027 04:56:05.917   05 Jun 2027 04:59:21.761           195.844                Irkutsk          6120.125
       299   05 Jun 2027 05:00:16.560   05 Jun 2027 05:00:20.050             3.490                Novosib           109.063
       300   05 Jun 2027 05:00:55.968   05 Jun 2027 05:09:03.255           487.287                  Delhi         15227.719
       301   05 Jun 2027 06:33:24.647   05 Jun 2027 06:34:02.267            37.620                Norilsk          1175.625
       302   05 Jun 2027 06:34:40.185   05 Jun 2027 06:35:26.443            46.258                 Moscow          1445.563
       303   05 Jun 2027 06:35:37.383   05 Jun 2027 06:35:46.767             9.384                 Moscow           293.250
       304   05 Jun 2027 06:35:48.442   05 Jun 2027 06:35:51.993             3.551              Murmansk1           110.969
       305   05 Jun 2027 06:35:58.328   05 Jun 2027 06:36:09.558            11.230              Murmansk1           350.937
       306   05 Jun 2027 06:36:47.393   05 Jun 2027 06:37:14.102            26.709                 Moscow           834.656
       307   05 Jun 2027 06:39:58.851   05 Jun 2027 06:40:01.554             2.703                 Moscow            84.469
       308   05 Jun 2027 06:40:19.941   05 Jun 2027 06:40:32.731            12.790                 Moscow           399.687
       309   05 Jun 2027 06:42:15.984   05 Jun 2027 06:42:30.500            14.516                 Moscow           453.625
       310   05 Jun 2027 06:53:29.535   05 Jun 2027 06:54:28.673            59.138               CapeTown          1848.062
       311   05 Jun 2027 06:57:29.031   05 Jun 2027 06:57:31.312             2.281               CapeTown            71.281
       312   05 Jun 2027 07:00:30.101   05 Jun 2027 07:02:18.751           108.650               CapeTown          3395.312
       313   05 Jun 2027 07:56:43.722   05 Jun 2027 07:57:29.317            45.595                Anadyr1          1424.844
       314   05 Jun 2027 07:57:29.317   05 Jun 2027 07:57:45.683            16.366                Anadyr2           511.438
       315   05 Jun 2027 07:57:51.151   05 Jun 2027 07:58:39.022            47.871                Anadyr1          1495.969
       316   05 Jun 2027 08:00:01.999   05 Jun 2027 08:01:19.235            77.236                Anadyr1          2413.625
       317   05 Jun 2027 08:39:16.496   05 Jun 2027 08:39:36.623            20.127               CapeTown           628.969
       318   05 Jun 2027 09:32:37.674   05 Jun 2027 09:33:19.510            41.836                Anadyr1          1307.375
       319   05 Jun 2027 09:33:40.464   05 Jun 2027 09:36:48.140           187.676                Anadyr1          5864.875
       320   05 Jun 2027 11:07:34.721   05 Jun 2027 11:07:54.633            19.912               Magadan2           622.250
       321   05 Jun 2027 11:07:54.633   05 Jun 2027 11:08:37.611            42.978               Magadan1          1343.063
       322   05 Jun 2027 11:09:00.307   05 Jun 2027 11:12:03.088           182.781               Magadan2          5711.906
       323   05 Jun 2027 11:12:03.088   05 Jun 2027 11:12:46.896            43.808               Magadan1          1369.000
       324   05 Jun 2027 11:13:08.359   05 Jun 2027 11:13:19.689            11.330                Irkutsk           354.063
       325   05 Jun 2027 11:13:19.803   05 Jun 2027 11:14:28.729            68.926               Magadan2          2153.937
       326   05 Jun 2027 11:50:37.868   05 Jun 2027 11:50:38.428             0.560            RioGallegos            17.500
       327   05 Jun 2027 11:54:58.855   05 Jun 2027 11:55:50.166            51.311            RioGallegos          1603.469
       328   05 Jun 2027 12:28:17.948   05 Jun 2027 12:28:42.368            24.420                Sumatra           763.125
       329   05 Jun 2027 12:37:38.449   05 Jun 2027 12:40:24.639           166.190                Irkutsk          5193.437
       330   05 Jun 2027 12:44:39.888   05 Jun 2027 12:45:32.721            52.833                Norilsk          1651.031
       331   05 Jun 2027 12:45:49.928   05 Jun 2027 12:47:54.920           124.992               Magadan1          3906.000
       332   05 Jun 2027 14:00:06.534   05 Jun 2027 14:03:00.767           174.233                Sumatra          5444.781
       333   05 Jun 2027 14:08:13.516   05 Jun 2027 14:09:51.315            97.799                Sumatra          3056.219
       334   05 Jun 2027 14:15:30.482   05 Jun 2027 14:16:00.552            30.070                Irkutsk           939.688
       335   05 Jun 2027 14:19:49.402   05 Jun 2027 14:20:14.258            24.856                Irkutsk           776.750
       336   05 Jun 2027 14:22:37.152   05 Jun 2027 14:24:30.461           113.309                Irkutsk          3540.906
       337   05 Jun 2027 15:44:41.771   05 Jun 2027 15:45:57.861            76.090                  Delhi          2377.812
       338   05 Jun 2027 15:52:49.942   05 Jun 2027 15:58:08.577           318.635                Novosib          9957.344
       339   05 Jun 2027 16:05:45.480   05 Jun 2027 16:06:40.501            55.021                Norilsk          1719.406
       340   05 Jun 2027 17:29:55.401   05 Jun 2027 17:30:28.449            33.048                 Moscow          1032.750
       341   05 Jun 2027 17:31:54.178   05 Jun 2027 17:32:10.682            16.504                 Moscow           515.750
       342   05 Jun 2027 17:33:02.825   05 Jun 2027 17:35:15.568           132.743              Murmansk2          4148.219
       343   05 Jun 2027 17:37:16.620   05 Jun 2027 17:39:48.189           151.569                Norilsk          4736.531
       344   05 Jun 2027 17:40:39.501   05 Jun 2027 17:42:53.110           133.609                Norilsk          4175.281
       345   05 Jun 2027 19:06:47.599   05 Jun 2027 19:09:11.884           144.285                 Moscow          4508.906
       346   05 Jun 2027 19:09:35.733   05 Jun 2027 19:10:29.652            53.919              Murmansk1          1684.969
       347   05 Jun 2027 19:11:59.143   05 Jun 2027 19:13:10.441            71.298              Murmansk1          2228.063
       348   05 Jun 2027 20:18:18.474   05 Jun 2027 20:19:23.030            64.556               CapeTown          2017.375
       349   05 Jun 2027 20:20:43.277   05 Jun 2027 20:22:53.218           129.941               CapeTown          4060.656
       350   05 Jun 2027 20:49:31.461   05 Jun 2027 20:56:31.530           420.069              Murmansk1         13127.156
       351   05 Jun 2027 22:34:34.912   05 Jun 2027 22:35:35.163            60.251                Anadyr1          1882.844
       352   05 Jun 2027 22:36:04.374   05 Jun 2027 22:37:45.028           100.654                Anadyr1          3145.437
       353   05 Jun 2027 22:37:57.195   05 Jun 2027 22:38:43.718            46.523               Magadan2          1453.844
       354   05 Jun 2027 22:39:37.192   05 Jun 2027 22:40:08.170            30.978               Magadan1           968.063
       355   05 Jun 2027 22:40:46.743   05 Jun 2027 22:41:09.803            23.060               Magadan1           720.625
       356   05 Jun 2027 22:42:08.293   05 Jun 2027 22:42:29.950            21.657               Magadan2           676.781
       357   05 Jun 2027 22:44:57.847   05 Jun 2027 22:45:00.699             2.852               Magadan1            89.125
       358   05 Jun 2027 22:45:18.822   05 Jun 2027 22:46:02.241            43.419               Magadan1          1356.844
       359   05 Jun 2027 23:30:18.611   05 Jun 2027 23:32:25.336           126.725            RioGallegos          3960.156
       360   05 Jun 2027 23:32:58.121   05 Jun 2027 23:33:09.246            11.125            RioGallegos           347.656
       361   05 Jun 2027 23:35:22.191   05 Jun 2027 23:35:49.886            27.695            RioGallegos           865.469
       362   06 Jun 2027 00:10:23.624   06 Jun 2027 00:11:50.587            86.963                Anadyr1          2717.594
       363   06 Jun 2027 00:11:58.473   06 Jun 2027 00:12:16.787            18.314                Anadyr2           572.312
       364   06 Jun 2027 00:12:28.122   06 Jun 2027 00:14:03.190            95.068                Norilsk          2970.875
       365   06 Jun 2027 00:14:28.494   06 Jun 2027 00:14:50.287            21.793               Magadan1           681.031
       366   06 Jun 2027 00:15:38.328   06 Jun 2027 00:15:41.888             3.560               Magadan2           111.250
       367   06 Jun 2027 00:15:45.736   06 Jun 2027 00:16:14.240            28.504               Magadan2           890.750
       368   06 Jun 2027 00:17:15.650   06 Jun 2027 00:19:25.782           130.132                Irkutsk          4066.625
       369   06 Jun 2027 00:23:31.397   06 Jun 2027 00:24:50.790            79.393                Irkutsk          2481.031
       370   06 Jun 2027 00:31:58.105   06 Jun 2027 00:33:45.071           106.966                Sumatra          3342.688
       371   06 Jun 2027 01:06:48.985   06 Jun 2027 01:07:14.294            25.309            RioGallegos           790.906
       372   06 Jun 2027 01:09:56.945   06 Jun 2027 01:10:14.503            17.558            RioGallegos           548.688
       373   06 Jun 2027 01:12:03.905   06 Jun 2027 01:12:15.222            11.317            RioGallegos           353.656
       374   06 Jun 2027 01:15:57.852   06 Jun 2027 01:16:41.493            43.641            RioGallegos          1363.781
       375   06 Jun 2027 01:45:37.227   06 Jun 2027 01:45:56.070            18.843                Anadyr2           588.844
       376   06 Jun 2027 01:47:07.491   06 Jun 2027 01:47:22.217            14.726                Anadyr1           460.188
       377   06 Jun 2027 01:47:49.495   06 Jun 2027 01:48:11.833            22.338                Anadyr1           698.062
       378   06 Jun 2027 01:48:11.833   06 Jun 2027 01:48:31.812            19.979                Anadyr2           624.344
       379   06 Jun 2027 01:48:57.332   06 Jun 2027 01:50:35.545            98.213               Magadan2          3069.156
       380   06 Jun 2027 01:50:35.545   06 Jun 2027 01:51:52.945            77.400               Magadan1          2418.750
       381   06 Jun 2027 01:52:12.377   06 Jun 2027 01:53:16.118            63.741                Irkutsk          1991.906
       382   06 Jun 2027 01:55:00.857   06 Jun 2027 01:55:37.744            36.887                Novosib          1152.719
       383   06 Jun 2027 02:00:03.917   06 Jun 2027 02:01:08.821            64.904                Irkutsk          2028.250
       384   06 Jun 2027 02:06:12.740   06 Jun 2027 02:08:55.873           163.133                Sumatra          5097.906
       385   06 Jun 2027 02:41:59.692   06 Jun 2027 02:42:55.869            56.177            RioGallegos          1755.531
       386   06 Jun 2027 02:51:02.171   06 Jun 2027 02:52:16.706            74.535            RioGallegos          2329.219
       387   06 Jun 2027 03:28:24.968   06 Jun 2027 03:28:39.916            14.948               Magadan1           467.125
       388   06 Jun 2027 03:28:57.992   06 Jun 2027 03:30:05.342            67.350               Magadan1          2104.687
       389   06 Jun 2027 03:32:06.610   06 Jun 2027 03:32:59.011            52.401                Norilsk          1637.531
       390   06 Jun 2027 03:33:13.250   06 Jun 2027 03:35:13.639           120.389                Irkutsk          3762.156
       391   06 Jun 2027 03:37:43.453   06 Jun 2027 03:38:40.917            57.464                Irkutsk          1795.750
       392   06 Jun 2027 03:38:47.357   06 Jun 2027 03:39:02.835            15.478                Novosib           483.688
       393   06 Jun 2027 04:17:34.798   06 Jun 2027 04:23:55.600           380.802            RioGallegos         11900.062
       394   06 Jun 2027 05:07:42.372   06 Jun 2027 05:08:28.760            46.388                Irkutsk          1449.625
       395   06 Jun 2027 05:08:53.279   06 Jun 2027 05:10:21.665            88.386                Irkutsk          2762.062
       396   06 Jun 2027 05:11:10.259   06 Jun 2027 05:12:28.654            78.395                Novosib          2449.844
       397   06 Jun 2027 05:13:44.829   06 Jun 2027 05:19:54.824           369.995                  Delhi         11562.344
       398   06 Jun 2027 06:44:46.149   06 Jun 2027 06:44:52.773             6.624                 Moscow           207.000
       399   06 Jun 2027 06:46:47.011   06 Jun 2027 06:47:18.636            31.625              Murmansk2           988.281
       400   06 Jun 2027 06:47:32.413   06 Jun 2027 06:47:43.382            10.969                 Moscow           342.781
       401   06 Jun 2027 06:47:52.311   06 Jun 2027 06:47:59.274             6.963              Murmansk2           217.594
       402   06 Jun 2027 06:48:00.601   06 Jun 2027 06:48:24.014            23.413              Murmansk2           731.656
       403   06 Jun 2027 06:48:25.683   06 Jun 2027 06:48:30.110             4.427              Murmansk2           138.344
       404   06 Jun 2027 06:48:41.567   06 Jun 2027 06:48:43.529             1.962                 Moscow            61.313
       405   06 Jun 2027 06:48:52.787   06 Jun 2027 06:48:55.599             2.812                 Moscow            87.875
       406   06 Jun 2027 06:52:07.160   06 Jun 2027 06:52:09.274             2.114                 Moscow            66.062
       407   06 Jun 2027 07:05:32.197   06 Jun 2027 07:07:41.129           128.932               CapeTown          4029.125
       408   06 Jun 2027 08:09:08.406   06 Jun 2027 08:09:53.774            45.368               Magadan1          1417.750
       409   06 Jun 2027 08:09:58.623   06 Jun 2027 08:10:34.425            35.802               Magadan2          1118.813
       410   06 Jun 2027 08:10:40.737   06 Jun 2027 08:11:01.892            21.155               Magadan1           661.094
       411   06 Jun 2027 08:11:58.684   06 Jun 2027 08:13:19.866            81.182                Anadyr2          2536.938
       412   06 Jun 2027 09:44:47.832   06 Jun 2027 09:46:17.161            89.329                Anadyr1          2791.531
       413   06 Jun 2027 09:46:35.858   06 Jun 2027 09:47:29.758            53.900               Magadan2          1684.375
       414   06 Jun 2027 09:48:54.732   06 Jun 2027 09:49:59.278            64.546               Magadan1          2017.062
       415   06 Jun 2027 11:15:55.741   06 Jun 2027 11:16:53.842            58.101               Magadan2          1815.656
       416   06 Jun 2027 11:20:29.943   06 Jun 2027 11:20:30.860             0.917               Magadan2            28.656
       417   06 Jun 2027 11:21:46.086   06 Jun 2027 11:21:50.504             4.418                Norilsk           138.062
       418   06 Jun 2027 11:22:20.562   06 Jun 2027 11:25:14.045           173.483               Magadan1          5421.344
       419   06 Jun 2027 11:25:35.856   06 Jun 2027 11:25:44.739             8.883                Norilsk           277.594
       420   06 Jun 2027 11:25:55.805   06 Jun 2027 11:25:56.631             0.826                Novosib            25.813
       421   06 Jun 2027 11:26:12.609   06 Jun 2027 11:26:24.982            12.373               Magadan1           386.656
       422   06 Jun 2027 11:26:28.408   06 Jun 2027 11:27:26.859            58.451                Norilsk          1826.594
       423   06 Jun 2027 12:01:20.897   06 Jun 2027 12:02:38.236            77.339            RioGallegos          2416.844
       424   06 Jun 2027 12:37:43.302   06 Jun 2027 12:38:08.944            25.642                Sumatra           801.312
       425   06 Jun 2027 12:46:39.674   06 Jun 2027 12:46:45.369             5.695                Sumatra           177.969
       426   06 Jun 2027 12:49:37.515   06 Jun 2027 12:52:48.565           191.050                Irkutsk          5970.313
       427   06 Jun 2027 13:38:01.591   06 Jun 2027 13:38:39.655            38.064            RioGallegos          1189.500
       428   06 Jun 2027 13:39:44.443   06 Jun 2027 13:43:09.957           205.514            RioGallegos          6422.312
       429   06 Jun 2027 14:12:20.612   06 Jun 2027 14:13:27.868            67.256                Sumatra          2101.750
       430   06 Jun 2027 14:27:21.751   06 Jun 2027 14:29:24.269           122.518                Irkutsk          3828.687
       431   06 Jun 2027 14:31:31.481   06 Jun 2027 14:33:05.353            93.872                Irkutsk          2933.500
       432   06 Jun 2027 14:36:01.556   06 Jun 2027 14:37:24.840            83.284                Irkutsk          2602.625
       433   06 Jun 2027 15:57:07.054   06 Jun 2027 16:02:52.434           345.380                  Delhi         10793.125
       434   06 Jun 2027 16:05:25.113   06 Jun 2027 16:08:12.184           167.071                Novosib          5220.969
       435   06 Jun 2027 16:10:40.668   06 Jun 2027 16:11:22.510            41.842                Novosib          1307.562
       436   06 Jun 2027 17:45:39.175   06 Jun 2027 17:47:18.767            99.592              Murmansk1          3112.250
       437   06 Jun 2027 17:50:12.587   06 Jun 2027 17:54:20.929           248.342                Norilsk          7760.688
       438   06 Jun 2027 19:19:27.943   06 Jun 2027 19:25:50.548           382.605                 Moscow         11956.406
       439   06 Jun 2027 20:30:32.193   06 Jun 2027 20:30:48.273            16.080               CapeTown           502.500
       440   06 Jun 2027 20:34:09.815   06 Jun 2027 20:35:20.731            70.916               CapeTown          2216.125
       441   06 Jun 2027 20:38:44.736   06 Jun 2027 20:40:20.205            95.469               CapeTown          2983.406
       442   06 Jun 2027 21:02:19.800   06 Jun 2027 21:08:23.418           363.618              Murmansk2         11363.063
       443   06 Jun 2027 22:46:36.600   06 Jun 2027 22:47:17.607            41.007                Anadyr1          1281.469
       444   06 Jun 2027 22:47:34.987   06 Jun 2027 22:48:04.961            29.974                Anadyr1           936.688
       445   06 Jun 2027 22:48:52.633   06 Jun 2027 22:49:54.180            61.547               Magadan1          1923.344
       446   06 Jun 2027 22:49:54.180   06 Jun 2027 22:50:42.622            48.442               Magadan2          1513.812
       447   06 Jun 2027 22:50:50.676   06 Jun 2027 22:51:08.929            18.253               Magadan2           570.406
       448   06 Jun 2027 22:52:04.086   06 Jun 2027 22:52:40.002            35.916               Magadan2          1122.375
       449   06 Jun 2027 22:53:19.362   06 Jun 2027 22:53:48.394            29.032               Magadan2           907.250
       450   06 Jun 2027 22:54:12.303   06 Jun 2027 22:55:10.623            58.320               Magadan2          1822.500
       451   06 Jun 2027 23:41:48.244   06 Jun 2027 23:44:56.332           188.088            RioGallegos          5877.750
       452   07 Jun 2027 00:22:22.725   07 Jun 2027 00:23:45.345            82.620                Anadyr1          2581.875
       453   07 Jun 2027 00:24:27.102   07 Jun 2027 00:26:04.952            97.850                Norilsk          3057.812
       454   07 Jun 2027 00:27:02.440   07 Jun 2027 00:28:05.975            63.535                Norilsk          1985.469
       455   07 Jun 2027 00:28:16.722   07 Jun 2027 00:28:24.035             7.313               Magadan1           228.531
       456   07 Jun 2027 00:28:34.037   07 Jun 2027 00:28:54.384            20.347               Magadan2           635.844
       457   07 Jun 2027 00:29:01.477   07 Jun 2027 00:30:17.716            76.239                Irkutsk          2382.469
       458   07 Jun 2027 00:31:22.379   07 Jun 2027 00:33:29.081           126.702                Irkutsk          3959.438
       459   07 Jun 2027 00:43:20.052   07 Jun 2027 00:43:52.104            32.052                Sumatra          1001.625
       460   07 Jun 2027 00:44:14.151   07 Jun 2027 00:46:17.015           122.864                Sumatra          3839.500
       461   07 Jun 2027 01:27:10.670   07 Jun 2027 01:28:03.489            52.819            RioGallegos          1650.594
       462   07 Jun 2027 01:57:52.308   07 Jun 2027 01:58:03.240            10.932                Anadyr2           341.625
       463   07 Jun 2027 01:58:25.392   07 Jun 2027 01:58:57.868            32.476                Anadyr1          1014.875
       464   07 Jun 2027 01:59:56.070   07 Jun 2027 02:00:22.010            25.940                Anadyr2           810.625
       465   07 Jun 2027 02:01:00.615   07 Jun 2027 02:02:04.865            64.250               Magadan2          2007.813
       466   07 Jun 2027 02:02:14.267   07 Jun 2027 02:02:23.682             9.415                Norilsk           294.219
       467   07 Jun 2027 02:02:38.428   07 Jun 2027 02:03:04.857            26.429               Magadan1           825.906
       468   07 Jun 2027 02:04:13.239   07 Jun 2027 02:07:06.181           172.942                Irkutsk          5404.437
       469   07 Jun 2027 02:13:21.511   07 Jun 2027 02:13:31.259             9.748                  Delhi           304.625
       470   07 Jun 2027 02:16:04.827   07 Jun 2027 02:16:43.194            38.367                  Delhi          1198.969
       471   07 Jun 2027 02:18:30.290   07 Jun 2027 02:20:36.634           126.344                Sumatra          3948.250
       472   07 Jun 2027 02:23:17.026   07 Jun 2027 02:23:49.818            32.792                Sumatra          1024.750
       473   07 Jun 2027 02:53:18.983   07 Jun 2027 02:53:30.866            11.883            RioGallegos           371.344
       474   07 Jun 2027 02:54:30.046   07 Jun 2027 02:54:56.237            26.191            RioGallegos           818.469
       475   07 Jun 2027 02:59:14.776   07 Jun 2027 02:59:56.753            41.977            RioGallegos          1311.781
       476   07 Jun 2027 03:00:11.695   07 Jun 2027 03:00:33.458            21.763            RioGallegos           680.094
       477   07 Jun 2027 03:41:03.586   07 Jun 2027 03:41:33.222            29.636               Magadan1           926.125
       478   07 Jun 2027 03:44:22.320   07 Jun 2027 03:45:27.423            65.103                Novosib          2034.469
       479   07 Jun 2027 03:46:02.808   07 Jun 2027 03:49:39.048           216.240                Novosib          6757.500
       480   07 Jun 2027 03:49:39.281   07 Jun 2027 03:54:45.654           306.373                  Delhi          9574.156
       481   07 Jun 2027 03:56:41.840   07 Jun 2027 04:00:07.306           205.466                  Delhi          6420.813
       482   07 Jun 2027 04:30:02.284   07 Jun 2027 04:34:58.078           295.794            RioGallegos          9243.563
