uniorb/output/strategy_4/Drop/Drop_KinoSat_111202.txt

KinoSat_111202
-------------------------
    Access    *     Start Time (UTCG)     *     Stop Time (UTCG)  *   Duration (s)        *       Station  *  Data (Mbytes)
         1   01 Jun 2027 04:02:15.920   01 Jun 2027 04:02:40.091            24.171                Norilsk           755.344
         2   01 Jun 2027 04:02:54.296   01 Jun 2027 04:03:22.862            28.566                 Moscow           892.688
         3   01 Jun 2027 04:03:28.501   01 Jun 2027 04:04:49.821            81.320                 Moscow          2541.250
         4   01 Jun 2027 04:04:58.196   01 Jun 2027 04:05:59.554            61.358              Murmansk2          1917.437
         5   01 Jun 2027 04:06:15.914   01 Jun 2027 04:06:50.988            35.074              Murmansk2          1096.063
         6   01 Jun 2027 04:09:25.971   01 Jun 2027 04:09:45.160            19.189                 Moscow           599.656
         7   01 Jun 2027 05:25:40.504   01 Jun 2027 05:27:07.007            86.503                Anadyr1          2703.219
         8   01 Jun 2027 05:27:19.929   01 Jun 2027 05:28:25.867            65.938                Anadyr2          2060.562
         9   01 Jun 2027 05:28:54.730   01 Jun 2027 05:30:45.352           110.622               Magadan2          3456.937
        10   01 Jun 2027 07:02:14.053   01 Jun 2027 07:03:01.790            47.737                Anadyr1          1491.781
        11   01 Jun 2027 07:03:09.745   01 Jun 2027 07:03:59.610            49.865                Irkutsk          1558.281
        12   01 Jun 2027 07:04:11.887   01 Jun 2027 07:06:16.657           124.770                Norilsk          3899.063
        13   01 Jun 2027 07:07:02.863   01 Jun 2027 07:08:12.849            69.986                Norilsk          2187.063
        14   01 Jun 2027 07:42:38.862   01 Jun 2027 07:43:00.881            22.019            RioGallegos           688.094
        15   01 Jun 2027 07:43:20.570   01 Jun 2027 07:44:06.522            45.952            RioGallegos          1436.000
        16   01 Jun 2027 07:45:28.930   01 Jun 2027 07:45:40.470            11.540            RioGallegos           360.625
        17   01 Jun 2027 08:37:12.476   01 Jun 2027 08:38:13.958            61.482               Magadan2          1921.312
        18   01 Jun 2027 08:38:28.021   01 Jun 2027 08:41:00.604           152.583               Magadan1          4768.219
        19   01 Jun 2027 08:41:00.604   01 Jun 2027 08:41:50.861            50.257               Magadan2          1570.531
        20   01 Jun 2027 08:42:03.155   01 Jun 2027 08:43:34.247            91.092                Novosib          2846.625
        21   01 Jun 2027 09:17:42.702   01 Jun 2027 09:18:20.856            38.154            RioGallegos          1192.312
        22   01 Jun 2027 09:19:28.180   01 Jun 2027 09:20:00.243            32.063            RioGallegos          1001.969
        23   01 Jun 2027 09:52:17.757   01 Jun 2027 09:54:55.900           158.143                Sumatra          4941.969
        24   01 Jun 2027 10:13:49.229   01 Jun 2027 10:14:19.400            30.171                Norilsk           942.844
        25   01 Jun 2027 10:14:28.889   01 Jun 2027 10:15:30.786            61.897                Irkutsk          1934.281
        26   01 Jun 2027 10:15:51.688   01 Jun 2027 10:16:28.470            36.782                Norilsk          1149.437
        27   01 Jun 2027 10:16:41.082   01 Jun 2027 10:18:21.160           100.078                Irkutsk          3127.438
        28   01 Jun 2027 10:18:26.804   01 Jun 2027 10:18:52.428            25.624              Murmansk2           800.750
        29   01 Jun 2027 10:55:30.820   01 Jun 2027 10:55:43.665            12.845            RioGallegos           401.406
        30   01 Jun 2027 11:29:48.421   01 Jun 2027 11:30:08.135            19.714                Sumatra           616.062
        31   01 Jun 2027 11:36:14.935   01 Jun 2027 11:39:14.169           179.234                  Delhi          5601.062
        32   01 Jun 2027 11:50:57.713   01 Jun 2027 11:51:30.938            33.225                Irkutsk          1038.281
        33   01 Jun 2027 11:51:33.689   01 Jun 2027 11:51:47.216            13.527                 Moscow           422.719
        34   01 Jun 2027 11:52:51.863   01 Jun 2027 11:55:08.602           136.739              Murmansk1          4273.094
        35   01 Jun 2027 13:16:50.530   01 Jun 2027 13:19:31.144           160.614                  Delhi          5019.188
        36   01 Jun 2027 13:21:52.545   01 Jun 2027 13:23:11.432            78.887                 Moscow          2465.219
        37   01 Jun 2027 13:23:54.497   01 Jun 2027 13:24:06.147            11.650                 Moscow           364.063
        38   01 Jun 2027 13:24:22.235   01 Jun 2027 13:24:28.482             6.247                 Moscow           195.219
        39   01 Jun 2027 13:24:52.587   01 Jun 2027 13:27:14.647           142.060              Murmansk2          4439.375
        40   01 Jun 2027 13:27:49.115   01 Jun 2027 13:28:52.176            63.061                Norilsk          1970.656
        41   01 Jun 2027 13:29:54.812   01 Jun 2027 13:30:19.024            24.212                Norilsk           756.625
        42   01 Jun 2027 13:31:32.835   01 Jun 2027 13:32:53.449            80.614                Norilsk          2519.188
        43   01 Jun 2027 13:33:40.041   01 Jun 2027 13:34:24.222            44.181                Norilsk          1380.656
        44   01 Jun 2027 13:36:25.820   01 Jun 2027 13:36:47.118            21.298              Murmansk1           665.563
        45   01 Jun 2027 14:36:38.905   01 Jun 2027 14:38:58.900           139.995               CapeTown          4374.844
        46   01 Jun 2027 14:39:26.225   01 Jun 2027 14:40:22.593            56.368               CapeTown          1761.500
        47   01 Jun 2027 14:42:10.946   01 Jun 2027 14:43:30.443            79.497               CapeTown          2484.281
        48   01 Jun 2027 15:01:32.948   01 Jun 2027 15:01:54.139            21.191              Murmansk1           662.219
        49   01 Jun 2027 15:01:54.139   01 Jun 2027 15:03:19.268            85.129              Murmansk2          2660.281
        50   01 Jun 2027 15:05:29.794   01 Jun 2027 15:05:44.286            14.492              Murmansk1           452.875
        51   01 Jun 2027 15:06:33.835   01 Jun 2027 15:07:14.467            40.632              Murmansk1          1269.750
        52   01 Jun 2027 15:07:18.232   01 Jun 2027 15:07:46.019            27.787                 Moscow           868.344
        53   01 Jun 2027 15:09:11.100   01 Jun 2027 15:09:27.708            16.608              Murmansk2           519.000
        54   01 Jun 2027 15:09:27.708   01 Jun 2027 15:09:32.806             5.098              Murmansk1           159.313
        55   01 Jun 2027 15:09:48.445   01 Jun 2027 15:10:02.954            14.509              Murmansk1           453.406
        56   01 Jun 2027 15:10:23.644   01 Jun 2027 15:11:08.122            44.478              Murmansk1          1389.937
        57   01 Jun 2027 15:11:48.489   01 Jun 2027 15:12:24.634            36.145              Murmansk1          1129.531
        58   01 Jun 2027 15:15:29.681   01 Jun 2027 15:16:38.787            69.106                Anadyr1          2159.562
        59   01 Jun 2027 15:17:58.244   01 Jun 2027 15:18:34.974            36.730                Anadyr1          1147.812
        60   01 Jun 2027 15:18:41.139   01 Jun 2027 15:18:52.672            11.533                Anadyr1           360.406
        61   01 Jun 2027 15:19:12.046   01 Jun 2027 15:19:51.738            39.692                Anadyr1          1240.375
        62   01 Jun 2027 15:20:25.448   01 Jun 2027 15:21:00.354            34.906                Anadyr2          1090.812
        63   01 Jun 2027 15:21:00.354   01 Jun 2027 15:21:43.811            43.457                Anadyr1          1358.031
        64   01 Jun 2027 15:22:40.717   01 Jun 2027 15:23:12.246            31.529                Anadyr1           985.281
        65   01 Jun 2027 16:22:02.248   01 Jun 2027 16:22:33.720            31.472               CapeTown           983.500
        66   01 Jun 2027 16:38:41.436   01 Jun 2027 16:39:47.215            65.779                 Moscow          2055.594
        67   01 Jun 2027 16:41:55.930   01 Jun 2027 16:42:25.706            29.776                 Moscow           930.500
        68   01 Jun 2027 16:43:28.711   01 Jun 2027 16:44:18.433            49.722              Murmansk2          1553.812
        69   01 Jun 2027 16:45:02.155   01 Jun 2027 16:45:06.461             4.306              Murmansk2           134.562
        70   01 Jun 2027 16:45:28.468   01 Jun 2027 16:46:17.487            49.019              Murmansk1          1531.844
        71   01 Jun 2027 16:47:13.924   01 Jun 2027 16:47:51.345            37.421              Murmansk1          1169.406
        72   01 Jun 2027 16:52:26.833   01 Jun 2027 16:52:57.228            30.395                Anadyr1           949.844
        73   01 Jun 2027 16:53:14.430   01 Jun 2027 16:53:32.587            18.157                Anadyr2           567.406
        74   01 Jun 2027 16:54:07.171   01 Jun 2027 16:54:32.274            25.103                Anadyr1           784.469
        75   01 Jun 2027 16:54:56.474   01 Jun 2027 16:55:30.878            34.404                Anadyr1          1075.125
        76   01 Jun 2027 16:55:39.368   01 Jun 2027 16:56:45.444            66.076               Magadan2          2064.875
        77   01 Jun 2027 16:56:50.118   01 Jun 2027 16:57:24.340            34.222               Magadan2          1069.437
        78   01 Jun 2027 16:58:03.506   01 Jun 2027 16:59:29.306            85.800               Magadan2          2681.250
        79   01 Jun 2027 18:26:36.519   01 Jun 2027 18:30:48.219           251.700                Anadyr2          7865.625
        80   01 Jun 2027 18:30:57.325   01 Jun 2027 18:31:37.556            40.231               Magadan2          1257.219
        81   01 Jun 2027 18:32:30.413   01 Jun 2027 18:32:37.577             7.164               Magadan1           223.875
        82   01 Jun 2027 18:33:20.855   01 Jun 2027 18:34:05.279            44.424               Magadan2          1388.250
        83   01 Jun 2027 18:35:30.933   01 Jun 2027 18:35:39.486             8.553               Magadan2           267.281
        84   01 Jun 2027 18:36:05.590   01 Jun 2027 18:37:47.906           102.316               Magadan1          3197.375
        85   01 Jun 2027 20:02:30.685   01 Jun 2027 20:06:17.781           227.096                Anadyr1          7096.750
        86   01 Jun 2027 20:06:18.857   01 Jun 2027 20:07:29.081            70.224               Magadan2          2194.500
        87   01 Jun 2027 20:07:56.035   01 Jun 2027 20:08:07.661            11.626               Magadan1           363.312
        88   01 Jun 2027 20:08:07.661   01 Jun 2027 20:08:26.632            18.971               Magadan2           592.844
        89   01 Jun 2027 20:10:17.133   01 Jun 2027 20:11:05.451            48.318               Magadan2          1509.938
        90   01 Jun 2027 20:13:54.823   01 Jun 2027 20:14:14.655            19.832               Magadan1           619.750
        91   01 Jun 2027 20:15:10.095   01 Jun 2027 20:15:16.350             6.255               Magadan2           195.469
        92   01 Jun 2027 20:15:20.937   01 Jun 2027 20:15:26.542             5.605               Magadan2           175.156
        93   01 Jun 2027 20:15:30.027   01 Jun 2027 20:15:36.368             6.341               Magadan2           198.156
        94   01 Jun 2027 20:16:07.910   01 Jun 2027 20:16:39.657            31.747               Magadan1           992.094
        95   01 Jun 2027 20:17:12.977   01 Jun 2027 20:17:41.372            28.395               Magadan1           887.344
        96   01 Jun 2027 20:56:52.949   01 Jun 2027 20:57:54.384            61.435            RioGallegos          1919.844
        97   01 Jun 2027 20:58:27.270   01 Jun 2027 20:59:51.385            84.115            RioGallegos          2628.594
        98   01 Jun 2027 21:02:43.193   01 Jun 2027 21:03:03.614            20.421            RioGallegos           638.156
        99   01 Jun 2027 21:05:40.364   01 Jun 2027 21:06:46.401            66.037            RioGallegos          2063.656
       100   01 Jun 2027 21:07:11.561   01 Jun 2027 21:07:35.224            23.663            RioGallegos           739.469
       101   01 Jun 2027 21:40:51.863   01 Jun 2027 21:41:57.562            65.699               Magadan2          2053.094
       102   01 Jun 2027 21:42:09.149   01 Jun 2027 21:42:15.757             6.608               Magadan2           206.500
       103   01 Jun 2027 21:42:27.271   01 Jun 2027 21:42:40.839            13.568               Magadan1           424.000
       104   01 Jun 2027 21:42:53.926   01 Jun 2027 21:43:08.743            14.817               Magadan1           463.031
       105   01 Jun 2027 21:44:23.534   01 Jun 2027 21:44:33.519             9.985               Magadan1           312.031
       106   01 Jun 2027 21:44:33.519   01 Jun 2027 21:45:34.253            60.734               Magadan2          1897.938
       107   01 Jun 2027 21:46:10.568   01 Jun 2027 21:46:52.414            41.846                Novosib          1307.687
       108   01 Jun 2027 21:48:45.347   01 Jun 2027 21:49:27.920            42.573                Novosib          1330.406
       109   01 Jun 2027 21:53:16.576   01 Jun 2027 21:53:37.316            20.740                Irkutsk           648.125
       110   01 Jun 2027 21:54:21.001   01 Jun 2027 21:54:59.898            38.897                Irkutsk          1215.531
       111   01 Jun 2027 21:59:02.222   01 Jun 2027 22:01:04.861           122.639                Sumatra          3832.469
       112   01 Jun 2027 22:08:23.484   01 Jun 2027 22:09:16.821            53.337                Sumatra          1666.781
       113   01 Jun 2027 23:14:05.628   01 Jun 2027 23:14:34.609            28.981                Anadyr2           905.656
       114   01 Jun 2027 23:15:19.898   01 Jun 2027 23:15:35.105            15.207                Anadyr1           475.219
       115   01 Jun 2027 23:16:19.144   01 Jun 2027 23:16:41.379            22.235                Norilsk           694.844
       116   01 Jun 2027 23:16:57.326   01 Jun 2027 23:19:08.751           131.425               Magadan2          4107.031
       117   01 Jun 2027 23:19:35.923   01 Jun 2027 23:19:58.731            22.808               Magadan2           712.750
       118   01 Jun 2027 23:20:17.041   01 Jun 2027 23:20:45.269            28.228                Novosib           882.125
       119   01 Jun 2027 23:21:36.019   01 Jun 2027 23:21:57.757            21.738                Novosib           679.313
       120   01 Jun 2027 23:23:07.511   01 Jun 2027 23:25:29.659           142.148                Novosib          4442.125
       121   01 Jun 2027 23:32:24.883   01 Jun 2027 23:34:19.388           114.505                  Delhi          3578.281
       122   02 Jun 2027 00:17:45.624   02 Jun 2027 00:17:56.137            10.513            RioGallegos           328.531
       123   02 Jun 2027 00:18:25.494   02 Jun 2027 00:18:39.024            13.530            RioGallegos           422.812
       124   02 Jun 2027 00:46:33.414   02 Jun 2027 00:47:03.214            29.800                Anadyr2           931.250
       125   02 Jun 2027 00:47:38.589   02 Jun 2027 00:48:00.022            21.433                Anadyr2           669.781
       126   02 Jun 2027 00:48:25.964   02 Jun 2027 00:48:47.132            21.168                Anadyr2           661.500
       127   02 Jun 2027 00:49:00.919   02 Jun 2027 00:49:33.606            32.687                Anadyr1          1021.469
       128   02 Jun 2027 00:51:52.421   02 Jun 2027 00:52:17.191            24.770                Anadyr2           774.062
       129   02 Jun 2027 00:52:18.121   02 Jun 2027 00:52:35.947            17.826                Norilsk           557.063
       130   02 Jun 2027 00:52:36.322   02 Jun 2027 00:53:11.005            34.683               Magadan2          1083.844
       131   02 Jun 2027 00:53:11.005   02 Jun 2027 00:53:25.792            14.787               Magadan1           462.094
       132   02 Jun 2027 00:53:55.613   02 Jun 2027 00:54:31.780            36.167               Magadan2          1130.219
       133   02 Jun 2027 00:54:38.453   02 Jun 2027 00:56:49.098           130.645              Murmansk1          4082.656
       134   02 Jun 2027 00:58:49.923   02 Jun 2027 00:58:58.837             8.914              Murmansk1           278.563
       135   02 Jun 2027 00:59:16.753   02 Jun 2027 00:59:50.328            33.575                 Moscow          1049.219
       136   02 Jun 2027 01:02:53.121   02 Jun 2027 01:03:09.588            16.467                 Moscow           514.594
       137   02 Jun 2027 01:04:41.548   02 Jun 2027 01:04:58.247            16.699                  Delhi           521.844
       138   02 Jun 2027 01:06:36.013   02 Jun 2027 01:06:42.062             6.049                 Moscow           189.031
       139   02 Jun 2027 01:07:43.776   02 Jun 2027 01:08:05.736            21.960                Novosib           686.250
       140   02 Jun 2027 01:10:05.438   02 Jun 2027 01:11:22.065            76.627                  Delhi          2394.594
       141   02 Jun 2027 02:19:41.405   02 Jun 2027 02:21:45.105           123.700                Anadyr2          3865.625
       142   02 Jun 2027 02:22:19.658   02 Jun 2027 02:23:15.306            55.648                Anadyr1          1739.000
       143   02 Jun 2027 02:24:38.241   02 Jun 2027 02:25:23.682            45.441               Magadan1          1420.031
       144   02 Jun 2027 02:27:00.219   02 Jun 2027 02:27:06.488             6.269               Magadan2           195.906
       145   02 Jun 2027 02:27:14.981   02 Jun 2027 02:27:27.805            12.824               Magadan1           400.750
       146   02 Jun 2027 02:28:04.565   02 Jun 2027 02:28:36.694            32.129                Norilsk          1004.031
       147   02 Jun 2027 02:30:25.923   02 Jun 2027 02:31:17.067            51.144              Murmansk2          1598.250
       148   02 Jun 2027 02:31:45.443   02 Jun 2027 02:32:29.003            43.560              Murmansk1          1361.250
       149   02 Jun 2027 02:33:04.357   02 Jun 2027 02:34:15.637            71.280                Novosib          2227.500
       150   02 Jun 2027 02:39:45.668   02 Jun 2027 02:40:01.808            16.140                Novosib           504.375
       151   02 Jun 2027 02:41:05.991   02 Jun 2027 02:41:28.521            22.530                Novosib           704.063
       152   02 Jun 2027 02:44:23.041   02 Jun 2027 02:44:42.521            19.480                 Moscow           608.750
       153   02 Jun 2027 03:02:32.250   02 Jun 2027 03:03:37.836            65.586               CapeTown          2049.562
       154   02 Jun 2027 03:09:05.075   02 Jun 2027 03:10:14.249            69.174               CapeTown          2161.687
       155   02 Jun 2027 04:01:22.967   02 Jun 2027 04:04:25.328           182.361               Magadan2          5698.781
       156   02 Jun 2027 04:05:22.402   02 Jun 2027 04:05:31.823             9.421                Anadyr2           294.406
       157   02 Jun 2027 04:14:05.963   02 Jun 2027 04:14:28.561            22.598                Norilsk           706.187
       158   02 Jun 2027 04:15:30.729   02 Jun 2027 04:16:19.456            48.727              Murmansk2          1522.719
       159   02 Jun 2027 05:37:18.341   02 Jun 2027 05:39:21.012           122.671                Anadyr1          3833.469
       160   02 Jun 2027 05:39:21.012   02 Jun 2027 05:39:43.553            22.541                Anadyr2           704.406
       161   02 Jun 2027 05:40:20.418   02 Jun 2027 05:41:05.000            44.582                Anadyr2          1393.188
       162   02 Jun 2027 05:41:05.000   02 Jun 2027 05:42:54.456           109.456                Anadyr1          3420.500
       163   02 Jun 2027 07:14:58.039   02 Jun 2027 07:18:41.546           223.507               Magadan2          6984.594
       164   02 Jun 2027 08:50:05.210   02 Jun 2027 08:51:54.959           109.749               Magadan2          3429.656
       165   02 Jun 2027 08:52:02.580   02 Jun 2027 08:53:36.506            93.926               Magadan2          2935.187
       166   02 Jun 2027 08:54:23.174   02 Jun 2027 08:54:29.053             5.879                Irkutsk           183.719
       167   02 Jun 2027 08:55:13.703   02 Jun 2027 08:55:37.409            23.706                Norilsk           740.813
       168   02 Jun 2027 08:56:30.477   02 Jun 2027 08:56:51.940            21.463              Murmansk2           670.719
       169   02 Jun 2027 09:29:13.186   02 Jun 2027 09:29:57.685            44.499            RioGallegos          1390.594
       170   02 Jun 2027 09:30:35.635   02 Jun 2027 09:31:20.444            44.809            RioGallegos          1400.281
       171   02 Jun 2027 09:33:28.840   02 Jun 2027 09:33:43.493            14.653            RioGallegos           457.906
       172   02 Jun 2027 09:34:56.871   02 Jun 2027 09:35:59.990            63.119            RioGallegos          1972.469
       173   02 Jun 2027 10:04:08.596   02 Jun 2027 10:06:08.086           119.490                Sumatra          3734.063
       174   02 Jun 2027 10:12:08.971   02 Jun 2027 10:12:29.884            20.913                Sumatra           653.531
       175   02 Jun 2027 10:16:43.063   02 Jun 2027 10:16:48.422             5.359                Sumatra           167.469
       176   02 Jun 2027 10:26:38.046   02 Jun 2027 10:26:39.273             1.227                Irkutsk            38.344
       177   02 Jun 2027 10:26:41.925   02 Jun 2027 10:27:00.574            18.649                Novosib           582.781
       178   02 Jun 2027 10:27:34.301   02 Jun 2027 10:28:09.542            35.241                Novosib          1101.281
       179   02 Jun 2027 10:28:14.309   02 Jun 2027 10:28:18.343             4.034                Novosib           126.062
       180   02 Jun 2027 10:28:23.539   02 Jun 2027 10:28:46.059            22.520                Irkutsk           703.750
       181   02 Jun 2027 10:28:48.019   02 Jun 2027 10:29:23.914            35.895                Novosib          1121.719
       182   02 Jun 2027 10:29:37.337   02 Jun 2027 10:30:18.198            40.861                Irkutsk          1276.906
       183   02 Jun 2027 11:08:45.571   02 Jun 2027 11:09:18.740            33.169            RioGallegos          1036.531
       184   02 Jun 2027 11:12:30.006   02 Jun 2027 11:12:57.142            27.136            RioGallegos           848.000
       185   02 Jun 2027 11:42:55.515   02 Jun 2027 11:44:12.290            76.775                Sumatra          2399.219
       186   02 Jun 2027 12:06:00.299   02 Jun 2027 12:06:15.769            15.470                Novosib           483.438
       187   02 Jun 2027 12:09:42.091   02 Jun 2027 12:10:25.724            43.633                Norilsk          1363.531
       188   02 Jun 2027 13:29:34.286   02 Jun 2027 13:32:11.883           157.597                  Delhi          4924.906
       189   02 Jun 2027 13:37:36.463   02 Jun 2027 13:39:09.819            93.356                Novosib          2917.375
       190   02 Jun 2027 13:39:19.308   02 Jun 2027 13:39:50.266            30.958                Norilsk           967.437
       191   02 Jun 2027 13:40:27.903   02 Jun 2027 13:40:42.412            14.509                Novosib           453.406
       192   02 Jun 2027 13:43:17.889   02 Jun 2027 13:43:41.076            23.187              Murmansk2           724.594
       193   02 Jun 2027 13:44:11.090   02 Jun 2027 13:44:35.468            24.378                Norilsk           761.813
       194   02 Jun 2027 13:44:55.219   02 Jun 2027 13:45:21.739            26.520                Norilsk           828.750
       195   02 Jun 2027 13:46:56.542   02 Jun 2027 13:47:12.957            16.415                Norilsk           512.969
       196   02 Jun 2027 14:47:54.014   02 Jun 2027 14:48:18.893            24.879               CapeTown           777.469
       197   02 Jun 2027 14:49:17.916   02 Jun 2027 14:50:39.761            81.845               CapeTown          2557.656
       198   02 Jun 2027 14:52:30.059   02 Jun 2027 14:52:53.965            23.906               CapeTown           747.063
       199   02 Jun 2027 15:09:45.719   02 Jun 2027 15:09:56.312            10.593                 Moscow           331.031
       200   02 Jun 2027 15:10:12.042   02 Jun 2027 15:10:44.165            32.123                 Moscow          1003.844
       201   02 Jun 2027 15:12:52.252   02 Jun 2027 15:13:33.783            41.531              Murmansk2          1297.844
       202   02 Jun 2027 15:13:53.451   02 Jun 2027 15:14:15.686            22.235              Murmansk1           694.844
       203   02 Jun 2027 15:15:44.763   02 Jun 2027 15:15:45.808             1.045              Murmansk1            32.656
       204   02 Jun 2027 15:17:26.590   02 Jun 2027 15:17:28.884             2.294              Murmansk1            71.687
       205   02 Jun 2027 15:18:22.923   02 Jun 2027 15:18:49.194            26.271              Murmansk2           820.969
       206   02 Jun 2027 15:21:12.993   02 Jun 2027 15:21:33.806            20.813              Murmansk1           650.406
       207   02 Jun 2027 15:23:08.677   02 Jun 2027 15:23:17.048             8.371              Murmansk1           261.594
       208   02 Jun 2027 15:23:27.421   02 Jun 2027 15:24:18.210            50.789              Murmansk1          1587.156
       209   02 Jun 2027 15:27:20.289   02 Jun 2027 15:27:35.557            15.268                Anadyr2           477.125
       210   02 Jun 2027 15:28:26.172   02 Jun 2027 15:29:55.171            88.999                Anadyr1          2781.219
       211   02 Jun 2027 15:31:13.447   02 Jun 2027 15:31:53.063            39.616                Anadyr1          1238.000
       212   02 Jun 2027 15:35:43.711   02 Jun 2027 15:35:48.115             4.404                Anadyr2           137.625
       213   02 Jun 2027 15:35:56.630   02 Jun 2027 15:35:56.699             0.069                Anadyr1             2.156
       214   02 Jun 2027 16:30:36.176   02 Jun 2027 16:31:05.358            29.182               CapeTown           911.938
       215   02 Jun 2027 16:33:43.749   02 Jun 2027 16:33:54.045            10.296               CapeTown           321.750
       216   02 Jun 2027 16:51:48.011   02 Jun 2027 16:53:23.782            95.771              Murmansk1          2992.844
       217   02 Jun 2027 16:53:38.214   02 Jun 2027 16:54:20.127            41.913              Murmansk1          1309.781
       218   02 Jun 2027 16:58:24.005   02 Jun 2027 16:59:15.488            51.483              Murmansk1          1608.844
       219   02 Jun 2027 17:02:44.421   02 Jun 2027 17:03:47.462            63.041                Anadyr2          1970.031
       220   02 Jun 2027 17:06:27.005   02 Jun 2027 17:06:33.136             6.131                Anadyr1           191.594
       221   02 Jun 2027 17:06:38.624   02 Jun 2027 17:08:30.135           111.511               Magadan2          3484.719
       222   02 Jun 2027 17:08:59.158   02 Jun 2027 17:09:25.691            26.533               Magadan1           829.156
       223   02 Jun 2027 18:38:38.056   02 Jun 2027 18:40:44.709           126.653                Anadyr2          3957.906
       224   02 Jun 2027 18:40:58.281   02 Jun 2027 18:42:28.578            90.297                Anadyr1          2821.781
       225   02 Jun 2027 18:42:32.063   02 Jun 2027 18:44:27.464           115.401               Magadan1          3606.281
       226   02 Jun 2027 18:44:54.035   02 Jun 2027 18:45:19.104            25.069               Magadan2           783.406
       227   02 Jun 2027 18:48:30.242   02 Jun 2027 18:49:35.412            65.170               Magadan1          2036.563
       228   02 Jun 2027 20:14:31.065   02 Jun 2027 20:16:36.565           125.500                Anadyr2          3921.875
       229   02 Jun 2027 20:16:40.454   02 Jun 2027 20:17:58.768            78.314                Anadyr1          2447.312
       230   02 Jun 2027 20:18:13.572   02 Jun 2027 20:20:27.071           133.499               Magadan1          4171.844
       231   02 Jun 2027 20:21:18.599   02 Jun 2027 20:21:45.098            26.499               Magadan1           828.094
       232   02 Jun 2027 20:24:01.097   02 Jun 2027 20:25:08.877            67.780               Magadan2          2118.125
       233   02 Jun 2027 20:25:13.967   02 Jun 2027 20:25:28.214            14.247                Irkutsk           445.219
       234   02 Jun 2027 20:26:12.083   02 Jun 2027 20:28:00.546           108.463                Irkutsk          3389.469
       235   02 Jun 2027 21:09:14.842   02 Jun 2027 21:09:39.965            25.123            RioGallegos           785.094
       236   02 Jun 2027 21:17:32.232   02 Jun 2027 21:18:13.412            41.180            RioGallegos          1286.875
       237   02 Jun 2027 21:50:58.633   02 Jun 2027 21:52:21.670            83.037                Anadyr1          2594.906
       238   02 Jun 2027 21:52:22.437   02 Jun 2027 21:54:29.284           126.847                Norilsk          3963.969
       239   02 Jun 2027 21:56:25.326   02 Jun 2027 21:57:21.689            56.363                Irkutsk          1761.344
       240   02 Jun 2027 21:57:40.825   02 Jun 2027 21:58:10.546            29.721                Novosib           928.781
       241   02 Jun 2027 21:58:43.738   02 Jun 2027 22:00:21.746            98.008                Novosib          3062.750
       242   02 Jun 2027 22:10:44.928   02 Jun 2027 22:11:26.829            41.901                Sumatra          1309.406
       243   02 Jun 2027 22:20:00.253   02 Jun 2027 22:20:12.644            12.391                Sumatra           387.219
       244   02 Jun 2027 23:24:30.911   02 Jun 2027 23:26:06.799            95.888                Anadyr2          2996.500
       245   02 Jun 2027 23:26:06.799   02 Jun 2027 23:26:47.328            40.529                Anadyr1          1266.531
       246   02 Jun 2027 23:27:12.298   02 Jun 2027 23:27:36.636            24.338                Anadyr1           760.562
       247   02 Jun 2027 23:28:21.229   02 Jun 2027 23:28:41.620            20.391                Norilsk           637.219
       248   02 Jun 2027 23:28:58.943   02 Jun 2027 23:30:24.466            85.523               Magadan2          2672.594
       249   02 Jun 2027 23:32:15.007   02 Jun 2027 23:32:54.843            39.836                Novosib          1244.875
       250   02 Jun 2027 23:33:08.714   02 Jun 2027 23:33:37.679            28.965                Novosib           905.156
       251   02 Jun 2027 23:35:50.972   02 Jun 2027 23:37:23.772            92.800                Novosib          2900.000
       252   02 Jun 2027 23:39:46.386   02 Jun 2027 23:40:46.889            60.503                  Delhi          1890.719
       253   02 Jun 2027 23:47:12.116   02 Jun 2027 23:47:20.847             8.731                  Delhi           272.844
       254   03 Jun 2027 00:20:53.391   03 Jun 2027 00:20:58.398             5.007            RioGallegos           156.469
       255   03 Jun 2027 00:23:15.913   03 Jun 2027 00:23:52.201            36.288            RioGallegos          1134.000
       256   03 Jun 2027 00:57:55.476   03 Jun 2027 00:58:36.626            41.150                Anadyr1          1285.937
       257   03 Jun 2027 00:59:12.238   03 Jun 2027 00:59:59.772            47.534                Anadyr1          1485.437
       258   03 Jun 2027 00:59:59.772   03 Jun 2027 01:00:30.614            30.842                Anadyr2           963.813
       259   03 Jun 2027 01:03:38.499   03 Jun 2027 01:04:02.144            23.645                Anadyr2           738.906
       260   03 Jun 2027 01:04:05.822   03 Jun 2027 01:05:24.732            78.910               Magadan1          2465.937
       261   03 Jun 2027 01:05:24.732   03 Jun 2027 01:06:31.234            66.502               Magadan2          2078.187
       262   03 Jun 2027 01:06:37.024   03 Jun 2027 01:07:22.456            45.432              Murmansk1          1419.750
       263   03 Jun 2027 01:08:09.817   03 Jun 2027 01:09:35.698            85.881                Novosib          2683.781
       264   03 Jun 2027 01:10:16.524   03 Jun 2027 01:10:23.607             7.083              Murmansk1           221.344
       265   03 Jun 2027 01:11:04.820   03 Jun 2027 01:12:00.640            55.820                 Moscow          1744.375
       266   03 Jun 2027 01:22:26.513   03 Jun 2027 01:22:39.530            13.017                  Delhi           406.781
       267   03 Jun 2027 01:39:22.401   03 Jun 2027 01:39:52.741            30.340               CapeTown           948.125
       268   03 Jun 2027 01:43:06.054   03 Jun 2027 01:43:17.103            11.049               CapeTown           345.281
       269   03 Jun 2027 02:31:28.100   03 Jun 2027 02:32:34.097            65.997                Anadyr2          2062.406
       270   03 Jun 2027 02:32:34.124   03 Jun 2027 02:33:32.708            58.584                Anadyr1          1830.750
       271   03 Jun 2027 02:34:04.527   03 Jun 2027 02:34:30.303            25.776                Anadyr1           805.500
       272   03 Jun 2027 02:36:06.172   03 Jun 2027 02:36:58.516            52.344               Magadan2          1635.750
       273   03 Jun 2027 02:37:19.427   03 Jun 2027 02:37:23.799             4.372               Magadan2           136.625
       274   03 Jun 2027 02:39:30.537   03 Jun 2027 02:39:54.211            23.674               Magadan2           739.812
       275   03 Jun 2027 02:40:03.222   03 Jun 2027 02:40:08.383             5.161                Norilsk           161.281
       276   03 Jun 2027 02:42:27.602   03 Jun 2027 02:43:17.727            50.125              Murmansk1          1566.406
       277   03 Jun 2027 02:43:52.832   03 Jun 2027 02:44:29.963            37.131              Murmansk2          1160.344
       278   03 Jun 2027 02:44:51.245   03 Jun 2027 02:46:19.732            88.487                Novosib          2765.219
       279   03 Jun 2027 02:52:08.705   03 Jun 2027 02:52:11.697             2.992                Novosib            93.500
       280   03 Jun 2027 02:54:12.087   03 Jun 2027 02:54:32.185            20.098                 Moscow           628.063
       281   03 Jun 2027 03:09:46.719   03 Jun 2027 03:10:50.403            63.684               CapeTown          1990.125
       282   03 Jun 2027 04:12:58.691   03 Jun 2027 04:16:49.751           231.060               Magadan2          7220.625
       283   03 Jun 2027 04:17:23.409   03 Jun 2027 04:17:32.923             9.514                Anadyr2           297.312
       284   03 Jun 2027 04:25:55.494   03 Jun 2027 04:26:02.156             6.662                Norilsk           208.187
       285   03 Jun 2027 05:49:07.131   03 Jun 2027 05:50:56.473           109.342               Magadan1          3416.938
       286   03 Jun 2027 05:50:56.473   03 Jun 2027 05:51:09.242            12.769               Magadan2           399.031
       287   03 Jun 2027 05:51:18.431   03 Jun 2027 05:54:12.697           174.266               Magadan1          5445.812
       288   03 Jun 2027 07:23:15.018   03 Jun 2027 07:24:48.447            93.429               Magadan2          2919.656
       289   03 Jun 2027 07:24:55.011   03 Jun 2027 07:25:20.401            25.390               Magadan1           793.438
       290   03 Jun 2027 07:25:24.658   03 Jun 2027 07:26:58.304            93.646               Magadan2          2926.437
       291   03 Jun 2027 07:27:17.264   03 Jun 2027 07:28:06.469            49.205               Magadan2          1537.656
       292   03 Jun 2027 07:28:09.426   03 Jun 2027 07:28:12.962             3.536               Magadan2           110.500
       293   03 Jun 2027 07:28:15.301   03 Jun 2027 07:28:25.725            10.424               Magadan1           325.750
       294   03 Jun 2027 07:28:43.114   03 Jun 2027 07:30:07.633            84.519                Anadyr1          2641.219
       295   03 Jun 2027 08:09:38.302   03 Jun 2027 08:09:55.866            17.564            RioGallegos           548.875
       296   03 Jun 2027 08:45:25.070   03 Jun 2027 08:46:28.162            63.092                Sumatra          1971.625
       297   03 Jun 2027 08:59:27.396   03 Jun 2027 09:00:01.301            33.905               Magadan2          1059.531
       298   03 Jun 2027 09:01:11.931   03 Jun 2027 09:01:58.711            46.780               Magadan1          1461.875
       299   03 Jun 2027 09:02:11.797   03 Jun 2027 09:02:57.747            45.950               Magadan2          1435.937
       300   03 Jun 2027 09:03:01.794   03 Jun 2027 09:03:18.927            17.133               Magadan1           535.406
       301   03 Jun 2027 09:03:27.538   03 Jun 2027 09:03:40.706            13.168                Novosib           411.500
       302   03 Jun 2027 09:04:05.025   03 Jun 2027 09:04:48.232            43.207               Magadan1          1350.219
       303   03 Jun 2027 09:05:06.300   03 Jun 2027 09:05:16.251             9.951               Magadan2           310.969
       304   03 Jun 2027 09:05:43.732   03 Jun 2027 09:06:00.383            16.651                Irkutsk           520.344
       305   03 Jun 2027 09:06:20.448   03 Jun 2027 09:06:22.384             1.936                Irkutsk            60.500
       306   03 Jun 2027 09:13:13.698   03 Jun 2027 09:14:07.366            53.668              Murmansk1          1677.125
       307   03 Jun 2027 09:41:21.991   03 Jun 2027 09:42:07.452            45.461            RioGallegos          1420.656
       308   03 Jun 2027 10:16:05.225   03 Jun 2027 10:16:54.475            49.250                Sumatra          1539.063
       309   03 Jun 2027 10:24:54.132   03 Jun 2027 10:25:00.954             6.822                Sumatra           213.188
       310   03 Jun 2027 10:26:26.542   03 Jun 2027 10:26:37.526            10.984                  Delhi           343.250
       311   03 Jun 2027 10:29:21.249   03 Jun 2027 10:29:41.760            20.511                  Delhi           640.969
       312   03 Jun 2027 10:36:08.551   03 Jun 2027 10:36:10.931             2.380                  Delhi            74.375
       313   03 Jun 2027 10:38:46.033   03 Jun 2027 10:39:31.078            45.045                Irkutsk          1407.656
       314   03 Jun 2027 10:39:46.514   03 Jun 2027 10:40:08.128            21.614                Novosib           675.437
       315   03 Jun 2027 10:40:11.511   03 Jun 2027 10:40:13.004             1.493                Novosib            46.656
       316   03 Jun 2027 10:40:14.049   03 Jun 2027 10:40:45.493            31.444                Novosib           982.625
       317   03 Jun 2027 10:40:48.563   03 Jun 2027 10:40:59.024            10.461                Irkutsk           326.906
       318   03 Jun 2027 10:41:19.147   03 Jun 2027 10:41:56.976            37.829                Irkutsk          1182.156
       319   03 Jun 2027 10:42:02.121   03 Jun 2027 10:42:26.762            24.641                Norilsk           770.031
       320   03 Jun 2027 10:42:55.129   03 Jun 2027 10:43:07.208            12.079                Norilsk           377.469
       321   03 Jun 2027 11:21:17.306   03 Jun 2027 11:21:28.211            10.905            RioGallegos           340.781
       322   03 Jun 2027 11:21:59.694   03 Jun 2027 11:22:37.473            37.779            RioGallegos          1180.594
       323   03 Jun 2027 12:01:07.847   03 Jun 2027 12:02:29.226            81.379                  Delhi          2543.094
       324   03 Jun 2027 12:08:07.382   03 Jun 2027 12:09:15.246            67.864                Novosib          2120.750
       325   03 Jun 2027 12:10:42.501   03 Jun 2027 12:10:52.839            10.338                Novosib           323.063
       326   03 Jun 2027 12:14:31.985   03 Jun 2027 12:14:59.247            27.262                Novosib           851.938
       327   03 Jun 2027 12:17:58.230   03 Jun 2027 12:18:45.957            47.727                Norilsk          1491.469
       328   03 Jun 2027 13:44:41.760   03 Jun 2027 13:46:04.201            82.441                 Moscow          2576.281
       329   03 Jun 2027 13:47:38.226   03 Jun 2027 13:47:47.033             8.807                 Moscow           275.219
       330   03 Jun 2027 13:48:07.361   03 Jun 2027 13:48:55.402            48.041              Murmansk1          1501.281
       331   03 Jun 2027 13:49:39.155   03 Jun 2027 13:49:48.364             9.209              Murmansk1           287.781
       332   03 Jun 2027 13:49:48.364   03 Jun 2027 13:50:16.297            27.933              Murmansk2           872.906
       333   03 Jun 2027 13:50:42.586   03 Jun 2027 13:51:06.153            23.567              Murmansk1           736.469
       334   03 Jun 2027 13:52:00.055   03 Jun 2027 13:53:58.897           118.842                Norilsk          3713.813
       335   03 Jun 2027 13:55:58.592   03 Jun 2027 13:56:55.195            56.603                Norilsk          1768.844
       336   03 Jun 2027 14:59:23.205   03 Jun 2027 15:00:19.991            56.786               CapeTown          1774.563
       337   03 Jun 2027 15:00:52.663   03 Jun 2027 15:02:25.944            93.281               CapeTown          2915.031
       338   03 Jun 2027 15:05:59.096   03 Jun 2027 15:06:09.010             9.914               CapeTown           309.813
       339   03 Jun 2027 15:25:08.360   03 Jun 2027 15:25:34.258            25.898              Murmansk1           809.312
       340   03 Jun 2027 15:25:43.109   03 Jun 2027 15:25:44.467             1.358              Murmansk2            42.437
       341   03 Jun 2027 15:25:53.193   03 Jun 2027 15:26:42.780            49.587              Murmansk1          1549.594
       342   03 Jun 2027 15:31:16.908   03 Jun 2027 15:31:33.544            16.636              Murmansk1           519.875
       343   03 Jun 2027 15:31:48.400   03 Jun 2027 15:31:54.485             6.085                 Moscow           190.156
       344   03 Jun 2027 15:33:14.833   03 Jun 2027 15:33:35.060            20.227              Murmansk1           632.094
       345   03 Jun 2027 15:34:01.695   03 Jun 2027 15:34:57.091            55.396              Murmansk1          1731.125
       346   03 Jun 2027 15:39:13.517   03 Jun 2027 15:39:36.720            23.203                Anadyr1           725.094
       347   03 Jun 2027 15:40:12.331   03 Jun 2027 15:41:50.385            98.054                Anadyr2          3064.188
       348   03 Jun 2027 15:47:39.375   03 Jun 2027 15:47:47.741             8.366                Anadyr1           261.438
       349   03 Jun 2027 15:48:18.808   03 Jun 2027 15:48:34.284            15.476                Anadyr1           483.625
       350   03 Jun 2027 16:39:23.443   03 Jun 2027 16:39:37.141            13.698               CapeTown           428.063
       351   03 Jun 2027 16:42:24.639   03 Jun 2027 16:42:59.492            34.853               CapeTown          1089.156
       352   03 Jun 2027 17:04:24.075   03 Jun 2027 17:05:53.786            89.711              Murmansk2          2803.469
       353   03 Jun 2027 17:06:48.917   03 Jun 2027 17:07:32.510            43.593              Murmansk2          1362.281
       354   03 Jun 2027 17:07:58.489   03 Jun 2027 17:09:06.172            67.683              Murmansk2          2115.094
       355   03 Jun 2027 17:14:44.915   03 Jun 2027 17:15:52.067            67.152                Anadyr1          2098.500
       356   03 Jun 2027 17:18:14.399   03 Jun 2027 17:19:03.456            49.057               Magadan1          1533.031
       357   03 Jun 2027 17:20:59.481   03 Jun 2027 17:21:28.173            28.692               Magadan1           896.625
       358   03 Jun 2027 17:23:41.175   03 Jun 2027 17:25:02.689            81.514               Magadan1          2547.312
       359   03 Jun 2027 18:50:39.575   03 Jun 2027 18:52:44.983           125.408                Anadyr2          3919.000
       360   03 Jun 2027 18:52:51.393   03 Jun 2027 18:54:49.412           118.019                Anadyr1          3688.094
       361   03 Jun 2027 18:55:36.660   03 Jun 2027 18:56:13.158            36.498               Magadan2          1140.563
       362   03 Jun 2027 18:57:38.051   03 Jun 2027 18:58:10.614            32.563               Magadan2          1017.594
       363   03 Jun 2027 18:59:37.747   03 Jun 2027 18:59:54.674            16.927               Magadan1           528.969
       364   03 Jun 2027 20:26:31.107   03 Jun 2027 20:30:44.743           253.636                Anadyr2          7926.125
       365   03 Jun 2027 20:30:55.188   03 Jun 2027 20:32:25.220            90.032                Norilsk          2813.500
       366   03 Jun 2027 20:32:37.845   03 Jun 2027 20:33:11.291            33.446               Magadan1          1045.187
       367   03 Jun 2027 20:34:11.032   03 Jun 2027 20:36:27.478           136.446                Irkutsk          4263.938
       368   03 Jun 2027 20:38:35.690   03 Jun 2027 20:40:09.352            93.662                Irkutsk          2926.937
       369   03 Jun 2027 20:50:14.609   03 Jun 2027 20:51:29.948            75.339                Sumatra          2354.344
       370   03 Jun 2027 20:54:16.832   03 Jun 2027 20:55:16.995            60.163                Sumatra          1880.094
       371   03 Jun 2027 22:03:09.453   03 Jun 2027 22:03:29.708            20.255                Anadyr2           632.969
       372   03 Jun 2027 22:04:13.985   03 Jun 2027 22:04:19.810             5.825                Anadyr2           182.031
       373   03 Jun 2027 22:04:23.711   03 Jun 2027 22:04:45.170            21.459                Norilsk           670.594
       374   03 Jun 2027 22:05:05.400   03 Jun 2027 22:05:18.164            12.764                Norilsk           398.875
       375   03 Jun 2027 22:05:36.767   03 Jun 2027 22:06:10.209            33.442                Norilsk          1045.063
       376   03 Jun 2027 22:06:28.512   03 Jun 2027 22:07:12.033            43.521               Magadan1          1360.031
       377   03 Jun 2027 22:09:20.480   03 Jun 2027 22:10:28.238            67.758                Novosib          2117.437
       378   03 Jun 2027 22:13:07.667   03 Jun 2027 22:13:19.754            12.087                Novosib           377.719
       379   03 Jun 2027 22:16:23.507   03 Jun 2027 22:17:45.922            82.415                Novosib          2575.469
       380   03 Jun 2027 22:22:05.640   03 Jun 2027 22:22:27.977            22.337                Sumatra           698.031
       381   03 Jun 2027 22:27:58.341   03 Jun 2027 22:27:59.734             1.393                Sumatra            43.531
       382   03 Jun 2027 22:28:42.533   03 Jun 2027 22:30:04.021            81.488                Sumatra          2546.500
       383   03 Jun 2027 23:36:43.004   03 Jun 2027 23:38:07.824            84.820                Anadyr2          2650.625
       384   03 Jun 2027 23:40:23.297   03 Jun 2027 23:40:42.400            19.103                Norilsk           596.969
       385   03 Jun 2027 23:40:59.980   03 Jun 2027 23:42:16.393            76.413               Magadan1          2387.906
       386   03 Jun 2027 23:42:16.393   03 Jun 2027 23:42:18.359             1.966               Magadan2            61.437
       387   03 Jun 2027 23:43:52.409   03 Jun 2027 23:46:53.250           180.841              Murmansk2          5651.281
       388   03 Jun 2027 23:51:38.656   03 Jun 2027 23:52:38.321            59.665                  Delhi          1864.531
       389   03 Jun 2027 23:55:21.867   03 Jun 2027 23:55:42.300            20.433                  Delhi           638.531
       390   03 Jun 2027 23:59:15.821   03 Jun 2027 23:59:30.519            14.698                  Delhi           459.312
       391   03 Jun 2027 23:59:56.478   04 Jun 2027 00:01:09.622            73.144                  Delhi          2285.750
       392   04 Jun 2027 01:09:36.669   04 Jun 2027 01:10:01.219            24.550                Anadyr2           767.187
       393   04 Jun 2027 01:11:23.498   04 Jun 2027 01:12:19.590            56.092                Anadyr2          1752.875
       394   04 Jun 2027 01:12:23.307   04 Jun 2027 01:12:37.400            14.093                Anadyr1           440.406
       395   04 Jun 2027 01:15:46.860   04 Jun 2027 01:18:08.258           141.398               Magadan1          4418.688
       396   04 Jun 2027 01:18:36.379   04 Jun 2027 01:19:24.102            47.723              Murmansk1          1491.344
       397   04 Jun 2027 01:20:13.615   04 Jun 2027 01:21:42.190            88.575                Novosib          2767.969
       398   04 Jun 2027 01:25:49.866   04 Jun 2027 01:26:02.360            12.494                 Moscow           390.438
       399   04 Jun 2027 01:26:43.872   04 Jun 2027 01:26:51.074             7.202                 Moscow           225.062
       400   04 Jun 2027 01:27:53.381   04 Jun 2027 01:28:00.540             7.159                 Moscow           223.719
       401   04 Jun 2027 01:28:57.976   04 Jun 2027 01:29:35.916            37.940                  Delhi          1185.625
       402   04 Jun 2027 01:34:17.455   04 Jun 2027 01:34:40.869            23.414                  Delhi           731.687
       403   04 Jun 2027 01:49:50.088   04 Jun 2027 01:49:57.810             7.722               CapeTown           241.312
       404   04 Jun 2027 01:50:57.073   04 Jun 2027 01:51:29.214            32.141               CapeTown          1004.406
       405   04 Jun 2027 01:56:17.298   04 Jun 2027 01:56:24.604             7.306               CapeTown           228.312
       406   04 Jun 2027 02:43:16.063   04 Jun 2027 02:43:30.573            14.510                Anadyr2           453.438
       407   04 Jun 2027 02:43:42.902   04 Jun 2027 02:45:31.511           108.609                Anadyr1          3394.031
       408   04 Jun 2027 02:47:34.590   04 Jun 2027 02:48:38.395            63.805               Magadan1          1993.906
       409   04 Jun 2027 02:49:13.692   04 Jun 2027 02:49:20.183             6.491               Magadan1           202.844
       410   04 Jun 2027 02:51:21.622   04 Jun 2027 02:51:38.135            16.513               Magadan1           516.031
       411   04 Jun 2027 02:52:01.413   04 Jun 2027 02:52:12.673            11.260                Norilsk           351.875
       412   04 Jun 2027 02:53:39.686   04 Jun 2027 02:54:14.600            34.914                Norilsk          1091.062
       413   04 Jun 2027 02:54:29.378   04 Jun 2027 02:54:59.503            30.125              Murmansk2           941.406
       414   04 Jun 2027 02:55:58.539   04 Jun 2027 02:56:13.101            14.562              Murmansk1           455.062
       415   04 Jun 2027 02:56:48.801   04 Jun 2027 02:58:22.606            93.805                Novosib          2931.406
       416   04 Jun 2027 03:00:19.506   04 Jun 2027 03:00:46.481            26.975                Novosib           842.969
       417   04 Jun 2027 03:00:55.650   04 Jun 2027 03:01:33.350            37.700                 Moscow          1178.125
       418   04 Jun 2027 03:02:07.685   04 Jun 2027 03:03:33.140            85.455                 Moscow          2670.469
       419   04 Jun 2027 03:03:46.166   04 Jun 2027 03:04:52.777            66.611              Murmansk2          2081.594
       420   04 Jun 2027 03:05:29.961   04 Jun 2027 03:09:31.429           241.468                 Moscow          7545.875
       421   04 Jun 2027 03:21:39.669   04 Jun 2027 03:25:30.571           230.902               CapeTown          7215.688
       422   04 Jun 2027 04:18:19.804   04 Jun 2027 04:19:49.102            89.298                Anadyr1          2790.563
       423   04 Jun 2027 04:19:50.518   04 Jun 2027 04:20:08.058            17.540               Magadan2           548.125
       424   04 Jun 2027 04:25:06.770   04 Jun 2027 04:26:13.753            66.983               Magadan1          2093.219
       425   04 Jun 2027 04:26:15.158   04 Jun 2027 04:26:58.263            43.105               Magadan2          1347.031
       426   04 Jun 2027 04:27:28.631   04 Jun 2027 04:28:15.947            47.316                Anadyr2          1478.625
       427   04 Jun 2027 06:00:54.981   04 Jun 2027 06:03:04.636           129.655               Magadan1          4051.719
       428   04 Jun 2027 06:03:04.636   04 Jun 2027 06:03:35.150            30.514               Magadan2           953.562
       429   04 Jun 2027 06:03:46.803   04 Jun 2027 06:04:15.924            29.121                Anadyr2           910.031
       430   04 Jun 2027 06:05:05.501   04 Jun 2027 06:06:05.907            60.406               Magadan2          1887.687
       431   04 Jun 2027 07:33:57.159   04 Jun 2027 07:34:06.840             9.681               Magadan2           302.531
       432   04 Jun 2027 07:34:12.417   04 Jun 2027 07:35:15.958            63.541               Magadan2          1985.656
       433   04 Jun 2027 07:35:25.305   04 Jun 2027 07:35:28.976             3.671               Magadan2           114.719
       434   04 Jun 2027 07:36:41.605   04 Jun 2027 07:37:37.242            55.637                Anadyr2          1738.656
       435   04 Jun 2027 07:38:11.265   04 Jun 2027 07:38:46.913            35.648                Anadyr2          1114.000
       436   04 Jun 2027 07:38:50.477   04 Jun 2027 07:39:06.782            16.305                Norilsk           509.531
       437   04 Jun 2027 07:39:20.340   04 Jun 2027 07:39:45.568            25.228               Magadan1           788.375
       438   04 Jun 2027 07:40:05.775   04 Jun 2027 07:40:17.064            11.289               Magadan2           352.781
       439   04 Jun 2027 07:40:21.619   04 Jun 2027 07:40:40.059            18.440                Irkutsk           576.250
       440   04 Jun 2027 07:40:47.636   04 Jun 2027 07:41:02.480            14.844               Magadan1           463.875
       441   04 Jun 2027 07:41:07.815   04 Jun 2027 07:41:43.764            35.949               Magadan1          1123.406
       442   04 Jun 2027 07:42:33.928   04 Jun 2027 07:42:51.008            17.080                Norilsk           533.750
       443   04 Jun 2027 07:45:23.842   04 Jun 2027 07:45:28.090             4.248              Murmansk2           132.750
       444   04 Jun 2027 07:49:56.830   04 Jun 2027 07:50:19.020            22.190              Murmansk2           693.437
       445   04 Jun 2027 08:17:46.517   04 Jun 2027 08:18:25.154            38.637            RioGallegos          1207.406
       446   04 Jun 2027 08:55:28.899   04 Jun 2027 08:57:12.836           103.937                Sumatra          3248.031
       447   04 Jun 2027 09:13:10.606   04 Jun 2027 09:13:54.518            43.912               Magadan2          1372.250
       448   04 Jun 2027 09:15:08.561   04 Jun 2027 09:15:21.030            12.469                Irkutsk           389.656
       449   04 Jun 2027 09:15:26.829   04 Jun 2027 09:15:54.389            27.560                Novosib           861.250
       450   04 Jun 2027 09:16:31.340   04 Jun 2027 09:16:41.196             9.856                Irkutsk           308.000
       451   04 Jun 2027 09:16:43.362   04 Jun 2027 09:16:46.193             2.831                Novosib            88.469
       452   04 Jun 2027 09:17:14.986   04 Jun 2027 09:17:22.669             7.683                Irkutsk           240.094
       453   04 Jun 2027 09:17:30.008   04 Jun 2027 09:17:43.376            13.368                Novosib           417.750
       454   04 Jun 2027 09:17:56.272   04 Jun 2027 09:18:03.889             7.617                Novosib           238.031
       455   04 Jun 2027 09:18:05.658   04 Jun 2027 09:18:20.166            14.508                Irkutsk           453.375
       456   04 Jun 2027 09:18:50.819   04 Jun 2027 09:19:08.844            18.025                Norilsk           563.281
       457   04 Jun 2027 09:53:34.553   04 Jun 2027 09:54:45.006            70.453            RioGallegos          2201.656
       458   04 Jun 2027 10:28:07.469   04 Jun 2027 10:29:22.235            74.766                Sumatra          2336.437
       459   04 Jun 2027 10:47:19.819   04 Jun 2027 10:47:52.909            33.090                  Delhi          1034.063
       460   04 Jun 2027 10:48:18.940   04 Jun 2027 10:48:33.430            14.490                  Delhi           452.812
       461   04 Jun 2027 10:49:32.134   04 Jun 2027 10:50:35.713            63.579                Irkutsk          1986.844
       462   04 Jun 2027 10:50:53.008   04 Jun 2027 10:51:08.651            15.643                Irkutsk           488.844
       463   04 Jun 2027 10:51:24.217   04 Jun 2027 10:51:44.634            20.417                Novosib           638.031
       464   04 Jun 2027 10:51:56.127   04 Jun 2027 10:52:06.860            10.733                Norilsk           335.406
       465   04 Jun 2027 10:52:11.099   04 Jun 2027 10:52:31.362            20.263                Irkutsk           633.219
       466   04 Jun 2027 10:52:45.804   04 Jun 2027 10:52:47.864             2.060                Novosib            64.375
       467   04 Jun 2027 10:52:50.255   04 Jun 2027 10:53:27.735            37.480                Irkutsk          1171.250
       468   04 Jun 2027 10:53:46.886   04 Jun 2027 10:54:03.061            16.175                Norilsk           505.469
       469   04 Jun 2027 10:54:06.766   04 Jun 2027 10:54:12.953             6.187                Novosib           193.344
       470   04 Jun 2027 10:54:26.204   04 Jun 2027 10:54:52.244            26.040                Norilsk           813.750
       471   04 Jun 2027 11:34:40.822   04 Jun 2027 11:35:18.537            37.715            RioGallegos          1178.594
       472   04 Jun 2027 11:36:27.175   04 Jun 2027 11:36:54.749            27.574            RioGallegos           861.687
       473   04 Jun 2027 12:12:33.768   04 Jun 2027 12:12:57.397            23.629                  Delhi           738.406
       474   04 Jun 2027 12:15:19.516   04 Jun 2027 12:17:19.812           120.296                  Delhi          3759.250
       475   04 Jun 2027 12:20:59.269   04 Jun 2027 12:21:25.401            26.132                Novosib           816.625
       476   04 Jun 2027 12:25:06.928   04 Jun 2027 12:25:25.550            18.622                Norilsk           581.938
       477   04 Jun 2027 12:30:00.460   04 Jun 2027 12:30:36.300            35.840                Norilsk          1120.000
       478   04 Jun 2027 13:56:42.057   04 Jun 2027 13:59:57.381           195.324                 Moscow          6103.875
       479   04 Jun 2027 14:00:10.956   04 Jun 2027 14:01:49.097            98.141              Murmansk1          3066.906
       480   04 Jun 2027 14:02:23.023   04 Jun 2027 14:03:01.691            38.668              Murmansk2          1208.375
       481   04 Jun 2027 14:04:44.874   04 Jun 2027 14:04:56.831            11.957                Norilsk           373.656
       482   04 Jun 2027 14:05:31.168   04 Jun 2027 14:07:10.640            99.472                Norilsk          3108.500
