uniorb/output/strategy_4/Drop/Drop_KinoSat_111107.txt

KinoSat_111107
-------------------------
    Access    *     Start Time (UTCG)     *     Stop Time (UTCG)  *   Duration (s)        *       Station  *  Data (Mbytes)
         1   01 Jun 2027 03:19:04.748   01 Jun 2027 03:19:50.757            46.009              Murmansk2          1437.781
         2   01 Jun 2027 03:19:50.757   01 Jun 2027 03:21:20.508            89.751              Murmansk1          2804.719
         3   01 Jun 2027 04:40:40.623   01 Jun 2027 04:40:52.644            12.021               Magadan1           375.656
         4   01 Jun 2027 04:41:05.519   01 Jun 2027 04:43:29.503           143.984                Anadyr2          4499.500
         5   01 Jun 2027 04:43:37.438   01 Jun 2027 04:44:40.673            63.235               Magadan1          1976.094
         6   01 Jun 2027 04:45:39.123   01 Jun 2027 04:46:11.351            32.228               Magadan2          1007.125
         7   01 Jun 2027 06:18:19.058   01 Jun 2027 06:19:07.149            48.091                Norilsk          1502.844
         8   01 Jun 2027 06:19:20.342   01 Jun 2027 06:20:51.347            91.005                Irkutsk          2843.906
         9   01 Jun 2027 06:21:06.628   01 Jun 2027 06:22:37.101            90.473                Anadyr1          2827.281
        10   01 Jun 2027 06:22:47.328   01 Jun 2027 06:23:29.352            42.024                Norilsk          1313.250
        11   01 Jun 2027 06:59:11.359   01 Jun 2027 06:59:31.399            20.040            RioGallegos           626.250
        12   01 Jun 2027 07:00:55.698   01 Jun 2027 07:01:30.563            34.865            RioGallegos          1089.531
        13   01 Jun 2027 07:02:44.507   01 Jun 2027 07:03:41.607            57.100            RioGallegos          1784.375
        14   01 Jun 2027 07:53:45.997   01 Jun 2027 07:54:52.210            66.213               Magadan2          2069.156
        15   01 Jun 2027 07:54:58.836   01 Jun 2027 07:56:22.469            83.633                Novosib          2613.531
        16   01 Jun 2027 07:56:42.065   01 Jun 2027 07:58:11.506            89.441                Irkutsk          2795.031
        17   01 Jun 2027 07:58:14.306   01 Jun 2027 07:59:17.149            62.843                Novosib          1963.844
        18   01 Jun 2027 08:00:12.703   01 Jun 2027 08:01:00.266            47.563                Norilsk          1486.344
        19   01 Jun 2027 08:33:01.250   01 Jun 2027 08:35:37.602           156.352            RioGallegos          4886.000
        20   01 Jun 2027 09:08:38.591   01 Jun 2027 09:09:20.661            42.070                Sumatra          1314.687
        21   01 Jun 2027 09:10:23.972   01 Jun 2027 09:10:52.623            28.651                Sumatra           895.344
        22   01 Jun 2027 09:31:02.862   01 Jun 2027 09:32:29.118            86.256                Norilsk          2695.500
        23   01 Jun 2027 09:32:41.632   01 Jun 2027 09:33:27.159            45.527                Novosib          1422.719
        24   01 Jun 2027 09:33:30.008   01 Jun 2027 09:35:57.397           147.389              Murmansk1          4605.906
        25   01 Jun 2027 09:37:07.766   01 Jun 2027 09:37:35.512            27.746              Murmansk1           867.063
        26   01 Jun 2027 09:38:07.328   01 Jun 2027 09:38:17.791            10.463              Murmansk1           326.969
        27   01 Jun 2027 10:10:30.890   01 Jun 2027 10:11:41.589            70.699            RioGallegos          2209.344
        28   01 Jun 2027 10:12:27.648   01 Jun 2027 10:12:43.327            15.679            RioGallegos           489.969
        29   01 Jun 2027 10:14:06.397   01 Jun 2027 10:14:56.082            49.685            RioGallegos          1552.656
        30   01 Jun 2027 10:44:42.973   01 Jun 2027 10:45:47.950            64.977                Sumatra          2030.531
        31   01 Jun 2027 10:48:06.844   01 Jun 2027 10:49:52.530           105.686                Sumatra          3302.688
        32   01 Jun 2027 11:06:39.533   01 Jun 2027 11:06:53.671            14.138                Novosib           441.812
        33   01 Jun 2027 11:08:00.318   01 Jun 2027 11:09:36.818            96.500                Norilsk          3015.625
        34   01 Jun 2027 11:09:58.315   01 Jun 2027 11:11:25.259            86.944                Norilsk          2717.000
        35   01 Jun 2027 11:11:46.122   01 Jun 2027 11:12:09.479            23.357                Norilsk           729.906
        36   01 Jun 2027 11:12:50.280   01 Jun 2027 11:13:25.652            35.372                Norilsk          1105.375
        37   01 Jun 2027 12:29:51.508   01 Jun 2027 12:33:06.162           194.654                  Delhi          6082.938
        38   01 Jun 2027 12:34:11.129   01 Jun 2027 12:34:37.914            26.785                  Delhi           837.031
        39   01 Jun 2027 12:38:07.512   01 Jun 2027 12:39:05.871            58.359                 Moscow          1823.719
        40   01 Jun 2027 12:39:42.253   01 Jun 2027 12:40:59.981            77.728                Novosib          2429.000
        41   01 Jun 2027 12:41:15.513   01 Jun 2027 12:42:36.975            81.462              Murmansk1          2545.688
        42   01 Jun 2027 12:42:46.432   01 Jun 2027 12:43:18.300            31.868              Murmansk2           995.875
        43   01 Jun 2027 12:43:36.504   01 Jun 2027 12:45:25.161           108.657                Norilsk          3395.531
        44   01 Jun 2027 14:12:45.381   01 Jun 2027 14:14:24.092            98.711                 Moscow          3084.719
        45   01 Jun 2027 14:16:15.317   01 Jun 2027 14:19:02.861           167.544              Murmansk2          5235.750
        46   01 Jun 2027 14:19:02.861   01 Jun 2027 14:20:36.116            93.255              Murmansk1          2914.219
        47   01 Jun 2027 14:24:37.583   01 Jun 2027 14:24:58.650            21.067                Norilsk           658.344
        48   01 Jun 2027 14:31:47.369   01 Jun 2027 14:33:09.464            82.095                Anadyr2          2565.469
        49   01 Jun 2027 14:33:29.042   01 Jun 2027 14:35:46.370           137.328                Anadyr1          4291.500
        50   01 Jun 2027 15:26:02.646   01 Jun 2027 15:26:37.439            34.793               CapeTown          1087.281
        51   01 Jun 2027 15:52:36.666   01 Jun 2027 15:52:44.049             7.383                 Moscow           230.719
        52   01 Jun 2027 15:53:14.727   01 Jun 2027 15:53:58.465            43.738                 Moscow          1366.813
        53   01 Jun 2027 15:54:25.850   01 Jun 2027 15:55:08.965            43.115              Murmansk2          1347.344
        54   01 Jun 2027 15:55:10.438   01 Jun 2027 15:55:28.983            18.545              Murmansk1           579.531
        55   01 Jun 2027 15:56:16.124   01 Jun 2027 15:56:56.542            40.418              Murmansk1          1263.063
        56   01 Jun 2027 15:58:59.710   01 Jun 2027 15:59:30.801            31.091              Murmansk2           971.594
        57   01 Jun 2027 16:06:39.945   01 Jun 2027 16:09:17.127           157.182                Anadyr2          4911.937
        58   01 Jun 2027 17:02:46.683   01 Jun 2027 17:03:54.810            68.127               CapeTown          2128.969
        59   01 Jun 2027 17:05:22.556   01 Jun 2027 17:06:01.335            38.779               CapeTown          1211.844
        60   01 Jun 2027 17:35:43.433   01 Jun 2027 17:39:37.702           234.269              Murmansk2          7320.906
        61   01 Jun 2027 17:42:29.066   01 Jun 2027 17:44:27.643           118.577                Anadyr1          3705.531
        62   01 Jun 2027 17:45:06.735   01 Jun 2027 17:45:16.163             9.428               Magadan1           294.625
        63   01 Jun 2027 17:45:26.082   01 Jun 2027 17:45:57.198            31.116               Magadan2           972.375
        64   01 Jun 2027 17:45:57.198   01 Jun 2027 17:46:12.615            15.417               Magadan1           481.781
        65   01 Jun 2027 17:46:40.058   01 Jun 2027 17:46:59.238            19.180               Magadan2           599.375
        66   01 Jun 2027 17:46:59.238   01 Jun 2027 17:47:49.592            50.354               Magadan1          1573.562
        67   01 Jun 2027 19:18:24.264   01 Jun 2027 19:20:22.737           118.473                Anadyr1          3702.281
        68   01 Jun 2027 19:20:33.931   01 Jun 2027 19:22:27.877           113.946                Anadyr2          3560.812
        69   01 Jun 2027 19:22:45.098   01 Jun 2027 19:24:03.367            78.269                Norilsk          2445.906
        70   01 Jun 2027 19:24:25.420   01 Jun 2027 19:25:04.831            39.411               Magadan1          1231.594
        71   01 Jun 2027 20:13:06.943   01 Jun 2027 20:16:29.634           202.691            RioGallegos          6334.094
        72   01 Jun 2027 20:17:08.966   01 Jun 2027 20:17:48.080            39.114            RioGallegos          1222.313
        73   01 Jun 2027 20:54:04.390   01 Jun 2027 20:56:28.422           144.032                Anadyr2          4501.000
        74   01 Jun 2027 20:56:35.381   01 Jun 2027 20:59:57.339           201.958                Norilsk          6311.187
        75   01 Jun 2027 21:00:34.292   01 Jun 2027 21:01:56.574            82.282                Irkutsk          2571.313
        76   01 Jun 2027 21:02:18.060   01 Jun 2027 21:02:29.365            11.305                Irkutsk           353.281
        77   01 Jun 2027 21:03:52.142   01 Jun 2027 21:05:47.471           115.329                Irkutsk          3604.031
        78   01 Jun 2027 21:16:35.679   01 Jun 2027 21:17:51.586            75.907                Sumatra          2372.094
        79   01 Jun 2027 22:28:57.304   01 Jun 2027 22:29:18.170            20.866                Anadyr1           652.062
        80   01 Jun 2027 22:29:49.238   01 Jun 2027 22:30:27.253            38.015                Anadyr1          1187.969
        81   01 Jun 2027 22:32:10.910   01 Jun 2027 22:33:29.677            78.767                Norilsk          2461.469
        82   01 Jun 2027 22:34:17.056   01 Jun 2027 22:34:25.719             8.663               Magadan2           270.719
        83   01 Jun 2027 22:35:12.367   01 Jun 2027 22:35:21.225             8.858               Magadan2           276.813
        84   01 Jun 2027 22:35:36.712   01 Jun 2027 22:36:27.437            50.725               Magadan2          1585.156
        85   01 Jun 2027 22:36:37.179   01 Jun 2027 22:38:00.770            83.591                Novosib          2612.219
        86   01 Jun 2027 22:38:15.352   01 Jun 2027 22:38:56.281            40.929                Novosib          1279.031
        87   01 Jun 2027 22:39:43.039   01 Jun 2027 22:40:00.609            17.570                Novosib           549.063
        88   01 Jun 2027 22:44:21.684   01 Jun 2027 22:47:31.487           189.803                  Delhi          5931.344
        89   02 Jun 2027 00:02:37.474   02 Jun 2027 00:02:45.429             7.955                Anadyr2           248.594
        90   02 Jun 2027 00:03:41.370   02 Jun 2027 00:04:29.379            48.009                Anadyr1          1500.281
        91   02 Jun 2027 00:05:01.888   02 Jun 2027 00:05:17.250            15.362                Anadyr2           480.062
        92   02 Jun 2027 00:05:26.294   02 Jun 2027 00:05:39.501            13.207                Anadyr2           412.719
        93   02 Jun 2027 00:08:28.470   02 Jun 2027 00:09:25.514            57.044               Magadan1          1782.625
        94   02 Jun 2027 00:10:04.717   02 Jun 2027 00:10:07.500             2.783               Magadan1            86.969
        95   02 Jun 2027 00:10:37.849   02 Jun 2027 00:13:38.411           180.562              Murmansk1          5642.562
        96   02 Jun 2027 00:16:09.406   02 Jun 2027 00:16:16.136             6.730                 Moscow           210.313
        97   02 Jun 2027 00:16:47.446   02 Jun 2027 00:18:10.613            83.167                 Moscow          2598.969
        98   02 Jun 2027 01:03:54.431   02 Jun 2027 01:04:13.157            18.726            RioGallegos           585.188
        99   02 Jun 2027 01:35:58.307   02 Jun 2027 01:37:31.358            93.051                Anadyr2          2907.844
       100   02 Jun 2027 01:38:07.876   02 Jun 2027 01:38:24.479            16.603                Anadyr2           518.844
       101   02 Jun 2027 01:38:42.675   02 Jun 2027 01:39:12.450            29.775                Anadyr2           930.469
       102   02 Jun 2027 01:41:20.872   02 Jun 2027 01:42:31.423            70.551               Magadan2          2204.719
       103   02 Jun 2027 01:42:31.423   02 Jun 2027 01:42:45.903            14.480               Magadan1           452.500
       104   02 Jun 2027 01:43:39.633   02 Jun 2027 01:43:49.024             9.391               Magadan1           293.469
       105   02 Jun 2027 01:44:00.472   02 Jun 2027 01:44:11.133            10.661                Norilsk           333.156
       106   02 Jun 2027 01:44:22.288   02 Jun 2027 01:44:24.047             1.759                Norilsk            54.969
       107   02 Jun 2027 01:44:53.705   02 Jun 2027 01:45:09.142            15.437               Magadan2           482.406
       108   02 Jun 2027 01:46:18.579   02 Jun 2027 01:47:07.730            49.151              Murmansk2          1535.969
       109   02 Jun 2027 01:47:16.580   02 Jun 2027 01:48:18.616            62.036              Murmansk1          1938.625
       110   02 Jun 2027 01:48:43.084   02 Jun 2027 01:48:43.806             0.722              Murmansk2            22.562
       111   02 Jun 2027 01:49:05.499   02 Jun 2027 01:51:29.062           143.563                Novosib          4486.344
       112   02 Jun 2027 02:14:22.111   02 Jun 2027 02:14:57.774            35.663               CapeTown          1114.469
       113   02 Jun 2027 02:15:47.490   02 Jun 2027 02:16:05.935            18.445               CapeTown           576.406
       114   02 Jun 2027 03:12:46.370   02 Jun 2027 03:12:48.853             2.483                Anadyr1            77.594
       115   02 Jun 2027 03:13:25.635   02 Jun 2027 03:13:30.116             4.481                Anadyr2           140.031
       116   02 Jun 2027 03:13:36.728   02 Jun 2027 03:13:59.619            22.891                Anadyr2           715.344
       117   02 Jun 2027 03:15:13.663   02 Jun 2027 03:15:41.195            27.532               Magadan1           860.375
       118   02 Jun 2027 03:16:11.104   02 Jun 2027 03:16:37.510            26.406               Magadan1           825.187
       119   02 Jun 2027 03:30:11.363   02 Jun 2027 03:30:40.870            29.507                Norilsk           922.094
       120   02 Jun 2027 03:31:52.452   02 Jun 2027 03:32:07.890            15.438              Murmansk2           482.438
       121   02 Jun 2027 03:32:07.890   02 Jun 2027 03:32:38.160            30.270              Murmansk1           945.937
       122   02 Jun 2027 03:33:38.254   02 Jun 2027 03:33:48.456            10.202              Murmansk2           318.812
       123   02 Jun 2027 03:59:41.851   02 Jun 2027 04:00:16.481            34.630               CapeTown          1082.188
       124   02 Jun 2027 04:52:47.502   02 Jun 2027 04:53:45.871            58.369                Anadyr1          1824.031
       125   02 Jun 2027 04:53:45.871   02 Jun 2027 04:55:11.070            85.199                Anadyr2          2662.469
       126   02 Jun 2027 04:55:21.640   02 Jun 2027 04:55:34.431            12.791                Anadyr2           399.719
       127   02 Jun 2027 04:55:48.283   02 Jun 2027 04:55:55.620             7.337                Anadyr2           229.281
       128   02 Jun 2027 04:56:20.426   02 Jun 2027 04:57:10.788            50.362                Anadyr1          1573.812
       129   02 Jun 2027 06:31:24.538   02 Jun 2027 06:32:21.287            56.749                Irkutsk          1773.406
       130   02 Jun 2027 08:07:07.253   02 Jun 2027 08:07:35.124            27.871               Magadan2           870.969
       131   02 Jun 2027 08:07:35.124   02 Jun 2027 08:09:45.264           130.140               Magadan1          4066.875
       132   02 Jun 2027 08:11:31.966   02 Jun 2027 08:11:40.245             8.279                Norilsk           258.719
       133   02 Jun 2027 08:46:25.335   02 Jun 2027 08:47:24.647            59.312            RioGallegos          1853.500
       134   02 Jun 2027 09:20:19.570   02 Jun 2027 09:22:45.380           145.810                Sumatra          4556.562
       135   02 Jun 2027 09:43:06.370   02 Jun 2027 09:43:12.606             6.236                Irkutsk           194.875
       136   02 Jun 2027 09:43:19.043   02 Jun 2027 09:44:05.690            46.647                Irkutsk          1457.719
       137   02 Jun 2027 09:44:29.510   02 Jun 2027 09:44:44.038            14.528                Irkutsk           454.000
       138   02 Jun 2027 09:44:51.772   02 Jun 2027 09:45:00.498             8.726                Novosib           272.687
       139   02 Jun 2027 09:45:02.711   02 Jun 2027 09:46:16.863            74.152                Irkutsk          2317.250
       140   02 Jun 2027 10:26:03.875   02 Jun 2027 10:26:18.313            14.438            RioGallegos           451.188
       141   02 Jun 2027 10:57:19.011   02 Jun 2027 10:57:52.377            33.366                Sumatra          1042.687
       142   02 Jun 2027 10:58:42.645   02 Jun 2027 11:00:18.420            95.775                Sumatra          2992.969
       143   02 Jun 2027 11:18:20.808   02 Jun 2027 11:18:33.436            12.628                Norilsk           394.625
       144   02 Jun 2027 11:18:34.627   02 Jun 2027 11:18:48.480            13.853                Novosib           432.906
       145   02 Jun 2027 11:19:38.412   02 Jun 2027 11:19:57.815            19.403                Norilsk           606.344
       146   02 Jun 2027 11:20:00.772   02 Jun 2027 11:20:04.350             3.578                Norilsk           111.812
       147   02 Jun 2027 11:20:07.096   02 Jun 2027 11:21:03.460            56.364                Novosib          1761.375
       148   02 Jun 2027 11:21:09.413   02 Jun 2027 11:21:28.848            19.435                Novosib           607.344
       149   02 Jun 2027 11:21:35.809   02 Jun 2027 11:21:37.572             1.763                Novosib            55.094
       150   02 Jun 2027 11:21:38.472   02 Jun 2027 11:21:42.159             3.687                Norilsk           115.219
       151   02 Jun 2027 12:42:46.740   02 Jun 2027 12:44:59.010           132.270                  Delhi          4133.438
       152   02 Jun 2027 12:46:53.543   02 Jun 2027 12:47:10.534            16.991                  Delhi           530.969
       153   02 Jun 2027 12:50:16.972   02 Jun 2027 12:50:27.805            10.833                  Delhi           338.531
       154   02 Jun 2027 12:51:04.327   02 Jun 2027 12:51:17.663            13.336                 Moscow           416.750
       155   02 Jun 2027 12:51:19.043   02 Jun 2027 12:54:06.469           167.426                Novosib          5232.063
       156   02 Jun 2027 12:58:17.675   02 Jun 2027 12:59:12.939            55.264                Norilsk          1727.000
       157   02 Jun 2027 14:05:06.536   02 Jun 2027 14:07:07.514           120.978               CapeTown          3780.563
       158   02 Jun 2027 14:24:59.636   02 Jun 2027 14:25:32.154            32.518                 Moscow          1016.187
       159   02 Jun 2027 14:26:21.073   02 Jun 2027 14:26:25.499             4.426                 Moscow           138.313
       160   02 Jun 2027 14:28:26.528   02 Jun 2027 14:29:55.288            88.760              Murmansk1          2773.750
       161   02 Jun 2027 14:31:17.317   02 Jun 2027 14:32:55.069            97.752              Murmansk2          3054.750
       162   02 Jun 2027 14:43:31.045   02 Jun 2027 14:43:55.605            24.560                Anadyr1           767.500
       163   02 Jun 2027 14:44:21.191   02 Jun 2027 14:45:08.269            47.078                Anadyr2          1471.188
       164   02 Jun 2027 14:46:17.709   02 Jun 2027 14:46:59.224            41.515                Anadyr1          1297.344
       165   02 Jun 2027 14:47:03.177   02 Jun 2027 14:47:45.181            42.004                Anadyr2          1312.625
       166   02 Jun 2027 14:49:03.758   02 Jun 2027 14:49:50.125            46.367                Anadyr2          1448.969
       167   02 Jun 2027 16:05:47.837   02 Jun 2027 16:06:32.192            44.355                 Moscow          1386.094
       168   02 Jun 2027 16:06:54.478   02 Jun 2027 16:07:16.396            21.918              Murmansk2           684.937
       169   02 Jun 2027 16:07:31.040   02 Jun 2027 16:07:52.561            21.521              Murmansk1           672.531
       170   02 Jun 2027 16:08:11.345   02 Jun 2027 16:08:25.299            13.954              Murmansk2           436.062
       171   02 Jun 2027 16:09:31.186   02 Jun 2027 16:10:02.303            31.117              Murmansk2           972.406
       172   02 Jun 2027 16:11:16.716   02 Jun 2027 16:12:12.382            55.666              Murmansk1          1739.562
       173   02 Jun 2027 16:18:39.295   02 Jun 2027 16:20:49.489           130.194                Anadyr1          4068.562
       174   02 Jun 2027 16:23:52.393   02 Jun 2027 16:26:10.165           137.772               Magadan2          4305.375
       175   02 Jun 2027 17:49:13.822   02 Jun 2027 17:50:51.866            98.044              Murmansk1          3063.875
       176   02 Jun 2027 17:54:30.508   02 Jun 2027 17:56:28.589           118.081                Anadyr2          3690.031
       177   02 Jun 2027 17:56:50.272   02 Jun 2027 17:57:03.224            12.952                Anadyr2           404.750
       178   02 Jun 2027 17:57:27.650   02 Jun 2027 18:00:57.370           209.720               Magadan2          6553.750
       179   02 Jun 2027 19:30:25.020   02 Jun 2027 19:32:24.233           119.213                Anadyr1          3725.406
       180   02 Jun 2027 19:32:31.309   02 Jun 2027 19:34:16.331           105.022                Anadyr2          3281.938
       181   02 Jun 2027 19:34:24.321   02 Jun 2027 19:35:57.535            93.214               Magadan1          2912.937
       182   02 Jun 2027 19:36:06.865   02 Jun 2027 19:37:17.661            70.796                Norilsk          2212.375
       183   02 Jun 2027 20:24:53.396   02 Jun 2027 20:28:10.612           197.216            RioGallegos          6163.000
       184   02 Jun 2027 21:07:11.964   02 Jun 2027 21:07:21.456             9.492                Anadyr2           296.625
       185   02 Jun 2027 21:08:06.035   02 Jun 2027 21:08:13.268             7.233                Anadyr2           226.031
       186   02 Jun 2027 21:08:16.153   02 Jun 2027 21:10:39.964           143.811                Norilsk          4494.094
       187   02 Jun 2027 21:11:09.577   02 Jun 2027 21:12:09.630            60.053                Norilsk          1876.656
       188   02 Jun 2027 21:12:27.243   02 Jun 2027 21:12:52.091            24.848                Irkutsk           776.500
       189   02 Jun 2027 21:13:53.638   02 Jun 2027 21:13:57.141             3.503                Irkutsk           109.469
       190   02 Jun 2027 21:14:23.159   02 Jun 2027 21:15:17.686            54.527                Irkutsk          1703.969
       191   02 Jun 2027 21:15:25.539   02 Jun 2027 21:15:47.396            21.857                Novosib           683.031
       192   02 Jun 2027 21:16:40.646   02 Jun 2027 21:17:40.362            59.716                Novosib          1866.125
       193   02 Jun 2027 21:26:12.634   02 Jun 2027 21:27:09.291            56.657                Sumatra          1770.531
       194   02 Jun 2027 21:28:53.285   02 Jun 2027 21:29:38.849            45.564                Sumatra          1423.875
       195   02 Jun 2027 22:44:12.924   02 Jun 2027 22:44:37.260            24.336                Norilsk           760.500
       196   02 Jun 2027 22:44:50.724   02 Jun 2027 22:46:21.880            91.156               Magadan2          2848.625
       197   02 Jun 2027 22:46:40.571   02 Jun 2027 22:46:52.703            12.132               Magadan2           379.125
       198   02 Jun 2027 22:47:14.045   02 Jun 2027 22:47:22.290             8.245               Magadan2           257.656
       199   02 Jun 2027 22:47:53.687   02 Jun 2027 22:48:07.469            13.782                Norilsk           430.688
       200   02 Jun 2027 22:48:13.366   02 Jun 2027 22:49:23.829            70.463                Novosib          2201.969
       201   02 Jun 2027 22:50:36.374   02 Jun 2027 22:51:26.200            49.826                Novosib          1557.063
       202   02 Jun 2027 22:56:01.285   02 Jun 2027 22:57:37.888            96.603                  Delhi          3018.844
       203   02 Jun 2027 22:59:07.145   02 Jun 2027 22:59:23.897            16.752                  Delhi           523.500
       204   02 Jun 2027 23:04:59.757   02 Jun 2027 23:05:23.729            23.972                  Delhi           749.125
       205   03 Jun 2027 00:14:18.610   03 Jun 2027 00:14:31.755            13.145                Anadyr2           410.781
       206   03 Jun 2027 00:14:56.672   03 Jun 2027 00:15:49.553            52.881                Anadyr1          1652.531
       207   03 Jun 2027 00:16:05.261   03 Jun 2027 00:16:48.714            43.453                Anadyr1          1357.906
       208   03 Jun 2027 00:19:51.792   03 Jun 2027 00:20:05.781            13.989                Anadyr1           437.156
       209   03 Jun 2027 00:20:12.162   03 Jun 2027 00:21:04.092            51.930                Norilsk          1622.813
       210   03 Jun 2027 00:21:16.768   03 Jun 2027 00:22:10.846            54.078               Magadan2          1689.938
       211   03 Jun 2027 00:22:34.644   03 Jun 2027 00:25:04.431           149.787              Murmansk1          4680.844
       212   03 Jun 2027 00:25:56.304   03 Jun 2027 00:26:23.601            27.297              Murmansk2           853.031
       213   03 Jun 2027 00:27:26.699   03 Jun 2027 00:28:12.242            45.543                 Moscow          1423.219
       214   03 Jun 2027 00:28:45.386   03 Jun 2027 00:29:55.553            70.167                 Moscow          2192.719
       215   03 Jun 2027 00:42:26.828   03 Jun 2027 00:42:31.771             4.943                  Delhi           154.469
       216   03 Jun 2027 00:42:37.955   03 Jun 2027 00:42:51.395            13.440                  Delhi           420.000
       217   03 Jun 2027 01:47:43.258   03 Jun 2027 01:49:23.928           100.670                Anadyr1          3145.938
       218   03 Jun 2027 01:49:40.000   03 Jun 2027 01:50:07.533            27.533                Anadyr1           860.406
       219   03 Jun 2027 01:50:47.618   03 Jun 2027 01:51:00.733            13.115                Anadyr1           409.844
       220   03 Jun 2027 01:52:48.566   03 Jun 2027 01:53:31.632            43.066                Anadyr1          1345.812
       221   03 Jun 2027 01:54:05.144   03 Jun 2027 01:54:07.972             2.828               Magadan1            88.375
       222   03 Jun 2027 01:54:13.510   03 Jun 2027 01:54:54.815            41.305               Magadan2          1290.781
       223   03 Jun 2027 01:55:59.731   03 Jun 2027 01:56:26.099            26.368                Norilsk           824.000
       224   03 Jun 2027 01:56:38.195   03 Jun 2027 01:56:55.726            17.531               Magadan1           547.844
       225   03 Jun 2027 01:58:19.988   03 Jun 2027 01:59:38.092            78.104              Murmansk2          2440.750
       226   03 Jun 2027 02:00:22.304   03 Jun 2027 02:02:18.424           116.120                Novosib          3628.750
       227   03 Jun 2027 02:13:59.258   03 Jun 2027 02:14:07.029             7.771                 Moscow           242.844
       228   03 Jun 2027 02:26:01.763   03 Jun 2027 02:26:48.976            47.213               CapeTown          1475.406
       229   03 Jun 2027 02:28:23.838   03 Jun 2027 02:28:24.117             0.279               CapeTown             8.719
       230   03 Jun 2027 02:28:57.610   03 Jun 2027 02:29:20.929            23.319               CapeTown           728.719
       231   03 Jun 2027 03:27:42.805   03 Jun 2027 03:28:10.234            27.429                Anadyr1           857.156
       232   03 Jun 2027 03:28:25.028   03 Jun 2027 03:29:26.161            61.133                Anadyr1          1910.406
       233   03 Jun 2027 03:29:38.480   03 Jun 2027 03:29:52.740            14.260                Anadyr2           445.625
       234   03 Jun 2027 03:29:52.740   03 Jun 2027 03:31:52.571           119.831                Anadyr1          3744.719
       235   03 Jun 2027 03:32:16.866   03 Jun 2027 03:32:42.694            25.828               Magadan2           807.125
       236   03 Jun 2027 03:34:44.390   03 Jun 2027 03:35:07.178            22.788                Anadyr2           712.125
       237   03 Jun 2027 05:04:16.556   03 Jun 2027 05:06:04.224           107.668               Magadan2          3364.625
       238   03 Jun 2027 05:06:49.971   03 Jun 2027 05:10:43.170           233.199               Magadan1          7287.469
       239   03 Jun 2027 05:10:55.708   03 Jun 2027 05:11:00.833             5.125                Anadyr1           160.156
       240   03 Jun 2027 06:40:13.976   03 Jun 2027 06:40:23.097             9.121                Anadyr2           285.031
       241   03 Jun 2027 06:40:50.601   03 Jun 2027 06:41:05.659            15.058               Magadan1           470.563
       242   03 Jun 2027 06:41:11.340   03 Jun 2027 06:41:55.098            43.758               Magadan1          1367.437
       243   03 Jun 2027 06:42:11.004   03 Jun 2027 06:43:05.238            54.234               Magadan2          1694.812
       244   03 Jun 2027 06:43:30.864   03 Jun 2027 06:43:46.409            15.545               Magadan2           485.781
       245   03 Jun 2027 06:44:14.103   03 Jun 2027 06:45:07.154            53.051                Anadyr2          1657.844
       246   03 Jun 2027 06:45:47.634   03 Jun 2027 06:46:36.583            48.949               Magadan1          1529.656
       247   03 Jun 2027 08:15:19.560   03 Jun 2027 08:15:49.492            29.932               Magadan2           935.375
       248   03 Jun 2027 08:16:12.240   03 Jun 2027 08:16:22.102             9.862                Irkutsk           308.188
       249   03 Jun 2027 08:16:43.776   03 Jun 2027 08:17:19.784            36.008                Novosib          1125.250
       250   03 Jun 2027 08:17:48.957   03 Jun 2027 08:18:08.247            19.290               Magadan1           602.812
       251   03 Jun 2027 08:18:16.181   03 Jun 2027 08:18:16.979             0.798               Magadan2            24.937
       252   03 Jun 2027 08:18:16.979   03 Jun 2027 08:19:09.226            52.247               Magadan1          1632.719
       253   03 Jun 2027 08:19:25.810   03 Jun 2027 08:19:40.753            14.943               Magadan2           466.969
       254   03 Jun 2027 08:19:55.325   03 Jun 2027 08:20:09.384            14.059                Irkutsk           439.344
       255   03 Jun 2027 08:20:29.275   03 Jun 2027 08:20:32.534             3.259              Murmansk2           101.844
       256   03 Jun 2027 08:20:41.040   03 Jun 2027 08:21:02.376            21.336               Magadan1           666.750
       257   03 Jun 2027 08:21:06.690   03 Jun 2027 08:21:16.197             9.507              Murmansk2           297.094
       258   03 Jun 2027 08:21:51.063   03 Jun 2027 08:22:21.735            30.672                Irkutsk           958.500
       259   03 Jun 2027 08:57:04.839   03 Jun 2027 08:58:10.440            65.601            RioGallegos          2050.031
       260   03 Jun 2027 09:04:52.765   03 Jun 2027 09:05:23.926            31.161            RioGallegos           973.781
       261   03 Jun 2027 09:32:07.265   03 Jun 2027 09:33:02.488            55.223                Sumatra          1725.719
       262   03 Jun 2027 09:35:08.432   03 Jun 2027 09:35:20.680            12.248                Sumatra           382.750
       263   03 Jun 2027 09:54:26.061   03 Jun 2027 09:54:31.303             5.242                Irkutsk           163.812
       264   03 Jun 2027 09:54:55.750   03 Jun 2027 09:55:01.333             5.583                Novosib           174.469
       265   03 Jun 2027 09:55:19.606   03 Jun 2027 09:55:59.285            39.679                Novosib          1239.969
       266   03 Jun 2027 09:56:19.224   03 Jun 2027 09:56:24.523             5.299                Irkutsk           165.594
       267   03 Jun 2027 09:56:32.959   03 Jun 2027 09:56:36.593             3.634                Novosib           113.563
       268   03 Jun 2027 09:56:45.076   03 Jun 2027 09:57:47.902            62.826                Novosib          1963.313
       269   03 Jun 2027 09:57:53.426   03 Jun 2027 09:58:14.514            21.088                Irkutsk           659.000
       270   03 Jun 2027 09:59:24.031   03 Jun 2027 09:59:29.510             5.479                Norilsk           171.219
       271   03 Jun 2027 10:35:47.534   03 Jun 2027 10:36:02.824            15.290            RioGallegos           477.813
       272   03 Jun 2027 10:36:34.697   03 Jun 2027 10:37:03.944            29.247            RioGallegos           913.969
       273   03 Jun 2027 10:40:19.272   03 Jun 2027 10:40:28.675             9.403            RioGallegos           293.844
       274   03 Jun 2027 11:10:11.803   03 Jun 2027 11:12:06.274           114.471                Sumatra          3577.219
       275   03 Jun 2027 11:31:40.539   03 Jun 2027 11:32:01.536            20.997                Norilsk           656.156
       276   03 Jun 2027 11:32:03.792   03 Jun 2027 11:32:20.063            16.271                Norilsk           508.469
       277   03 Jun 2027 11:33:16.956   03 Jun 2027 11:33:21.403             4.447                Novosib           138.969
       278   03 Jun 2027 11:33:22.908   03 Jun 2027 11:33:46.368            23.460                Novosib           733.125
       279   03 Jun 2027 11:33:49.859   03 Jun 2027 11:34:03.731            13.872                Novosib           433.500
       280   03 Jun 2027 12:56:11.541   03 Jun 2027 12:58:57.589           166.048                  Delhi          5189.000
       281   03 Jun 2027 13:03:59.583   03 Jun 2027 13:04:14.768            15.185              Murmansk2           474.531
       282   03 Jun 2027 13:04:35.595   03 Jun 2027 13:05:02.437            26.842                Novosib           838.812
       283   03 Jun 2027 13:05:12.911   03 Jun 2027 13:05:33.598            20.687              Murmansk2           646.469
       284   03 Jun 2027 13:06:06.966   03 Jun 2027 13:06:46.891            39.925                Novosib          1247.656
       285   03 Jun 2027 13:06:54.974   03 Jun 2027 13:07:39.337            44.363                Norilsk          1386.344
       286   03 Jun 2027 13:09:44.785   03 Jun 2027 13:10:21.372            36.587                Norilsk          1143.344
       287   03 Jun 2027 14:18:45.635   03 Jun 2027 14:19:39.855            54.220               CapeTown          1694.375
       288   03 Jun 2027 14:37:17.561   03 Jun 2027 14:38:29.868            72.307                 Moscow          2259.594
       289   03 Jun 2027 14:40:39.631   03 Jun 2027 14:41:18.546            38.915              Murmansk1          1216.094
       290   03 Jun 2027 14:41:44.859   03 Jun 2027 14:42:13.857            28.998                 Moscow           906.188
       291   03 Jun 2027 14:42:48.282   03 Jun 2027 14:43:19.046            30.764              Murmansk1           961.375
       292   03 Jun 2027 14:43:19.046   03 Jun 2027 14:43:35.596            16.550              Murmansk2           517.188
       293   03 Jun 2027 14:55:19.776   03 Jun 2027 14:55:56.639            36.863                Anadyr2          1151.969
       294   03 Jun 2027 14:57:03.175   03 Jun 2027 14:58:27.625            84.450                Anadyr1          2639.063
       295   03 Jun 2027 14:59:43.419   03 Jun 2027 15:00:21.065            37.646                Anadyr2          1176.438
       296   03 Jun 2027 15:49:59.544   03 Jun 2027 15:52:22.602           143.058               CapeTown          4470.562
       297   03 Jun 2027 16:19:25.862   03 Jun 2027 16:20:07.814            41.952              Murmansk1          1311.000
       298   03 Jun 2027 16:21:12.906   03 Jun 2027 16:21:33.125            20.219              Murmansk1           631.844
       299   03 Jun 2027 16:22:08.616   03 Jun 2027 16:22:54.498            45.882              Murmansk1          1433.813
       300   03 Jun 2027 16:30:39.150   03 Jun 2027 16:32:46.511           127.361                Anadyr1          3980.031
       301   03 Jun 2027 16:32:47.896   03 Jun 2027 16:33:03.407            15.511                Anadyr2           484.719
       302   03 Jun 2027 16:34:51.335   03 Jun 2027 16:37:42.962           171.627               Magadan1          5363.344
       303   03 Jun 2027 18:06:31.988   03 Jun 2027 18:08:53.112           141.124                Anadyr1          4410.125
       304   03 Jun 2027 18:08:59.222   03 Jun 2027 18:12:46.983           227.761               Magadan2          7117.531
       305   03 Jun 2027 19:42:25.509   03 Jun 2027 19:46:15.854           230.345                Anadyr1          7198.281
       306   03 Jun 2027 19:46:21.418   03 Jun 2027 19:48:46.064           144.646               Magadan2          4520.187
       307   03 Jun 2027 19:49:07.612   03 Jun 2027 19:49:19.622            12.010               Magadan2           375.313
       308   03 Jun 2027 19:49:49.621   03 Jun 2027 19:49:55.816             6.195               Magadan2           193.594
       309   03 Jun 2027 19:51:26.317   03 Jun 2027 19:53:28.206           121.889                Irkutsk          3809.031
       310   03 Jun 2027 19:54:37.081   03 Jun 2027 19:55:01.090            24.009                Irkutsk           750.281
       311   03 Jun 2027 20:36:43.240   03 Jun 2027 20:37:40.372            57.132            RioGallegos          1785.375
       312   03 Jun 2027 20:37:56.432   03 Jun 2027 20:38:04.347             7.915            RioGallegos           247.344
       313   03 Jun 2027 20:38:36.795   03 Jun 2027 20:39:55.195            78.400            RioGallegos          2450.000
       314   03 Jun 2027 21:20:16.846   03 Jun 2027 21:21:37.730            80.884                Norilsk          2527.625
       315   03 Jun 2027 21:21:42.041   03 Jun 2027 21:22:02.819            20.778               Magadan2           649.312
       316   03 Jun 2027 21:22:26.920   03 Jun 2027 21:22:40.396            13.476               Magadan2           421.125
       317   03 Jun 2027 21:23:57.461   03 Jun 2027 21:24:57.828            60.367                Norilsk          1886.469
       318   03 Jun 2027 21:25:36.764   03 Jun 2027 21:25:49.427            12.663                Norilsk           395.719
       319   03 Jun 2027 21:25:49.543   03 Jun 2027 21:27:11.488            81.945                Novosib          2560.781
       320   03 Jun 2027 21:28:33.728   03 Jun 2027 21:28:50.887            17.159                Novosib           536.219
       321   03 Jun 2027 21:29:46.337   03 Jun 2027 21:30:32.723            46.386                Novosib          1449.563
       322   03 Jun 2027 21:30:52.861   03 Jun 2027 21:32:22.951            90.090                Novosib          2815.312
       323   03 Jun 2027 21:38:03.387   03 Jun 2027 21:38:54.025            50.638                Sumatra          1582.437
       324   03 Jun 2027 22:52:32.448   03 Jun 2027 22:54:24.201           111.753                Anadyr2          3492.281
       325   03 Jun 2027 22:56:14.967   03 Jun 2027 22:57:16.028            61.061                Norilsk          1908.156
       326   03 Jun 2027 22:57:22.449   03 Jun 2027 22:57:47.619            25.170               Magadan1           786.562
       327   03 Jun 2027 23:00:08.108   03 Jun 2027 23:00:53.979            45.871                Irkutsk          1433.469
       328   03 Jun 2027 23:01:15.693   03 Jun 2027 23:02:20.590            64.897                Novosib          2028.031
       329   03 Jun 2027 23:03:06.724   03 Jun 2027 23:03:20.927            14.203                Novosib           443.844
       330   03 Jun 2027 23:07:46.723   03 Jun 2027 23:10:03.694           136.971                  Delhi          4280.344
       331   04 Jun 2027 00:25:59.625   04 Jun 2027 00:25:59.756             0.131                Anadyr1             4.094
       332   04 Jun 2027 00:26:01.948   04 Jun 2027 00:26:18.161            16.213                Anadyr2           506.656
       333   04 Jun 2027 00:26:57.709   04 Jun 2027 00:27:59.936            62.227                Anadyr1          1944.594
       334   04 Jun 2027 00:27:59.936   04 Jun 2027 00:28:03.109             3.173                Anadyr2            99.156
       335   04 Jun 2027 00:28:08.405   04 Jun 2027 00:28:24.548            16.143                Anadyr2           504.469
       336   04 Jun 2027 00:31:50.333   04 Jun 2027 00:32:06.575            16.242                Anadyr2           507.563
       337   04 Jun 2027 00:32:07.546   04 Jun 2027 00:33:02.146            54.600               Magadan2          1706.250
       338   04 Jun 2027 00:33:02.146   04 Jun 2027 00:34:49.762           107.616               Magadan1          3363.000
       339   04 Jun 2027 00:35:04.665   04 Jun 2027 00:36:53.188           108.523              Murmansk1          3391.344
       340   04 Jun 2027 00:37:18.897   04 Jun 2027 00:38:13.500            54.603                Novosib          1706.344
       341   04 Jun 2027 00:39:00.122   04 Jun 2027 00:39:11.042            10.920                 Moscow           341.250
       342   04 Jun 2027 00:40:29.250   04 Jun 2027 00:42:12.695           103.445                 Moscow          3232.656
       343   04 Jun 2027 01:59:29.332   04 Jun 2027 02:01:13.667           104.335                Anadyr1          3260.469
       344   04 Jun 2027 02:01:40.027   04 Jun 2027 02:02:06.671            26.644                Anadyr1           832.625
       345   04 Jun 2027 02:04:16.709   04 Jun 2027 02:05:48.900            92.191               Magadan2          2880.969
       346   04 Jun 2027 02:07:45.035   04 Jun 2027 02:08:06.394            21.359               Magadan1           667.469
       347   04 Jun 2027 02:09:46.947   04 Jun 2027 02:09:57.246            10.299                Norilsk           321.844
       348   04 Jun 2027 02:10:21.558   04 Jun 2027 02:11:38.710            77.152              Murmansk1          2411.000
       349   04 Jun 2027 02:11:53.916   04 Jun 2027 02:12:52.787            58.871              Murmansk2          1839.719
       350   04 Jun 2027 02:13:53.730   04 Jun 2027 02:15:11.268            77.538                 Moscow          2423.062
       351   04 Jun 2027 02:37:46.941   04 Jun 2027 02:38:54.962            68.021               CapeTown          2125.656
       352   04 Jun 2027 03:41:00.087   04 Jun 2027 03:43:44.890           164.803               Magadan1          5150.094
       353   04 Jun 2027 03:43:44.890   04 Jun 2027 03:44:51.971            67.081               Magadan2          2096.281
       354   04 Jun 2027 03:45:04.347   04 Jun 2027 03:45:28.590            24.243               Magadan2           757.594
       355   04 Jun 2027 03:45:53.799   04 Jun 2027 03:46:05.918            12.119               Magadan2           378.719
       356   04 Jun 2027 03:46:23.230   04 Jun 2027 03:46:39.905            16.675               Magadan2           521.094
       357   04 Jun 2027 03:46:59.410   04 Jun 2027 03:47:08.666             9.256                Anadyr2           289.250
       358   04 Jun 2027 05:18:52.606   04 Jun 2027 05:22:45.351           232.745               Magadan2          7273.281
       359   04 Jun 2027 05:28:00.439   04 Jun 2027 05:28:44.056            43.617                Norilsk          1363.031
       360   04 Jun 2027 06:50:25.989   04 Jun 2027 06:51:12.052            46.063                Anadyr2          1439.469
       361   04 Jun 2027 06:51:16.414   04 Jun 2027 06:51:42.937            26.523               Magadan2           828.844
       362   04 Jun 2027 06:51:48.884   04 Jun 2027 06:52:48.130            59.246               Magadan1          1851.438
       363   04 Jun 2027 06:52:58.200   04 Jun 2027 06:53:08.219            10.019               Magadan1           313.094
       364   04 Jun 2027 06:53:26.166   04 Jun 2027 06:54:10.345            44.179                Anadyr1          1380.594
       365   04 Jun 2027 06:54:48.101   04 Jun 2027 06:55:05.825            17.724                Anadyr1           553.875
       366   04 Jun 2027 06:55:08.400   04 Jun 2027 06:56:01.275            52.875               Magadan1          1652.344
       367   04 Jun 2027 06:56:09.039   04 Jun 2027 06:56:14.948             5.909               Magadan1           184.656
       368   04 Jun 2027 06:56:25.495   04 Jun 2027 06:57:06.725            41.230                Anadyr1          1288.437
       369   04 Jun 2027 06:57:29.325   04 Jun 2027 06:58:01.336            32.011                Anadyr2          1000.344
       370   04 Jun 2027 08:27:22.232   04 Jun 2027 08:27:51.701            29.469               Magadan2           920.906
       371   04 Jun 2027 08:28:47.141   04 Jun 2027 08:29:14.427            27.286                Irkutsk           852.688
       372   04 Jun 2027 08:30:09.067   04 Jun 2027 08:30:25.710            16.643               Magadan1           520.094
       373   04 Jun 2027 08:30:36.133   04 Jun 2027 08:31:10.882            34.749               Magadan1          1085.906
       374   04 Jun 2027 08:31:39.355   04 Jun 2027 08:32:06.045            26.690                Irkutsk           834.062
       375   04 Jun 2027 08:32:39.011   04 Jun 2027 08:33:05.163            26.152               Magadan2           817.250
       376   04 Jun 2027 08:33:13.617   04 Jun 2027 08:33:21.775             8.158               Magadan1           254.937
       377   04 Jun 2027 08:33:22.395   04 Jun 2027 08:34:05.965            43.570                Irkutsk          1361.562
       378   04 Jun 2027 08:34:24.358   04 Jun 2027 08:34:25.684             1.326                Irkutsk            41.437
       379   04 Jun 2027 08:35:35.367   04 Jun 2027 08:35:39.263             3.896                Norilsk           121.750
       380   04 Jun 2027 08:42:37.700   04 Jun 2027 08:42:45.189             7.489              Murmansk1           234.031
       381   04 Jun 2027 09:09:11.775   04 Jun 2027 09:10:13.072            61.297            RioGallegos          1915.531
       382   04 Jun 2027 09:18:24.820   04 Jun 2027 09:18:41.837            17.017            RioGallegos           531.781
       383   04 Jun 2027 09:44:00.948   04 Jun 2027 09:44:43.778            42.830                Sumatra          1338.437
       384   04 Jun 2027 09:47:07.431   04 Jun 2027 09:47:11.532             4.101                Sumatra           128.156
       385   04 Jun 2027 09:47:53.840   04 Jun 2027 09:48:01.455             7.615                Sumatra           237.969
       386   04 Jun 2027 09:52:26.172   04 Jun 2027 09:52:38.171            11.999                Sumatra           374.969
       387   04 Jun 2027 10:03:44.155   04 Jun 2027 10:03:51.516             7.361                  Delhi           230.031
       388   04 Jun 2027 10:06:34.607   04 Jun 2027 10:07:17.940            43.333                Irkutsk          1354.156
       389   04 Jun 2027 10:07:24.233   04 Jun 2027 10:07:33.107             8.874                Novosib           277.313
       390   04 Jun 2027 10:07:39.492   04 Jun 2027 10:07:50.677            11.185                Irkutsk           349.531
       391   04 Jun 2027 10:07:52.275   04 Jun 2027 10:08:08.186            15.911                Irkutsk           497.219
       392   04 Jun 2027 10:08:15.398   04 Jun 2027 10:08:26.157            10.759                Novosib           336.219
       393   04 Jun 2027 10:08:36.189   04 Jun 2027 10:09:05.511            29.322                Irkutsk           916.313
       394   04 Jun 2027 10:09:13.216   04 Jun 2027 10:10:10.801            57.585                Irkutsk          1799.531
       395   04 Jun 2027 10:11:17.942   04 Jun 2027 10:11:39.278            21.336                Novosib           666.750
       396   04 Jun 2027 10:48:39.955   04 Jun 2027 10:49:11.021            31.066            RioGallegos           970.812
       397   04 Jun 2027 10:49:54.125   04 Jun 2027 10:50:30.921            36.796            RioGallegos          1149.875
       398   04 Jun 2027 11:23:43.044   04 Jun 2027 11:24:00.161            17.117                Sumatra           534.906
       399   04 Jun 2027 11:27:06.710   04 Jun 2027 11:27:21.369            14.659                Sumatra           458.094
       400   04 Jun 2027 11:30:36.289   04 Jun 2027 11:31:21.516            45.227                  Delhi          1413.344
       401   04 Jun 2027 11:43:42.676   04 Jun 2027 11:44:02.423            19.747                Norilsk           617.094
       402   04 Jun 2027 11:44:16.046   04 Jun 2027 11:45:00.970            44.924                Novosib          1403.875
       403   04 Jun 2027 11:45:11.790   04 Jun 2027 11:45:35.046            23.256                Norilsk           726.750
       404   04 Jun 2027 11:45:41.145   04 Jun 2027 11:45:46.118             4.973                Norilsk           155.406
       405   04 Jun 2027 11:45:54.207   04 Jun 2027 11:46:05.449            11.242                Novosib           351.313
       406   04 Jun 2027 13:12:37.388   04 Jun 2027 13:14:08.095            90.707                 Moscow          2834.594
       407   04 Jun 2027 13:15:14.273   04 Jun 2027 13:15:51.920            37.647                 Moscow          1176.469
       408   04 Jun 2027 13:19:33.900   04 Jun 2027 13:21:53.075           139.175                Norilsk          4349.219
       409   04 Jun 2027 13:24:13.829   04 Jun 2027 13:25:24.524            70.695                Norilsk          2209.219
       410   04 Jun 2027 14:27:32.484   04 Jun 2027 14:28:28.130            55.646               CapeTown          1738.937
       411   04 Jun 2027 14:30:24.959   04 Jun 2027 14:30:29.724             4.765               CapeTown           148.906
       412   04 Jun 2027 14:31:01.474   04 Jun 2027 14:31:41.314            39.840               CapeTown          1245.000
       413   04 Jun 2027 14:34:03.248   04 Jun 2027 14:34:25.759            22.511               CapeTown           703.469
       414   04 Jun 2027 14:49:39.459   04 Jun 2027 14:50:34.753            55.294                 Moscow          1727.938
       415   04 Jun 2027 14:52:54.683   04 Jun 2027 14:53:30.943            36.260              Murmansk1          1133.125
       416   04 Jun 2027 14:55:36.957   04 Jun 2027 14:55:53.117            16.160              Murmansk2           505.000
       417   04 Jun 2027 14:57:17.215   04 Jun 2027 14:57:33.711            16.496              Murmansk1           515.500
       418   04 Jun 2027 14:59:14.829   04 Jun 2027 14:59:21.670             6.841              Murmansk2           213.781
       419   04 Jun 2027 14:59:30.339   04 Jun 2027 14:59:34.504             4.165                 Moscow           130.156
       420   04 Jun 2027 14:59:37.465   04 Jun 2027 14:59:50.176            12.711              Murmansk1           397.219
       421   04 Jun 2027 14:59:50.176   04 Jun 2027 15:00:48.389            58.213              Murmansk2          1819.156
       422   04 Jun 2027 15:07:11.707   04 Jun 2027 15:08:48.466            96.759                Anadyr2          3023.719
       423   04 Jun 2027 15:10:17.801   04 Jun 2027 15:10:22.089             4.288                Anadyr1           134.000
       424   04 Jun 2027 15:10:33.907   04 Jun 2027 15:11:16.160            42.253                Anadyr1          1320.406
       425   04 Jun 2027 15:15:40.485   04 Jun 2027 15:16:10.188            29.703                Anadyr2           928.219
       426   04 Jun 2027 16:06:30.993   04 Jun 2027 16:06:50.430            19.437               CapeTown           607.406
       427   04 Jun 2027 16:10:49.388   04 Jun 2027 16:10:54.721             5.333               CapeTown           166.656
       428   04 Jun 2027 16:10:59.317   04 Jun 2027 16:11:20.205            20.888               CapeTown           652.750
       429   04 Jun 2027 16:12:07.882   04 Jun 2027 16:12:59.103            51.221               CapeTown          1600.656
       430   04 Jun 2027 16:32:00.257   04 Jun 2027 16:33:38.082            97.825              Murmansk2          3057.031
       431   04 Jun 2027 16:34:49.648   04 Jun 2027 16:35:20.522            30.874              Murmansk1           964.812
       432   04 Jun 2027 16:36:58.055   04 Jun 2027 16:37:24.283            26.228              Murmansk1           819.625
       433   04 Jun 2027 16:42:39.414   04 Jun 2027 16:43:51.046            71.632                Anadyr1          2238.500
       434   04 Jun 2027 16:43:52.858   04 Jun 2027 16:44:29.974            37.116                Anadyr2          1159.875
       435   04 Jun 2027 16:46:01.271   04 Jun 2027 16:46:05.013             3.742                Anadyr2           116.938
       436   04 Jun 2027 16:46:20.650   04 Jun 2027 16:47:26.859            66.209               Magadan1          2069.031
       437   04 Jun 2027 16:48:25.431   04 Jun 2027 16:50:15.367           109.936               Magadan2          3435.500
       438   04 Jun 2027 16:52:12.475   04 Jun 2027 16:53:10.867            58.392               Magadan1          1824.750
       439   04 Jun 2027 18:18:33.471   04 Jun 2027 18:21:51.030           197.559                Anadyr2          6173.719
       440   04 Jun 2027 18:21:53.337   04 Jun 2027 18:22:47.165            53.828               Magadan1          1682.125
       441   04 Jun 2027 18:22:47.165   04 Jun 2027 18:23:22.547            35.382               Magadan2          1105.687
       442   04 Jun 2027 18:27:59.734   04 Jun 2027 18:28:34.840            35.106               Magadan1          1097.063
       443   04 Jun 2027 19:54:25.682   04 Jun 2027 19:56:26.901           121.219                Anadyr2          3788.094
       444   04 Jun 2027 19:56:28.516   04 Jun 2027 19:58:14.914           106.398                Anadyr1          3324.938
       445   04 Jun 2027 19:58:15.959   04 Jun 2027 19:59:53.817            97.858               Magadan2          3058.063
       446   04 Jun 2027 19:59:53.817   04 Jun 2027 20:00:15.303            21.486               Magadan1           671.437
       447   04 Jun 2027 20:00:20.566   04 Jun 2027 20:00:24.821             4.255                Norilsk           132.969
       448   04 Jun 2027 20:00:49.717   04 Jun 2027 20:01:46.543            56.826               Magadan1          1775.812
       449   04 Jun 2027 20:02:25.366   04 Jun 2027 20:02:49.210            23.844                Irkutsk           745.125
       450   04 Jun 2027 20:04:33.525   04 Jun 2027 20:05:08.970            35.445                Irkutsk          1107.656
       451   04 Jun 2027 20:06:00.519   04 Jun 2027 20:06:50.217            49.698                Irkutsk          1553.062
       452   04 Jun 2027 20:08:20.777   04 Jun 2027 20:08:34.010            13.233                Irkutsk           413.531
       453   04 Jun 2027 20:19:21.637   04 Jun 2027 20:20:47.778            86.141                Sumatra          2691.906
       454   04 Jun 2027 20:22:24.840   04 Jun 2027 20:22:27.461             2.621                Sumatra            81.906
       455   04 Jun 2027 21:30:03.727   04 Jun 2027 21:30:11.291             7.564                Anadyr2           236.375
       456   04 Jun 2027 21:30:55.733   04 Jun 2027 21:32:10.778            75.045                Anadyr1          2345.156
       457   04 Jun 2027 21:32:17.908   04 Jun 2027 21:34:19.316           121.408                Norilsk          3794.000
       458   04 Jun 2027 21:36:18.561   04 Jun 2027 21:37:46.397            87.836                Irkutsk          2744.875
       459   04 Jun 2027 21:38:54.812   04 Jun 2027 21:40:42.054           107.242                Novosib          3351.312
       460   04 Jun 2027 21:49:59.922   04 Jun 2027 21:50:52.691            52.769                Sumatra          1649.031
       461   04 Jun 2027 21:58:45.022   04 Jun 2027 21:58:57.907            12.885                Sumatra           402.656
       462   04 Jun 2027 21:59:11.553   04 Jun 2027 21:59:19.363             7.810                Sumatra           244.063
       463   04 Jun 2027 23:04:18.141   04 Jun 2027 23:06:21.657           123.516                Anadyr2          3859.875
       464   04 Jun 2027 23:08:17.001   04 Jun 2027 23:08:37.553            20.552                Norilsk           642.250
       465   04 Jun 2027 23:08:53.768   04 Jun 2027 23:09:36.849            43.081               Magadan2          1346.281
       466   04 Jun 2027 23:09:36.849   04 Jun 2027 23:10:23.693            46.844               Magadan1          1463.875
       467   04 Jun 2027 23:12:09.120   04 Jun 2027 23:13:40.280            91.160                Novosib          2848.750
       468   04 Jun 2027 23:14:16.031   04 Jun 2027 23:14:22.573             6.542              Murmansk1           204.438
       469   04 Jun 2027 23:17:33.257   04 Jun 2027 23:18:25.409            52.152                Novosib          1629.750
       470   04 Jun 2027 23:19:36.844   04 Jun 2027 23:20:44.629            67.785                  Delhi          2118.281
       471   04 Jun 2027 23:25:56.584   04 Jun 2027 23:26:32.230            35.646                  Delhi          1113.937
       472   04 Jun 2027 23:28:09.278   04 Jun 2027 23:30:00.506           111.228                  Delhi          3475.875
       473   05 Jun 2027 00:38:58.872   05 Jun 2027 00:40:02.773            63.901                Anadyr2          1996.906
       474   05 Jun 2027 00:43:50.853   05 Jun 2027 00:46:18.625           147.772               Magadan1          4617.875
       475   05 Jun 2027 00:46:31.567   05 Jun 2027 00:48:50.346           138.779              Murmansk2          4336.844
       476   05 Jun 2027 00:50:41.525   05 Jun 2027 00:50:57.916            16.391                 Moscow           512.219
       477   05 Jun 2027 00:53:46.588   05 Jun 2027 00:54:03.952            17.364                 Moscow           542.625
       478   05 Jun 2027 00:54:32.489   05 Jun 2027 00:54:50.624            18.135              Murmansk1           566.719
       479   05 Jun 2027 00:55:29.583   05 Jun 2027 00:56:15.010            45.427                 Moscow          1419.594
       480   05 Jun 2027 01:18:25.355   05 Jun 2027 01:19:04.384            39.029               CapeTown          1219.656
       481   05 Jun 2027 01:19:24.332   05 Jun 2027 01:19:38.566            14.234               CapeTown           444.813
       482   05 Jun 2027 02:11:16.622   05 Jun 2027 02:12:41.611            84.989                Anadyr1          2655.906
