uniorb/output/strategy_4/Drop/Drop_KinoSat_110809.txt

KinoSat_110809
-------------------------
    Access    *     Start Time (UTCG)     *     Stop Time (UTCG)  *   Duration (s)        *       Station  *  Data (Mbytes)
         1   01 Jun 2027 04:35:24.229   01 Jun 2027 04:35:54.977            30.748               Magadan2           960.875
         2   01 Jun 2027 04:36:01.518   01 Jun 2027 04:37:24.342            82.824                Anadyr1          2588.250
         3   01 Jun 2027 04:38:42.255   01 Jun 2027 04:39:22.195            39.940                Anadyr2          1248.125
         4   01 Jun 2027 05:16:50.681   01 Jun 2027 05:17:19.004            28.323            RioGallegos           885.094
         5   01 Jun 2027 06:08:58.300   01 Jun 2027 06:09:41.910            43.610                Irkutsk          1362.812
         6   01 Jun 2027 06:09:45.450   01 Jun 2027 06:11:26.676           101.226               Magadan1          3163.312
         7   01 Jun 2027 06:11:31.649   01 Jun 2027 06:13:20.622           108.973                Anadyr2          3405.406
         8   01 Jun 2027 06:13:39.604   01 Jun 2027 06:15:24.193           104.589                Novosib          3268.406
         9   01 Jun 2027 06:16:32.459   01 Jun 2027 06:16:40.330             7.871                Norilsk           245.969
        10   01 Jun 2027 06:50:00.947   01 Jun 2027 06:52:44.009           163.062            RioGallegos          5095.688
        11   01 Jun 2027 07:26:16.553   01 Jun 2027 07:28:34.388           137.835                Sumatra          4307.344
        12   01 Jun 2027 07:46:40.625   01 Jun 2027 07:47:05.440            24.815                Irkutsk           775.469
        13   01 Jun 2027 07:47:14.586   01 Jun 2027 07:48:07.939            53.353                Norilsk          1667.281
        14   01 Jun 2027 07:48:17.206   01 Jun 2027 07:49:36.503            79.297              Murmansk2          2478.031
        15   01 Jun 2027 07:49:36.503   01 Jun 2027 07:50:09.253            32.750              Murmansk1          1023.438
        16   01 Jun 2027 07:50:28.840   01 Jun 2027 07:53:25.535           176.695                Norilsk          5521.719
        17   01 Jun 2027 07:53:29.021   01 Jun 2027 07:54:21.257            52.236              Murmansk1          1632.375
        18   01 Jun 2027 07:54:29.787   01 Jun 2027 07:55:16.702            46.915              Murmansk2          1466.094
        19   01 Jun 2027 07:56:01.720   01 Jun 2027 07:56:08.859             7.139                Norilsk           223.094
        20   01 Jun 2027 08:26:44.548   01 Jun 2027 08:28:25.978           101.430            RioGallegos          3169.687
        21   01 Jun 2027 09:01:01.986   01 Jun 2027 09:02:25.946            83.960                Sumatra          2623.750
        22   01 Jun 2027 09:04:54.291   01 Jun 2027 09:06:13.800            79.509                Sumatra          2484.656
        23   01 Jun 2027 09:11:51.450   01 Jun 2027 09:13:10.548            79.098                  Delhi          2471.813
        24   01 Jun 2027 09:24:29.892   01 Jun 2027 09:26:20.654           110.762                Irkutsk          3461.312
        25   01 Jun 2027 10:45:49.775   01 Jun 2027 10:47:28.620            98.845                  Delhi          3088.906
        26   01 Jun 2027 10:50:10.018   01 Jun 2027 10:50:28.331            18.313                  Delhi           572.281
        27   01 Jun 2027 11:00:08.840   01 Jun 2027 11:00:21.675            12.835                Novosib           401.094
        28   01 Jun 2027 11:00:54.347   01 Jun 2027 11:03:33.471           159.124                Novosib          4972.625
        29   01 Jun 2027 11:04:15.091   01 Jun 2027 11:06:10.246           115.155                 Moscow          3598.594
        30   01 Jun 2027 12:29:24.300   01 Jun 2027 12:31:49.132           144.832                 Moscow          4526.000
        31   01 Jun 2027 12:32:35.190   01 Jun 2027 12:33:28.755            53.565                 Moscow          1673.906
        32   01 Jun 2027 12:33:43.055   01 Jun 2027 12:37:36.923           233.868              Murmansk1          7308.375
        33   01 Jun 2027 12:40:32.948   01 Jun 2027 12:41:36.706            63.758                Norilsk          1992.438
        34   01 Jun 2027 12:49:29.428   01 Jun 2027 12:52:57.538           208.110                Anadyr2          6503.438
        35   01 Jun 2027 13:43:07.091   01 Jun 2027 13:44:45.973            98.882               CapeTown          3090.062
        36   01 Jun 2027 14:10:42.029   01 Jun 2027 14:13:34.988           172.959              Murmansk1          5404.969
        37   01 Jun 2027 14:23:36.417   01 Jun 2027 14:25:38.738           122.321                Anadyr2          3822.531
        38   01 Jun 2027 14:26:12.465   01 Jun 2027 14:27:26.347            73.882                Anadyr1          2308.812
        39   01 Jun 2027 15:19:12.357   01 Jun 2027 15:19:42.806            30.449               CapeTown           951.531
        40   01 Jun 2027 15:51:09.427   01 Jun 2027 15:52:13.418            63.991              Murmansk1          1999.719
        41   01 Jun 2027 15:54:08.668   01 Jun 2027 15:54:25.850            17.182              Murmansk2           536.937
        42   01 Jun 2027 15:59:21.036   01 Jun 2027 16:00:55.654            94.618                Anadyr1          2956.812
        43   01 Jun 2027 16:01:20.188   01 Jun 2027 16:02:57.329            97.141                Anadyr2          3035.656
        44   01 Jun 2027 16:03:09.677   01 Jun 2027 16:05:17.944           128.267               Magadan1          4008.344
        45   01 Jun 2027 16:05:29.746   01 Jun 2027 16:07:26.397           116.651               Magadan2          3645.344
        46   01 Jun 2027 17:35:16.437   01 Jun 2027 17:36:48.052            91.615                Anadyr2          2862.969
        47   01 Jun 2027 17:36:48.594   01 Jun 2027 17:38:12.233            83.639                Anadyr1          2613.719
        48   01 Jun 2027 17:38:31.027   01 Jun 2027 17:40:37.333           126.306               Magadan1          3947.062
        49   01 Jun 2027 17:40:37.333   01 Jun 2027 17:43:26.995           169.662               Magadan2          5301.938
        50   01 Jun 2027 18:30:31.198   01 Jun 2027 18:33:49.545           198.347            RioGallegos          6198.344
        51   01 Jun 2027 19:13:11.378   01 Jun 2027 19:17:17.789           246.411                Norilsk          7700.344
        52   01 Jun 2027 19:17:43.850   01 Jun 2027 19:20:04.852           141.002                Irkutsk          4406.312
        53   01 Jun 2027 19:21:12.555   01 Jun 2027 19:21:25.714            13.159                Irkutsk           411.219
        54   01 Jun 2027 19:31:59.380   01 Jun 2027 19:34:46.195           166.815                Sumatra          5212.969
        55   01 Jun 2027 19:37:59.957   01 Jun 2027 19:39:04.026            64.069                Sumatra          2002.156
        56   01 Jun 2027 20:49:34.445   01 Jun 2027 20:49:50.418            15.973                Norilsk           499.156
        57   01 Jun 2027 20:52:53.991   01 Jun 2027 20:54:29.365            95.374                Irkutsk          2980.437
        58   01 Jun 2027 20:54:29.365   01 Jun 2027 20:56:10.354           100.989                Novosib          3155.906
        59   01 Jun 2027 21:02:02.147   01 Jun 2027 21:04:54.875           172.728                  Delhi          5397.750
        60   01 Jun 2027 22:25:28.168   01 Jun 2027 22:25:37.107             8.939               Magadan1           279.344
        61   01 Jun 2027 22:25:44.429   01 Jun 2027 22:25:56.014            11.585                Norilsk           362.031
        62   01 Jun 2027 22:27:40.875   01 Jun 2027 22:31:35.140           234.265              Murmansk2          7320.781
        63   01 Jun 2027 22:32:13.990   01 Jun 2027 22:34:35.017           141.027              Murmansk1          4407.094
        64   01 Jun 2027 23:58:59.637   01 Jun 2027 23:59:24.786            25.149               Magadan1           785.906
        65   01 Jun 2027 23:59:54.299   02 Jun 2027 00:00:46.802            52.503               Magadan2          1640.719
        66   02 Jun 2027 00:00:58.589   02 Jun 2027 00:01:08.257             9.668               Magadan2           302.125
        67   02 Jun 2027 00:01:43.159   02 Jun 2027 00:02:20.647            37.488               Magadan1          1171.500
        68   02 Jun 2027 00:03:11.105   02 Jun 2027 00:04:49.663            98.558              Murmansk2          3079.938
        69   02 Jun 2027 00:04:56.350   02 Jun 2027 00:06:30.159            93.809              Murmansk1          2931.531
        70   02 Jun 2027 00:06:45.781   02 Jun 2027 00:07:45.738            59.957                 Moscow          1873.656
        71   02 Jun 2027 00:08:31.746   02 Jun 2027 00:09:22.010            50.264                 Moscow          1570.750
        72   02 Jun 2027 00:14:35.022   02 Jun 2027 00:14:53.541            18.519                 Moscow           578.719
        73   02 Jun 2027 00:31:57.840   02 Jun 2027 00:33:33.978            96.138               CapeTown          3004.313
        74   02 Jun 2027 00:36:39.495   02 Jun 2027 00:38:04.290            84.795               CapeTown          2649.844
        75   02 Jun 2027 00:38:46.284   02 Jun 2027 00:38:57.343            11.059               CapeTown           345.594
        76   02 Jun 2027 01:35:17.857   02 Jun 2027 01:35:58.635            40.778               Magadan2          1274.313
        77   02 Jun 2027 01:39:07.956   02 Jun 2027 01:40:37.684            89.728              Murmansk2          2804.000
        78   02 Jun 2027 01:41:10.412   02 Jun 2027 01:41:21.307            10.895              Murmansk1           340.469
        79   02 Jun 2027 01:41:46.504   02 Jun 2027 01:42:20.614            34.110              Murmansk1          1065.937
        80   02 Jun 2027 01:42:52.761   02 Jun 2027 01:42:52.986             0.225                 Moscow             7.031
        81   02 Jun 2027 01:43:39.366   02 Jun 2027 01:43:56.871            17.505                 Moscow           547.031
        82   02 Jun 2027 01:53:00.674   02 Jun 2027 01:55:10.510           129.836                 Moscow          4057.375
        83   02 Jun 2027 03:03:33.309   02 Jun 2027 03:03:39.478             6.169               Magadan1           192.781
        84   02 Jun 2027 03:04:52.448   02 Jun 2027 03:05:00.578             8.130               Magadan2           254.063
        85   02 Jun 2027 03:05:38.710   02 Jun 2027 03:05:54.467            15.757               Magadan1           492.406
        86   02 Jun 2027 03:08:52.326   02 Jun 2027 03:09:18.201            25.875                Anadyr2           808.594
        87   02 Jun 2027 03:09:19.485   02 Jun 2027 03:09:39.908            20.423                Anadyr2           638.219
        88   02 Jun 2027 03:09:41.360   02 Jun 2027 03:10:08.825            27.465               Magadan2           858.281
        89   02 Jun 2027 03:10:19.278   02 Jun 2027 03:12:46.370           147.092                Anadyr1          4596.625
        90   02 Jun 2027 03:13:30.116   02 Jun 2027 03:13:36.728             6.612                Anadyr2           206.625
        91   02 Jun 2027 03:13:59.619   02 Jun 2027 03:14:04.375             4.756                Anadyr1           148.625
        92   02 Jun 2027 03:14:39.108   02 Jun 2027 03:15:28.659            49.551                Anadyr2          1548.469
        93   02 Jun 2027 04:48:00.949   02 Jun 2027 04:49:25.299            84.350                Anadyr1          2635.938
        94   02 Jun 2027 04:49:27.548   02 Jun 2027 04:50:18.382            50.834                Anadyr1          1588.562
        95   02 Jun 2027 06:23:32.087   02 Jun 2027 06:23:49.124            17.037                Novosib           532.406
        96   02 Jun 2027 06:25:02.327   02 Jun 2027 06:26:57.183           114.856               Magadan2          3589.250
        97   02 Jun 2027 06:27:03.508   02 Jun 2027 06:28:07.203            63.695                Novosib          1990.469
        98   02 Jun 2027 08:00:38.240   02 Jun 2027 08:03:11.961           153.721                Irkutsk          4803.781
        99   02 Jun 2027 08:03:13.192   02 Jun 2027 08:03:37.609            24.417              Murmansk2           763.031
       100   02 Jun 2027 08:03:39.211   02 Jun 2027 08:04:40.267            61.056                Novosib          1908.000
       101   02 Jun 2027 08:39:10.164   02 Jun 2027 08:39:26.289            16.125            RioGallegos           503.906
       102   02 Jun 2027 08:40:31.997   02 Jun 2027 08:41:20.033            48.036            RioGallegos          1501.125
       103   02 Jun 2027 08:42:13.390   02 Jun 2027 08:42:36.171            22.781            RioGallegos           711.906
       104   02 Jun 2027 08:45:01.370   02 Jun 2027 08:45:11.564            10.194            RioGallegos           318.563
       105   02 Jun 2027 08:45:59.985   02 Jun 2027 08:46:25.335            25.350            RioGallegos           792.188
       106   02 Jun 2027 09:13:23.002   02 Jun 2027 09:14:18.278            55.276                Sumatra          1727.375
       107   02 Jun 2027 09:15:09.873   02 Jun 2027 09:16:14.366            64.493                Sumatra          2015.406
       108   02 Jun 2027 09:17:22.552   02 Jun 2027 09:17:47.466            24.914                Sumatra           778.562
       109   02 Jun 2027 09:18:21.336   02 Jun 2027 09:19:46.600            85.264                Sumatra          2664.500
       110   02 Jun 2027 09:38:13.547   02 Jun 2027 09:38:14.392             0.845                Novosib            26.406
       111   02 Jun 2027 09:38:31.947   02 Jun 2027 09:38:58.142            26.195                Novosib           818.594
       112   02 Jun 2027 10:58:24.102   02 Jun 2027 11:00:52.620           148.518                  Delhi          4641.187
       113   02 Jun 2027 11:14:12.046   02 Jun 2027 11:14:34.555            22.509                Norilsk           703.406
       114   02 Jun 2027 12:41:33.464   02 Jun 2027 12:42:09.616            36.152                 Moscow          1129.750
       115   02 Jun 2027 12:43:55.155   02 Jun 2027 12:44:04.650             9.495                 Moscow           296.719
       116   02 Jun 2027 12:44:34.602   02 Jun 2027 12:45:38.367            63.765                 Moscow          1992.656
       117   02 Jun 2027 12:45:44.067   02 Jun 2027 12:47:02.359            78.292              Murmansk2          2446.625
       118   02 Jun 2027 12:49:38.348   02 Jun 2027 12:49:47.243             8.895              Murmansk2           277.969
       119   02 Jun 2027 12:52:22.456   02 Jun 2027 12:53:36.495            74.039                Norilsk          2313.719
       120   02 Jun 2027 12:53:56.537   02 Jun 2027 12:54:19.263            22.726                Norilsk           710.188
       121   02 Jun 2027 13:00:53.690   02 Jun 2027 13:04:17.286           203.596                Anadyr1          6362.375
       122   02 Jun 2027 13:04:40.153   02 Jun 2027 13:06:13.682            93.529                Anadyr2          2922.781
       123   02 Jun 2027 14:23:06.794   02 Jun 2027 14:24:15.052            68.258              Murmansk1          2133.063
       124   02 Jun 2027 14:24:50.551   02 Jun 2027 14:25:36.610            46.059              Murmansk2          1439.344
       125   02 Jun 2027 14:27:50.558   02 Jun 2027 14:28:09.165            18.607              Murmansk1           581.469
       126   02 Jun 2027 14:35:34.655   02 Jun 2027 14:37:29.973           115.318                Anadyr1          3603.688
       127   02 Jun 2027 14:38:11.671   02 Jun 2027 14:38:44.166            32.495                Anadyr2          1015.469
       128   02 Jun 2027 14:40:28.454   02 Jun 2027 14:40:44.444            15.990                Anadyr1           499.687
       129   02 Jun 2027 15:31:58.798   02 Jun 2027 15:32:17.710            18.912               CapeTown           591.000
       130   02 Jun 2027 15:35:28.578   02 Jun 2027 15:36:31.522            62.944               CapeTown          1967.000
       131   02 Jun 2027 16:04:06.285   02 Jun 2027 16:05:11.097            64.812              Murmansk2          2025.375
       132   02 Jun 2027 16:05:11.097   02 Jun 2027 16:05:39.803            28.706              Murmansk1           897.063
       133   02 Jun 2027 16:11:22.226   02 Jun 2027 16:12:55.791            93.565                Anadyr1          2923.906
       134   02 Jun 2027 16:13:01.546   02 Jun 2027 16:13:41.869            40.323                Anadyr2          1260.094
       135   02 Jun 2027 16:14:03.414   02 Jun 2027 16:14:05.778             2.364                Anadyr2            73.875
       136   02 Jun 2027 16:14:51.085   02 Jun 2027 16:19:10.416           259.331               Magadan1          8104.094
       137   02 Jun 2027 17:47:17.398   02 Jun 2027 17:48:49.498            92.100                Anadyr2          2878.125
       138   02 Jun 2027 17:49:34.343   02 Jun 2027 17:52:16.944           162.601               Magadan2          5081.281
       139   02 Jun 2027 17:55:25.682   02 Jun 2027 17:56:37.263            71.581               Magadan2          2236.906
       140   02 Jun 2027 18:42:09.649   02 Jun 2027 18:44:08.270           118.621            RioGallegos          3706.906
       141   02 Jun 2027 18:44:43.529   02 Jun 2027 18:47:38.852           175.323            RioGallegos          5478.844
       142   02 Jun 2027 19:25:10.463   02 Jun 2027 19:29:18.505           248.042                Norilsk          7751.313
       143   02 Jun 2027 19:29:32.816   02 Jun 2027 19:30:09.480            36.664                Irkutsk          1145.750
       144   02 Jun 2027 19:30:34.933   02 Jun 2027 19:31:02.918            27.985                Irkutsk           874.531
       145   02 Jun 2027 19:32:11.443   02 Jun 2027 19:32:52.545            41.102                Irkutsk          1284.437
       146   02 Jun 2027 19:38:33.209   02 Jun 2027 19:39:34.844            61.635                Irkutsk          1926.094
       147   02 Jun 2027 19:43:32.349   02 Jun 2027 19:45:18.002           105.653                Sumatra          3301.656
       148   02 Jun 2027 19:47:01.768   02 Jun 2027 19:48:01.693            59.925                Sumatra          1872.656
       149   02 Jun 2027 19:49:36.345   02 Jun 2027 19:50:11.023            34.678                Sumatra          1083.687
       150   02 Jun 2027 21:05:13.840   02 Jun 2027 21:05:50.551            36.711                Novosib          1147.219
       151   02 Jun 2027 21:12:44.194   02 Jun 2027 21:13:05.871            21.677                Novosib           677.406
       152   02 Jun 2027 21:13:22.889   02 Jun 2027 21:14:44.460            81.571                Novosib          2549.094
       153   02 Jun 2027 21:15:41.435   02 Jun 2027 21:16:42.463            61.028                  Delhi          1907.125
       154   02 Jun 2027 21:19:13.683   02 Jun 2027 21:20:25.661            71.978                  Delhi          2249.312
       155   02 Jun 2027 22:37:31.470   02 Jun 2027 22:37:46.857            15.387               Magadan1           480.844
       156   02 Jun 2027 22:37:57.817   02 Jun 2027 22:38:08.236            10.419               Magadan1           325.594
       157   02 Jun 2027 22:38:29.184   02 Jun 2027 22:38:32.965             3.781                Norilsk           118.156
       158   02 Jun 2027 22:39:34.697   02 Jun 2027 22:43:33.418           238.721              Murmansk2          7460.031
       159   02 Jun 2027 22:44:07.464   02 Jun 2027 22:45:23.425            75.961              Murmansk1          2373.781
       160   02 Jun 2027 22:45:42.004   02 Jun 2027 22:48:47.053           185.049                 Moscow          5782.781
       161   03 Jun 2027 00:13:01.486   03 Jun 2027 00:13:08.974             7.488               Magadan1           234.000
       162   03 Jun 2027 00:13:45.348   03 Jun 2027 00:14:10.657            25.309               Magadan2           790.906
       163   03 Jun 2027 00:15:12.058   03 Jun 2027 00:16:48.340            96.282              Murmansk2          3008.813
       164   03 Jun 2027 00:17:53.422   03 Jun 2027 00:18:31.760            38.338              Murmansk1          1198.063
       165   03 Jun 2027 00:18:40.730   03 Jun 2027 00:19:04.210            23.480                 Moscow           733.750
       166   03 Jun 2027 00:19:21.846   03 Jun 2027 00:19:43.387            21.541                 Moscow           673.156
       167   03 Jun 2027 00:20:36.871   03 Jun 2027 00:21:36.577            59.706                 Moscow          1865.812
       168   03 Jun 2027 00:23:33.065   03 Jun 2027 00:24:53.628            80.563                 Moscow          2517.594
       169   03 Jun 2027 00:43:28.058   03 Jun 2027 00:44:56.231            88.173               CapeTown          2755.406
       170   03 Jun 2027 00:46:06.249   03 Jun 2027 00:46:42.458            36.209               CapeTown          1131.531
       171   03 Jun 2027 01:42:11.456   03 Jun 2027 01:42:35.051            23.595               Magadan1           737.344
       172   03 Jun 2027 01:43:03.328   03 Jun 2027 01:44:42.385            99.057               Magadan2          3095.531
       173   03 Jun 2027 01:51:09.623   03 Jun 2027 01:51:56.168            46.545              Murmansk2          1454.531
       174   03 Jun 2027 01:51:56.168   03 Jun 2027 01:52:39.297            43.129              Murmansk1          1347.781
       175   03 Jun 2027 01:53:03.663   03 Jun 2027 01:53:19.411            15.748              Murmansk2           492.125
       176   03 Jun 2027 01:53:44.203   03 Jun 2027 01:54:16.945            32.742              Murmansk2          1023.188
       177   03 Jun 2027 01:57:35.233   03 Jun 2027 01:58:04.363            29.130                 Moscow           910.313
       178   03 Jun 2027 02:18:34.582   03 Jun 2027 02:19:55.410            80.828               CapeTown          2525.875
       179   03 Jun 2027 02:23:16.615   03 Jun 2027 02:23:46.703            30.088               CapeTown           940.250
       180   03 Jun 2027 03:15:49.021   03 Jun 2027 03:15:55.942             6.921                Anadyr1           216.281
       181   03 Jun 2027 03:16:25.858   03 Jun 2027 03:16:29.953             4.095                Anadyr1           127.969
       182   03 Jun 2027 03:16:58.010   03 Jun 2027 03:17:17.435            19.425               Magadan1           607.031
       183   03 Jun 2027 03:21:06.723   03 Jun 2027 03:21:17.072            10.349               Magadan2           323.406
       184   03 Jun 2027 03:21:22.022   03 Jun 2027 03:23:07.510           105.488               Magadan2          3296.500
       185   03 Jun 2027 03:23:07.510   03 Jun 2027 03:24:34.845            87.335               Magadan1          2729.219
       186   03 Jun 2027 03:24:38.342   03 Jun 2027 03:26:37.563           119.221                Anadyr1          3725.656
       187   03 Jun 2027 03:27:29.626   03 Jun 2027 03:27:42.805            13.179                Anadyr1           411.844
       188   03 Jun 2027 05:00:39.804   03 Jun 2027 05:01:35.305            55.501                Irkutsk          1734.406
       189   03 Jun 2027 06:34:02.255   03 Jun 2027 06:34:55.550            53.295               Magadan2          1665.469
       190   03 Jun 2027 06:35:16.079   03 Jun 2027 06:35:17.640             1.561               Magadan2            48.781
       191   03 Jun 2027 06:35:17.640   03 Jun 2027 06:35:21.920             4.280               Magadan1           133.750
       192   03 Jun 2027 06:35:23.892   03 Jun 2027 06:37:02.435            98.543               Magadan2          3079.469
       193   03 Jun 2027 06:37:17.973   03 Jun 2027 06:38:10.818            52.845               Magadan1          1651.406
       194   03 Jun 2027 06:38:20.581   03 Jun 2027 06:38:22.656             2.075                Novosib            64.844
       195   03 Jun 2027 06:38:31.343   03 Jun 2027 06:38:49.109            17.766               Magadan1           555.187
       196   03 Jun 2027 06:39:05.359   03 Jun 2027 06:39:34.257            28.898                Novosib           903.062
       197   03 Jun 2027 06:40:14.294   03 Jun 2027 06:40:15.826             1.532                Novosib            47.875
       198   03 Jun 2027 08:10:50.742   03 Jun 2027 08:11:01.612            10.870                Irkutsk           339.687
       199   03 Jun 2027 08:11:09.825   03 Jun 2027 08:12:07.384            57.559                Irkutsk          1798.719
       200   03 Jun 2027 08:12:43.588   03 Jun 2027 08:12:44.845             1.257                Irkutsk            39.281
       201   03 Jun 2027 08:14:19.027   03 Jun 2027 08:15:11.188            52.161                Irkutsk          1630.031
       202   03 Jun 2027 08:52:29.755   03 Jun 2027 08:53:05.582            35.827            RioGallegos          1119.594
       203   03 Jun 2027 08:55:27.821   03 Jun 2027 08:55:44.186            16.365            RioGallegos           511.406
       204   03 Jun 2027 09:25:53.103   03 Jun 2027 09:26:16.303            23.200                Sumatra           725.000
       205   03 Jun 2027 09:26:43.068   03 Jun 2027 09:26:57.059            13.991                Sumatra           437.219
       206   03 Jun 2027 09:30:23.736   03 Jun 2027 09:30:35.061            11.325                Sumatra           353.906
       207   03 Jun 2027 09:33:02.488   03 Jun 2027 09:34:59.527           117.039                Sumatra          3657.469
       208   03 Jun 2027 09:49:49.766   03 Jun 2027 09:50:12.234            22.468                Novosib           702.125
       209   03 Jun 2027 09:50:17.685   03 Jun 2027 09:50:38.026            20.341                Novosib           635.656
       210   03 Jun 2027 09:50:49.368   03 Jun 2027 09:50:52.643             3.275                Novosib           102.344
       211   03 Jun 2027 11:11:10.770   03 Jun 2027 11:13:35.078           144.308                  Delhi          4509.625
       212   03 Jun 2027 11:15:22.066   03 Jun 2027 11:15:22.575             0.509                  Delhi            15.906
       213   03 Jun 2027 11:19:22.059   03 Jun 2027 11:19:44.979            22.920                  Delhi           716.250
       214   03 Jun 2027 11:28:12.988   03 Jun 2027 11:28:41.617            28.629                Norilsk           894.656
       215   03 Jun 2027 12:53:45.938   03 Jun 2027 12:54:45.404            59.466                 Moscow          1858.313
       216   03 Jun 2027 12:57:14.572   03 Jun 2027 12:57:45.283            30.711              Murmansk2           959.719
       217   03 Jun 2027 12:57:52.017   03 Jun 2027 12:58:04.365            12.348                 Moscow           385.875
       218   03 Jun 2027 12:58:12.920   03 Jun 2027 12:59:03.363            50.443              Murmansk1          1576.344
       219   03 Jun 2027 12:59:03.363   03 Jun 2027 12:59:24.519            21.156              Murmansk2           661.125
       220   03 Jun 2027 13:00:09.976   03 Jun 2027 13:00:38.876            28.900              Murmansk2           903.125
       221   03 Jun 2027 13:01:56.972   03 Jun 2027 13:02:18.542            21.570              Murmansk2           674.063
       222   03 Jun 2027 13:06:33.984   03 Jun 2027 13:06:58.578            24.594              Murmansk2           768.563
       223   03 Jun 2027 13:12:53.358   03 Jun 2027 13:14:24.214            90.856                Anadyr1          2839.250
       224   03 Jun 2027 14:06:54.567   03 Jun 2027 14:07:17.901            23.334               CapeTown           729.188
       225   03 Jun 2027 14:08:18.909   03 Jun 2027 14:09:28.025            69.116               CapeTown          2159.875
       226   03 Jun 2027 14:35:34.051   03 Jun 2027 14:36:23.635            49.584              Murmansk1          1549.500
       227   03 Jun 2027 14:36:47.792   03 Jun 2027 14:37:35.706            47.914              Murmansk2          1497.313
       228   03 Jun 2027 14:39:27.774   03 Jun 2027 14:39:51.131            23.357              Murmansk1           729.906
       229   03 Jun 2027 14:40:07.144   03 Jun 2027 14:40:20.189            13.045              Murmansk2           407.656
       230   03 Jun 2027 14:44:04.444   03 Jun 2027 14:45:15.315            70.871              Murmansk2          2214.719
       231   03 Jun 2027 14:47:33.589   03 Jun 2027 14:49:28.198           114.609                Anadyr2          3581.531
       232   03 Jun 2027 14:50:10.374   03 Jun 2027 14:50:19.398             9.024                Anadyr2           282.000
       233   03 Jun 2027 14:50:45.463   03 Jun 2027 14:51:25.806            40.343                Anadyr2          1260.719
       234   03 Jun 2027 15:43:52.247   03 Jun 2027 15:44:22.422            30.175               CapeTown           942.969
       235   03 Jun 2027 15:44:33.834   03 Jun 2027 15:45:28.215            54.381               CapeTown          1699.406
       236   03 Jun 2027 16:17:18.484   03 Jun 2027 16:19:09.782           111.298              Murmansk1          3478.063
       237   03 Jun 2027 16:23:23.520   03 Jun 2027 16:24:56.275            92.755                Anadyr1          2898.594
       238   03 Jun 2027 16:25:17.181   03 Jun 2027 16:26:01.414            44.233                Anadyr2          1382.281
       239   03 Jun 2027 16:27:03.866   03 Jun 2027 16:28:36.146            92.280               Magadan1          2883.750
       240   03 Jun 2027 16:28:36.146   03 Jun 2027 16:31:04.607           148.461               Magadan2          4639.406
       241   03 Jun 2027 17:59:18.156   03 Jun 2027 18:01:53.471           155.315                Anadyr1          4853.594
       242   03 Jun 2027 18:01:58.110   03 Jun 2027 18:03:20.916            82.806               Magadan2          2587.688
       243   03 Jun 2027 18:03:20.916   03 Jun 2027 18:04:05.691            44.775               Magadan1          1399.219
       244   03 Jun 2027 18:04:05.875   03 Jun 2027 18:05:35.546            89.671                Norilsk          2802.219
       245   03 Jun 2027 18:53:53.827   03 Jun 2027 18:56:14.669           140.842            RioGallegos          4401.313
       246   03 Jun 2027 18:57:33.797   03 Jun 2027 18:58:52.553            78.756            RioGallegos          2461.125
       247   03 Jun 2027 19:37:37.038   03 Jun 2027 19:39:35.410           118.372               Magadan1          3699.125
       248   03 Jun 2027 19:39:55.763   03 Jun 2027 19:41:19.555            83.792                Norilsk          2618.500
       249   03 Jun 2027 19:41:24.509   03 Jun 2027 19:44:14.495           169.986                Irkutsk          5312.062
       250   03 Jun 2027 19:44:28.244   03 Jun 2027 19:46:17.700           109.456                Novosib          3420.500
       251   03 Jun 2027 19:55:13.297   03 Jun 2027 19:56:32.606            79.309                Sumatra          2478.406
       252   03 Jun 2027 19:57:39.220   03 Jun 2027 19:59:00.768            81.548                Sumatra          2548.375
       253   03 Jun 2027 21:18:23.050   03 Jun 2027 21:19:06.776            43.726                Novosib          1366.438
       254   03 Jun 2027 21:20:06.987   03 Jun 2027 21:21:03.266            56.279                Novosib          1758.719
       255   03 Jun 2027 21:23:21.621   03 Jun 2027 21:24:02.234            40.613                Novosib          1269.156
       256   03 Jun 2027 21:25:04.578   03 Jun 2027 21:28:34.353           209.775                  Delhi          6555.469
       257   03 Jun 2027 21:31:28.921   03 Jun 2027 21:31:36.256             7.335                  Delhi           229.219
       258   03 Jun 2027 22:49:57.380   03 Jun 2027 22:50:43.115            45.735               Magadan2          1429.219
       259   03 Jun 2027 22:51:30.541   03 Jun 2027 22:53:57.272           146.731              Murmansk1          4585.344
       260   03 Jun 2027 22:54:11.541   03 Jun 2027 22:55:32.505            80.964              Murmansk2          2530.125
       261   03 Jun 2027 22:56:39.835   03 Jun 2027 23:02:16.000           336.165                 Moscow         10505.156
       262   04 Jun 2027 00:27:13.248   04 Jun 2027 00:27:27.302            14.054              Murmansk2           439.188
       263   04 Jun 2027 00:27:54.030   04 Jun 2027 00:28:48.866            54.836              Murmansk1          1713.625
       264   04 Jun 2027 00:30:05.755   04 Jun 2027 00:30:33.282            27.527              Murmansk1           860.219
       265   04 Jun 2027 00:30:37.097   04 Jun 2027 00:31:07.814            30.717                 Moscow           959.906
       266   04 Jun 2027 00:32:29.766   04 Jun 2027 00:32:47.205            17.439                 Moscow           544.969
       267   04 Jun 2027 00:33:06.074   04 Jun 2027 00:33:42.549            36.475                 Moscow          1139.844
       268   04 Jun 2027 00:34:29.100   04 Jun 2027 00:34:39.755            10.655                 Moscow           332.969
       269   04 Jun 2027 00:34:48.999   04 Jun 2027 00:36:19.232            90.233                 Moscow          2819.781
       270   04 Jun 2027 00:55:04.767   04 Jun 2027 00:56:24.693            79.926               CapeTown          2497.688
       271   04 Jun 2027 00:58:29.655   04 Jun 2027 00:58:35.087             5.432               CapeTown           169.750
       272   04 Jun 2027 01:53:45.725   04 Jun 2027 01:55:07.844            82.119               Magadan1          2566.219
       273   04 Jun 2027 01:55:21.016   04 Jun 2027 01:55:30.073             9.057               Magadan2           283.031
       274   04 Jun 2027 01:58:57.383   04 Jun 2027 01:59:07.787            10.404               Magadan1           325.125
       275   04 Jun 2027 01:59:21.674   04 Jun 2027 02:00:04.842            43.168               Magadan1          1349.000
       276   04 Jun 2027 02:03:11.232   04 Jun 2027 02:03:42.102            30.870              Murmansk1           964.687
       277   04 Jun 2027 02:03:42.102   04 Jun 2027 02:04:56.157            74.055              Murmansk2          2314.219
       278   04 Jun 2027 02:06:24.821   04 Jun 2027 02:06:49.669            24.848                 Moscow           776.500
       279   04 Jun 2027 02:09:29.820   04 Jun 2027 02:09:43.128            13.308                 Moscow           415.875
       280   04 Jun 2027 02:16:20.167   04 Jun 2027 02:16:35.183            15.016                 Moscow           469.250
       281   04 Jun 2027 02:16:44.240   04 Jun 2027 02:17:16.296            32.056                 Moscow          1001.750
       282   04 Jun 2027 02:30:54.066   04 Jun 2027 02:31:23.160            29.094               CapeTown           909.188
       283   04 Jun 2027 02:31:30.821   04 Jun 2027 02:31:49.624            18.803               CapeTown           587.594
       284   04 Jun 2027 02:40:33.834   04 Jun 2027 02:40:49.165            15.331               CapeTown           479.094
       285   04 Jun 2027 03:28:25.916   04 Jun 2027 03:28:55.274            29.358               Magadan2           917.437
       286   04 Jun 2027 03:30:39.817   04 Jun 2027 03:31:02.173            22.356                Anadyr2           698.625
       287   04 Jun 2027 03:33:30.883   04 Jun 2027 03:33:51.682            20.799               Magadan1           649.969
       288   04 Jun 2027 03:34:02.697   04 Jun 2027 03:37:12.708           190.011                Anadyr1          5937.844
       289   04 Jun 2027 03:37:20.835   04 Jun 2027 03:38:55.453            94.618               Magadan1          2956.813
       290   04 Jun 2027 03:39:12.198   04 Jun 2027 03:39:35.826            23.628               Magadan1           738.375
       291   04 Jun 2027 04:21:16.016   04 Jun 2027 04:21:59.410            43.394            RioGallegos          1356.062
       292   04 Jun 2027 05:10:22.116   04 Jun 2027 05:10:58.283            36.167                Irkutsk          1130.219
       293   04 Jun 2027 05:13:10.432   04 Jun 2027 05:13:37.771            27.339                Irkutsk           854.344
       294   04 Jun 2027 06:45:15.205   04 Jun 2027 06:45:31.614            16.409               Magadan2           512.781
       295   04 Jun 2027 06:46:43.091   04 Jun 2027 06:46:59.106            16.015               Magadan2           500.469
       296   04 Jun 2027 06:47:01.294   04 Jun 2027 06:47:18.271            16.977               Magadan2           530.531
       297   04 Jun 2027 06:47:20.910   04 Jun 2027 06:48:27.966            67.056               Magadan1          2095.500
       298   04 Jun 2027 06:49:01.981   04 Jun 2027 06:49:20.934            18.953               Magadan1           592.281
       299   04 Jun 2027 06:49:52.515   04 Jun 2027 06:50:03.386            10.871               Magadan2           339.719
       300   04 Jun 2027 06:51:06.637   04 Jun 2027 06:51:09.259             2.622                Novosib            81.938
       301   04 Jun 2027 06:51:29.024   04 Jun 2027 06:51:38.529             9.505                Novosib           297.031
       302   04 Jun 2027 06:52:35.374   04 Jun 2027 06:52:38.305             2.931              Murmansk1            91.594
       303   04 Jun 2027 06:53:04.072   04 Jun 2027 06:53:58.438            54.366              Murmansk1          1698.938
       304   04 Jun 2027 08:21:56.413   04 Jun 2027 08:22:23.300            26.887                Irkutsk           840.219
       305   04 Jun 2027 08:22:28.542   04 Jun 2027 08:23:10.794            42.252                Irkutsk          1320.375
       306   04 Jun 2027 08:23:28.355   04 Jun 2027 08:24:19.242            50.887                Irkutsk          1590.219
       307   04 Jun 2027 08:24:48.143   04 Jun 2027 08:25:07.123            18.980                Irkutsk           593.125
       308   04 Jun 2027 08:25:41.656   04 Jun 2027 08:25:59.704            18.048                Novosib           564.000
       309   04 Jun 2027 08:26:27.472   04 Jun 2027 08:26:30.281             2.809                Irkutsk            87.781
       310   04 Jun 2027 08:26:30.561   04 Jun 2027 08:27:26.295            55.734                Novosib          1741.688
       311   04 Jun 2027 09:04:19.469   04 Jun 2027 09:04:41.323            21.854            RioGallegos           682.938
       312   04 Jun 2027 09:38:36.202   04 Jun 2027 09:40:40.708           124.506                Sumatra          3890.813
       313   04 Jun 2027 10:00:37.835   04 Jun 2027 10:00:40.484             2.649                Novosib            82.781
       314   04 Jun 2027 10:00:59.624   04 Jun 2027 10:01:55.193            55.569                Novosib          1736.531
       315   04 Jun 2027 10:02:05.771   04 Jun 2027 10:02:20.487            14.716                Novosib           459.875
       316   04 Jun 2027 10:02:28.830   04 Jun 2027 10:02:30.326             1.496                Norilsk            46.750
       317   04 Jun 2027 10:02:38.332   04 Jun 2027 10:02:49.163            10.831                Norilsk           338.469
       318   04 Jun 2027 11:24:17.609   04 Jun 2027 11:27:29.876           192.267                  Delhi          6008.344
       319   04 Jun 2027 11:39:58.162   04 Jun 2027 11:40:03.392             5.230                Norilsk           163.438
       320   04 Jun 2027 13:09:18.635   04 Jun 2027 13:09:54.295            35.660                 Moscow          1114.375
       321   04 Jun 2027 13:10:09.346   04 Jun 2027 13:11:15.301            65.955              Murmansk2          2061.094
       322   04 Jun 2027 13:11:15.301   04 Jun 2027 13:11:45.641            30.340              Murmansk1           948.125
       323   04 Jun 2027 13:12:11.630   04 Jun 2027 13:12:15.366             3.736              Murmansk1           116.750
       324   04 Jun 2027 13:12:34.937   04 Jun 2027 13:13:41.537            66.600              Murmansk2          2081.250
       325   04 Jun 2027 13:31:10.719   04 Jun 2027 13:31:23.030            12.311                Anadyr2           384.719
       326   04 Jun 2027 14:18:52.920   04 Jun 2027 14:19:57.163            64.243               CapeTown          2007.594
       327   04 Jun 2027 14:21:07.507   04 Jun 2027 14:22:06.033            58.526               CapeTown          1828.938
       328   04 Jun 2027 14:22:26.350   04 Jun 2027 14:23:11.366            45.016               CapeTown          1406.750
       329   04 Jun 2027 14:26:53.625   04 Jun 2027 14:27:22.831            29.206               CapeTown           912.688
       330   04 Jun 2027 14:47:52.744   04 Jun 2027 14:48:12.311            19.567                 Moscow           611.469
       331   04 Jun 2027 14:48:34.015   04 Jun 2027 14:50:26.778           112.763              Murmansk2          3523.844
       332   04 Jun 2027 14:51:29.625   04 Jun 2027 14:52:03.951            34.326              Murmansk1          1072.688
       333   04 Jun 2027 14:59:33.084   04 Jun 2027 15:01:19.009           105.925                Anadyr1          3310.156
       334   04 Jun 2027 15:01:23.332   04 Jun 2027 15:01:37.442            14.110                Anadyr2           440.938
       335   04 Jun 2027 15:01:47.969   04 Jun 2027 15:02:08.489            20.520                Anadyr2           641.250
       336   04 Jun 2027 15:02:20.170   04 Jun 2027 15:02:46.796            26.626                Anadyr2           832.062
       337   04 Jun 2027 15:04:10.156   04 Jun 2027 15:08:14.813           244.657               Magadan2          7645.531
       338   04 Jun 2027 16:35:24.875   04 Jun 2027 16:37:58.741           153.866                Anadyr2          4808.312
       339   04 Jun 2027 16:38:39.890   04 Jun 2027 16:38:41.496             1.606                Anadyr1            50.188
       340   04 Jun 2027 16:38:43.902   04 Jun 2027 16:40:05.741            81.839               Magadan2          2557.469
       341   04 Jun 2027 16:40:15.328   04 Jun 2027 16:40:58.614            43.286               Magadan1          1352.688
       342   04 Jun 2027 16:42:45.309   04 Jun 2027 16:44:16.775            91.466               Magadan2          2858.312
       343   04 Jun 2027 18:11:18.676   04 Jun 2027 18:14:42.886           204.210                Anadyr2          6381.563
       344   04 Jun 2027 18:15:00.005   04 Jun 2027 18:18:39.889           219.884                Norilsk          6871.375
       345   04 Jun 2027 19:05:41.970   04 Jun 2027 19:08:22.128           160.158            RioGallegos          5004.938
       346   04 Jun 2027 19:15:09.167   04 Jun 2027 19:15:38.956            29.789            RioGallegos           930.906
       347   04 Jun 2027 19:49:10.590   04 Jun 2027 19:50:52.492           101.902                Norilsk          3184.438
       348   04 Jun 2027 19:51:29.642   04 Jun 2027 19:52:06.838            37.196               Magadan2          1162.375
       349   04 Jun 2027 19:53:18.353   04 Jun 2027 19:53:35.065            16.712                Irkutsk           522.250
       350   04 Jun 2027 19:54:06.926   04 Jun 2027 19:54:43.746            36.820                Norilsk          1150.625
       351   04 Jun 2027 19:55:00.844   04 Jun 2027 19:59:06.437           245.593                Novosib          7674.781
       352   04 Jun 2027 20:00:46.085   04 Jun 2027 20:01:08.390            22.305                Novosib           697.031
       353   04 Jun 2027 20:07:00.926   04 Jun 2027 20:08:57.949           117.023                Sumatra          3656.969
       354   04 Jun 2027 20:09:53.214   04 Jun 2027 20:10:30.046            36.832                Sumatra          1151.000
       355   04 Jun 2027 21:28:19.245   04 Jun 2027 21:28:26.982             7.737                Norilsk           241.781
       356   04 Jun 2027 21:28:59.895   04 Jun 2027 21:29:14.284            14.389                Irkutsk           449.656
       357   04 Jun 2027 21:29:20.110   04 Jun 2027 21:29:23.177             3.067                Irkutsk            95.844
       358   04 Jun 2027 21:29:33.807   04 Jun 2027 21:31:07.618            93.811                Novosib          2931.594
       359   04 Jun 2027 21:33:22.957   04 Jun 2027 21:35:08.150           105.193                Novosib          3287.281
       360   04 Jun 2027 21:36:47.184   04 Jun 2027 21:40:08.644           201.460                  Delhi          6295.625
       361   04 Jun 2027 23:01:10.081   04 Jun 2027 23:01:44.397            34.316               Magadan2          1072.375
       362   04 Jun 2027 23:03:27.814   04 Jun 2027 23:05:36.477           128.663              Murmansk1          4020.719
       363   04 Jun 2027 23:06:12.392   04 Jun 2027 23:08:11.110           118.718              Murmansk2          3709.937
       364   04 Jun 2027 23:09:26.517   04 Jun 2027 23:12:33.026           186.509                 Moscow          5828.406
       365   05 Jun 2027 00:33:25.299   05 Jun 2027 00:34:06.798            41.499               Magadan2          1296.844
       366   05 Jun 2027 00:35:50.560   05 Jun 2027 00:35:59.319             8.759               Magadan1           273.719
       367   05 Jun 2027 00:37:09.084   05 Jun 2027 00:37:30.269            21.185               Magadan1           662.031
       368   05 Jun 2027 00:39:14.629   05 Jun 2027 00:39:17.040             2.411              Murmansk2            75.344
       369   05 Jun 2027 00:39:44.803   05 Jun 2027 00:40:47.754            62.951              Murmansk2          1967.219
       370   05 Jun 2027 00:41:12.994   05 Jun 2027 00:42:48.744            95.750              Murmansk1          2992.187
       371   05 Jun 2027 00:42:51.152   05 Jun 2027 00:44:38.310           107.158                 Moscow          3348.687
       372   05 Jun 2027 00:45:49.190   05 Jun 2027 00:45:50.883             1.693                 Moscow            52.906
       373   05 Jun 2027 00:46:02.844   05 Jun 2027 00:46:39.890            37.046                 Moscow          1157.688
       374   05 Jun 2027 01:06:47.230   05 Jun 2027 01:08:20.837            93.607               CapeTown          2925.219
       375   05 Jun 2027 02:03:36.619   05 Jun 2027 02:04:05.620            29.001                Anadyr2           906.281
       376   05 Jun 2027 02:05:04.398   05 Jun 2027 02:05:13.673             9.275                Anadyr2           289.844
       377   05 Jun 2027 02:05:21.583   05 Jun 2027 02:07:22.499           120.916               Magadan1          3778.625
       378   05 Jun 2027 02:12:11.292   05 Jun 2027 02:12:30.085            18.793                Norilsk           587.281
       379   05 Jun 2027 02:15:12.748   05 Jun 2027 02:16:27.770            75.022              Murmansk2          2344.437
       380   05 Jun 2027 02:16:47.903   05 Jun 2027 02:16:56.041             8.138              Murmansk2           254.313
       381   05 Jun 2027 02:18:24.365   05 Jun 2027 02:18:32.261             7.896              Murmansk2           246.750
       382   05 Jun 2027 02:18:34.143   05 Jun 2027 02:19:19.750            45.607              Murmansk1          1425.219
       383   05 Jun 2027 02:19:22.837   05 Jun 2027 02:19:47.754            24.917                 Moscow           778.656
       384   05 Jun 2027 02:25:39.214   05 Jun 2027 02:27:08.746            89.532                 Moscow          2797.875
       385   05 Jun 2027 02:50:47.747   05 Jun 2027 02:52:40.775           113.028               CapeTown          3532.125
       386   05 Jun 2027 03:44:04.470   05 Jun 2027 03:44:43.395            38.925                Anadyr2          1216.406
       387   05 Jun 2027 03:45:16.319   05 Jun 2027 03:45:43.860            27.541               Magadan1           860.656
       388   05 Jun 2027 03:46:04.142   05 Jun 2027 03:51:37.982           333.840               Magadan2         10432.500
       389   05 Jun 2027 04:32:03.807   05 Jun 2027 04:34:58.523           174.716            RioGallegos          5459.875
       390   05 Jun 2027 05:21:28.515   05 Jun 2027 05:21:36.491             7.976                Irkutsk           249.250
       391   05 Jun 2027 05:22:21.233   05 Jun 2027 05:23:21.827            60.594                Irkutsk          1893.562
       392   05 Jun 2027 05:23:58.465   05 Jun 2027 05:25:31.575            93.110                Irkutsk          2909.687
       393   05 Jun 2027 05:25:39.447   05 Jun 2027 05:26:31.786            52.339                Irkutsk          1635.594
       394   05 Jun 2027 05:27:04.875   05 Jun 2027 05:27:29.564            24.689               Magadan2           771.531
       395   05 Jun 2027 06:57:15.602   05 Jun 2027 06:57:34.764            19.162               Magadan2           598.813
       396   05 Jun 2027 06:58:32.770   05 Jun 2027 06:58:34.670             1.900               Magadan2            59.375
       397   05 Jun 2027 06:58:35.433   05 Jun 2027 06:58:36.567             1.134                Novosib            35.438
       398   05 Jun 2027 06:58:54.939   05 Jun 2027 06:59:20.210            25.271               Magadan1           789.719
       399   05 Jun 2027 06:59:24.249   05 Jun 2027 07:01:00.868            96.619               Magadan1          3019.344
       400   05 Jun 2027 07:01:23.762   05 Jun 2027 07:01:58.217            34.455               Magadan1          1076.719
       401   05 Jun 2027 07:02:07.870   05 Jun 2027 07:02:23.737            15.867               Magadan1           495.844
       402   05 Jun 2027 07:02:37.255   05 Jun 2027 07:03:07.292            30.037                Novosib           938.656
       403   05 Jun 2027 07:03:42.326   05 Jun 2027 07:03:48.319             5.993                Novosib           187.281
       404   05 Jun 2027 07:04:19.170   05 Jun 2027 07:04:27.084             7.914              Murmansk1           247.312
       405   05 Jun 2027 07:44:57.220   05 Jun 2027 07:44:59.909             2.689            RioGallegos            84.031
       406   05 Jun 2027 08:15:53.727   05 Jun 2027 08:16:23.819            30.092                Sumatra           940.375
       407   05 Jun 2027 08:18:55.723   05 Jun 2027 08:20:03.034            67.311                Sumatra          2103.469
       408   05 Jun 2027 08:34:33.682   05 Jun 2027 08:35:10.852            37.170                Irkutsk          1161.562
       409   05 Jun 2027 08:35:25.514   05 Jun 2027 08:35:39.127            13.613                Novosib           425.406
       410   05 Jun 2027 08:35:42.184   05 Jun 2027 08:35:55.339            13.155              Murmansk1           411.094
       411   05 Jun 2027 08:36:45.870   05 Jun 2027 08:36:51.937             6.067                Irkutsk           189.594
       412   05 Jun 2027 08:36:53.946   05 Jun 2027 08:37:00.794             6.848                Irkutsk           214.000
       413   05 Jun 2027 08:38:05.958   05 Jun 2027 08:38:27.663            21.705                Norilsk           678.281
       414   05 Jun 2027 08:38:34.824   05 Jun 2027 08:38:58.391            23.567                Irkutsk           736.469
       415   05 Jun 2027 09:17:06.255   05 Jun 2027 09:17:15.865             9.610            RioGallegos           300.312
       416   05 Jun 2027 09:17:49.683   05 Jun 2027 09:18:10.748            21.065            RioGallegos           658.281
       417   05 Jun 2027 09:20:32.940   05 Jun 2027 09:20:58.170            25.230            RioGallegos           788.437
       418   05 Jun 2027 09:51:42.646   05 Jun 2027 09:52:25.376            42.730                Sumatra          1335.312
       419   05 Jun 2027 09:53:15.844   05 Jun 2027 09:55:05.762           109.918                Sumatra          3434.937
       420   05 Jun 2027 10:11:24.538   05 Jun 2027 10:11:45.486            20.948              Murmansk1           654.625
       421   05 Jun 2027 10:13:57.113   05 Jun 2027 10:14:27.969            30.856                Norilsk           964.250
       422   05 Jun 2027 10:14:36.883   05 Jun 2027 10:14:50.307            13.424                Norilsk           419.500
       423   05 Jun 2027 11:38:22.188   05 Jun 2027 11:40:21.604           119.416                  Delhi          3731.750
       424   05 Jun 2027 11:51:41.701   05 Jun 2027 11:51:54.250            12.549                 Moscow           392.156
       425   05 Jun 2027 13:18:21.718   05 Jun 2027 13:18:57.514            35.796                 Moscow          1118.625
       426   05 Jun 2027 13:20:09.941   05 Jun 2027 13:20:20.467            10.526                 Moscow           328.938
       427   05 Jun 2027 13:20:27.055   05 Jun 2027 13:20:57.326            30.271                 Moscow           945.969
       428   05 Jun 2027 13:22:04.021   05 Jun 2027 13:22:28.739            24.718              Murmansk1           772.438
       429   05 Jun 2027 13:22:53.119   05 Jun 2027 13:23:19.091            25.972                 Moscow           811.625
       430   05 Jun 2027 13:24:31.656   05 Jun 2027 13:25:00.201            28.545              Murmansk1           892.031
       431   05 Jun 2027 13:31:23.932   05 Jun 2027 13:31:32.507             8.575              Murmansk2           267.969
       432   05 Jun 2027 13:31:49.906   05 Jun 2027 13:32:08.876            18.970              Murmansk2           592.812
       433   05 Jun 2027 13:33:21.756   05 Jun 2027 13:33:48.905            27.149              Murmansk2           848.406
       434   05 Jun 2027 13:36:09.739   05 Jun 2027 13:40:01.123           231.384                Anadyr2          7230.750
       435   05 Jun 2027 14:39:41.540   05 Jun 2027 14:40:30.085            48.545               CapeTown          1517.031
       436   05 Jun 2027 15:00:36.765   05 Jun 2027 15:02:17.032           100.267              Murmansk1          3133.344
       437   05 Jun 2027 15:02:17.032   05 Jun 2027 15:03:31.437            74.405              Murmansk2          2325.156
       438   05 Jun 2027 15:11:33.035   05 Jun 2027 15:12:36.734            63.699                Anadyr2          1990.594
       439   05 Jun 2027 15:12:36.734   05 Jun 2027 15:13:42.473            65.739                Anadyr1          2054.344
       440   05 Jun 2027 15:14:48.129   05 Jun 2027 15:15:37.343            49.214                Anadyr2          1537.937
       441   05 Jun 2027 15:16:38.515   05 Jun 2027 15:18:58.920           140.405               Magadan2          4387.656
       442   05 Jun 2027 15:18:58.920   05 Jun 2027 15:21:25.752           146.832               Magadan1          4588.500
       443   05 Jun 2027 16:47:26.254   05 Jun 2027 16:48:39.112            72.858                Anadyr2          2276.813
       444   05 Jun 2027 16:48:56.808   05 Jun 2027 16:49:01.659             4.851                Anadyr2           151.594
       445   05 Jun 2027 16:49:51.870   05 Jun 2027 16:52:06.541           134.671               Magadan2          4208.469
       446   05 Jun 2027 16:52:41.382   05 Jun 2027 16:52:51.086             9.704               Magadan2           303.250
       447   05 Jun 2027 16:54:34.558   05 Jun 2027 16:55:25.571            51.013               Magadan1          1594.156
       448   05 Jun 2027 18:23:18.911   05 Jun 2027 18:26:44.400           205.489                Anadyr2          6421.531
       449   05 Jun 2027 18:26:57.193   05 Jun 2027 18:28:28.094            90.901               Magadan2          2840.656
       450   05 Jun 2027 18:28:33.178   05 Jun 2027 18:29:35.338            62.160                Norilsk          1942.500
       451   05 Jun 2027 18:31:45.092   05 Jun 2027 18:34:20.917           155.825                Irkutsk          4869.531
       452   05 Jun 2027 19:17:33.061   05 Jun 2027 19:18:01.614            28.553            RioGallegos           892.281
       453   05 Jun 2027 19:19:11.837   05 Jun 2027 19:20:27.476            75.639            RioGallegos          2363.719
       454   05 Jun 2027 19:27:23.735   05 Jun 2027 19:27:44.942            21.207            RioGallegos           662.719
       455   05 Jun 2027 20:01:42.448   05 Jun 2027 20:03:11.361            88.913               Magadan2          2778.531
       456   05 Jun 2027 20:05:13.927   05 Jun 2027 20:07:08.290           114.363                Irkutsk          3573.844
       457   05 Jun 2027 20:07:56.308   05 Jun 2027 20:12:50.457           294.149                Novosib          9192.156
       458   05 Jun 2027 20:19:50.045   05 Jun 2027 20:21:05.640            75.595                Sumatra          2362.344
       459   05 Jun 2027 21:41:03.417   05 Jun 2027 21:41:11.157             7.740                Irkutsk           241.875
       460   05 Jun 2027 21:41:16.600   05 Jun 2027 21:43:07.033           110.433                Novosib          3451.031
       461   05 Jun 2027 21:48:34.962   05 Jun 2027 21:52:11.961           216.999                  Delhi          6781.219
       462   05 Jun 2027 21:59:57.197   05 Jun 2027 22:00:10.835            13.638                  Delhi           426.187
       463   05 Jun 2027 23:12:51.341   05 Jun 2027 23:13:29.341            38.000               Magadan1          1187.500
       464   05 Jun 2027 23:14:35.135   05 Jun 2027 23:15:19.254            44.119               Magadan2          1378.719
       465   05 Jun 2027 23:15:26.154   05 Jun 2027 23:19:32.446           246.292              Murmansk1          7696.625
       466   05 Jun 2027 23:19:44.330   05 Jun 2027 23:22:12.587           148.257                 Moscow          4633.031
       467   05 Jun 2027 23:25:01.203   05 Jun 2027 23:26:13.792            72.589                 Moscow          2268.406
       468   05 Jun 2027 23:48:10.279   05 Jun 2027 23:48:58.043            47.764               CapeTown          1492.625
       469   05 Jun 2027 23:50:24.552   05 Jun 2027 23:51:38.212            73.660               CapeTown          2301.875
       470   06 Jun 2027 00:48:37.775   06 Jun 2027 00:49:50.632            72.857               Magadan1          2276.781
       471   06 Jun 2027 00:51:16.144   06 Jun 2027 00:52:43.911            87.767              Murmansk2          2742.719
       472   06 Jun 2027 00:53:29.134   06 Jun 2027 00:53:45.163            16.029              Murmansk1           500.906
       473   06 Jun 2027 00:54:01.481   06 Jun 2027 00:54:05.749             4.268              Murmansk1           133.375
       474   06 Jun 2027 00:54:33.214   06 Jun 2027 00:56:26.813           113.599                 Moscow          3549.969
       475   06 Jun 2027 01:21:31.297   06 Jun 2027 01:21:55.785            24.488               CapeTown           765.250
       476   06 Jun 2027 01:23:42.659   06 Jun 2027 01:23:52.162             9.503               CapeTown           296.969
       477   06 Jun 2027 01:26:28.979   06 Jun 2027 01:26:44.669            15.690               CapeTown           490.312
       478   06 Jun 2027 02:15:07.037   06 Jun 2027 02:16:06.046            59.009                Anadyr1          1844.031
       479   06 Jun 2027 02:16:06.046   06 Jun 2027 02:16:18.980            12.934                Anadyr2           404.187
       480   06 Jun 2027 02:16:30.244   06 Jun 2027 02:16:41.700            11.456                Anadyr2           358.000
       481   06 Jun 2027 02:16:59.140   06 Jun 2027 02:18:04.029            64.889               Magadan2          2027.781
       482   06 Jun 2027 02:18:12.946   06 Jun 2027 02:19:24.404            71.458               Magadan1          2233.062
