uniorb/output/strategy_4/Drop/Drop_KinoSat_110301.txt

KinoSat_110301
-------------------------
    Access    *     Start Time (UTCG)     *     Stop Time (UTCG)  *   Duration (s)        *       Station  *  Data (Mbytes)
         1   01 Jun 2027 03:00:13.544   01 Jun 2027 03:00:55.137            41.593               Magadan1          5199.125
         2   01 Jun 2027 03:00:58.708   01 Jun 2027 03:01:31.758            33.050               Magadan2          3358.375
         3   01 Jun 2027 03:01:41.989   01 Jun 2027 03:02:26.641            44.652               Magadan2          5115.500
         4   01 Jun 2027 03:02:40.007   01 Jun 2027 03:02:47.840             7.833                Anadyr2           979.125
         5   01 Jun 2027 03:03:11.353   01 Jun 2027 03:03:34.709            23.356               Magadan1          2919.500
         6   01 Jun 2027 03:03:34.709   01 Jun 2027 03:04:17.469            42.760               Magadan2          5345.000
         7   01 Jun 2027 03:04:44.483   01 Jun 2027 03:05:05.109            20.626               Magadan2          2578.250
         8   01 Jun 2027 03:05:37.230   01 Jun 2027 03:06:10.503            33.273               Magadan1          4159.125
         9   01 Jun 2027 03:41:12.632   01 Jun 2027 03:43:52.948           160.316            RioGallegos         20039.500
        10   01 Jun 2027 04:18:11.355   01 Jun 2027 04:20:54.098           162.743                Sumatra         10434.000
        11   01 Jun 2027 04:37:34.423   01 Jun 2027 04:37:58.037            23.614                Norilsk          2951.750
        12   01 Jun 2027 04:38:02.266   01 Jun 2027 04:38:13.295            11.029               Magadan2          1378.625
        13   01 Jun 2027 04:38:13.295   01 Jun 2027 04:38:53.158            39.863               Magadan1          4982.875
        14   01 Jun 2027 04:38:58.187   01 Jun 2027 04:39:08.451            10.264               Magadan1          1283.000
        15   01 Jun 2027 04:39:15.880   01 Jun 2027 04:39:44.796            28.916                Novosib          3614.500
        16   01 Jun 2027 04:40:00.016   01 Jun 2027 04:40:18.169            18.153                Norilsk          2269.125
        17   01 Jun 2027 04:40:32.174   01 Jun 2027 04:41:51.288            79.114                Irkutsk          9889.250
        18   01 Jun 2027 04:42:18.909   01 Jun 2027 04:43:21.241            62.332              Murmansk2          7791.500
        19   01 Jun 2027 05:17:23.185   01 Jun 2027 05:18:07.711            44.526            RioGallegos          5565.750
        20   01 Jun 2027 05:51:48.763   01 Jun 2027 05:52:16.150            27.387                Sumatra          3423.375
        21   01 Jun 2027 05:54:11.749   01 Jun 2027 05:54:44.528            32.779                Sumatra          4097.375
        22   01 Jun 2027 06:02:35.064   01 Jun 2027 06:04:46.901           131.837                  Delhi         16479.625
        23   01 Jun 2027 06:14:52.758   01 Jun 2027 06:15:09.599            16.841                Norilsk          2105.125
        24   01 Jun 2027 06:15:17.918   01 Jun 2027 06:16:30.910            72.992                Irkutsk          9124.000
        25   01 Jun 2027 06:17:07.646   01 Jun 2027 06:17:36.295            28.649              Murmansk1          3581.125
        26   01 Jun 2027 06:17:37.511   01 Jun 2027 06:18:19.058            41.547                Norilsk          5193.375
        27   01 Jun 2027 06:20:28.780   01 Jun 2027 06:20:34.120             5.340              Murmansk1           667.500
        28   01 Jun 2027 07:36:23.429   01 Jun 2027 07:38:47.025           143.596                  Delhi         17949.500
        29   01 Jun 2027 07:51:37.967   01 Jun 2027 07:52:02.438            24.471                Novosib          3058.875
        30   01 Jun 2027 07:52:14.902   01 Jun 2027 07:52:22.800             7.898                 Moscow           987.250
        31   01 Jun 2027 07:52:35.665   01 Jun 2027 07:53:13.320            37.655              Murmansk1          4706.875
        32   01 Jun 2027 07:53:25.535   01 Jun 2027 07:54:57.863            92.328                Norilsk         11541.000
        33   01 Jun 2027 09:24:19.033   01 Jun 2027 09:24:52.531            33.498              Murmansk1          4187.250
        34   01 Jun 2027 09:28:41.824   01 Jun 2027 09:30:53.981           132.157              Murmansk1         16519.625
        35   01 Jun 2027 09:30:53.981   01 Jun 2027 09:36:42.672           348.691              Murmansk2         43586.375
        36   01 Jun 2027 10:39:06.036   01 Jun 2027 10:43:37.517           271.481               CapeTown         33935.125
        37   01 Jun 2027 11:14:41.860   01 Jun 2027 11:19:15.525           273.665                Anadyr2         34208.125
        38   01 Jun 2027 11:24:02.745   01 Jun 2027 11:24:14.059            11.314                Anadyr1          1414.250
        39   01 Jun 2027 12:53:24.023   01 Jun 2027 12:57:38.303           254.280               Magadan1         31785.000
        40   01 Jun 2027 14:36:18.167   01 Jun 2027 14:36:38.157            19.990               Magadan2          2498.750
        41   01 Jun 2027 14:38:10.435   01 Jun 2027 14:38:57.403            46.968               Magadan2          5871.000
        42   01 Jun 2027 15:22:10.675   01 Jun 2027 15:25:28.627           197.952            RioGallegos         24744.000
        43   01 Jun 2027 16:09:22.801   01 Jun 2027 16:11:05.105           102.304                Irkutsk         12788.000
        44   01 Jun 2027 16:23:46.091   01 Jun 2027 16:26:47.447           181.356                Sumatra         22669.500
        45   01 Jun 2027 17:44:32.681   01 Jun 2027 17:47:06.045           153.364                Novosib         19170.500
        46   01 Jun 2027 17:54:03.514   01 Jun 2027 17:56:35.776           152.262                  Delhi         19032.750
        47   01 Jun 2027 19:27:09.288   01 Jun 2027 19:28:09.475            60.187                  Delhi          3990.876
        48   02 Jun 2027 03:16:37.510   02 Jun 2027 03:18:06.177            88.667               Magadan2         11083.375
        49   02 Jun 2027 04:29:24.814   02 Jun 2027 04:30:52.032            87.218                Sumatra         10902.250
        50   02 Jun 2027 04:35:36.548   02 Jun 2027 04:37:37.778           121.230                Sumatra         15153.750
        51   02 Jun 2027 04:52:33.521   02 Jun 2027 04:53:36.753            63.232                Irkutsk          7904.000
        52   02 Jun 2027 04:53:43.460   02 Jun 2027 04:54:13.839            30.379                Irkutsk          3797.375
        53   02 Jun 2027 04:54:20.858   02 Jun 2027 04:59:10.856           289.998                Norilsk         36249.750
        54   02 Jun 2027 04:59:10.957   02 Jun 2027 05:01:57.990           167.033              Murmansk1         20879.125
        55   02 Jun 2027 06:04:51.805   02 Jun 2027 06:13:51.199           539.394                Sumatra         67424.250
        56   02 Jun 2027 06:29:16.730   02 Jun 2027 06:31:41.139           144.409                Novosib         18051.125
        57   02 Jun 2027 06:32:08.067   02 Jun 2027 06:33:43.686            95.619              Murmansk2         11952.375
        58   02 Jun 2027 06:33:43.686   02 Jun 2027 06:37:06.675           202.989              Murmansk1         25373.625
        59   02 Jun 2027 07:56:01.473   02 Jun 2027 07:59:53.142           231.669                  Delhi         28958.625
        60   02 Jun 2027 08:00:07.767   02 Jun 2027 08:01:44.465            96.698                Novosib         12087.250
        61   02 Jun 2027 08:06:25.118   02 Jun 2027 08:09:11.861           166.743                 Moscow         20842.875
        62   02 Jun 2027 08:09:21.727   02 Jun 2027 08:12:48.086           206.359              Murmansk1         25794.875
        63   02 Jun 2027 09:35:37.385   02 Jun 2027 09:35:52.680            15.295                 Moscow          1911.875
        64   02 Jun 2027 09:39:10.789   02 Jun 2027 09:39:33.416            22.627              Murmansk2          2828.375
        65   02 Jun 2027 09:40:07.557   02 Jun 2027 09:40:13.595             6.038              Murmansk1           754.750
        66   02 Jun 2027 09:40:13.595   02 Jun 2027 09:42:30.312           136.717              Murmansk2         17089.625
        67   02 Jun 2027 09:43:39.030   02 Jun 2027 09:45:11.591            92.561                 Moscow         11570.125
        68   02 Jun 2027 09:45:16.691   02 Jun 2027 09:48:44.348           207.657              Murmansk1         25957.125
        69   02 Jun 2027 09:52:40.966   02 Jun 2027 09:55:43.787           182.821                Anadyr2         22852.625
        70   02 Jun 2027 10:52:01.767   02 Jun 2027 10:58:21.059           379.292               CapeTown         47411.500
        71   02 Jun 2027 11:15:30.403   02 Jun 2027 11:16:22.187            51.784              Murmansk1          6473.000
        72   02 Jun 2027 11:16:40.311   02 Jun 2027 11:18:13.852            93.541                 Moscow         11692.625
        73   02 Jun 2027 11:26:39.042   02 Jun 2027 11:27:37.755            58.713                Anadyr1          7339.125
        74   02 Jun 2027 11:34:09.768   02 Jun 2027 11:36:03.737           113.969                Anadyr2         14246.125
        75   02 Jun 2027 13:05:14.266   02 Jun 2027 13:07:41.634           147.368               Magadan2         18421.000
        76   02 Jun 2027 13:08:00.280   02 Jun 2027 13:09:35.146            94.866               Magadan2         11858.250
        77   02 Jun 2027 15:33:37.661   02 Jun 2027 15:37:18.620           220.959            RioGallegos         27619.875
        78   02 Jun 2027 16:23:14.035   02 Jun 2027 16:24:57.810           103.775                Irkutsk         12971.875
        79   02 Jun 2027 16:35:06.740   02 Jun 2027 16:38:38.705           211.965                Sumatra         26495.625
        80   02 Jun 2027 17:59:12.338   02 Jun 2027 18:00:00.360            48.022                Novosib          6002.750
        81   02 Jun 2027 18:05:10.914   02 Jun 2027 18:08:21.610           190.696                  Delhi         23837.000
        82   02 Jun 2027 21:11:06.200   02 Jun 2027 21:11:13.610             7.410              Murmansk1           926.250
        83   02 Jun 2027 21:11:20.336   02 Jun 2027 21:12:45.933            85.597                 Moscow         10699.625
        84   02 Jun 2027 21:35:05.389   02 Jun 2027 21:36:33.411            88.022               CapeTown         11002.750
        85   02 Jun 2027 21:41:10.635   02 Jun 2027 21:42:24.984            74.349               CapeTown          9293.625
        86   03 Jun 2027 03:30:17.373   03 Jun 2027 03:31:08.036            50.663                Novosib          6332.875
        87   03 Jun 2027 03:31:27.038   03 Jun 2027 03:33:40.046           133.008              Murmansk1         16626.000
        88   03 Jun 2027 04:40:51.348   03 Jun 2027 04:42:01.405            70.057                Sumatra          8757.125
        89   03 Jun 2027 04:44:10.237   03 Jun 2027 04:44:36.496            26.259                Sumatra          3282.375
        90   03 Jun 2027 04:47:43.744   03 Jun 2027 04:48:04.894            21.150                Sumatra          2643.750
        91   03 Jun 2027 05:06:22.597   03 Jun 2027 05:11:12.179           289.582                Norilsk         36197.750
        92   03 Jun 2027 05:11:39.126   03 Jun 2027 05:13:50.988           131.862              Murmansk1         16482.750
        93   03 Jun 2027 06:23:50.079   03 Jun 2027 06:27:30.436           220.357                Sumatra         27544.625
        94   03 Jun 2027 06:30:56.091   03 Jun 2027 06:33:30.280           154.189                Novosib         19273.625
        95   03 Jun 2027 06:33:47.742   03 Jun 2027 06:36:44.855           177.113                  Delhi         22139.125
        96   03 Jun 2027 06:36:46.093   03 Jun 2027 06:37:13.908            27.815                Irkutsk          3476.875
        97   03 Jun 2027 06:41:55.261   03 Jun 2027 06:43:40.651           105.390                Novosib         13173.750
        98   03 Jun 2027 06:44:07.498   03 Jun 2027 06:45:39.942            92.444              Murmansk2         11555.500
        99   03 Jun 2027 06:45:39.942   03 Jun 2027 06:49:04.802           204.860              Murmansk1         25607.500
       100   03 Jun 2027 08:07:55.464   03 Jun 2027 08:08:28.278            32.814                  Delhi          4101.750
       101   03 Jun 2027 08:09:47.120   03 Jun 2027 08:13:09.208           202.088                Novosib         25261.000
       102   03 Jun 2027 08:17:40.809   03 Jun 2027 08:18:31.939            51.130                Novosib          6391.250
       103   03 Jun 2027 08:18:46.836   03 Jun 2027 08:19:07.430            20.594                Norilsk          2574.250
       104   03 Jun 2027 08:19:58.281   03 Jun 2027 08:24:48.966           290.685              Murmansk1         36335.625
       105   03 Jun 2027 09:47:36.901   03 Jun 2027 09:48:03.022            26.121                 Moscow          3265.125
       106   03 Jun 2027 09:51:11.753   03 Jun 2027 09:54:33.132           201.379              Murmansk2         25172.375
       107   03 Jun 2027 09:54:39.703   03 Jun 2027 09:57:10.444           150.741                 Moscow         18842.625
       108   03 Jun 2027 09:57:34.664   03 Jun 2027 10:00:46.031           191.367              Murmansk2         23920.875
       109   03 Jun 2027 10:04:00.399   03 Jun 2027 10:09:05.116           304.717                Anadyr2         38089.625
       110   03 Jun 2027 11:05:46.686   03 Jun 2027 11:10:33.925           287.239               CapeTown         35904.875
       111   03 Jun 2027 11:28:03.031   03 Jun 2027 11:28:54.376            51.345                 Moscow          6418.125
       112   03 Jun 2027 11:31:43.340   03 Jun 2027 11:33:41.875           118.535              Murmansk1         14816.875
       113   03 Jun 2027 11:33:41.875   03 Jun 2027 11:36:00.680           138.805              Murmansk2         17350.625
       114   03 Jun 2027 13:17:06.923   03 Jun 2027 13:22:48.147           341.224               Magadan1         42653.000
       115   03 Jun 2027 13:23:59.946   03 Jun 2027 13:26:36.927           156.981               Magadan1         19622.625
       116   03 Jun 2027 15:45:14.908   03 Jun 2027 15:49:11.146           236.238            RioGallegos         29529.750
       117   03 Jun 2027 16:36:28.427   03 Jun 2027 16:36:54.274            25.847                Irkutsk          3230.875
       118   03 Jun 2027 16:46:38.258   03 Jun 2027 16:48:16.049            97.791                Sumatra         12223.875
       119   03 Jun 2027 16:50:35.688   03 Jun 2027 16:51:03.071            27.383                Sumatra          3422.875
       120   03 Jun 2027 18:08:16.969   03 Jun 2027 18:09:55.022            98.053                Novosib         12256.625
       121   03 Jun 2027 18:16:35.482   03 Jun 2027 18:18:27.879           112.397                  Delhi         14049.625
       122   03 Jun 2027 18:22:59.298   03 Jun 2027 18:24:15.868            76.570                  Delhi          9571.250
       123   03 Jun 2027 19:49:11.535   03 Jun 2027 19:50:18.596            67.061                 Moscow          8382.625
       124   03 Jun 2027 21:21:43.647   03 Jun 2027 21:23:44.946           121.299                 Moscow         15162.375
       125   03 Jun 2027 21:46:34.489   03 Jun 2027 21:47:55.617            81.128               CapeTown         10141.000
       126   03 Jun 2027 21:55:10.721   03 Jun 2027 21:55:49.146            38.425               CapeTown          4803.125
       127   04 Jun 2027 03:42:28.863   04 Jun 2027 03:44:29.868           121.005              Murmansk2         15125.625
       128   04 Jun 2027 04:52:27.220   04 Jun 2027 04:54:24.663           117.443                Sumatra         14680.375
       129   04 Jun 2027 05:06:49.120   04 Jun 2027 05:09:12.402           143.282                  Delhi         17910.250
       130   04 Jun 2027 05:17:43.752   04 Jun 2027 05:17:52.574             8.822              Murmansk2          1102.750
       131   04 Jun 2027 05:18:24.421   04 Jun 2027 05:23:13.660           289.239                Norilsk         36154.875
       132   04 Jun 2027 05:23:26.766   04 Jun 2027 05:25:44.732           137.966              Murmansk1         17245.750
       133   04 Jun 2027 06:43:05.394   04 Jun 2027 06:45:18.582           133.188                Novosib         16648.500
       134   04 Jun 2027 06:45:41.109   04 Jun 2027 06:48:50.295           189.186                  Delhi         23648.250
       135   04 Jun 2027 06:49:07.053   04 Jun 2027 06:50:12.835            65.782                Irkutsk          8222.750
       136   04 Jun 2027 06:54:15.614   04 Jun 2027 06:54:57.425            41.811                 Moscow          5226.375
       137   04 Jun 2027 06:55:10.884   04 Jun 2027 06:55:39.320            28.436                Novosib          3554.500
       138   04 Jun 2027 06:56:07.289   04 Jun 2027 06:57:53.482           106.193              Murmansk2         13274.125
       139   04 Jun 2027 06:57:53.482   04 Jun 2027 07:01:03.396           189.914              Murmansk1         23739.250
       140   04 Jun 2027 08:22:36.658   04 Jun 2027 08:25:28.242           171.584                Novosib         21448.000
       141   04 Jun 2027 08:30:27.003   04 Jun 2027 08:30:44.983            17.980              Murmansk1          2247.500
       142   04 Jun 2027 08:31:09.315   04 Jun 2027 08:31:56.608            47.293                Norilsk          5911.625
       143   04 Jun 2027 08:31:59.796   04 Jun 2027 08:36:50.047           290.251              Murmansk2         36281.375
       144   04 Jun 2027 09:40:21.064   04 Jun 2027 09:41:40.079            79.015               CapeTown          9876.875
       145   04 Jun 2027 09:59:35.575   04 Jun 2027 10:00:35.343            59.768                 Moscow          7471.000
       146   04 Jun 2027 10:03:35.691   04 Jun 2027 10:05:49.455           133.764              Murmansk2         16720.500
       147   04 Jun 2027 10:05:59.622   04 Jun 2027 10:09:08.348           188.726                 Moscow         23590.750
       148   04 Jun 2027 10:09:22.433   04 Jun 2027 10:12:47.682           205.249              Murmansk1         25656.125
       149   04 Jun 2027 10:15:38.218   04 Jun 2027 10:22:05.530           387.312                Anadyr2         48414.000
       150   04 Jun 2027 11:17:39.222   04 Jun 2027 11:22:41.314           302.092               CapeTown         37761.500
       151   04 Jun 2027 11:39:53.856   04 Jun 2027 11:40:37.149            43.293                 Moscow          5411.625
       152   04 Jun 2027 11:43:40.661   04 Jun 2027 11:45:39.556           118.895              Murmansk1         14861.875
       153   04 Jun 2027 13:29:01.414   04 Jun 2027 13:33:31.600           270.186               Magadan2         33773.250
       154   04 Jun 2027 15:59:17.734   04 Jun 2027 16:03:03.973           226.239            RioGallegos         28279.875
       155   04 Jun 2027 16:05:44.356   04 Jun 2027 16:06:22.612            38.256            RioGallegos          4782.000
       156   04 Jun 2027 16:44:27.889   04 Jun 2027 16:46:01.953            94.064                Irkutsk         11758.000
       157   04 Jun 2027 16:47:21.703   04 Jun 2027 16:47:36.585            14.882                Irkutsk          1860.250
       158   04 Jun 2027 16:48:57.544   04 Jun 2027 16:50:24.459            86.915                Novosib         10864.375
       159   04 Jun 2027 16:58:18.029   04 Jun 2027 17:00:13.498           115.469                Sumatra         14433.625
       160   04 Jun 2027 17:00:38.531   04 Jun 2027 17:04:09.039           210.508                Sumatra         26313.500
       161   04 Jun 2027 18:28:10.121   04 Jun 2027 18:30:22.287           132.166                  Delhi         16520.750
       162   04 Jun 2027 20:00:30.721   04 Jun 2027 20:03:02.169           151.448                 Moscow         18931.000
       163   04 Jun 2027 21:36:05.317   04 Jun 2027 21:36:45.030            39.713                 Moscow          4964.125
       164   04 Jun 2027 21:43:06.872   04 Jun 2027 21:43:20.853            13.981                 Moscow          1747.625
       165   04 Jun 2027 21:45:34.575   04 Jun 2027 21:45:53.335            18.760                 Moscow          2345.000
       166   04 Jun 2027 21:58:10.223   04 Jun 2027 22:00:11.544           121.321               CapeTown         12337.125
       167   05 Jun 2027 03:54:27.103   05 Jun 2027 03:55:24.508            57.405                Novosib          7175.625
       168   05 Jun 2027 03:55:37.705   05 Jun 2027 03:59:03.515           205.810                Norilsk         25726.250
       169   05 Jun 2027 05:04:10.539   05 Jun 2027 05:06:00.263           109.724                Sumatra         13715.500
       170   05 Jun 2027 05:06:46.891   05 Jun 2027 05:08:41.667           114.776                Sumatra         14347.000
       171   05 Jun 2027 05:30:08.604   05 Jun 2027 05:30:11.814             3.210                Irkutsk           401.250
       172   05 Jun 2027 05:30:26.305   05 Jun 2027 05:35:15.278           288.973                Norilsk         36121.625
       173   05 Jun 2027 05:35:18.703   05 Jun 2027 05:37:39.200           140.497              Murmansk1         17562.125
       174   05 Jun 2027 06:55:18.013   05 Jun 2027 06:57:32.371           134.358                Novosib         16794.750
       175   05 Jun 2027 06:57:39.763   05 Jun 2027 07:00:52.427           192.664                  Delhi         24083.000
       176   05 Jun 2027 07:00:57.866   05 Jun 2027 07:01:09.682            11.816                Novosib          1477.000
       177   05 Jun 2027 07:05:49.986   05 Jun 2027 07:07:15.931            85.945                 Moscow         10743.125
       178   05 Jun 2027 07:08:07.405   05 Jun 2027 07:09:46.816            99.411              Murmansk2         12426.375
       179   05 Jun 2027 07:09:46.816   05 Jun 2027 07:13:02.427           195.611              Murmansk1         24451.375
       180   05 Jun 2027 08:32:41.183   05 Jun 2027 08:33:21.538            40.355                 Moscow          5044.375
       181   05 Jun 2027 08:36:39.826   05 Jun 2027 08:37:03.472            23.646                Novosib          2955.750
       182   05 Jun 2027 08:41:25.752   05 Jun 2027 08:41:47.473            21.721              Murmansk1          2715.125
       183   05 Jun 2027 08:43:05.250   05 Jun 2027 08:45:21.378           136.128                 Moscow         17016.000
       184   05 Jun 2027 08:45:29.914   05 Jun 2027 08:48:51.289           201.375              Murmansk1         25171.875
       185   05 Jun 2027 09:52:55.863   05 Jun 2027 09:55:27.209           151.346               CapeTown         18918.250
       186   05 Jun 2027 10:15:37.052   05 Jun 2027 10:17:29.360           112.308              Murmansk2         14038.500
       187   05 Jun 2027 10:18:05.850   05 Jun 2027 10:21:05.139           179.289                 Moscow         22411.125
       188   05 Jun 2027 10:21:09.891   05 Jun 2027 10:24:49.269           219.378              Murmansk2         27422.250
       189   05 Jun 2027 10:27:23.608   05 Jun 2027 10:34:55.862           452.254                Anadyr2         56531.750
       190   05 Jun 2027 11:29:36.627   05 Jun 2027 11:34:43.554           306.927               CapeTown         38365.875
       191   05 Jun 2027 11:51:35.091   05 Jun 2027 11:51:45.417            10.326              Murmansk1          1290.750
       192   05 Jun 2027 11:51:54.250   05 Jun 2027 11:54:30.518           156.268                 Moscow         19533.500
       193   05 Jun 2027 11:56:05.949   05 Jun 2027 12:00:39.172           273.223              Murmansk2         34152.875
       194   05 Jun 2027 12:02:35.320   05 Jun 2027 12:10:20.424           465.104                Anadyr1         58138.000
       195   05 Jun 2027 13:40:57.336   05 Jun 2027 13:45:30.919           273.583               Magadan1         34197.875
       196   05 Jun 2027 16:08:45.852   05 Jun 2027 16:14:33.461           347.609            RioGallegos         43451.125
       197   05 Jun 2027 16:58:26.698   05 Jun 2027 16:58:38.247            11.549                Irkutsk          1443.625
       198   05 Jun 2027 16:58:47.482   05 Jun 2027 17:01:29.905           162.423                Novosib         20302.875
       199   05 Jun 2027 17:01:39.472   05 Jun 2027 17:03:58.855           139.383                Novosib         17422.875
       200   05 Jun 2027 18:32:08.369   05 Jun 2027 18:33:39.097            90.728                Novosib         11341.000
       201   05 Jun 2027 18:39:51.761   05 Jun 2027 18:44:04.237           252.476                  Delhi         31559.500
       202   05 Jun 2027 20:11:13.268   05 Jun 2027 20:14:52.906           219.638                 Moscow         23186.125
       203   06 Jun 2027 04:06:32.287   06 Jun 2027 04:11:10.146           277.859              Murmansk2         34732.375
       204   06 Jun 2027 05:16:00.239   06 Jun 2027 05:17:26.395            86.156                Sumatra         10769.500
       205   06 Jun 2027 05:18:58.662   06 Jun 2027 05:20:17.294            78.632                Sumatra          9829.000
       206   06 Jun 2027 05:31:43.101   06 Jun 2027 05:33:46.310           123.209                  Delhi         15401.125
       207   06 Jun 2027 05:41:45.306   06 Jun 2027 05:42:08.882            23.576                Irkutsk          2947.000
       208   06 Jun 2027 05:42:15.362   06 Jun 2027 05:43:49.301            93.939                 Moscow         11742.375
       209   06 Jun 2027 05:44:01.378   06 Jun 2027 05:47:16.996           195.618                Norilsk         24452.250
       210   06 Jun 2027 05:47:32.907   06 Jun 2027 05:49:34.368           121.461              Murmansk1         15182.625
       211   06 Jun 2027 07:07:31.899   06 Jun 2027 07:12:51.275           319.376                  Delhi         39922.000
       212   06 Jun 2027 07:13:22.708   06 Jun 2027 07:14:11.586            48.878                Irkutsk          6109.750
       213   06 Jun 2027 07:17:48.207   06 Jun 2027 07:19:01.102            72.895              Murmansk1          9111.875
       214   06 Jun 2027 07:19:19.545   06 Jun 2027 07:19:33.542            13.997                Novosib          1749.625
       215   06 Jun 2027 07:20:07.813   06 Jun 2027 07:21:36.519            88.706              Murmansk2         11088.250
       216   06 Jun 2027 07:21:36.519   06 Jun 2027 07:25:01.859           205.340              Murmansk1         25667.500
       217   06 Jun 2027 08:53:36.600   06 Jun 2027 08:54:22.631            46.031              Murmansk1          5753.875
       218   06 Jun 2027 08:54:55.016   06 Jun 2027 08:57:23.556           148.540                 Moscow         18567.500
       219   06 Jun 2027 08:57:31.295   06 Jun 2027 09:00:52.679           201.384              Murmansk1         25173.000
       220   06 Jun 2027 10:05:22.006   06 Jun 2027 10:08:31.060           189.054               CapeTown         23631.750
       221   06 Jun 2027 10:27:15.050   06 Jun 2027 10:28:13.749            58.699              Murmansk1          7337.375
       222   06 Jun 2027 10:28:13.749   06 Jun 2027 10:29:45.056            91.307              Murmansk2         11413.375
       223   06 Jun 2027 10:30:09.486   06 Jun 2027 10:30:26.513            17.027                 Moscow          2128.375
       224   06 Jun 2027 10:31:59.949   06 Jun 2027 10:36:50.760           290.811              Murmansk1         36351.375
       225   06 Jun 2027 10:39:13.331   06 Jun 2027 10:47:39.400           506.069                Anadyr2         63258.625
       226   06 Jun 2027 11:41:53.061   06 Jun 2027 11:46:40.831           287.770               CapeTown         35971.250
       227   06 Jun 2027 12:03:33.516   06 Jun 2027 12:09:36.474           362.958              Murmansk2         45369.750
       228   06 Jun 2027 12:09:36.474   06 Jun 2027 12:12:37.468           180.994              Murmansk1         22624.250
       229   06 Jun 2027 12:14:35.179   06 Jun 2027 12:17:04.619           149.440                Anadyr2         18680.000
       230   06 Jun 2027 12:18:36.319   06 Jun 2027 12:21:59.946           203.627               Magadan2         25453.375
       231   06 Jun 2027 12:23:01.041   06 Jun 2027 12:23:26.975            25.934               Magadan1          3241.750
       232   06 Jun 2027 13:55:05.465   06 Jun 2027 13:56:04.764            59.299               Magadan2          7412.375
       233   06 Jun 2027 15:34:57.445   06 Jun 2027 15:37:41.292           163.847                Irkutsk         20480.875
       234   06 Jun 2027 16:20:36.492   06 Jun 2027 16:22:09.567            93.075            RioGallegos         11634.375
       235   06 Jun 2027 16:23:28.785   06 Jun 2027 16:24:04.384            35.599            RioGallegos          4449.875
       236   06 Jun 2027 17:08:16.689   06 Jun 2027 17:10:04.851           108.162                Irkutsk         13520.250
       237   06 Jun 2027 17:10:42.898   06 Jun 2027 17:13:20.383           157.485                Novosib         19685.625
       238   06 Jun 2027 17:14:14.563   06 Jun 2027 17:17:03.018           168.455                Novosib         21056.875
       239   06 Jun 2027 18:48:44.991   06 Jun 2027 18:49:16.663            31.672                Novosib          3959.000
       240   06 Jun 2027 18:51:00.696   06 Jun 2027 18:52:03.783            63.087                Novosib          7885.875
       241   06 Jun 2027 18:53:54.675   06 Jun 2027 18:56:05.423           130.748                  Delhi         16343.500
       242   06 Jun 2027 20:22:49.636   06 Jun 2027 20:24:26.813            97.177                 Moscow         12147.125
       243   06 Jun 2027 20:28:09.139   06 Jun 2027 20:29:42.165            93.026                 Moscow         11628.250
       244   06 Jun 2027 22:21:38.728   06 Jun 2027 22:22:21.280            42.552               CapeTown             3.625
       245   07 Jun 2027 04:18:30.103   07 Jun 2027 04:19:37.540            67.437                Novosib          8429.625
       246   07 Jun 2027 04:19:47.152   07 Jun 2027 04:23:08.349           201.197                Norilsk         25149.625
       247   07 Jun 2027 05:27:55.752   07 Jun 2027 05:30:29.494           153.742                Sumatra         19217.750
       248   07 Jun 2027 05:38:23.841   07 Jun 2027 05:39:24.633            60.792                  Delhi          7599.000
       249   07 Jun 2027 05:43:56.056   07 Jun 2027 05:45:49.698           113.642                  Delhi         14205.250
       250   07 Jun 2027 05:54:38.966   07 Jun 2027 05:59:18.802           279.836                Norilsk         34979.500
       251   07 Jun 2027 05:59:39.620   07 Jun 2027 06:01:30.201           110.581              Murmansk1         13822.625
       252   07 Jun 2027 07:20:13.634   07 Jun 2027 07:24:46.671           273.037                  Delhi         34129.625
       253   07 Jun 2027 07:24:47.916   07 Jun 2027 07:25:28.628            40.712                 Moscow          5089.000
       254   07 Jun 2027 07:25:33.689   07 Jun 2027 07:25:39.179             5.490                Irkutsk           686.250
       255   07 Jun 2027 07:30:12.075   07 Jun 2027 07:30:46.786            34.711              Murmansk1          4338.875
       256   07 Jun 2027 07:30:48.909   07 Jun 2027 07:35:18.285           269.376                Norilsk         33672.000
       257   07 Jun 2027 07:35:25.245   07 Jun 2027 07:37:01.645            96.400              Murmansk1         12050.000
       258   07 Jun 2027 09:06:32.483   07 Jun 2027 09:07:35.883            63.400                Norilsk          7925.000
       259   07 Jun 2027 09:07:38.073   07 Jun 2027 09:09:25.192           107.119                 Moscow         13389.875
       260   07 Jun 2027 09:09:51.494   07 Jun 2027 09:12:54.176           182.682              Murmansk1         22835.250
       261   07 Jun 2027 10:39:16.516   07 Jun 2027 10:47:39.659           503.143              Murmansk2         62892.875
       262   07 Jun 2027 10:47:39.659   07 Jun 2027 10:48:52.115            72.456              Murmansk1          9057.000
       263   07 Jun 2027 10:51:05.892   07 Jun 2027 11:00:17.699           551.807                Anadyr1         68975.875
       264   07 Jun 2027 11:54:03.691   07 Jun 2027 11:58:33.159           269.468               CapeTown         33683.500
       265   07 Jun 2027 12:16:08.921   07 Jun 2027 12:21:35.617           326.696              Murmansk1         40837.000
       266   07 Jun 2027 12:21:35.617   07 Jun 2027 12:24:34.707           179.090              Murmansk2         22386.250
       267   07 Jun 2027 12:26:35.424   07 Jun 2027 12:36:10.329           574.905                Anadyr1         71863.125
       268   07 Jun 2027 14:04:52.421   07 Jun 2027 14:06:00.717            68.296               Magadan2          8537.000
       269   07 Jun 2027 14:07:41.662   07 Jun 2027 14:10:01.311           139.649               Magadan1         17456.125
       270   07 Jun 2027 14:11:23.992   07 Jun 2027 14:12:01.757            37.765               Magadan2          4720.625
       271   07 Jun 2027 15:46:08.845   07 Jun 2027 15:49:33.806           204.961                Irkutsk         25620.125
       272   07 Jun 2027 15:50:19.299   07 Jun 2027 15:52:53.006           153.707                Irkutsk         19213.375
       273   07 Jun 2027 16:02:24.981   07 Jun 2027 16:03:38.825            73.844                Sumatra          9230.500
       274   07 Jun 2027 16:05:04.694   07 Jun 2027 16:07:13.402           128.708                Sumatra         16088.500
       275   07 Jun 2027 17:21:14.919   07 Jun 2027 17:25:13.208           238.289                Novosib         29786.125
       276   07 Jun 2027 19:00:29.020   07 Jun 2027 19:01:11.942            42.922                Novosib          5365.250
       277   07 Jun 2027 19:03:30.154   07 Jun 2027 19:06:55.057           204.903                  Delhi         25612.875
       278   07 Jun 2027 20:32:48.860   07 Jun 2027 20:33:55.702            66.842              Murmansk2          8355.250
       279   07 Jun 2027 20:34:32.739   07 Jun 2027 20:35:43.734            70.995                 Moscow          8874.375
       280   07 Jun 2027 22:09:34.795   07 Jun 2027 22:10:32.018            57.223                 Moscow          4014.500
       281   08 Jun 2027 04:30:35.004   08 Jun 2027 04:31:43.100            68.096                Novosib          8512.000
       282   08 Jun 2027 04:31:44.071   08 Jun 2027 04:35:15.358           211.287                Norilsk         26410.875
       283   08 Jun 2027 05:39:56.847   08 Jun 2027 05:42:08.669           131.822                Sumatra         16477.750
       284   08 Jun 2027 05:50:28.065   08 Jun 2027 05:51:23.257            55.192                  Delhi          6899.000
       285   08 Jun 2027 05:56:05.103   08 Jun 2027 05:57:05.685            60.582                  Delhi          7572.750
       286   08 Jun 2027 06:06:29.788   08 Jun 2027 06:06:56.112            26.324                 Moscow          3290.500
       287   08 Jun 2027 06:07:09.549   08 Jun 2027 06:07:54.684            45.135                Novosib          5641.875
       288   08 Jun 2027 06:08:16.374   08 Jun 2027 06:11:20.667           184.293                Norilsk         23036.625
       289   08 Jun 2027 06:11:29.451   08 Jun 2027 06:13:26.672           117.221              Murmansk1         14652.625
       290   08 Jun 2027 07:32:17.735   08 Jun 2027 07:36:38.299           260.564                  Delhi         32570.500
       291   08 Jun 2027 07:36:58.991   08 Jun 2027 07:37:40.413            41.422                Novosib          5177.750
       292   08 Jun 2027 07:41:55.766   08 Jun 2027 07:43:22.130            86.364                Novosib         10795.500
       293   08 Jun 2027 07:43:33.565   08 Jun 2027 07:45:17.894           104.329                 Moscow         13041.125
       294   08 Jun 2027 07:45:30.108   08 Jun 2027 07:47:19.517           109.409                Norilsk         13676.125
       295   08 Jun 2027 07:47:27.803   08 Jun 2027 07:49:01.754            93.951              Murmansk1         11743.875
       296   08 Jun 2027 09:17:08.531   08 Jun 2027 09:21:26.236           257.705                 Moscow         32213.125
       297   08 Jun 2027 09:21:46.104   08 Jun 2027 09:24:55.761           189.657              Murmansk2         23707.125
       298   08 Jun 2027 10:29:29.823   08 Jun 2027 10:33:51.328           261.505               CapeTown         32688.125
       299   08 Jun 2027 10:51:41.716   08 Jun 2027 10:52:34.491            52.775              Murmansk1          6596.875
       300   08 Jun 2027 10:52:34.491   08 Jun 2027 10:59:03.917           389.426              Murmansk2         48678.250
       301   08 Jun 2027 10:59:03.917   08 Jun 2027 11:00:53.277           109.360              Murmansk1         13670.000
       302   08 Jun 2027 11:03:00.461   08 Jun 2027 11:12:51.625           591.164                Anadyr2         73895.500
       303   08 Jun 2027 12:01:00.194   08 Jun 2027 12:08:14.013           433.819               CapeTown         54227.375
       304   08 Jun 2027 12:39:13.399   08 Jun 2027 12:40:04.353            50.954                Anadyr1          6369.250
       305   08 Jun 2027 12:41:51.634   08 Jun 2027 12:42:09.257            17.623               Magadan2          2202.875
       306   08 Jun 2027 12:43:28.695   08 Jun 2027 12:47:06.693           217.998               Magadan1         27249.750
       307   08 Jun 2027 14:16:51.206   08 Jun 2027 14:17:37.608            46.402               Magadan1          5800.250
       308   08 Jun 2027 14:23:48.844   08 Jun 2027 14:24:50.844            62.000               Magadan2          7750.000
       309   08 Jun 2027 15:11:20.388   08 Jun 2027 15:13:56.478           156.090            RioGallegos         19511.250
       310   08 Jun 2027 15:57:38.950   08 Jun 2027 16:01:24.536           225.586                Irkutsk         28198.250
       311   08 Jun 2027 16:12:55.654   08 Jun 2027 16:15:16.900           141.246                Sumatra         17655.750
       312   08 Jun 2027 16:17:29.129   08 Jun 2027 16:19:38.935           129.806                Sumatra         16225.750
       313   08 Jun 2027 17:39:08.772   08 Jun 2027 17:41:45.288           156.516                Novosib         19564.500
       314   08 Jun 2027 17:43:55.570   08 Jun 2027 17:45:10.044            74.474                  Delhi          9309.250
       315   08 Jun 2027 19:15:25.345   08 Jun 2027 19:16:21.498            56.153                  Delhi          7019.125
       316   08 Jun 2027 20:42:27.225   08 Jun 2027 20:42:52.343            25.118              Murmansk1          3139.750
       317   08 Jun 2027 20:46:20.191   08 Jun 2027 20:48:50.266           150.075                 Moscow         18208.000
       318   09 Jun 2027 03:06:31.109   09 Jun 2027 03:06:44.354            13.245              Murmansk1          1655.625
       319   09 Jun 2027 04:18:25.281   09 Jun 2027 04:21:08.667           163.386                Sumatra         20423.250
       320   09 Jun 2027 04:42:33.381   09 Jun 2027 04:50:20.325           466.944              Murmansk1         58368.000
       321   09 Jun 2027 05:26:13.923   09 Jun 2027 05:29:39.969           206.046            RioGallegos         25755.750
       322   09 Jun 2027 05:52:03.611   09 Jun 2027 06:04:25.093           741.482                Sumatra         92685.250
       323   09 Jun 2027 06:06:48.040   09 Jun 2027 06:08:22.429            94.389                Irkutsk         11798.625
       324   09 Jun 2027 06:16:54.365   09 Jun 2027 06:17:35.616            41.251                Irkutsk          5156.375
       325   09 Jun 2027 06:18:20.844   09 Jun 2027 06:18:51.059            30.215              Murmansk1          3776.875
       326   09 Jun 2027 06:19:19.709   09 Jun 2027 06:19:55.598            35.889                Novosib          4486.125
       327   09 Jun 2027 06:20:13.320   09 Jun 2027 06:23:22.571           189.251                Norilsk         23656.375
       328   09 Jun 2027 06:23:27.914   09 Jun 2027 06:25:23.732           115.818              Murmansk1         14477.250
       329   09 Jun 2027 07:42:15.306   09 Jun 2027 07:48:25.573           370.267                  Delhi         46283.375
       330   09 Jun 2027 07:54:03.206   09 Jun 2027 07:55:13.411            70.205                Novosib          8775.625
       331   09 Jun 2027 07:55:14.348   09 Jun 2027 07:59:20.462           246.114                Norilsk         30764.250
       332   09 Jun 2027 07:59:58.000   09 Jun 2027 08:01:02.149            64.149              Murmansk2          8018.625
       333   09 Jun 2027 09:23:51.840   09 Jun 2027 09:25:14.814            82.974                 Moscow         10371.750
       334   09 Jun 2027 09:28:56.476   09 Jun 2027 09:31:10.998           134.522              Murmansk2         16815.250
       335   09 Jun 2027 09:31:17.515   09 Jun 2027 09:33:51.950           154.435                Norilsk         19304.375
       336   09 Jun 2027 09:34:13.231   09 Jun 2027 09:36:57.407           164.176              Murmansk2         20522.000
       337   09 Jun 2027 10:39:21.500   09 Jun 2027 10:46:17.155           415.655               CapeTown         51956.875
       338   09 Jun 2027 11:03:43.377   09 Jun 2027 11:04:35.631            52.254              Murmansk2          6531.750
       339   09 Jun 2027 11:04:38.930   09 Jun 2027 11:08:35.300           236.370                 Moscow         29546.250
       340   09 Jun 2027 11:08:38.623   09 Jun 2027 11:12:54.204           255.581              Murmansk1         31947.625
       341   09 Jun 2027 11:15:23.451   09 Jun 2027 11:21:37.832           374.381                Anadyr1         46797.625
       342   09 Jun 2027 11:22:51.129   09 Jun 2027 11:24:17.741            86.612                Anadyr1         10826.500
       343   09 Jun 2027 12:53:38.564   09 Jun 2027 12:57:53.057           254.493               Magadan2         31811.625
       344   09 Jun 2027 14:38:25.141   09 Jun 2027 14:39:11.958            46.817               Magadan2          5852.125
       345   09 Jun 2027 15:22:24.789   09 Jun 2027 15:25:43.242           198.453            RioGallegos         24806.625
       346   09 Jun 2027 16:11:20.314   09 Jun 2027 16:13:17.606           117.292                Irkutsk         14661.500
       347   09 Jun 2027 16:24:00.143   09 Jun 2027 16:27:02.071           181.928                Sumatra         22741.000
       348   09 Jun 2027 17:47:21.195   09 Jun 2027 17:49:04.003           102.808                Novosib         12851.000
       349   09 Jun 2027 17:54:17.275   09 Jun 2027 17:56:50.308           153.033                  Delhi         19129.125
       350   09 Jun 2027 19:27:24.001   09 Jun 2027 19:28:23.545            59.544                  Delhi          7443.000
       351   09 Jun 2027 19:28:50.063   09 Jun 2027 19:28:51.686             1.623                  Delhi           202.875
       352   09 Jun 2027 20:55:21.541   09 Jun 2027 20:55:53.949            32.408              Murmansk1          4051.000
       353   09 Jun 2027 20:57:24.159   09 Jun 2027 20:59:08.326           104.167              Murmansk2         13020.875
       354   09 Jun 2027 21:00:57.132   09 Jun 2027 21:02:10.268            73.136                 Moscow          9142.000
       355   09 Jun 2027 21:24:19.355   09 Jun 2027 21:24:47.704            28.349               CapeTown          3543.625
       356   09 Jun 2027 21:26:50.457   09 Jun 2027 21:28:20.662            90.205               CapeTown          8164.249
       357   10 Jun 2027 03:17:20.398   10 Jun 2027 03:18:20.822            60.424               Magadan2          7553.000
       358   10 Jun 2027 03:18:23.552   10 Jun 2027 03:20:42.573           139.021              Murmansk2         17377.625
       359   10 Jun 2027 04:29:38.966   10 Jun 2027 04:31:06.862            87.896                Sumatra         10987.000
       360   10 Jun 2027 04:35:51.544   10 Jun 2027 04:37:53.058           121.514                Sumatra         15189.250
       361   10 Jun 2027 04:54:35.718   10 Jun 2027 04:59:25.582           289.864                Norilsk         36233.000
       362   10 Jun 2027 04:59:25.702   10 Jun 2027 05:02:12.586           166.884              Murmansk1         20860.500
       363   10 Jun 2027 06:12:05.618   10 Jun 2027 06:16:08.618           243.000                Sumatra         30375.000
       364   10 Jun 2027 06:19:04.697   10 Jun 2027 06:21:20.017           135.320                Novosib         16915.000
       365   10 Jun 2027 06:21:53.937   10 Jun 2027 06:25:48.268           234.331                Novosib         29291.375
       366   10 Jun 2027 06:29:30.961   10 Jun 2027 06:31:55.849           144.888                Novosib         18111.000
       367   10 Jun 2027 06:32:22.871   10 Jun 2027 06:34:18.712           115.841              Murmansk2         14480.125
       368   10 Jun 2027 06:34:18.712   10 Jun 2027 06:37:21.353           182.641              Murmansk1         22830.125
       369   10 Jun 2027 07:56:16.060   10 Jun 2027 07:56:27.959            11.899                  Delhi          1487.375
       370   10 Jun 2027 07:57:36.811   10 Jun 2027 08:02:00.213           263.402                Novosib         32925.250
       371   10 Jun 2027 08:06:40.185   10 Jun 2027 08:06:52.540            12.355                 Moscow          1544.375
       372   10 Jun 2027 08:08:11.725   10 Jun 2027 08:13:02.810           291.085              Murmansk1         36385.625
       373   10 Jun 2027 09:36:14.499   10 Jun 2027 09:36:48.211            33.712                 Moscow          4214.000
       374   10 Jun 2027 09:39:25.807   10 Jun 2027 09:39:27.231             1.424              Murmansk2           178.000
       375   10 Jun 2027 09:40:22.289   10 Jun 2027 09:40:29.493             7.204              Murmansk1           900.500
       376   10 Jun 2027 09:40:29.493   10 Jun 2027 09:42:46.030           136.537              Murmansk2         17067.125
       377   10 Jun 2027 09:43:51.459   10 Jun 2027 09:45:26.292            94.833                 Moscow         11854.125
       378   10 Jun 2027 09:46:01.901   10 Jun 2027 09:48:59.088           177.187              Murmansk1         22148.375
       379   10 Jun 2027 09:54:15.407   10 Jun 2027 09:56:00.000           104.592                Anadyr2         13074.000
       380   10 Jun 2027 10:54:04.031   10 Jun 2027 10:58:35.993           271.962               CapeTown         33995.250
       381   10 Jun 2027 11:16:24.515   10 Jun 2027 11:16:57.082            32.567                 Moscow          4070.875
       382   10 Jun 2027 11:19:48.347   10 Jun 2027 11:24:54.814           306.467              Murmansk2         38308.375
       383   10 Jun 2027 11:26:53.711   10 Jun 2027 11:31:30.124           276.413                Anadyr2         34551.625
       384   10 Jun 2027 13:05:28.844   10 Jun 2027 13:11:55.912           387.068               Magadan2         48383.500
       385   10 Jun 2027 15:33:51.978   10 Jun 2027 15:37:33.289           221.311            RioGallegos         27663.875
       386   10 Jun 2027 16:23:34.712   10 Jun 2027 16:25:12.556            97.844                Irkutsk         12230.500
       387   10 Jun 2027 16:35:20.974   10 Jun 2027 16:38:53.430           212.456                Sumatra         26557.000
       388   10 Jun 2027 18:05:25.017   10 Jun 2027 18:08:36.229           191.212                  Delhi         23901.500
       389   10 Jun 2027 21:08:31.859   10 Jun 2027 21:09:19.117            47.258              Murmansk2          5907.250
       390   10 Jun 2027 21:10:03.600   10 Jun 2027 21:11:35.430            91.830                 Moscow         11478.750
       391   10 Jun 2027 21:19:17.785   10 Jun 2027 21:19:33.759            15.974                 Moscow          1996.750
       392   10 Jun 2027 21:35:19.609   10 Jun 2027 21:36:48.381            88.772               CapeTown         11096.500
       393   10 Jun 2027 21:38:55.359   10 Jun 2027 21:41:25.592           150.233               CapeTown         18779.125
       394   11 Jun 2027 03:30:31.401   11 Jun 2027 03:31:22.868            51.467                Novosib          6433.375
       395   11 Jun 2027 03:32:04.067   11 Jun 2027 03:33:19.144            75.077                Norilsk          9384.625
       396   11 Jun 2027 04:41:05.652   11 Jun 2027 04:42:16.569            70.917                Sumatra          8864.625
       397   11 Jun 2027 04:44:26.540   11 Jun 2027 04:44:51.270            24.730                Sumatra          3091.250
       398   11 Jun 2027 05:06:37.454   11 Jun 2027 05:11:26.908           289.454                Norilsk         36181.750
       399   11 Jun 2027 05:11:53.618   11 Jun 2027 05:14:05.597           131.979              Murmansk1         16497.375
       400   11 Jun 2027 06:24:04.672   11 Jun 2027 06:27:44.748           220.076                Sumatra         27509.500
       401   11 Jun 2027 06:31:10.911   11 Jun 2027 06:33:45.069           154.158                Novosib         19269.750
       402   11 Jun 2027 06:34:02.320   11 Jun 2027 06:36:59.664           177.344                  Delhi         22168.000
       403   11 Jun 2027 06:37:00.658   11 Jun 2027 06:37:28.474            27.816                Irkutsk          3477.000
       404   11 Jun 2027 06:42:07.371   11 Jun 2027 06:43:55.350           107.979                Novosib         13497.375
       405   11 Jun 2027 06:44:22.311   11 Jun 2027 06:45:55.229            92.918              Murmansk1         11614.750
       406   11 Jun 2027 06:45:55.229   11 Jun 2027 06:49:19.485           204.256              Murmansk2         25532.000
       407   11 Jun 2027 08:08:10.004   11 Jun 2027 08:08:43.088            33.084                  Delhi          4135.500
       408   11 Jun 2027 08:10:02.459   11 Jun 2027 08:13:24.189           201.730                Novosib         25216.250
       409   11 Jun 2027 08:17:55.506   11 Jun 2027 08:18:46.403            50.897                Novosib          6362.125
       410   11 Jun 2027 08:20:13.133   11 Jun 2027 08:25:03.688           290.555              Murmansk1         36319.375
       411   11 Jun 2027 09:47:51.600   11 Jun 2027 09:48:17.676            26.076                 Moscow          3259.500
       412   11 Jun 2027 09:51:26.767   11 Jun 2027 09:52:39.088            72.321              Murmansk1          9040.125
       413   11 Jun 2027 09:52:39.088   11 Jun 2027 09:54:50.015           130.927              Murmansk2         16365.875
       414   11 Jun 2027 09:54:55.407   11 Jun 2027 09:57:25.133           149.726                 Moscow         18715.750
       415   11 Jun 2027 09:57:25.374   11 Jun 2027 10:01:00.766           215.392              Murmansk2         26924.000
       416   11 Jun 2027 10:04:14.689   11 Jun 2027 10:09:20.803           306.114                Anadyr2         38264.250
       417   11 Jun 2027 11:06:01.425   11 Jun 2027 11:10:48.782           287.357               CapeTown         35919.625
       418   11 Jun 2027 11:28:17.572   11 Jun 2027 11:29:10.987            53.415                 Moscow          6676.875
       419   11 Jun 2027 11:31:58.146   11 Jun 2027 11:36:23.633           265.487              Murmansk2         33185.875
       420   11 Jun 2027 13:17:21.536   11 Jun 2027 13:20:16.418           174.882               Magadan1         21860.250
       421   11 Jun 2027 13:21:11.293   11 Jun 2027 13:26:32.272           320.979               Magadan2         40122.375
       422   11 Jun 2027 15:45:29.336   11 Jun 2027 15:49:25.855           236.519            RioGallegos         29564.875
       423   11 Jun 2027 15:51:24.488   11 Jun 2027 15:52:07.211            42.723            RioGallegos          5340.375
       424   11 Jun 2027 16:46:52.625   11 Jun 2027 16:48:31.135            98.510                Sumatra         12313.750
       425   11 Jun 2027 16:58:07.260   11 Jun 2027 16:58:24.172            16.912                Sumatra          2114.000
       426   11 Jun 2027 18:08:31.591   11 Jun 2027 18:10:54.352           142.761                Novosib         17845.125
       427   11 Jun 2027 18:16:49.765   11 Jun 2027 18:20:26.724           216.959                  Delhi         27119.875
       428   11 Jun 2027 19:49:26.411   11 Jun 2027 19:50:34.247            67.836                 Moscow          8479.500
       429   11 Jun 2027 21:25:01.874   11 Jun 2027 21:26:29.883            88.009                 Moscow         11001.125
       430   11 Jun 2027 21:46:48.807   11 Jun 2027 21:48:10.579            81.772               CapeTown         10221.500
       431   11 Jun 2027 21:53:32.056   11 Jun 2027 21:53:37.645             5.589               CapeTown           698.625
       432   12 Jun 2027 03:42:42.938   12 Jun 2027 03:43:31.621            48.683                Novosib          6085.375
       433   12 Jun 2027 03:43:51.779   12 Jun 2027 03:44:46.261            54.482              Murmansk1          6810.250
       434   12 Jun 2027 04:54:39.221   12 Jun 2027 04:56:51.139           131.918                Sumatra         16489.750
       435   12 Jun 2027 05:07:17.130   12 Jun 2027 05:09:29.156           132.026                  Delhi         16503.250
       436   12 Jun 2027 05:17:58.241   12 Jun 2027 05:18:08.426            10.185              Murmansk1          1273.125
       437   12 Jun 2027 05:18:39.280   12 Jun 2027 05:23:28.392           289.112                Norilsk         36139.000
       438   12 Jun 2027 05:23:41.262   12 Jun 2027 05:25:59.353           138.091              Murmansk2         17261.375
       439   12 Jun 2027 06:43:20.258   12 Jun 2027 06:45:33.304           133.046                Novosib         16630.750
       440   12 Jun 2027 06:45:55.760   12 Jun 2027 06:49:05.057           189.297                  Delhi         23662.125
       441   12 Jun 2027 06:49:21.593   12 Jun 2027 06:50:27.481            65.888                Irkutsk          8236.000
       442   12 Jun 2027 06:54:33.405   12 Jun 2027 06:55:14.050            40.645                 Moscow          5080.625
       443   12 Jun 2027 06:55:25.304   12 Jun 2027 06:55:54.006            28.702                Novosib          3587.750
       444   12 Jun 2027 06:56:22.110   12 Jun 2027 06:58:08.044           105.934              Murmansk2         13241.750
       445   12 Jun 2027 06:58:08.044   12 Jun 2027 07:01:18.086           190.042              Murmansk1         23755.250
       446   12 Jun 2027 08:22:52.143   12 Jun 2027 08:25:42.823           170.680                Novosib         21335.000
       447   12 Jun 2027 08:32:14.649   12 Jun 2027 08:37:04.773           290.124              Murmansk2         36265.500
       448   12 Jun 2027 09:40:36.571   12 Jun 2027 09:41:57.112            80.541               CapeTown         10067.625
       449   12 Jun 2027 09:59:50.261   12 Jun 2027 10:00:49.349            59.088                 Moscow          7386.000
       450   12 Jun 2027 10:03:50.323   12 Jun 2027 10:05:53.891           123.568              Murmansk1         15446.000
       451   12 Jun 2027 10:06:14.592   12 Jun 2027 10:09:23.022           188.430                 Moscow         23553.750
       452   12 Jun 2027 10:09:37.826   12 Jun 2027 10:11:54.667           136.841              Murmansk2         17105.125
       453   12 Jun 2027 10:11:54.667   12 Jun 2027 10:13:02.417            67.750              Murmansk1          8468.750
       454   12 Jun 2027 10:15:52.664   12 Jun 2027 10:22:21.025           388.361                Anadyr2         48545.125
       455   12 Jun 2027 11:17:53.876   12 Jun 2027 11:22:56.090           302.214               CapeTown         37776.750
       456   12 Jun 2027 11:40:08.363   12 Jun 2027 11:41:22.378            74.015                 Moscow          9251.875
       457   12 Jun 2027 11:43:55.447   12 Jun 2027 11:45:55.461           120.014              Murmansk1         15001.750
       458   12 Jun 2027 11:45:55.461   12 Jun 2027 11:46:42.097            46.636              Murmansk2          5829.500
       459   12 Jun 2027 13:29:16.051   12 Jun 2027 13:31:19.073           123.022               Magadan1         15377.750
       460   12 Jun 2027 13:32:13.536   12 Jun 2027 13:33:57.338           103.802               Magadan2         12975.250
       461   12 Jun 2027 15:59:33.489   12 Jun 2027 16:03:18.147           224.658            RioGallegos         28082.250
       462   12 Jun 2027 16:44:42.488   12 Jun 2027 16:47:36.697           174.209                Irkutsk         21776.125
       463   12 Jun 2027 16:47:48.603   12 Jun 2027 16:49:57.110           128.507                Novosib         16063.375
       464   12 Jun 2027 17:00:27.975   12 Jun 2027 17:02:53.175           145.200                Sumatra         18150.000
       465   12 Jun 2027 17:04:24.324   12 Jun 2027 17:04:52.269            27.945                Sumatra          3493.125
       466   12 Jun 2027 18:20:26.612   12 Jun 2027 18:22:17.534           110.922                Novosib         13865.250
       467   12 Jun 2027 18:28:24.521   12 Jun 2027 18:29:27.140            62.619                  Delhi          7827.375
       468   12 Jun 2027 18:30:37.097   12 Jun 2027 18:32:21.125           104.028                  Delhi         13003.500
       469   12 Jun 2027 20:00:43.235   12 Jun 2027 20:03:17.614           154.379                 Moscow         19297.375
       470   12 Jun 2027 21:41:44.781   12 Jun 2027 21:43:21.912            97.131                 Moscow         12141.375
       471   12 Jun 2027 21:58:24.627   12 Jun 2027 22:00:26.451           121.824               CapeTown          7112.625
       472   13 Jun 2027 03:54:43.253   13 Jun 2027 03:55:39.314            56.061                Novosib          7007.625
       473   13 Jun 2027 03:55:54.440   13 Jun 2027 03:59:36.929           222.489                Norilsk         27811.125
       474   13 Jun 2027 05:04:25.058   13 Jun 2027 05:06:14.648           109.590                Sumatra         13698.750
       475   13 Jun 2027 05:07:01.811   13 Jun 2027 05:08:56.640           114.829                Sumatra         14353.625
       476   13 Jun 2027 05:30:12.535   13 Jun 2027 05:30:50.285            37.750              Murmansk1          4718.750
       477   13 Jun 2027 05:30:51.038   13 Jun 2027 05:35:30.012           278.974                Norilsk         34871.750
       478   13 Jun 2027 05:35:37.706   13 Jun 2027 05:37:53.832           136.126              Murmansk1         17015.750
       479   13 Jun 2027 06:55:32.926   13 Jun 2027 06:57:46.799           133.873                Novosib         16734.125
       480   13 Jun 2027 06:57:54.492   13 Jun 2027 07:01:07.143           192.651                  Delhi         24081.375
       481   13 Jun 2027 07:01:09.004   13 Jun 2027 07:02:27.344            78.340                Irkutsk          9792.500
       482   13 Jun 2027 07:06:10.562   13 Jun 2027 07:07:02.583            52.021              Murmansk2          6502.625
