uniorb/output/strategy_4/Drop/Drop_KinoSat_111003.txt

KinoSat_111003
-------------------------
    Access    *     Start Time (UTCG)     *     Stop Time (UTCG)  *   Duration (s)        *       Station  *  Data (Mbytes)
         1   01 Jun 2027 03:47:44.407   01 Jun 2027 03:47:58.744            14.337                Anadyr1           448.031
         2   01 Jun 2027 03:48:11.890   01 Jun 2027 03:48:20.640             8.750                Anadyr1           273.438
         3   01 Jun 2027 03:48:22.821   01 Jun 2027 03:48:36.093            13.272               Magadan1           414.750
         4   01 Jun 2027 03:48:57.009   01 Jun 2027 03:49:10.474            13.465               Magadan2           420.781
         5   01 Jun 2027 03:49:20.654   01 Jun 2027 03:49:48.915            28.261                Anadyr1           883.156
         6   01 Jun 2027 03:50:05.662   01 Jun 2027 03:51:08.349            62.687                Anadyr1          1958.969
         7   01 Jun 2027 03:51:08.349   01 Jun 2027 03:51:24.088            15.739                Anadyr2           491.844
         8   01 Jun 2027 03:51:30.541   01 Jun 2027 03:52:09.983            39.442               Magadan2          1232.563
         9   01 Jun 2027 03:52:09.983   01 Jun 2027 03:52:22.944            12.961               Magadan1           405.031
        10   01 Jun 2027 05:24:39.625   01 Jun 2027 05:24:59.593            19.968               Magadan1           624.000
        11   01 Jun 2027 05:24:59.593   01 Jun 2027 05:25:03.559             3.966               Magadan2           123.938
        12   01 Jun 2027 05:25:04.813   01 Jun 2027 05:25:32.079            27.266                Norilsk           852.063
        13   01 Jun 2027 05:25:39.051   01 Jun 2027 05:28:58.808           199.757               Magadan1          6242.406
        14   01 Jun 2027 06:58:09.054   01 Jun 2027 06:58:38.138            29.084                Norilsk           908.875
        15   01 Jun 2027 06:58:47.529   01 Jun 2027 07:01:50.051           182.522               Magadan2          5703.813
        16   01 Jun 2027 07:01:54.020   01 Jun 2027 07:02:46.881            52.861                Norilsk          1651.906
        17   01 Jun 2027 07:02:57.300   01 Jun 2027 07:04:37.057            99.757               Magadan2          3117.406
        18   01 Jun 2027 07:04:37.219   01 Jun 2027 07:04:56.963            19.744              Murmansk1           617.000
        19   01 Jun 2027 07:07:55.211   01 Jun 2027 07:07:59.987             4.776              Murmansk1           149.250
        20   01 Jun 2027 07:09:46.135   01 Jun 2027 07:10:13.551            27.416              Murmansk2           856.750
        21   01 Jun 2027 07:39:36.586   01 Jun 2027 07:42:35.277           178.691            RioGallegos          5584.094
        22   01 Jun 2027 08:16:16.833   01 Jun 2027 08:17:02.414            45.581                Sumatra          1424.406
        23   01 Jun 2027 08:36:07.910   01 Jun 2027 08:40:41.265           273.355                Irkutsk          8542.344
        24   01 Jun 2027 08:40:41.885   01 Jun 2027 08:40:59.015            17.130                Novosib           535.312
        25   01 Jun 2027 09:15:59.298   01 Jun 2027 09:16:58.370            59.072            RioGallegos          1846.000
        26   01 Jun 2027 09:20:25.074   01 Jun 2027 09:20:47.752            22.678            RioGallegos           708.688
        27   01 Jun 2027 09:50:21.617   01 Jun 2027 09:51:34.482            72.865                Sumatra          2277.031
        28   01 Jun 2027 10:00:08.333   01 Jun 2027 10:01:10.688            62.355                  Delhi          1948.594
        29   01 Jun 2027 10:13:19.678   01 Jun 2027 10:14:03.299            43.621              Murmansk2          1363.156
        30   01 Jun 2027 10:14:07.825   01 Jun 2027 10:15:08.609            60.784                 Moscow          1899.500
        31   01 Jun 2027 10:15:13.178   01 Jun 2027 10:15:59.590            46.412                Irkutsk          1450.375
        32   01 Jun 2027 10:16:01.604   01 Jun 2027 10:18:44.290           162.686                Norilsk          5083.938
        33   01 Jun 2027 10:19:01.623   01 Jun 2027 10:19:51.564            49.941              Murmansk1          1560.656
        34   01 Jun 2027 11:35:00.993   01 Jun 2027 11:38:12.781           191.788                  Delhi          5993.375
        35   01 Jun 2027 11:49:21.555   01 Jun 2027 11:50:57.428            95.873                Novosib          2996.031
        36   01 Jun 2027 11:50:58.056   01 Jun 2027 11:51:27.773            29.717              Murmansk2           928.656
        37   01 Jun 2027 11:51:33.689   01 Jun 2027 11:54:02.797           149.108                 Moscow          4659.625
        38   01 Jun 2027 13:18:49.839   01 Jun 2027 13:20:49.606           119.767                 Moscow          3742.719
        39   01 Jun 2027 13:21:11.312   01 Jun 2027 13:21:52.545            41.233                 Moscow          1288.531
        40   01 Jun 2027 13:22:21.050   01 Jun 2027 13:26:33.650           252.600              Murmansk1          7893.750
        41   01 Jun 2027 13:28:52.176   01 Jun 2027 13:29:22.763            30.587                Norilsk           955.844
        42   01 Jun 2027 13:29:54.812   01 Jun 2027 13:30:19.024            24.212                Norilsk           756.625
        43   01 Jun 2027 13:31:32.835   01 Jun 2027 13:32:08.083            35.248                Norilsk          1101.500
        44   01 Jun 2027 13:33:55.124   01 Jun 2027 13:34:45.017            49.893              Murmansk2          1559.156
        45   01 Jun 2027 13:40:14.544   01 Jun 2027 13:40:42.041            27.497                Anadyr2           859.281
        46   01 Jun 2027 14:32:45.173   01 Jun 2027 14:35:13.480           148.307               CapeTown          4634.594
        47   01 Jun 2027 14:36:20.591   01 Jun 2027 14:36:38.905            18.314               CapeTown           572.312
        48   01 Jun 2027 14:38:58.900   01 Jun 2027 14:39:26.225            27.325               CapeTown           853.906
        49   01 Jun 2027 14:40:22.593   01 Jun 2027 14:41:30.714            68.121               CapeTown          2128.781
        50   01 Jun 2027 14:43:49.504   01 Jun 2027 14:44:39.278            49.774               CapeTown          1555.438
        51   01 Jun 2027 15:01:54.139   01 Jun 2027 15:03:19.268            85.129              Murmansk2          2660.281
        52   01 Jun 2027 15:06:09.818   01 Jun 2027 15:06:27.396            17.578              Murmansk2           549.313
        53   01 Jun 2027 15:07:14.467   01 Jun 2027 15:09:11.100           116.633              Murmansk1          3644.781
        54   01 Jun 2027 15:13:08.133   01 Jun 2027 15:13:35.125            26.992                Anadyr2           843.500
        55   01 Jun 2027 15:13:57.528   01 Jun 2027 15:14:40.812            43.284                Anadyr2          1352.625
        56   01 Jun 2027 15:15:34.532   01 Jun 2027 15:16:38.787            64.255                Anadyr1          2007.969
        57   01 Jun 2027 15:17:58.244   01 Jun 2027 15:18:34.974            36.730                Anadyr1          1147.812
        58   01 Jun 2027 15:19:12.046   01 Jun 2027 15:19:51.738            39.692                Anadyr1          1240.375
        59   01 Jun 2027 15:20:25.448   01 Jun 2027 15:21:00.354            34.906                Anadyr2          1090.812
        60   01 Jun 2027 15:22:07.659   01 Jun 2027 15:22:40.717            33.058                Anadyr2          1033.063
        61   01 Jun 2027 16:40:03.167   01 Jun 2027 16:41:22.649            79.482              Murmansk1          2483.813
        62   01 Jun 2027 16:41:36.177   01 Jun 2027 16:42:12.813            36.636              Murmansk2          1144.875
        63   01 Jun 2027 16:43:28.711   01 Jun 2027 16:44:18.433            49.722              Murmansk2          1553.812
        64   01 Jun 2027 16:48:50.408   01 Jun 2027 16:49:47.991            57.583                Anadyr1          1799.469
        65   01 Jun 2027 16:50:32.584   01 Jun 2027 16:51:29.804            57.220                Anadyr1          1788.125
        66   01 Jun 2027 16:51:46.934   01 Jun 2027 16:53:48.263           121.329               Magadan1          3791.531
        67   01 Jun 2027 16:54:27.325   01 Jun 2027 16:55:18.729            51.404               Magadan1          1606.375
        68   01 Jun 2027 17:00:07.923   01 Jun 2027 17:00:51.717            43.794               Magadan2          1368.562
        69   01 Jun 2027 18:24:45.944   01 Jun 2027 18:26:36.519           110.575                Anadyr2          3455.469
        70   01 Jun 2027 18:27:03.797   01 Jun 2027 18:29:43.952           160.155               Magadan1          5004.844
        71   01 Jun 2027 18:30:08.937   01 Jun 2027 18:30:57.325            48.388               Magadan1          1512.125
        72   01 Jun 2027 18:32:30.413   01 Jun 2027 18:32:37.577             7.164               Magadan1           223.875
        73   01 Jun 2027 18:33:33.675   01 Jun 2027 18:34:05.279            31.604               Magadan1           987.625
        74   01 Jun 2027 18:38:52.935   01 Jun 2027 18:39:31.708            38.773               Magadan1          1211.656
        75   01 Jun 2027 19:20:21.779   01 Jun 2027 19:23:20.060           178.281            RioGallegos          5571.281
        76   01 Jun 2027 19:25:53.687   01 Jun 2027 19:26:54.760            61.073            RioGallegos          1908.531
        77   01 Jun 2027 20:02:42.332   01 Jun 2027 20:04:24.613           102.281                Norilsk          3196.281
        78   01 Jun 2027 20:05:15.012   01 Jun 2027 20:06:36.052            81.040                Norilsk          2532.500
        79   01 Jun 2027 20:08:19.497   01 Jun 2027 20:09:08.269            48.772                Irkutsk          1524.125
        80   01 Jun 2027 20:10:29.117   01 Jun 2027 20:10:50.588            21.471                Irkutsk           670.969
        81   01 Jun 2027 20:12:29.323   01 Jun 2027 20:13:06.185            36.862                Irkutsk          1151.938
        82   01 Jun 2027 20:21:55.126   01 Jun 2027 20:23:08.403            73.277                Sumatra          2289.906
        83   01 Jun 2027 20:24:39.703   01 Jun 2027 20:27:04.627           144.924                Sumatra          4528.875
        84   01 Jun 2027 20:28:20.546   01 Jun 2027 20:28:44.604            24.058                Sumatra           751.813
        85   01 Jun 2027 21:39:24.207   01 Jun 2027 21:39:32.570             8.363               Magadan2           261.344
        86   01 Jun 2027 21:40:12.276   01 Jun 2027 21:40:22.924            10.648                Anadyr2           332.750
        87   01 Jun 2027 21:40:35.275   01 Jun 2027 21:40:51.863            16.588               Magadan2           518.375
        88   01 Jun 2027 21:41:45.037   01 Jun 2027 21:42:27.271            42.234               Magadan1          1319.813
        89   01 Jun 2027 21:42:40.839   01 Jun 2027 21:42:53.926            13.087               Magadan2           408.969
        90   01 Jun 2027 21:42:56.101   01 Jun 2027 21:43:36.745            40.644                Novosib          1270.125
        91   01 Jun 2027 21:44:12.473   01 Jun 2027 21:45:47.234            94.761                Novosib          2961.281
        92   01 Jun 2027 21:50:28.309   01 Jun 2027 21:52:21.725           113.416                Novosib          3544.250
        93   01 Jun 2027 21:52:22.380   01 Jun 2027 21:53:12.015            49.635                  Delhi          1551.094
        94   01 Jun 2027 21:56:53.718   01 Jun 2027 21:57:55.458            61.740                  Delhi          1929.375
        95   01 Jun 2027 23:11:51.299   01 Jun 2027 23:12:07.454            16.155                Anadyr2           504.844
        96   01 Jun 2027 23:14:17.796   01 Jun 2027 23:15:02.272            44.476                Anadyr1          1389.875
        97   01 Jun 2027 23:15:03.403   01 Jun 2027 23:16:16.126            72.723               Magadan2          2272.594
        98   01 Jun 2027 23:17:16.623   01 Jun 2027 23:21:03.740           227.117              Murmansk1          7097.406
        99   01 Jun 2027 23:22:51.957   01 Jun 2027 23:23:31.882            39.925              Murmansk1          1247.656
       100   01 Jun 2027 23:29:57.297   01 Jun 2027 23:30:38.451            41.154                  Delhi          1286.063
       101   01 Jun 2027 23:34:54.526   01 Jun 2027 23:35:14.723            20.197                  Delhi           631.156
       102   02 Jun 2027 00:09:12.275   02 Jun 2027 00:09:27.268            14.993            RioGallegos           468.531
       103   02 Jun 2027 00:11:55.566   02 Jun 2027 00:12:19.153            23.587            RioGallegos           737.094
       104   02 Jun 2027 00:42:58.938   02 Jun 2027 00:43:24.318            25.380                Anadyr1           793.125
       105   02 Jun 2027 00:43:44.130   02 Jun 2027 00:45:09.955            85.825                Anadyr2          2682.031
       106   02 Jun 2027 00:45:38.673   02 Jun 2027 00:45:45.465             6.792                Anadyr2           212.250
       107   02 Jun 2027 00:48:51.896   02 Jun 2027 00:51:24.548           152.652               Magadan2          4770.375
       108   02 Jun 2027 00:52:40.585   02 Jun 2027 00:54:12.145            91.560              Murmansk1          2861.250
       109   02 Jun 2027 00:54:26.923   02 Jun 2027 00:56:06.501            99.578                Novosib          3111.812
       110   02 Jun 2027 00:57:26.686   02 Jun 2027 00:57:32.724             6.038                 Moscow           188.688
       111   02 Jun 2027 00:57:47.290   02 Jun 2027 00:58:12.608            25.318                 Moscow           791.187
       112   02 Jun 2027 01:02:07.736   02 Jun 2027 01:02:15.686             7.950              Murmansk2           248.438
       113   02 Jun 2027 01:03:09.588   02 Jun 2027 01:03:41.896            32.308                 Moscow          1009.625
       114   02 Jun 2027 01:21:54.249   02 Jun 2027 01:22:27.809            33.560               CapeTown          1048.750
       115   02 Jun 2027 01:22:57.765   02 Jun 2027 01:23:33.097            35.332               CapeTown          1104.125
       116   02 Jun 2027 01:25:38.915   02 Jun 2027 01:26:20.312            41.397               CapeTown          1293.656
       117   02 Jun 2027 02:16:57.330   02 Jun 2027 02:19:14.916           137.586                Anadyr1          4299.562
       118   02 Jun 2027 02:20:29.645   02 Jun 2027 02:21:07.975            38.330               Magadan2          1197.812
       119   02 Jun 2027 02:21:18.804   02 Jun 2027 02:21:45.565            26.761               Magadan2           836.281
       120   02 Jun 2027 02:23:18.998   02 Jun 2027 02:23:30.530            11.532               Magadan1           360.375
       121   02 Jun 2027 02:26:33.002   02 Jun 2027 02:27:15.294            42.292                Norilsk          1321.625
       122   02 Jun 2027 02:28:36.895   02 Jun 2027 02:28:47.100            10.205              Murmansk1           318.906
       123   02 Jun 2027 02:28:51.262   02 Jun 2027 02:29:26.527            35.265              Murmansk2          1102.031
       124   02 Jun 2027 02:30:16.247   02 Jun 2027 02:30:25.923             9.676              Murmansk2           302.375
       125   02 Jun 2027 02:31:18.261   02 Jun 2027 02:32:23.060            64.799                Novosib          2024.969
       126   02 Jun 2027 02:35:40.509   02 Jun 2027 02:35:42.558             2.049                Novosib            64.031
       127   02 Jun 2027 02:36:10.835   02 Jun 2027 02:36:15.353             4.518                Novosib           141.188
       128   02 Jun 2027 02:37:15.197   02 Jun 2027 02:37:29.165            13.968                 Moscow           436.500
       129   02 Jun 2027 02:39:15.932   02 Jun 2027 02:39:16.828             0.896                 Moscow            28.000
       130   02 Jun 2027 02:41:53.558   02 Jun 2027 02:42:14.225            20.667                 Moscow           645.844
       131   02 Jun 2027 02:42:27.613   02 Jun 2027 02:43:19.386            51.773                 Moscow          1617.906
       132   02 Jun 2027 03:02:32.250   02 Jun 2027 03:03:37.836            65.586               CapeTown          2049.562
       133   02 Jun 2027 03:58:47.912   02 Jun 2027 04:00:18.169            90.257               Magadan1          2820.531
       134   02 Jun 2027 04:00:26.161   02 Jun 2027 04:04:40.333           254.172               Magadan2          7942.875
       135   02 Jun 2027 05:37:32.973   02 Jun 2027 05:38:33.463            60.490                Irkutsk          1890.313
       136   02 Jun 2027 05:38:56.051   02 Jun 2027 05:39:35.209            39.158                Anadyr2          1223.688
       137   02 Jun 2027 05:39:35.209   02 Jun 2027 05:39:43.553             8.344                Anadyr1           260.750
       138   02 Jun 2027 05:40:28.057   02 Jun 2027 05:40:59.914            31.857               Magadan1           995.531
       139   02 Jun 2027 07:12:08.478   02 Jun 2027 07:12:30.714            22.236                Novosib           694.875
       140   02 Jun 2027 07:12:51.284   02 Jun 2027 07:14:58.039           126.755               Magadan1          3961.094
       141   02 Jun 2027 07:15:13.524   02 Jun 2027 07:16:08.735            55.211                Irkutsk          1725.344
       142   02 Jun 2027 07:16:22.370   02 Jun 2027 07:16:32.222             9.852               Magadan1           307.875
       143   02 Jun 2027 07:16:47.200   02 Jun 2027 07:17:29.942            42.742                Novosib          1335.687
       144   02 Jun 2027 07:25:39.291   02 Jun 2027 07:25:55.946            16.655              Murmansk2           520.469
       145   02 Jun 2027 08:03:31.875   02 Jun 2027 08:04:15.407            43.532            RioGallegos          1360.375
       146   02 Jun 2027 08:34:21.657   02 Jun 2027 08:34:42.560            20.903                Sumatra           653.219
       147   02 Jun 2027 08:36:47.323   02 Jun 2027 08:37:29.702            42.379                Sumatra          1324.344
       148   02 Jun 2027 08:50:00.713   02 Jun 2027 08:50:49.174            48.461                Novosib          1514.406
       149   02 Jun 2027 08:50:54.220   02 Jun 2027 08:52:42.189           107.969                Irkutsk          3374.031
       150   02 Jun 2027 08:55:05.621   02 Jun 2027 08:55:37.409            31.788                Norilsk           993.375
       151   02 Jun 2027 08:55:47.416   02 Jun 2027 08:57:37.173           109.757                Norilsk          3429.906
       152   02 Jun 2027 09:28:21.390   02 Jun 2027 09:29:57.685            96.295            RioGallegos          3009.219
       153   02 Jun 2027 09:34:27.218   02 Jun 2027 09:34:47.759            20.541            RioGallegos           641.906
       154   02 Jun 2027 09:36:07.695   02 Jun 2027 09:36:19.082            11.387            RioGallegos           355.844
       155   02 Jun 2027 09:36:37.357   02 Jun 2027 09:37:26.985            49.628            RioGallegos          1550.875
       156   02 Jun 2027 09:38:14.904   02 Jun 2027 09:38:17.089             2.185            RioGallegos            68.281
       157   02 Jun 2027 10:02:37.421   02 Jun 2027 10:04:08.596            91.175                Sumatra          2849.219
       158   02 Jun 2027 10:04:54.439   02 Jun 2027 10:06:08.086            73.647                Sumatra          2301.469
       159   02 Jun 2027 10:24:22.104   02 Jun 2027 10:24:56.086            33.982                Irkutsk          1061.938
       160   02 Jun 2027 10:25:26.883   02 Jun 2027 10:25:33.709             6.826                Irkutsk           213.313
       161   02 Jun 2027 10:25:49.574   02 Jun 2027 10:26:05.861            16.287                Novosib           508.969
       162   02 Jun 2027 10:26:16.770   02 Jun 2027 10:26:41.925            25.155                Novosib           786.094
       163   02 Jun 2027 10:27:00.574   02 Jun 2027 10:27:34.301            33.727                Novosib          1053.969
       164   02 Jun 2027 10:27:42.078   02 Jun 2027 10:27:46.628             4.550                Irkutsk           142.187
       165   02 Jun 2027 10:28:09.542   02 Jun 2027 10:28:18.343             8.801                Novosib           275.031
       166   02 Jun 2027 11:47:28.655   02 Jun 2027 11:50:52.727           204.072                  Delhi          6377.250
       167   02 Jun 2027 12:00:13.131   02 Jun 2027 12:00:41.188            28.057                Norilsk           876.781
       168   02 Jun 2027 12:01:45.975   02 Jun 2027 12:02:29.218            43.243                Novosib          1351.344
       169   02 Jun 2027 12:02:56.885   02 Jun 2027 12:04:05.372            68.487                Novosib          2140.219
       170   02 Jun 2027 12:08:23.819   02 Jun 2027 12:09:32.359            68.540                Norilsk          2141.875
       171   02 Jun 2027 13:30:56.784   02 Jun 2027 13:33:58.663           181.879                 Moscow          5683.719
       172   02 Jun 2027 13:34:28.298   02 Jun 2027 13:36:05.319            97.021              Murmansk1          3031.906
       173   02 Jun 2027 13:36:20.361   02 Jun 2027 13:37:08.138            47.777              Murmansk2          1493.031
       174   02 Jun 2027 13:40:00.443   02 Jun 2027 13:40:17.531            17.088              Murmansk1           534.000
       175   02 Jun 2027 13:40:53.966   02 Jun 2027 13:41:03.371             9.405                Norilsk           293.906
       176   02 Jun 2027 13:41:56.920   02 Jun 2027 13:42:23.341            26.421                Norilsk           825.656
       177   02 Jun 2027 13:43:32.820   02 Jun 2027 13:43:44.871            12.051                Norilsk           376.594
       178   02 Jun 2027 13:50:45.744   02 Jun 2027 13:54:53.241           247.497                Anadyr1          7734.281
       179   02 Jun 2027 15:12:18.839   02 Jun 2027 15:13:04.961            46.122              Murmansk1          1441.313
       180   02 Jun 2027 15:15:25.296   02 Jun 2027 15:15:44.763            19.467              Murmansk2           608.344
       181   02 Jun 2027 15:17:26.590   02 Jun 2027 15:17:29.396             2.806              Murmansk2            87.687
       182   02 Jun 2027 15:19:15.800   02 Jun 2027 15:19:22.737             6.937              Murmansk1           216.781
       183   02 Jun 2027 15:19:31.712   02 Jun 2027 15:21:12.993           101.281              Murmansk2          3165.031
       184   02 Jun 2027 15:25:05.848   02 Jun 2027 15:25:38.164            32.316                Anadyr2          1009.875
       185   02 Jun 2027 15:26:12.155   02 Jun 2027 15:26:17.958             5.803                Anadyr1           181.344
       186   02 Jun 2027 15:26:42.120   02 Jun 2027 15:27:35.557            53.437                Anadyr1          1669.906
       187   02 Jun 2027 15:32:08.788   02 Jun 2027 15:33:00.920            52.132                Anadyr2          1629.125
       188   02 Jun 2027 16:52:54.024   02 Jun 2027 16:55:30.666           156.642              Murmansk2          4895.062
       189   02 Jun 2027 17:00:51.571   02 Jun 2027 17:02:32.216           100.645                Anadyr1          3145.156
       190   02 Jun 2027 17:03:38.452   02 Jun 2027 17:05:48.323           129.871               Magadan1          4058.469
       191   02 Jun 2027 17:06:09.360   02 Jun 2027 17:06:38.624            29.264               Magadan2           914.500
       192   02 Jun 2027 17:09:26.913   02 Jun 2027 17:09:30.021             3.108               Magadan2            97.125
       193   02 Jun 2027 17:13:24.098   02 Jun 2027 17:13:58.551            34.453               Magadan1          1076.656
       194   02 Jun 2027 18:36:47.084   02 Jun 2027 18:38:38.056           110.972                Anadyr2          3467.875
       195   02 Jun 2027 18:39:04.104   02 Jun 2027 18:42:17.179           193.075               Magadan2          6033.594
       196   02 Jun 2027 18:43:18.700   02 Jun 2027 18:43:28.743            10.043               Magadan2           313.844
       197   02 Jun 2027 18:45:35.985   02 Jun 2027 18:46:07.934            31.949               Magadan2           998.406
       198   02 Jun 2027 18:51:09.106   02 Jun 2027 18:51:22.837            13.731               Magadan1           429.094
       199   02 Jun 2027 19:31:54.235   02 Jun 2027 19:35:08.138           193.903            RioGallegos          6059.469
       200   02 Jun 2027 19:38:16.137   02 Jun 2027 19:38:35.816            19.679            RioGallegos           614.969
       201   02 Jun 2027 20:15:02.994   02 Jun 2027 20:17:00.096           117.102               Magadan2          3659.437
       202   02 Jun 2027 20:17:16.683   02 Jun 2027 20:18:36.409            79.726                Norilsk          2491.438
       203   02 Jun 2027 20:19:10.400   02 Jun 2027 20:21:08.502           118.102                Irkutsk          3690.688
       204   02 Jun 2027 20:21:32.866   02 Jun 2027 20:22:44.409            71.543                Irkutsk          2235.719
       205   02 Jun 2027 20:28:33.530   02 Jun 2027 20:28:36.598             3.068                Irkutsk            95.875
       206   02 Jun 2027 20:29:39.214   02 Jun 2027 20:29:42.411             3.197                Irkutsk            99.906
       207   02 Jun 2027 20:33:21.030   02 Jun 2027 20:35:25.431           124.401                Sumatra          3887.531
       208   02 Jun 2027 20:38:48.646   02 Jun 2027 20:39:18.856            30.210                Sumatra           944.063
       209   02 Jun 2027 20:40:05.608   02 Jun 2027 20:40:13.917             8.309                Sumatra           259.656
       210   02 Jun 2027 21:51:09.485   02 Jun 2027 21:52:08.314            58.829               Magadan2          1838.406
       211   02 Jun 2027 21:54:22.548   02 Jun 2027 21:54:32.956            10.408               Magadan2           325.250
       212   02 Jun 2027 21:54:48.294   02 Jun 2027 21:56:08.059            79.765                Novosib          2492.656
       213   02 Jun 2027 21:56:20.088   02 Jun 2027 21:57:40.825            80.737                Novosib          2523.031
       214   02 Jun 2027 22:03:21.498   02 Jun 2027 22:04:50.977            89.479                  Delhi          2796.219
       215   02 Jun 2027 22:05:04.586   02 Jun 2027 22:06:13.529            68.943                  Delhi          2154.469
       216   02 Jun 2027 23:24:28.900   02 Jun 2027 23:24:30.911             2.011                Anadyr2            62.844
       217   02 Jun 2027 23:24:32.667   02 Jun 2027 23:24:48.566            15.899                Anadyr1           496.844
       218   02 Jun 2027 23:26:06.799   02 Jun 2027 23:26:32.396            25.597                Anadyr2           799.906
       219   02 Jun 2027 23:26:32.807   02 Jun 2027 23:27:01.029            28.222                Norilsk           881.937
       220   02 Jun 2027 23:27:05.331   02 Jun 2027 23:28:58.943           113.612               Magadan2          3550.375
       221   02 Jun 2027 23:29:08.543   02 Jun 2027 23:32:53.922           225.379              Murmansk2          7043.094
       222   02 Jun 2027 23:42:01.643   02 Jun 2027 23:42:19.214            17.571                  Delhi           549.094
       223   02 Jun 2027 23:46:53.319   02 Jun 2027 23:47:12.116            18.797                  Delhi           587.406
       224   03 Jun 2027 00:54:41.837   03 Jun 2027 00:54:57.207            15.370                Anadyr1           480.312
       225   03 Jun 2027 00:55:36.287   03 Jun 2027 00:56:05.672            29.385                Anadyr1           918.281
       226   03 Jun 2027 00:56:05.672   03 Jun 2027 00:56:49.831            44.159                Anadyr2          1379.969
       227   03 Jun 2027 00:57:14.485   03 Jun 2027 00:57:43.183            28.698                Anadyr2           896.813
       228   03 Jun 2027 01:00:22.253   03 Jun 2027 01:00:50.580            28.327               Magadan2           885.219
       229   03 Jun 2027 01:01:28.660   03 Jun 2027 01:03:13.558           104.898               Magadan2          3278.062
       230   03 Jun 2027 01:04:41.399   03 Jun 2027 01:05:43.391            61.992              Murmansk2          1937.250
       231   03 Jun 2027 01:05:46.987   03 Jun 2027 01:06:37.024            50.037              Murmansk1          1563.656
       232   03 Jun 2027 01:07:32.644   03 Jun 2027 01:07:57.450            24.806                Novosib           775.188
       233   03 Jun 2027 01:08:14.268   03 Jun 2027 01:08:54.829            40.561                 Moscow          1267.531
       234   03 Jun 2027 01:09:57.619   03 Jun 2027 01:09:59.996             2.377                 Moscow            74.281
       235   03 Jun 2027 01:11:04.820   03 Jun 2027 01:12:00.640            55.820                 Moscow          1744.375
       236   03 Jun 2027 01:33:19.069   03 Jun 2027 01:34:12.462            53.393               CapeTown          1668.531
       237   03 Jun 2027 01:36:31.739   03 Jun 2027 01:37:36.049            64.310               CapeTown          2009.687
       238   03 Jun 2027 02:28:50.004   03 Jun 2027 02:30:01.244            71.240                Anadyr2          2226.250
       239   03 Jun 2027 02:31:18.870   03 Jun 2027 02:31:28.100             9.230                Anadyr2           288.437
       240   03 Jun 2027 02:32:01.430   03 Jun 2027 02:33:08.016            66.586               Magadan1          2080.812
       241   03 Jun 2027 02:33:12.980   03 Jun 2027 02:33:20.543             7.563               Magadan1           236.344
       242   03 Jun 2027 02:35:21.646   03 Jun 2027 02:35:28.352             6.706               Magadan1           209.562
       243   03 Jun 2027 02:36:58.516   03 Jun 2027 02:37:19.427            20.911               Magadan2           653.469
       244   03 Jun 2027 02:37:51.315   03 Jun 2027 02:38:24.165            32.850               Magadan1          1026.562
       245   03 Jun 2027 02:40:38.654   03 Jun 2027 02:40:47.099             8.445              Murmansk2           263.906
       246   03 Jun 2027 02:40:51.975   03 Jun 2027 02:42:15.021            83.046              Murmansk1          2595.187
       247   03 Jun 2027 02:42:28.025   03 Jun 2027 02:42:54.797            26.772              Murmansk2           836.625
       248   03 Jun 2027 02:43:54.964   03 Jun 2027 02:44:00.282             5.318                Novosib           166.187
       249   03 Jun 2027 02:45:54.571   03 Jun 2027 02:46:34.425            39.854                 Moscow          1245.437
       250   03 Jun 2027 02:54:08.260   03 Jun 2027 02:54:15.193             6.933                 Moscow           216.656
       251   03 Jun 2027 02:54:32.185   03 Jun 2027 02:54:51.507            19.322                 Moscow           603.812
       252   03 Jun 2027 03:08:32.988   03 Jun 2027 03:08:35.375             2.387               CapeTown            74.594
       253   03 Jun 2027 03:08:54.524   03 Jun 2027 03:09:46.719            52.195               CapeTown          1631.094
       254   03 Jun 2027 04:11:06.657   03 Jun 2027 04:12:58.691           112.034               Magadan2          3501.063
       255   03 Jun 2027 04:12:58.691   03 Jun 2027 04:13:16.441            17.750               Magadan1           554.687
       256   03 Jun 2027 04:13:29.631   03 Jun 2027 04:17:23.409           233.778                Anadyr2          7305.563
       257   03 Jun 2027 05:49:07.131   03 Jun 2027 05:51:09.242           122.111               Magadan2          3815.969
       258   03 Jun 2027 05:51:21.819   03 Jun 2027 05:52:51.652            89.833                Anadyr2          2807.281
       259   03 Jun 2027 07:24:48.447   03 Jun 2027 07:24:55.011             6.564               Magadan1           205.125
       260   03 Jun 2027 07:25:20.401   03 Jun 2027 07:25:24.658             4.257               Magadan1           133.031
       261   03 Jun 2027 07:25:46.587   03 Jun 2027 07:27:17.264            90.677               Magadan1          2833.656
       262   03 Jun 2027 07:28:06.469   03 Jun 2027 07:28:12.962             6.493               Magadan2           202.906
       263   03 Jun 2027 07:28:15.301   03 Jun 2027 07:28:25.725            10.424               Magadan1           325.750
       264   03 Jun 2027 07:28:41.441   03 Jun 2027 07:29:33.402            51.961              Murmansk1          1623.781
       265   03 Jun 2027 08:07:17.790   03 Jun 2027 08:07:23.934             6.144            RioGallegos           192.000
       266   03 Jun 2027 08:08:54.072   03 Jun 2027 08:09:18.325            24.253            RioGallegos           757.906
       267   03 Jun 2027 08:39:07.706   03 Jun 2027 08:39:54.604            46.898                Sumatra          1465.563
       268   03 Jun 2027 08:40:42.482   03 Jun 2027 08:41:36.800            54.318                Sumatra          1697.437
       269   03 Jun 2027 09:02:09.409   03 Jun 2027 09:03:26.960            77.551                Novosib          2423.469
       270   03 Jun 2027 09:03:32.799   03 Jun 2027 09:04:21.630            48.831                Irkutsk          1525.969
       271   03 Jun 2027 09:04:33.185   03 Jun 2027 09:04:42.901             9.716              Murmansk2           303.625
       272   03 Jun 2027 09:40:48.563   03 Jun 2027 09:41:21.991            33.428            RioGallegos          1044.625
       273   03 Jun 2027 09:42:07.452   03 Jun 2027 09:42:40.786            33.334            RioGallegos          1041.687
       274   03 Jun 2027 10:15:00.854   03 Jun 2027 10:16:05.225            64.371                Sumatra          2011.594
       275   03 Jun 2027 10:22:45.014   03 Jun 2027 10:23:37.378            52.364                  Delhi          1636.375
       276   03 Jun 2027 10:37:12.268   03 Jun 2027 10:37:22.497            10.229                Novosib           319.656
       277   03 Jun 2027 10:38:10.194   03 Jun 2027 10:38:12.942             2.748                Novosib            85.875
       278   03 Jun 2027 10:38:44.226   03 Jun 2027 10:38:47.004             2.778                Norilsk            86.812
       279   03 Jun 2027 10:39:10.560   03 Jun 2027 10:39:10.710             0.150                Novosib             4.687
       280   03 Jun 2027 10:39:46.514   03 Jun 2027 10:40:08.128            21.614                Novosib           675.437
       281   03 Jun 2027 10:40:11.511   03 Jun 2027 10:40:13.004             1.493                Novosib            46.656
       282   03 Jun 2027 10:40:14.049   03 Jun 2027 10:40:45.493            31.444                Novosib           982.625
       283   03 Jun 2027 12:00:06.096   03 Jun 2027 12:02:29.226           143.130                  Delhi          4472.812
       284   03 Jun 2027 12:08:35.522   03 Jun 2027 12:09:15.246            39.724                Novosib          1241.375
       285   03 Jun 2027 12:10:52.839   03 Jun 2027 12:12:24.438            91.599                Novosib          2862.469
       286   03 Jun 2027 13:43:06.903   03 Jun 2027 13:44:41.760            94.857                 Moscow          2964.281
       287   03 Jun 2027 13:46:37.291   03 Jun 2027 13:49:26.654           169.363              Murmansk1          5292.594
       288   03 Jun 2027 13:49:48.364   03 Jun 2027 13:50:16.297            27.933              Murmansk1           872.906
       289   03 Jun 2027 13:51:07.808   03 Jun 2027 13:51:28.462            20.654              Murmansk2           645.437
       290   03 Jun 2027 13:54:22.012   03 Jun 2027 13:55:22.899            60.887                Norilsk          1902.719
       291   03 Jun 2027 13:55:32.101   03 Jun 2027 13:55:52.487            20.386                Norilsk           637.063
       292   03 Jun 2027 14:02:16.412   03 Jun 2027 14:04:34.244           137.832                Anadyr1          4307.250
       293   03 Jun 2027 14:05:19.394   03 Jun 2027 14:05:35.764            16.370                Anadyr1           511.563
       294   03 Jun 2027 14:07:06.761   03 Jun 2027 14:08:01.162            54.401                Anadyr2          1700.031
       295   03 Jun 2027 15:22:48.378   03 Jun 2027 15:22:53.638             5.260                 Moscow           164.375
       296   03 Jun 2027 15:24:44.338   03 Jun 2027 15:25:08.360            24.022              Murmansk1           750.688
       297   03 Jun 2027 15:25:34.258   03 Jun 2027 15:25:43.109             8.851              Murmansk2           276.594
       298   03 Jun 2027 15:25:53.193   03 Jun 2027 15:26:42.780            49.587              Murmansk1          1549.594
       299   03 Jun 2027 15:33:35.060   03 Jun 2027 15:34:01.695            26.635              Murmansk2           832.344
       300   03 Jun 2027 15:37:04.376   03 Jun 2027 15:39:36.720           152.344                Anadyr2          4760.750
       301   03 Jun 2027 15:43:40.329   03 Jun 2027 15:43:51.351            11.022                Anadyr2           344.438
       302   03 Jun 2027 15:48:18.808   03 Jun 2027 15:48:34.284            15.476                Anadyr1           483.625
       303   03 Jun 2027 16:42:24.639   03 Jun 2027 16:42:59.492            34.853               CapeTown          1089.156
       304   03 Jun 2027 17:05:53.786   03 Jun 2027 17:09:06.172           192.386              Murmansk2          6012.063
       305   03 Jun 2027 17:12:52.859   03 Jun 2027 17:13:37.722            44.863                Anadyr2          1401.969
       306   03 Jun 2027 17:13:41.720   03 Jun 2027 17:14:31.417            49.697                Anadyr2          1553.031
       307   03 Jun 2027 17:15:32.094   03 Jun 2027 17:16:30.272            58.178               Magadan2          1818.062
       308   03 Jun 2027 17:19:54.942   03 Jun 2027 17:20:59.481            64.539               Magadan1          2016.844
       309   03 Jun 2027 18:48:48.063   03 Jun 2027 18:50:39.575           111.512                Anadyr2          3484.750
       310   03 Jun 2027 18:51:04.857   03 Jun 2027 18:54:22.765           197.908               Magadan2          6184.625
       311   03 Jun 2027 18:55:42.509   03 Jun 2027 18:55:48.506             5.997               Magadan1           187.406
       312   03 Jun 2027 18:57:38.051   03 Jun 2027 18:58:10.614            32.563               Magadan2          1017.594
       313   03 Jun 2027 19:43:34.659   03 Jun 2027 19:46:59.190           204.531            RioGallegos          6391.594
       314   03 Jun 2027 19:47:10.361   03 Jun 2027 19:48:29.167            78.806            RioGallegos          2462.687
       315   03 Jun 2027 20:26:40.279   03 Jun 2027 20:28:46.125           125.846                Norilsk          3932.688
       316   03 Jun 2027 20:31:00.296   03 Jun 2027 20:34:37.087           216.791                Irkutsk          6774.719
       317   03 Jun 2027 20:44:56.465   03 Jun 2027 20:46:55.082           118.617                Sumatra          3706.781
       318   03 Jun 2027 22:03:19.108   03 Jun 2027 22:03:44.622            25.514               Magadan2           797.312
       319   03 Jun 2027 22:04:18.766   03 Jun 2027 22:04:23.711             4.945                Norilsk           154.531
       320   03 Jun 2027 22:04:36.900   03 Jun 2027 22:05:24.317            47.417               Magadan2          1481.781
       321   03 Jun 2027 22:05:38.007   03 Jun 2027 22:05:51.637            13.630               Magadan2           425.937
       322   03 Jun 2027 22:06:02.367   03 Jun 2027 22:06:03.507             1.140               Magadan2            35.625
       323   03 Jun 2027 22:06:10.209   03 Jun 2027 22:06:28.782            18.573                Norilsk           580.406
       324   03 Jun 2027 22:06:42.467   03 Jun 2027 22:07:59.275            76.808                Novosib          2400.250
       325   03 Jun 2027 22:08:28.731   03 Jun 2027 22:08:34.343             5.612                Novosib           175.375
       326   03 Jun 2027 22:09:23.934   03 Jun 2027 22:10:28.238            64.304                Novosib          2009.500
       327   03 Jun 2027 22:12:08.360   03 Jun 2027 22:12:37.567            29.207                Novosib           912.719
       328   03 Jun 2027 22:14:51.133   03 Jun 2027 22:17:31.425           160.292                  Delhi          5009.125
       329   03 Jun 2027 23:34:49.440   03 Jun 2027 23:35:02.260            12.820                Anadyr2           400.625
       330   03 Jun 2027 23:35:24.177   03 Jun 2027 23:35:29.957             5.780                Anadyr2           180.625
       331   03 Jun 2027 23:35:53.125   03 Jun 2027 23:35:56.953             3.828                Anadyr2           119.625
       332   03 Jun 2027 23:38:34.420   03 Jun 2027 23:40:23.297           108.877                Norilsk          3402.406
       333   03 Jun 2027 23:40:38.083   03 Jun 2027 23:41:18.315            40.232               Magadan1          1257.250
       334   03 Jun 2027 23:42:04.633   03 Jun 2027 23:43:26.607            81.974              Murmansk1          2561.688
       335   03 Jun 2027 23:44:10.682   03 Jun 2027 23:45:06.153            55.471                Novosib          1733.469
       336   03 Jun 2027 23:46:47.592   03 Jun 2027 23:46:55.417             7.825                 Moscow           244.531
       337   03 Jun 2027 23:47:30.372   03 Jun 2027 23:49:00.186            89.814                 Moscow          2806.687
       338   04 Jun 2027 01:06:25.578   04 Jun 2027 01:08:04.703            99.125                Anadyr2          3097.656
       339   04 Jun 2027 01:08:42.180   04 Jun 2027 01:09:14.239            32.059                Anadyr1          1001.844
       340   04 Jun 2027 01:09:42.589   04 Jun 2027 01:09:54.020            11.431                Anadyr1           357.219
       341   04 Jun 2027 01:11:51.136   04 Jun 2027 01:13:53.717           122.581               Magadan1          3830.656
       342   04 Jun 2027 01:15:38.838   04 Jun 2027 01:15:46.860             8.022               Magadan1           250.687
       343   04 Jun 2027 01:16:42.502   04 Jun 2027 01:18:36.379           113.877              Murmansk1          3558.656
       344   04 Jun 2027 01:18:38.109   04 Jun 2027 01:19:27.827            49.718                Novosib          1553.688
       345   04 Jun 2027 01:20:09.726   04 Jun 2027 01:20:19.946            10.220                 Moscow           319.375
       346   04 Jun 2027 01:21:56.210   04 Jun 2027 01:22:07.312            11.102                 Moscow           346.937
       347   04 Jun 2027 01:25:49.866   04 Jun 2027 01:26:02.360            12.494                 Moscow           390.438
       348   04 Jun 2027 01:26:43.872   04 Jun 2027 01:26:51.074             7.202                 Moscow           225.062
       349   04 Jun 2027 01:29:37.883   04 Jun 2027 01:30:17.876            39.993                 Moscow          1249.781
       350   04 Jun 2027 01:44:51.207   04 Jun 2027 01:45:31.856            40.649               CapeTown          1270.281
       351   04 Jun 2027 01:49:50.088   04 Jun 2027 01:49:57.810             7.722               CapeTown           241.312
       352   04 Jun 2027 01:51:37.476   04 Jun 2027 01:51:54.437            16.961               CapeTown           530.031
       353   04 Jun 2027 01:55:06.512   04 Jun 2027 01:56:17.298            70.786               CapeTown          2212.063
       354   04 Jun 2027 02:40:44.297   04 Jun 2027 02:41:13.156            28.859                Anadyr1           901.844
       355   04 Jun 2027 02:42:01.019   04 Jun 2027 02:42:22.573            21.554                Anadyr1           673.563
       356   04 Jun 2027 02:43:10.470   04 Jun 2027 02:43:42.902            32.432                Anadyr1          1013.500
       357   04 Jun 2027 02:43:51.749   04 Jun 2027 02:44:40.739            48.990               Magadan1          1530.938
       358   04 Jun 2027 02:48:38.395   04 Jun 2027 02:48:52.857            14.462               Magadan1           451.938
       359   04 Jun 2027 02:49:50.636   04 Jun 2027 02:50:01.521            10.885                Norilsk           340.156
       360   04 Jun 2027 02:51:38.135   04 Jun 2027 02:51:50.634            12.499               Magadan1           390.594
       361   04 Jun 2027 02:52:40.373   04 Jun 2027 02:54:13.330            92.957              Murmansk1          2904.906
       362   04 Jun 2027 02:54:26.549   04 Jun 2027 02:54:41.872            15.323              Murmansk1           478.844
       363   04 Jun 2027 02:55:53.329   04 Jun 2027 02:56:27.428            34.099                 Moscow          1065.594
       364   04 Jun 2027 02:59:57.313   04 Jun 2027 03:00:55.650            58.337                 Moscow          1823.031
       365   04 Jun 2027 03:01:30.914   04 Jun 2027 03:02:46.071            75.157              Murmansk2          2348.656
       366   04 Jun 2027 04:23:29.799   04 Jun 2027 04:25:06.770            96.971               Magadan2          3030.344
       367   04 Jun 2027 04:25:36.530   04 Jun 2027 04:26:22.661            46.131               Magadan2          1441.594
       368   04 Jun 2027 06:00:59.536   04 Jun 2027 06:01:31.864            32.328                Irkutsk          1010.250
       369   04 Jun 2027 06:02:01.504   04 Jun 2027 06:02:10.396             8.892                Norilsk           277.875
       370   04 Jun 2027 06:03:04.636   04 Jun 2027 06:03:35.150            30.514               Magadan1           953.562
       371   04 Jun 2027 06:03:35.150   04 Jun 2027 06:03:50.353            15.203               Magadan2           475.094
       372   04 Jun 2027 07:34:12.417   04 Jun 2027 07:35:15.958            63.541               Magadan2          1985.656
       373   04 Jun 2027 07:35:25.305   04 Jun 2027 07:35:28.976             3.671               Magadan2           114.719
       374   04 Jun 2027 07:36:39.361   04 Jun 2027 07:37:16.550            37.189                Irkutsk          1162.156
       375   04 Jun 2027 07:37:22.686   04 Jun 2027 07:37:48.505            25.819               Magadan1           806.844
       376   04 Jun 2027 07:38:12.269   04 Jun 2027 07:39:14.184            61.915                Irkutsk          1934.844
       377   04 Jun 2027 07:39:19.482   04 Jun 2027 07:39:38.023            18.541                Norilsk           579.406
       378   04 Jun 2027 07:39:45.568   04 Jun 2027 07:40:05.775            20.207               Magadan1           631.469
       379   04 Jun 2027 07:40:07.176   04 Jun 2027 07:40:23.995            16.819              Murmansk2           525.594
       380   04 Jun 2027 07:40:38.954   04 Jun 2027 07:40:55.300            16.346                Norilsk           510.812
       381   04 Jun 2027 08:15:25.116   04 Jun 2027 08:16:15.634            50.518            RioGallegos          1578.688
       382   04 Jun 2027 08:23:25.085   04 Jun 2027 08:23:55.427            30.342            RioGallegos           948.187
       383   04 Jun 2027 08:50:47.099   04 Jun 2027 08:51:04.191            17.092                Sumatra           534.125
       384   04 Jun 2027 08:51:32.445   04 Jun 2027 08:51:48.294            15.849                Sumatra           495.281
       385   04 Jun 2027 08:53:05.577   04 Jun 2027 08:54:06.570            60.993                Sumatra          1906.031
       386   04 Jun 2027 09:13:27.077   04 Jun 2027 09:13:40.674            13.597                Irkutsk           424.906
       387   04 Jun 2027 09:14:43.390   04 Jun 2027 09:15:08.561            25.171                Irkutsk           786.594
       388   04 Jun 2027 09:15:21.030   04 Jun 2027 09:16:31.340            70.310                Irkutsk          2197.188
       389   04 Jun 2027 09:56:34.312   04 Jun 2027 09:56:36.620             2.308            RioGallegos            72.125
       390   04 Jun 2027 10:27:34.216   04 Jun 2027 10:28:05.795            31.579                Sumatra           986.844
       391   04 Jun 2027 10:31:13.904   04 Jun 2027 10:31:55.367            41.463                Sumatra          1295.719
       392   04 Jun 2027 10:35:52.899   04 Jun 2027 10:37:42.354           109.455                  Delhi          3420.469
       393   04 Jun 2027 10:50:18.414   04 Jun 2027 10:50:19.334             0.920                Novosib            28.750
       394   04 Jun 2027 10:50:53.008   04 Jun 2027 10:51:08.651            15.643                Irkutsk           488.844
       395   04 Jun 2027 10:51:24.217   04 Jun 2027 10:51:44.634            20.417                Novosib           638.031
       396   04 Jun 2027 10:51:56.127   04 Jun 2027 10:52:06.860            10.733                Norilsk           335.406
       397   04 Jun 2027 12:12:57.397   04 Jun 2027 12:14:27.719            90.322                  Delhi          2822.562
       398   04 Jun 2027 12:15:19.516   04 Jun 2027 12:17:19.812           120.296                  Delhi          3759.250
       399   04 Jun 2027 12:22:02.334   04 Jun 2027 12:22:33.894            31.560                Novosib           986.250
       400   04 Jun 2027 12:25:06.928   04 Jun 2027 12:25:54.727            47.799                Norilsk          1493.719
       401   04 Jun 2027 13:35:48.061   04 Jun 2027 13:37:38.919           110.858               CapeTown          3464.312
       402   04 Jun 2027 13:39:17.140   04 Jun 2027 13:40:19.176            62.036               CapeTown          1938.625
       403   04 Jun 2027 13:40:50.974   04 Jun 2027 13:41:05.877            14.903               CapeTown           465.719
       404   04 Jun 2027 13:55:20.392   04 Jun 2027 13:56:12.221            51.829                 Moscow          1619.656
       405   04 Jun 2027 13:58:48.086   04 Jun 2027 14:00:42.765           114.679              Murmansk2          3583.719
       406   04 Jun 2027 14:01:49.097   04 Jun 2027 14:02:23.023            33.926              Murmansk2          1060.187
       407   04 Jun 2027 14:03:01.691   04 Jun 2027 14:03:30.171            28.480              Murmansk2           890.000
       408   04 Jun 2027 14:13:58.467   04 Jun 2027 14:15:48.178           109.711                Anadyr1          3428.469
       409   04 Jun 2027 14:16:20.553   04 Jun 2027 14:17:35.050            74.497                Anadyr2          2328.031
       410   04 Jun 2027 14:19:07.608   04 Jun 2027 14:19:20.464            12.856                Anadyr2           401.750
       411   04 Jun 2027 15:15:28.198   04 Jun 2027 15:15:58.367            30.169               CapeTown           942.781
       412   04 Jun 2027 15:35:55.064   04 Jun 2027 15:36:47.265            52.201                 Moscow          1631.281
       413   04 Jun 2027 15:37:12.374   04 Jun 2027 15:37:26.537            14.163              Murmansk2           442.594
       414   04 Jun 2027 15:37:34.290   04 Jun 2027 15:37:45.092            10.802              Murmansk1           337.563
       415   04 Jun 2027 15:37:53.328   04 Jun 2027 15:38:34.879            41.551              Murmansk1          1298.469
       416   04 Jun 2027 15:49:03.556   04 Jun 2027 15:51:37.989           154.433                Anadyr2          4826.031
       417   04 Jun 2027 15:54:49.474   04 Jun 2027 15:56:07.974            78.500               Magadan1          2453.125
       418   04 Jun 2027 17:19:14.158   04 Jun 2027 17:21:29.885           135.727              Murmansk1          4241.469
       419   04 Jun 2027 17:24:54.243   04 Jun 2027 17:27:32.596           158.353                Anadyr1          4948.531
       420   04 Jun 2027 17:27:47.564   04 Jun 2027 17:28:42.088            54.524               Magadan1          1703.875
       421   04 Jun 2027 17:29:27.840   04 Jun 2027 17:29:49.781            21.941               Magadan2           685.656
       422   04 Jun 2027 17:33:31.576   04 Jun 2027 17:33:49.360            17.784               Magadan1           555.750
       423   04 Jun 2027 17:35:24.774   04 Jun 2027 17:36:17.795            53.021               Magadan2          1656.906
       424   04 Jun 2027 19:00:48.826   04 Jun 2027 19:04:11.554           202.728                Anadyr1          6335.250
       425   04 Jun 2027 19:04:30.081   04 Jun 2027 19:06:35.157           125.076                Norilsk          3908.625
       426   04 Jun 2027 19:07:19.788   04 Jun 2027 19:07:27.087             7.299                Norilsk           228.094
       427   04 Jun 2027 19:55:20.185   04 Jun 2027 19:58:52.549           212.364            RioGallegos          6636.375
       428   04 Jun 2027 20:04:39.197   04 Jun 2027 20:04:45.770             6.573            RioGallegos           205.406
       429   04 Jun 2027 20:38:24.064   04 Jun 2027 20:38:30.744             6.680                Anadyr2           208.750
       430   04 Jun 2027 20:38:40.329   04 Jun 2027 20:38:45.489             5.160                Norilsk           161.250
       431   04 Jun 2027 20:39:03.187   04 Jun 2027 20:40:41.657            98.470                Norilsk          3077.187
       432   04 Jun 2027 20:40:46.342   04 Jun 2027 20:40:57.488            11.146               Magadan1           348.313
       433   04 Jun 2027 20:41:11.773   04 Jun 2027 20:41:56.938            45.165               Magadan1          1411.406
       434   04 Jun 2027 20:42:52.728   04 Jun 2027 20:43:36.503            43.775                Irkutsk          1367.969
       435   04 Jun 2027 20:44:41.889   04 Jun 2027 20:45:11.555            29.666                Irkutsk           927.063
       436   04 Jun 2027 20:45:23.777   04 Jun 2027 20:47:33.846           130.069                Novosib          4064.656
       437   04 Jun 2027 20:51:21.585   04 Jun 2027 20:52:13.801            52.216                Irkutsk          1631.750
       438   04 Jun 2027 20:57:42.935   04 Jun 2027 20:58:20.675            37.740                Sumatra          1179.375
       439   04 Jun 2027 20:58:25.944   04 Jun 2027 20:59:14.193            48.249                Sumatra          1507.781
       440   04 Jun 2027 21:00:41.551   04 Jun 2027 21:00:50.934             9.383                Sumatra           293.219
       441   04 Jun 2027 21:08:55.858   04 Jun 2027 21:08:58.930             3.072                Sumatra            96.000
       442   04 Jun 2027 22:14:36.615   04 Jun 2027 22:14:48.331            11.716                Norilsk           366.125
       443   04 Jun 2027 22:15:14.008   04 Jun 2027 22:16:26.488            72.480               Magadan2          2265.000
       444   04 Jun 2027 22:18:02.975   04 Jun 2027 22:18:21.897            18.922                Norilsk           591.313
       445   04 Jun 2027 22:18:28.245   04 Jun 2027 22:19:08.246            40.001                Irkutsk          1250.031
       446   04 Jun 2027 22:20:12.254   04 Jun 2027 22:21:05.713            53.459                Novosib          1670.594
       447   04 Jun 2027 22:24:18.213   04 Jun 2027 22:25:05.033            46.820                Novosib          1463.125
       448   04 Jun 2027 22:26:29.227   04 Jun 2027 22:29:53.177           203.950                  Delhi          6373.438
       449   04 Jun 2027 23:50:35.889   04 Jun 2027 23:52:25.320           109.431                Norilsk          3419.719
       450   04 Jun 2027 23:52:38.027   04 Jun 2027 23:52:46.953             8.926               Magadan2           278.938
       451   04 Jun 2027 23:52:46.953   04 Jun 2027 23:53:48.035            61.082               Magadan1          1908.812
       452   04 Jun 2027 23:54:03.824   04 Jun 2027 23:56:02.071           118.247              Murmansk1          3695.219
       453   04 Jun 2027 23:57:01.502   04 Jun 2027 23:57:29.029            27.527              Murmansk1           860.219
       454   04 Jun 2027 23:57:58.439   04 Jun 2027 23:58:51.727            53.288                 Moscow          1665.250
       455   05 Jun 2027 00:00:19.634   05 Jun 2027 00:00:54.536            34.902                 Moscow          1090.687
       456   05 Jun 2027 00:02:35.241   05 Jun 2027 00:02:56.712            21.471                 Moscow           670.969
       457   05 Jun 2027 01:18:10.300   05 Jun 2027 01:18:28.477            18.177                Anadyr1           568.031
       458   05 Jun 2027 01:19:25.443   05 Jun 2027 01:20:04.198            38.755                Anadyr1          1211.094
       459   05 Jun 2027 01:20:31.575   05 Jun 2027 01:20:52.603            21.028                Anadyr1           657.125
       460   05 Jun 2027 01:21:06.667   05 Jun 2027 01:21:18.206            11.539                Anadyr2           360.594
       461   05 Jun 2027 01:23:19.250   05 Jun 2027 01:24:29.145            69.895               Magadan1          2184.219
       462   05 Jun 2027 01:24:35.101   05 Jun 2027 01:25:23.880            48.779               Magadan2          1524.344
       463   05 Jun 2027 01:25:45.665   05 Jun 2027 01:25:57.399            11.734               Magadan2           366.688
       464   05 Jun 2027 01:26:29.652   05 Jun 2027 01:27:08.293            38.641               Magadan1          1207.531
       465   05 Jun 2027 01:28:43.819   05 Jun 2027 01:29:18.609            34.790              Murmansk2          1087.188
       466   05 Jun 2027 01:29:55.645   05 Jun 2027 01:30:15.476            19.831              Murmansk1           619.719
       467   05 Jun 2027 01:30:31.495   05 Jun 2027 01:32:21.412           109.917              Murmansk2          3434.906
       468   05 Jun 2027 01:37:44.521   05 Jun 2027 01:37:56.617            12.096                 Moscow           378.000
       469   05 Jun 2027 01:38:51.450   05 Jun 2027 01:39:03.663            12.213                 Moscow           381.656
       470   05 Jun 2027 01:40:43.119   05 Jun 2027 01:41:24.200            41.081                 Moscow          1283.781
       471   05 Jun 2027 01:57:31.752   05 Jun 2027 01:58:45.392            73.640               CapeTown          2301.250
       472   05 Jun 2027 02:52:40.273   05 Jun 2027 02:54:01.184            80.911                Anadyr1          2528.469
       473   05 Jun 2027 02:54:23.809   05 Jun 2027 02:55:00.639            36.830                Anadyr1          1150.937
       474   05 Jun 2027 02:55:09.291   05 Jun 2027 02:55:32.424            23.133               Magadan1           722.906
       475   05 Jun 2027 02:55:43.360   05 Jun 2027 02:56:09.476            26.116               Magadan1           816.125
       476   05 Jun 2027 02:57:23.187   05 Jun 2027 02:58:13.628            50.441               Magadan1          1576.281
       477   05 Jun 2027 03:00:21.028   05 Jun 2027 03:04:36.857           255.829               Magadan1          7994.656
       478   05 Jun 2027 03:12:01.478   05 Jun 2027 03:14:02.270           120.792              Murmansk1          3774.750
       479   05 Jun 2027 04:29:24.468   05 Jun 2027 04:29:44.094            19.626               Magadan1           613.312
       480   05 Jun 2027 04:29:55.637   05 Jun 2027 04:30:01.425             5.788               Magadan1           180.875
       481   05 Jun 2027 04:34:10.449   05 Jun 2027 04:34:11.765             1.316               Magadan2            41.125
       482   05 Jun 2027 04:34:58.815   05 Jun 2027 04:36:09.531            70.716                Anadyr1          2209.875
