uniorb/output/strategy_4/Drop/Drop_KinoSat_111108.txt

KinoSat_111108
-------------------------
    Access    *     Start Time (UTCG)     *     Stop Time (UTCG)  *   Duration (s)        *       Station  *  Data (Mbytes)
         1   01 Jun 2027 03:07:51.998   01 Jun 2027 03:07:58.939             6.941                Norilsk           216.906
         2   01 Jun 2027 03:08:08.183   01 Jun 2027 03:09:45.218            97.035                 Moscow          3032.344
         3   01 Jun 2027 03:10:07.893   01 Jun 2027 03:13:30.123           202.230              Murmansk2          6319.687
         4   01 Jun 2027 03:27:49.974   01 Jun 2027 03:29:59.323           129.349               CapeTown          4042.156
         5   01 Jun 2027 04:31:16.190   01 Jun 2027 04:31:38.672            22.482               Magadan1           702.562
         6   01 Jun 2027 04:31:42.230   01 Jun 2027 04:33:58.580           136.350                Anadyr2          4260.937
         7   01 Jun 2027 04:33:58.580   01 Jun 2027 04:34:25.139            26.559                Anadyr1           829.969
         8   01 Jun 2027 06:08:31.229   01 Jun 2027 06:09:11.582            40.353               Magadan2          1261.031
         9   01 Jun 2027 06:09:20.041   01 Jun 2027 06:09:45.450            25.409               Magadan1           794.031
        10   01 Jun 2027 06:09:52.683   01 Jun 2027 06:13:05.453           192.770                Anadyr1          6024.062
        11   01 Jun 2027 07:43:56.831   01 Jun 2027 07:44:25.118            28.287                Irkutsk           883.969
        12   01 Jun 2027 07:44:51.484   01 Jun 2027 07:47:14.586           143.102                Norilsk          4471.937
        13   01 Jun 2027 07:47:19.574   01 Jun 2027 07:48:16.008            56.434               Magadan1          1763.562
        14   01 Jun 2027 07:48:16.008   01 Jun 2027 07:48:31.391            15.383               Magadan2           480.719
        15   01 Jun 2027 07:48:50.657   01 Jun 2027 07:48:56.062             5.405                Norilsk           168.906
        16   01 Jun 2027 07:49:16.142   01 Jun 2027 07:49:54.103            37.961                Norilsk          1186.281
        17   01 Jun 2027 07:50:09.253   01 Jun 2027 07:51:05.146            55.893              Murmansk1          1746.656
        18   01 Jun 2027 07:51:11.554   01 Jun 2027 07:51:22.385            10.831              Murmansk1           338.469
        19   01 Jun 2027 07:51:46.616   01 Jun 2027 07:52:35.665            49.049              Murmansk1          1532.781
        20   01 Jun 2027 08:23:29.033   01 Jun 2027 08:25:45.734           136.701            RioGallegos          4271.906
        21   01 Jun 2027 08:59:46.996   01 Jun 2027 09:00:26.014            39.018                Sumatra          1219.313
        22   01 Jun 2027 09:20:53.679   01 Jun 2027 09:24:29.892           216.213                Irkutsk          6756.656
        23   01 Jun 2027 10:57:08.180   01 Jun 2027 10:57:42.434            34.254                Irkutsk          1070.437
        24   01 Jun 2027 10:58:57.455   01 Jun 2027 11:00:10.903            73.448              Murmansk1          2295.250
        25   01 Jun 2027 11:00:21.675   01 Jun 2027 11:00:53.188            31.513                Novosib           984.781
        26   01 Jun 2027 12:19:44.258   01 Jun 2027 12:22:52.959           188.701                  Delhi          5896.906
        27   01 Jun 2027 12:28:09.798   01 Jun 2027 12:28:51.785            41.987                Novosib          1312.094
        28   01 Jun 2027 12:29:23.242   01 Jun 2027 12:30:17.581            54.339                Novosib          1698.094
        29   01 Jun 2027 12:31:05.861   01 Jun 2027 12:31:27.910            22.049                Novosib           689.031
        30   01 Jun 2027 12:31:47.720   01 Jun 2027 12:33:48.812           121.092                Norilsk          3784.125
        31   01 Jun 2027 12:34:00.720   01 Jun 2027 12:34:17.576            16.856                Norilsk           526.750
        32   01 Jun 2027 12:34:51.163   01 Jun 2027 12:35:51.976            60.813                Norilsk          1900.406
        33   01 Jun 2027 14:03:02.015   01 Jun 2027 14:04:50.621           108.606                 Moscow          3393.937
        34   01 Jun 2027 14:06:33.230   01 Jun 2027 14:08:14.429           101.199              Murmansk1          3162.469
        35   01 Jun 2027 14:08:23.178   01 Jun 2027 14:10:45.245           142.067              Murmansk2          4439.594
        36   01 Jun 2027 14:13:24.859   01 Jun 2027 14:15:23.682           118.823                Norilsk          3713.219
        37   01 Jun 2027 14:22:32.283   01 Jun 2027 14:23:36.417            64.134                Anadyr2          2004.188
        38   01 Jun 2027 14:24:59.406   01 Jun 2027 14:26:12.465            73.059                Anadyr1          2283.094
        39   01 Jun 2027 15:16:32.782   01 Jun 2027 15:17:44.796            72.014               CapeTown          2250.437
        40   01 Jun 2027 15:42:23.638   01 Jun 2027 15:43:00.735            37.097                 Moscow          1159.281
        41   01 Jun 2027 15:44:30.437   01 Jun 2027 15:45:35.660            65.223              Murmansk1          2038.219
        42   01 Jun 2027 15:47:30.215   01 Jun 2027 15:48:06.940            36.725              Murmansk1          1147.656
        43   01 Jun 2027 15:49:26.169   01 Jun 2027 15:49:35.090             8.921              Murmansk2           278.781
        44   01 Jun 2027 15:57:06.448   01 Jun 2027 15:59:21.036           134.588                Anadyr1          4205.875
        45   01 Jun 2027 16:52:55.932   01 Jun 2027 16:54:16.033            80.101               CapeTown          2503.156
        46   01 Jun 2027 16:56:28.407   01 Jun 2027 16:57:24.321            55.914               CapeTown          1747.313
        47   01 Jun 2027 17:25:18.319   01 Jun 2027 17:27:41.349           143.030              Murmansk2          4469.687
        48   01 Jun 2027 17:27:41.349   01 Jun 2027 17:29:16.703            95.354              Murmansk1          2979.813
        49   01 Jun 2027 17:32:53.524   01 Jun 2027 17:33:11.088            17.564                Anadyr1           548.875
        50   01 Jun 2027 17:33:17.655   01 Jun 2027 17:33:27.248             9.593                Anadyr1           299.781
        51   01 Jun 2027 17:35:36.856   01 Jun 2027 17:36:58.146            81.290               Magadan1          2540.312
        52   01 Jun 2027 17:37:31.107   01 Jun 2027 17:38:31.027            59.920               Magadan2          1872.500
        53   01 Jun 2027 19:08:49.044   01 Jun 2027 19:10:47.096           118.052                Anadyr1          3689.125
        54   01 Jun 2027 19:11:01.026   01 Jun 2027 19:12:52.280           111.254                Anadyr2          3476.688
        55   01 Jun 2027 19:13:31.392   01 Jun 2027 19:15:11.057            99.665               Magadan1          3114.531
        56   01 Jun 2027 19:19:55.200   01 Jun 2027 19:20:52.961            57.761               Magadan2          1805.031
        57   01 Jun 2027 20:03:46.560   01 Jun 2027 20:07:01.843           195.283            RioGallegos          6102.594
        58   01 Jun 2027 20:09:09.671   01 Jun 2027 20:10:19.156            69.485            RioGallegos          2171.406
        59   01 Jun 2027 20:44:31.823   01 Jun 2027 20:46:39.413           127.590                Anadyr2          3987.188
        60   01 Jun 2027 20:46:41.736   01 Jun 2027 20:49:34.445           172.709                Norilsk          5397.156
        61   01 Jun 2027 20:49:50.418   01 Jun 2027 20:50:33.248            42.830                Norilsk          1338.438
        62   01 Jun 2027 20:51:26.329   01 Jun 2027 20:51:48.933            22.604                Irkutsk           706.375
        63   01 Jun 2027 20:54:29.365   01 Jun 2027 20:54:34.097             4.732                Irkutsk           147.875
        64   01 Jun 2027 21:05:11.238   01 Jun 2027 21:08:21.383           190.145                Sumatra          5942.031
        65   01 Jun 2027 22:21:23.126   01 Jun 2027 22:22:06.256            43.130                Anadyr2          1347.813
        66   01 Jun 2027 22:22:34.884   01 Jun 2027 22:23:00.995            26.111                Norilsk           815.969
        67   01 Jun 2027 22:23:12.230   01 Jun 2027 22:24:37.134            84.904               Magadan2          2653.250
        68   01 Jun 2027 22:25:13.385   01 Jun 2027 22:25:16.734             3.349               Magadan2           104.656
        69   01 Jun 2027 22:26:26.464   01 Jun 2027 22:27:28.783            62.319                Irkutsk          1947.469
        70   01 Jun 2027 22:27:51.494   01 Jun 2027 22:28:21.085            29.591                Novosib           924.719
        71   01 Jun 2027 22:31:46.559   01 Jun 2027 22:32:07.246            20.687                Novosib           646.469
        72   01 Jun 2027 22:32:24.458   01 Jun 2027 22:32:43.216            18.758                Novosib           586.188
        73   01 Jun 2027 22:33:06.286   01 Jun 2027 22:33:16.607            10.321                Novosib           322.531
        74   01 Jun 2027 22:35:08.961   01 Jun 2027 22:36:56.961           108.000                  Delhi          3375.000
        75   01 Jun 2027 23:53:17.822   01 Jun 2027 23:54:01.843            44.021                Anadyr1          1375.656
        76   01 Jun 2027 23:54:36.013   01 Jun 2027 23:54:38.969             2.956                Anadyr2            92.375
        77   01 Jun 2027 23:55:24.304   01 Jun 2027 23:55:46.833            22.529                Anadyr1           704.031
        78   01 Jun 2027 23:56:05.918   01 Jun 2027 23:56:10.483             4.565                Anadyr1           142.656
        79   01 Jun 2027 23:58:34.949   02 Jun 2027 00:00:03.357            88.408                Norilsk          2762.750
        80   02 Jun 2027 00:00:22.995   02 Jun 2027 00:00:30.500             7.505                Norilsk           234.531
        81   02 Jun 2027 00:00:46.802   02 Jun 2027 00:00:58.589            11.787               Magadan2           368.344
        82   02 Jun 2027 00:01:07.125   02 Jun 2027 00:04:56.350           229.225              Murmansk1          7163.281
        83   02 Jun 2027 00:06:30.159   02 Jun 2027 00:07:07.175            37.016              Murmansk1          1156.750
        84   02 Jun 2027 00:07:52.788   02 Jun 2027 00:08:22.399            29.611                 Moscow           925.344
        85   02 Jun 2027 00:52:36.925   02 Jun 2027 00:52:42.733             5.808            RioGallegos           181.500
        86   02 Jun 2027 01:26:36.568   02 Jun 2027 01:27:12.766            36.198                Anadyr2          1131.188
        87   02 Jun 2027 01:27:21.585   02 Jun 2027 01:28:01.297            39.712                Anadyr1          1241.000
        88   02 Jun 2027 01:29:15.193   02 Jun 2027 01:30:03.024            47.831                Anadyr2          1494.719
        89   02 Jun 2027 01:32:11.507   02 Jun 2027 01:34:39.381           147.874               Magadan2          4621.062
        90   02 Jun 2027 01:36:43.150   02 Jun 2027 01:39:07.956           144.806              Murmansk1          4525.188
        91   02 Jun 2027 01:40:13.544   02 Jun 2027 01:40:33.592            20.048                 Moscow           626.500
        92   02 Jun 2027 01:45:37.894   02 Jun 2027 01:45:59.885            21.991                 Moscow           687.219
        93   02 Jun 2027 02:05:08.201   02 Jun 2027 02:06:21.231            73.030               CapeTown          2282.187
        94   02 Jun 2027 03:03:51.792   02 Jun 2027 03:04:52.448            60.656               Magadan1          1895.500
        95   02 Jun 2027 03:06:38.322   02 Jun 2027 03:06:51.331            13.009               Magadan2           406.531
        96   02 Jun 2027 03:21:32.139   02 Jun 2027 03:22:04.544            32.405              Murmansk2          1012.656
        97   02 Jun 2027 03:22:16.656   02 Jun 2027 03:23:44.882            88.226              Murmansk2          2757.063
        98   02 Jun 2027 03:23:53.825   02 Jun 2027 03:25:35.505           101.680              Murmansk2          3177.500
        99   02 Jun 2027 03:40:51.611   02 Jun 2027 03:41:34.311            42.700               CapeTown          1334.375
       100   02 Jun 2027 04:36:45.077   02 Jun 2027 04:37:24.794            39.717                Anadyr1          1241.156
       101   02 Jun 2027 04:37:30.192   02 Jun 2027 04:38:24.308            54.116               Magadan1          1691.125
       102   02 Jun 2027 04:38:24.308   02 Jun 2027 04:38:37.170            12.862               Magadan2           401.938
       103   02 Jun 2027 04:43:04.181   02 Jun 2027 04:47:06.919           242.738               Magadan2          7585.563
       104   02 Jun 2027 04:47:37.336   02 Jun 2027 04:48:00.949            23.613                Anadyr1           737.906
       105   02 Jun 2027 06:20:58.654   02 Jun 2027 06:21:46.724            48.070                Irkutsk          1502.187
       106   02 Jun 2027 06:22:39.749   02 Jun 2027 06:22:52.693            12.944                Irkutsk           404.500
       107   02 Jun 2027 07:57:58.181   02 Jun 2027 08:00:15.857           137.676               Magadan1          4302.375
       108   02 Jun 2027 09:32:07.418   02 Jun 2027 09:32:32.994            25.576                Irkutsk           799.250
       109   02 Jun 2027 09:32:55.588   02 Jun 2027 09:33:07.809            12.221                Irkutsk           381.906
       110   02 Jun 2027 09:33:09.566   02 Jun 2027 09:33:17.391             7.825                Novosib           244.531
       111   02 Jun 2027 09:33:18.039   02 Jun 2027 09:33:18.202             0.163                Novosib             5.094
       112   02 Jun 2027 09:33:18.548   02 Jun 2027 09:34:17.036            58.488                Novosib          1827.750
       113   02 Jun 2027 09:34:38.116   02 Jun 2027 09:34:51.637            13.521                Irkutsk           422.531
       114   02 Jun 2027 09:35:11.529   02 Jun 2027 09:35:24.589            13.060                Novosib           408.125
       115   02 Jun 2027 09:35:27.520   02 Jun 2027 09:35:30.740             3.220                Irkutsk           100.625
       116   02 Jun 2027 09:35:48.170   02 Jun 2027 09:36:38.901            50.731                Irkutsk          1585.344
       117   02 Jun 2027 10:13:02.911   02 Jun 2027 10:13:36.910            33.999            RioGallegos          1062.469
       118   02 Jun 2027 10:47:14.849   02 Jun 2027 10:48:10.746            55.897                Sumatra          1746.781
       119   02 Jun 2027 10:54:42.313   02 Jun 2027 10:55:04.551            22.238                  Delhi           694.937
       120   02 Jun 2027 11:09:18.007   02 Jun 2027 11:10:23.569            65.562                Novosib          2048.813
       121   02 Jun 2027 11:10:46.868   02 Jun 2027 11:10:53.503             6.635                Irkutsk           207.344
       122   02 Jun 2027 11:11:07.389   02 Jun 2027 11:11:17.348             9.959                Novosib           311.219
       123   02 Jun 2027 11:11:55.518   02 Jun 2027 11:12:01.697             6.179                Novosib           193.094
       124   02 Jun 2027 11:12:06.383   02 Jun 2027 11:12:23.824            17.441                Norilsk           545.031
       125   02 Jun 2027 12:32:26.799   02 Jun 2027 12:34:00.227            93.428                  Delhi          2919.625
       126   02 Jun 2027 12:34:41.350   02 Jun 2027 12:35:30.607            49.257                  Delhi          1539.281
       127   02 Jun 2027 12:36:22.496   02 Jun 2027 12:37:09.361            46.865                  Delhi          1464.531
       128   02 Jun 2027 12:40:57.958   02 Jun 2027 12:41:32.295            34.337                Novosib          1073.031
       129   02 Jun 2027 12:42:26.521   02 Jun 2027 12:42:44.456            17.935              Murmansk1           560.469
       130   02 Jun 2027 12:42:44.456   02 Jun 2027 12:43:50.211            65.755              Murmansk2          2054.844
       131   02 Jun 2027 12:44:01.277   02 Jun 2027 12:44:19.595            18.318              Murmansk2           572.437
       132   02 Jun 2027 12:44:20.394   02 Jun 2027 12:44:31.408            11.014                Norilsk           344.187
       133   02 Jun 2027 13:57:01.083   02 Jun 2027 13:57:56.318            55.235               CapeTown          1726.094
       134   02 Jun 2027 13:59:01.084   02 Jun 2027 13:59:40.362            39.278               CapeTown          1227.437
       135   02 Jun 2027 14:15:13.535   02 Jun 2027 14:16:49.741            96.206                 Moscow          3006.437
       136   02 Jun 2027 14:18:42.993   02 Jun 2027 14:20:17.398            94.405              Murmansk2          2950.156
       137   02 Jun 2027 14:20:21.380   02 Jun 2027 14:21:40.106            78.726              Murmansk1          2460.187
       138   02 Jun 2027 14:22:41.575   02 Jun 2027 14:23:06.794            25.219              Murmansk1           788.094
       139   02 Jun 2027 14:34:09.046   02 Jun 2027 14:36:10.840           121.794                Anadyr2          3806.063
       140   02 Jun 2027 14:36:58.759   02 Jun 2027 14:37:21.054            22.295                Anadyr2           696.719
       141   02 Jun 2027 14:38:44.166   02 Jun 2027 14:39:40.186            56.020                Anadyr2          1750.625
       142   02 Jun 2027 15:28:27.338   02 Jun 2027 15:28:52.369            25.031               CapeTown           782.219
       143   02 Jun 2027 15:56:24.875   02 Jun 2027 15:56:56.028            31.153                 Moscow           973.531
       144   02 Jun 2027 15:56:57.000   02 Jun 2027 15:57:26.698            29.698              Murmansk2           928.063
       145   02 Jun 2027 15:57:36.019   02 Jun 2027 15:57:42.916             6.897              Murmansk1           215.531
       146   02 Jun 2027 15:57:55.092   02 Jun 2027 15:58:40.813            45.721              Murmansk1          1428.781
       147   02 Jun 2027 15:59:36.114   02 Jun 2027 15:59:55.490            19.376              Murmansk1           605.500
       148   02 Jun 2027 16:01:45.602   02 Jun 2027 16:02:01.158            15.556              Murmansk2           486.125
       149   02 Jun 2027 16:09:05.313   02 Jun 2027 16:11:22.226           136.913                Anadyr1          4278.531
       150   02 Jun 2027 17:05:16.983   02 Jun 2027 17:06:21.823            64.840               CapeTown          2026.250
       151   02 Jun 2027 17:38:23.712   02 Jun 2027 17:41:48.840           205.128              Murmansk2          6410.250
       152   02 Jun 2027 17:44:54.897   02 Jun 2027 17:46:47.882           112.985                Anadyr1          3530.781
       153   02 Jun 2027 17:47:31.279   02 Jun 2027 17:48:59.069            87.790               Magadan2          2743.437
       154   02 Jun 2027 17:52:51.131   02 Jun 2027 17:53:28.927            37.796               Magadan2          1181.125
       155   02 Jun 2027 19:20:49.979   02 Jun 2027 19:24:53.871           243.892                Anadyr2          7621.625
       156   02 Jun 2027 19:25:08.939   02 Jun 2027 19:26:45.503            96.564               Magadan1          3017.625
       157   02 Jun 2027 19:26:45.503   02 Jun 2027 19:27:09.456            23.953               Magadan2           748.531
       158   02 Jun 2027 19:33:19.876   02 Jun 2027 19:33:26.833             6.957               Magadan2           217.406
       159   02 Jun 2027 19:34:11.206   02 Jun 2027 19:34:24.321            13.115               Magadan2           409.844
       160   02 Jun 2027 20:15:29.412   02 Jun 2027 20:18:46.107           196.695            RioGallegos          6146.719
       161   02 Jun 2027 20:19:47.665   02 Jun 2027 20:19:56.662             8.997            RioGallegos           281.156
       162   02 Jun 2027 20:56:29.373   02 Jun 2027 20:57:12.504            43.131                Anadyr1          1347.844
       163   02 Jun 2027 20:59:08.341   02 Jun 2027 21:00:32.163            83.822               Magadan1          2619.437
       164   02 Jun 2027 21:00:32.163   02 Jun 2027 21:01:22.146            49.983               Magadan2          1561.969
       165   02 Jun 2027 21:01:42.186   02 Jun 2027 21:02:34.185            51.999                Norilsk          1624.969
       166   02 Jun 2027 21:02:58.225   02 Jun 2027 21:04:24.034            85.809                Irkutsk          2681.531
       167   02 Jun 2027 21:05:50.551   02 Jun 2027 21:08:01.484           130.933                Novosib          4091.656
       168   02 Jun 2027 21:17:42.471   02 Jun 2027 21:19:05.396            82.925                Sumatra          2591.406
       169   02 Jun 2027 22:34:49.526   02 Jun 2027 22:35:01.351            11.825                Anadyr1           369.531
       170   02 Jun 2027 22:35:04.339   02 Jun 2027 22:36:32.546            88.207                Norilsk          2756.469
       171   02 Jun 2027 22:37:13.080   02 Jun 2027 22:37:35.128            22.048                Norilsk           689.000
       172   02 Jun 2027 22:37:46.857   02 Jun 2027 22:37:57.817            10.960               Magadan1           342.500
       173   02 Jun 2027 22:38:15.140   02 Jun 2027 22:38:29.184            14.044                Norilsk           438.875
       174   02 Jun 2027 22:38:41.904   02 Jun 2027 22:39:42.134            60.230                Novosib          1882.187
       175   02 Jun 2027 22:39:52.759   02 Jun 2027 22:40:35.977            43.218                Novosib          1350.563
       176   02 Jun 2027 22:41:12.766   02 Jun 2027 22:42:05.325            52.559                Novosib          1642.469
       177   02 Jun 2027 22:46:42.531   02 Jun 2027 22:51:10.999           268.468                  Delhi          8389.625
       178   03 Jun 2027 00:10:52.535   03 Jun 2027 00:11:29.965            37.430               Magadan1          1169.688
       179   03 Jun 2027 00:11:48.970   03 Jun 2027 00:12:26.181            37.211               Magadan2          1162.844
       180   03 Jun 2027 00:13:02.629   03 Jun 2027 00:15:43.914           161.285              Murmansk1          5040.156
       181   03 Jun 2027 00:18:24.077   03 Jun 2027 00:18:40.730            16.653                 Moscow           520.406
       182   03 Jun 2027 00:19:04.210   03 Jun 2027 00:19:21.846            17.636                 Moscow           551.125
       183   03 Jun 2027 00:19:43.387   03 Jun 2027 00:20:36.871            53.484                 Moscow          1671.375
       184   03 Jun 2027 00:22:30.676   03 Jun 2027 00:22:40.383             9.707                 Moscow           303.344
       185   03 Jun 2027 00:22:52.654   03 Jun 2027 00:23:33.065            40.411                 Moscow          1262.844
       186   03 Jun 2027 01:38:20.706   03 Jun 2027 01:39:15.387            54.681                Anadyr1          1708.781
       187   03 Jun 2027 01:39:55.524   03 Jun 2027 01:40:33.310            37.786                Anadyr1          1180.812
       188   03 Jun 2027 01:40:33.310   03 Jun 2027 01:40:58.082            24.772                Anadyr2           774.125
       189   03 Jun 2027 01:41:20.151   03 Jun 2027 01:41:35.694            15.543                Anadyr2           485.719
       190   03 Jun 2027 01:43:39.933   03 Jun 2027 01:45:06.978            87.045               Magadan1          2720.156
       191   03 Jun 2027 01:46:05.647   03 Jun 2027 01:46:38.484            32.837               Magadan1          1026.156
       192   03 Jun 2027 01:48:22.086   03 Jun 2027 01:48:24.785             2.699               Magadan1            84.344
       193   03 Jun 2027 01:48:44.397   03 Jun 2027 01:49:31.552            47.155              Murmansk2          1473.594
       194   03 Jun 2027 01:49:58.697   03 Jun 2027 01:51:12.602            73.905              Murmansk1          2309.531
       195   03 Jun 2027 01:51:26.000   03 Jun 2027 01:51:33.405             7.405                Novosib           231.406
       196   03 Jun 2027 01:52:09.640   03 Jun 2027 01:52:36.080            26.440                 Moscow           826.250
       197   03 Jun 2027 01:54:20.682   03 Jun 2027 01:54:49.420            28.738                Novosib           898.062
       198   03 Jun 2027 01:59:42.371   03 Jun 2027 02:00:54.263            71.892                 Moscow          2246.625
       199   03 Jun 2027 02:18:03.389   03 Jun 2027 02:18:34.582            31.193               CapeTown           974.781
       200   03 Jun 2027 02:23:55.222   03 Jun 2027 02:24:01.670             6.448               CapeTown           201.500
       201   03 Jun 2027 02:26:57.792   03 Jun 2027 02:28:23.838            86.046               CapeTown          2688.938
       202   03 Jun 2027 03:20:33.798   03 Jun 2027 03:21:08.187            34.389                Anadyr1          1074.656
       203   03 Jun 2027 03:21:08.187   03 Jun 2027 03:21:28.535            20.348                Anadyr2           635.875
       204   03 Jun 2027 04:48:55.684   03 Jun 2027 04:51:48.399           172.715                Anadyr2          5397.344
       205   03 Jun 2027 04:55:09.600   03 Jun 2027 04:55:22.501            12.901                Anadyr2           403.156
       206   03 Jun 2027 04:55:22.501   03 Jun 2027 04:56:11.351            48.850                Anadyr1          1526.563
       207   03 Jun 2027 04:56:19.426   03 Jun 2027 05:00:58.762           279.336                Anadyr2          8729.250
       208   03 Jun 2027 06:31:50.467   03 Jun 2027 06:32:32.816            42.349                Anadyr1          1323.406
       209   03 Jun 2027 06:32:40.431   03 Jun 2027 06:33:56.259            75.828                Anadyr1          2369.625
       210   03 Jun 2027 06:34:02.115   03 Jun 2027 06:34:32.368            30.253                Anadyr2           945.406
       211   03 Jun 2027 06:34:32.368   03 Jun 2027 06:35:32.764            60.396                Anadyr1          1887.375
       212   03 Jun 2027 08:06:03.813   03 Jun 2027 08:06:15.221            11.408               Magadan1           356.500
       213   03 Jun 2027 08:07:07.540   03 Jun 2027 08:07:10.532             2.992                Irkutsk            93.500
       214   03 Jun 2027 08:07:27.288   03 Jun 2027 08:07:48.213            20.925               Magadan1           653.906
       215   03 Jun 2027 08:07:51.653   03 Jun 2027 08:08:41.666            50.013                Irkutsk          1562.906
       216   03 Jun 2027 08:08:47.384   03 Jun 2027 08:09:33.403            46.019               Magadan2          1438.094
       217   03 Jun 2027 08:09:38.086   03 Jun 2027 08:10:08.070            29.984                Irkutsk           937.000
       218   03 Jun 2027 08:10:11.090   03 Jun 2027 08:10:50.742            39.652                Irkutsk          1239.125
       219   03 Jun 2027 08:11:01.612   03 Jun 2027 08:11:09.825             8.213                Irkutsk           256.656
       220   03 Jun 2027 08:11:25.817   03 Jun 2027 08:12:09.971            44.154               Magadan1          1379.813
       221   03 Jun 2027 08:15:47.995   03 Jun 2027 08:16:08.269            20.274              Murmansk2           633.562
       222   03 Jun 2027 08:47:27.341   03 Jun 2027 08:47:47.712            20.371            RioGallegos           636.594
       223   03 Jun 2027 08:48:13.428   03 Jun 2027 08:48:41.546            28.118            RioGallegos           878.687
       224   03 Jun 2027 08:48:49.932   03 Jun 2027 08:49:47.985            58.053            RioGallegos          1814.156
       225   03 Jun 2027 09:23:38.102   03 Jun 2027 09:24:40.795            62.693                Sumatra          1959.156
       226   03 Jun 2027 09:42:25.739   03 Jun 2027 09:43:03.613            37.874                Novosib          1183.562
       227   03 Jun 2027 09:44:38.877   03 Jun 2027 09:44:43.730             4.853                Norilsk           151.656
       228   03 Jun 2027 09:44:44.095   03 Jun 2027 09:44:56.667            12.572                Irkutsk           392.875
       229   03 Jun 2027 09:45:01.862   03 Jun 2027 09:45:21.800            19.938                Novosib           623.062
       230   03 Jun 2027 09:45:32.109   03 Jun 2027 09:46:21.583            49.474                Novosib          1546.062
       231   03 Jun 2027 09:46:29.167   03 Jun 2027 09:46:55.969            26.802                Irkutsk           837.562
       232   03 Jun 2027 09:47:02.585   03 Jun 2027 09:47:15.735            13.150                Novosib           410.937
       233   03 Jun 2027 09:47:20.994   03 Jun 2027 09:47:40.232            19.238                Novosib           601.188
       234   03 Jun 2027 09:49:47.673   03 Jun 2027 09:49:49.766             2.093                Novosib            65.406
       235   03 Jun 2027 10:25:38.837   03 Jun 2027 10:26:41.661            62.824            RioGallegos          1963.250
       236   03 Jun 2027 10:30:44.299   03 Jun 2027 10:31:22.786            38.487            RioGallegos          1202.719
       237   03 Jun 2027 11:03:19.151   03 Jun 2027 11:04:42.912            83.761                Sumatra          2617.531
       238   03 Jun 2027 11:20:57.084   03 Jun 2027 11:22:04.441            67.357                Norilsk          2104.906
       239   03 Jun 2027 11:22:26.652   03 Jun 2027 11:22:27.673             1.021                Norilsk            31.906
       240   03 Jun 2027 11:22:32.257   03 Jun 2027 11:23:32.344            60.087                Novosib          1877.719
       241   03 Jun 2027 11:23:42.517   03 Jun 2027 11:23:52.206             9.689                Novosib           302.781
       242   03 Jun 2027 11:23:58.609   03 Jun 2027 11:24:05.274             6.665                Novosib           208.281
       243   03 Jun 2027 12:45:26.265   03 Jun 2027 12:49:42.017           255.752                  Delhi          7992.250
       244   03 Jun 2027 12:56:51.821   03 Jun 2027 12:57:46.724            54.903                Norilsk          1715.719
       245   03 Jun 2027 13:00:08.763   03 Jun 2027 13:00:44.094            35.331                Norilsk          1104.094
       246   03 Jun 2027 14:07:17.901   03 Jun 2027 14:08:18.909            61.008               CapeTown          1906.500
       247   03 Jun 2027 14:27:28.517   03 Jun 2027 14:28:51.746            83.229                 Moscow          2600.906
       248   03 Jun 2027 14:30:54.581   03 Jun 2027 14:31:15.152            20.571              Murmansk1           642.844
       249   03 Jun 2027 14:31:53.387   03 Jun 2027 14:32:21.953            28.566              Murmansk1           892.688
       250   03 Jun 2027 14:33:43.218   03 Jun 2027 14:35:24.116           100.898              Murmansk1          3153.062
       251   03 Jun 2027 14:45:53.975   03 Jun 2027 14:47:39.580           105.605                Anadyr1          3300.156
       252   03 Jun 2027 14:48:50.954   03 Jun 2027 14:49:23.622            32.668                Anadyr1          1020.875
       253   03 Jun 2027 14:50:19.398   03 Jun 2027 14:50:45.463            26.065                Anadyr2           814.531
       254   03 Jun 2027 14:51:25.806   03 Jun 2027 14:52:10.377            44.571                Anadyr2          1392.844
       255   03 Jun 2027 15:41:19.029   03 Jun 2027 15:42:47.189            88.160               CapeTown          2755.000
       256   03 Jun 2027 16:09:26.172   03 Jun 2027 16:10:27.475            61.303              Murmansk1          1915.719
       257   03 Jun 2027 16:13:22.680   03 Jun 2027 16:13:42.780            20.100              Murmansk1           628.125
       258   03 Jun 2027 16:21:04.774   03 Jun 2027 16:23:14.388           129.614                Anadyr2          4050.438
       259   03 Jun 2027 16:23:14.424   03 Jun 2027 16:23:23.520             9.096                Anadyr1           284.250
       260   03 Jun 2027 16:25:59.736   03 Jun 2027 16:28:36.146           156.410               Magadan2          4887.813
       261   03 Jun 2027 17:52:22.583   03 Jun 2027 17:52:43.493            20.910              Murmansk1           653.438
       262   03 Jun 2027 17:56:56.351   03 Jun 2027 17:59:18.156           141.805                Anadyr1          4431.406
       263   03 Jun 2027 17:59:25.316   03 Jun 2027 18:00:17.190            51.874                Anadyr2          1621.063
       264   03 Jun 2027 18:00:27.109   03 Jun 2027 18:01:58.110            91.001               Magadan1          2843.781
       265   03 Jun 2027 18:03:20.916   03 Jun 2027 18:04:05.691            44.775               Magadan2          1399.219
       266   03 Jun 2027 18:04:38.200   03 Jun 2027 18:04:59.639            21.439               Magadan1           669.969
       267   03 Jun 2027 19:32:50.686   03 Jun 2027 19:34:50.127           119.441                Anadyr1          3732.531
       268   03 Jun 2027 19:34:56.174   03 Jun 2027 19:36:55.537           119.363                Anadyr2          3730.094
       269   03 Jun 2027 19:37:06.189   03 Jun 2027 19:39:55.763           169.574                Norilsk          5299.188
       270   03 Jun 2027 20:27:16.636   03 Jun 2027 20:30:47.697           211.061            RioGallegos          6595.656
       271   03 Jun 2027 21:08:54.734   03 Jun 2027 21:09:06.972            12.238                Anadyr1           382.438
       272   03 Jun 2027 21:10:41.810   03 Jun 2027 21:13:05.833           144.023                Norilsk          4500.719
       273   03 Jun 2027 21:13:06.415   03 Jun 2027 21:13:31.611            25.196               Magadan1           787.375
       274   03 Jun 2027 21:14:51.599   03 Jun 2027 21:16:07.129            75.530                Irkutsk          2360.312
       275   03 Jun 2027 21:16:43.652   03 Jun 2027 21:18:23.050            99.398                Novosib          3106.187
       276   03 Jun 2027 21:19:06.776   03 Jun 2027 21:20:06.987            60.211                Novosib          1881.594
       277   03 Jun 2027 21:28:35.812   03 Jun 2027 21:31:16.669           160.857                Sumatra          5026.781
       278   03 Jun 2027 22:46:38.883   03 Jun 2027 22:47:02.273            23.390                Norilsk           730.938
       279   03 Jun 2027 22:47:16.657   03 Jun 2027 22:48:28.866            72.209               Magadan2          2256.531
       280   03 Jun 2027 22:49:34.796   03 Jun 2027 22:49:48.034            13.238               Magadan2           413.688
       281   03 Jun 2027 22:50:30.987   03 Jun 2027 22:51:27.395            56.408                Irkutsk          1762.750
       282   03 Jun 2027 22:51:32.656   03 Jun 2027 22:51:57.433            24.777                Novosib           774.281
       283   03 Jun 2027 22:52:04.370   03 Jun 2027 22:52:24.863            20.493                Novosib           640.406
       284   03 Jun 2027 22:53:05.700   03 Jun 2027 22:53:47.956            42.256                Novosib          1320.500
       285   03 Jun 2027 22:56:03.573   03 Jun 2027 22:56:40.186            36.613                Novosib          1144.156
       286   03 Jun 2027 22:58:23.441   03 Jun 2027 22:59:18.845            55.404                  Delhi          1731.375
       287   03 Jun 2027 23:00:09.347   03 Jun 2027 23:01:46.465            97.118                  Delhi          3034.938
       288   04 Jun 2027 00:18:16.934   04 Jun 2027 00:18:30.146            13.212                Anadyr1           412.875
       289   04 Jun 2027 00:18:30.146   04 Jun 2027 00:18:34.137             3.991                Anadyr2           124.719
       290   04 Jun 2027 00:19:10.805   04 Jun 2027 00:19:30.157            19.352                Anadyr2           604.750
       291   04 Jun 2027 00:21:46.524   04 Jun 2027 00:22:14.325            27.801                Anadyr1           868.781
       292   04 Jun 2027 00:22:37.980   04 Jun 2027 00:23:28.878            50.898                Norilsk          1590.563
       293   04 Jun 2027 00:23:40.472   04 Jun 2027 00:25:39.448           118.976               Magadan1          3718.000
       294   04 Jun 2027 00:26:07.739   04 Jun 2027 00:27:13.248            65.509              Murmansk2          2047.156
       295   04 Jun 2027 00:28:30.580   04 Jun 2027 00:28:48.164            17.584                Novosib           549.500
       296   04 Jun 2027 00:28:48.866   04 Jun 2027 00:29:16.221            27.355              Murmansk1           854.844
       297   04 Jun 2027 00:29:45.950   04 Jun 2027 00:30:37.097            51.147                 Moscow          1598.344
       298   04 Jun 2027 00:31:07.814   04 Jun 2027 00:32:29.766            81.952                 Moscow          2561.000
       299   04 Jun 2027 01:50:05.876   04 Jun 2027 01:51:47.609           101.733                Anadyr1          3179.156
       300   04 Jun 2027 01:52:05.522   04 Jun 2027 01:52:16.506            10.984                Anadyr2           343.250
       301   04 Jun 2027 01:52:32.866   04 Jun 2027 01:53:11.658            38.792                Anadyr2          1212.250
       302   04 Jun 2027 01:55:07.844   04 Jun 2027 01:56:46.254            98.410               Magadan1          3075.312
       303   04 Jun 2027 01:58:25.078   04 Jun 2027 01:58:52.197            27.119                Norilsk           847.469
       304   04 Jun 2027 02:00:16.664   04 Jun 2027 02:00:29.722            13.058                Norilsk           408.062
       305   04 Jun 2027 02:00:45.844   04 Jun 2027 02:02:03.696            77.852              Murmansk2          2432.875
       306   04 Jun 2027 02:02:59.524   04 Jun 2027 02:05:29.472           149.948                Novosib          4685.875
       307   04 Jun 2027 02:29:22.960   04 Jun 2027 02:30:51.676            88.716               CapeTown          2772.375
       308   04 Jun 2027 03:31:51.967   04 Jun 2027 03:34:02.697           130.730                Anadyr1          4085.313
       309   04 Jun 2027 03:34:02.697   04 Jun 2027 03:35:46.338           103.641                Anadyr2          3238.781
       310   04 Jun 2027 03:37:12.708   04 Jun 2027 03:37:33.025            20.317                Anadyr1           634.906
       311   04 Jun 2027 05:07:29.162   04 Jun 2027 05:09:16.092           106.930               Magadan2          3341.562
       312   04 Jun 2027 05:09:33.527   04 Jun 2027 05:12:00.750           147.223                Anadyr2          4600.719
       313   04 Jun 2027 05:12:00.750   04 Jun 2027 05:12:12.622            11.872                Anadyr1           371.000
       314   04 Jun 2027 05:12:33.894   04 Jun 2027 05:12:51.805            17.911               Magadan1           559.719
       315   04 Jun 2027 06:42:02.091   04 Jun 2027 06:43:15.694            73.603               Magadan1          2300.094
       316   04 Jun 2027 06:43:21.532   04 Jun 2027 06:43:33.636            12.104               Magadan2           378.250
       317   04 Jun 2027 06:43:51.346   04 Jun 2027 06:43:57.943             6.597                Anadyr2           206.156
       318   04 Jun 2027 06:44:02.908   04 Jun 2027 06:44:14.987            12.079               Magadan2           377.469
       319   04 Jun 2027 06:44:14.987   04 Jun 2027 06:45:15.205            60.218               Magadan1          1881.813
       320   04 Jun 2027 06:45:28.603   04 Jun 2027 06:45:57.955            29.352                Anadyr1           917.250
       321   04 Jun 2027 06:46:02.331   04 Jun 2027 06:46:14.727            12.396               Magadan1           387.375
       322   04 Jun 2027 06:46:41.961   04 Jun 2027 06:47:32.735            50.774                Anadyr1          1586.687
       323   04 Jun 2027 06:48:24.549   04 Jun 2027 06:48:49.660            25.111                Anadyr2           784.719
       324   04 Jun 2027 08:17:46.104   04 Jun 2027 08:18:15.460            29.356               Magadan2           917.375
       325   04 Jun 2027 08:19:09.909   04 Jun 2027 08:20:06.068            56.159                Novosib          1754.969
       326   04 Jun 2027 08:20:11.325   04 Jun 2027 08:20:48.353            37.028                Irkutsk          1157.125
       327   04 Jun 2027 08:21:33.189   04 Jun 2027 08:21:56.413            23.224                Irkutsk           725.750
       328   04 Jun 2027 08:22:07.940   04 Jun 2027 08:23:06.324            58.384               Magadan2          1824.500
       329   04 Jun 2027 08:23:10.794   04 Jun 2027 08:23:28.355            17.561                Irkutsk           548.781
       330   04 Jun 2027 08:23:31.941   04 Jun 2027 08:23:52.656            20.715              Murmansk1           647.344
       331   04 Jun 2027 08:24:19.242   04 Jun 2027 08:24:48.143            28.901                Irkutsk           903.156
       332   04 Jun 2027 08:59:35.075   04 Jun 2027 09:00:44.414            69.339            RioGallegos          2166.844
       333   04 Jun 2027 09:34:31.056   04 Jun 2027 09:35:24.770            53.714                Sumatra          1678.562
       334   04 Jun 2027 09:57:28.425   04 Jun 2027 09:57:48.370            19.945                Novosib           623.281
       335   04 Jun 2027 09:58:01.685   04 Jun 2027 09:58:04.766             3.081                Irkutsk            96.281
       336   04 Jun 2027 09:58:17.272   04 Jun 2027 09:58:30.835            13.563                Irkutsk           423.844
       337   04 Jun 2027 09:58:33.739   04 Jun 2027 09:59:12.065            38.326              Murmansk1          1197.688
       338   04 Jun 2027 09:59:28.438   04 Jun 2027 10:00:10.363            41.925                Irkutsk          1310.156
       339   04 Jun 2027 10:00:14.779   04 Jun 2027 10:00:37.835            23.056                Novosib           720.500
       340   04 Jun 2027 10:38:22.777   04 Jun 2027 10:39:00.910            38.133            RioGallegos          1191.656
       341   04 Jun 2027 10:40:24.448   04 Jun 2027 10:40:52.133            27.685            RioGallegos           865.156
       342   04 Jun 2027 11:12:51.335   04 Jun 2027 11:13:04.019            12.684                Sumatra           396.375
       343   04 Jun 2027 11:15:09.453   04 Jun 2027 11:16:58.982           109.529                Sumatra          3422.781
       344   04 Jun 2027 11:32:48.712   04 Jun 2027 11:33:17.716            29.004                Irkutsk           906.375
       345   04 Jun 2027 11:34:23.151   04 Jun 2027 11:34:37.771            14.620                Novosib           456.875
       346   04 Jun 2027 11:35:39.602   04 Jun 2027 11:35:46.264             6.662                Novosib           208.187
       347   04 Jun 2027 11:35:51.066   04 Jun 2027 11:36:13.855            22.789                Novosib           712.156
       348   04 Jun 2027 11:36:22.139   04 Jun 2027 11:36:46.957            24.818                Norilsk           775.562
       349   04 Jun 2027 12:59:02.321   04 Jun 2027 13:01:19.091           136.770                  Delhi          4274.062
       350   04 Jun 2027 13:01:47.088   04 Jun 2027 13:01:59.828            12.740                  Delhi           398.125
       351   04 Jun 2027 13:06:25.260   04 Jun 2027 13:06:39.927            14.667              Murmansk2           458.344
       352   04 Jun 2027 13:07:21.243   04 Jun 2027 13:08:32.120            70.877                Novosib          2214.906
       353   04 Jun 2027 13:09:08.535   04 Jun 2027 13:09:36.664            28.129                Novosib           879.031
       354   04 Jun 2027 13:10:05.159   04 Jun 2027 13:11:16.559            71.400                Norilsk          2231.250
       355   04 Jun 2027 14:24:06.905   04 Jun 2027 14:24:32.700            25.795               CapeTown           806.094
       356   04 Jun 2027 14:26:00.046   04 Jun 2027 14:26:01.846             1.800               CapeTown            56.250
       357   04 Jun 2027 14:39:47.219   04 Jun 2027 14:40:56.734            69.515                 Moscow          2172.344
       358   04 Jun 2027 14:43:05.246   04 Jun 2027 14:44:10.539            65.293                 Moscow          2040.406
       359   04 Jun 2027 14:45:44.933   04 Jun 2027 14:46:24.589            39.656              Murmansk2          1239.250
       360   04 Jun 2027 14:47:41.299   04 Jun 2027 14:48:03.248            21.949              Murmansk2           685.906
       361   04 Jun 2027 14:57:43.465   04 Jun 2027 14:58:22.329            38.864                Anadyr2          1214.500
       362   04 Jun 2027 14:59:25.779   04 Jun 2027 15:00:14.302            48.523                Anadyr2          1516.344
       363   04 Jun 2027 15:00:52.112   04 Jun 2027 15:01:23.332            31.220                Anadyr2           975.625
       364   04 Jun 2027 15:01:37.442   04 Jun 2027 15:01:47.969            10.527                Anadyr2           328.969
       365   04 Jun 2027 15:02:08.489   04 Jun 2027 15:02:20.170            11.681                Anadyr2           365.031
       366   04 Jun 2027 15:02:46.796   04 Jun 2027 15:03:50.583            63.787                Anadyr2          1993.344
       367   04 Jun 2027 15:52:25.403   04 Jun 2027 15:52:57.980            32.577               CapeTown          1018.031
       368   04 Jun 2027 15:53:33.061   04 Jun 2027 15:54:45.860            72.799               CapeTown          2274.969
       369   04 Jun 2027 16:21:58.148   04 Jun 2027 16:23:17.689            79.541              Murmansk2          2485.656
       370   04 Jun 2027 16:23:38.723   04 Jun 2027 16:23:59.283            20.560              Murmansk1           642.500
       371   04 Jun 2027 16:25:47.983   04 Jun 2027 16:26:21.852            33.869              Murmansk1          1058.406
       372   04 Jun 2027 16:33:04.718   04 Jun 2027 16:35:10.181           125.463                Anadyr2          3920.719
       373   04 Jun 2027 16:37:09.341   04 Jun 2027 16:38:43.902            94.561               Magadan2          2955.031
       374   04 Jun 2027 16:38:43.902   04 Jun 2027 16:39:45.247            61.345               Magadan1          1917.031
       375   04 Jun 2027 18:08:57.835   04 Jun 2027 18:11:18.676           140.841                Anadyr2          4401.281
       376   04 Jun 2027 18:11:24.257   04 Jun 2027 18:15:10.101           225.844               Magadan2          7057.625
       377   04 Jun 2027 18:15:37.732   04 Jun 2027 18:16:34.370            56.638               Magadan1          1769.937
       378   04 Jun 2027 19:44:51.114   04 Jun 2027 19:46:51.503           120.389                Anadyr2          3762.156
       379   04 Jun 2027 19:46:52.645   04 Jun 2027 19:48:41.222           108.577                Anadyr1          3393.031
       380   04 Jun 2027 19:48:53.386   04 Jun 2027 19:51:05.408           132.022               Magadan2          4125.688
       381   04 Jun 2027 19:52:06.838   04 Jun 2027 19:52:17.072            10.234               Magadan2           319.812
       382   04 Jun 2027 19:53:35.065   04 Jun 2027 19:55:49.319           134.254                Irkutsk          4195.437
       383   04 Jun 2027 19:57:16.348   04 Jun 2027 19:57:50.318            33.970                Irkutsk          1061.563
       384   04 Jun 2027 20:39:07.059   04 Jun 2027 20:39:51.043            43.984            RioGallegos          1374.500
       385   04 Jun 2027 20:40:09.777   04 Jun 2027 20:40:25.344            15.567            RioGallegos           486.469
       386   04 Jun 2027 20:41:02.608   04 Jun 2027 20:41:07.292             4.684            RioGallegos           146.375
       387   04 Jun 2027 21:20:22.156   04 Jun 2027 21:20:49.038            26.882                Anadyr2           840.063
       388   04 Jun 2027 21:21:31.700   04 Jun 2027 21:22:37.640            65.940                Anadyr2          2060.625
       389   04 Jun 2027 21:22:42.581   04 Jun 2027 21:24:45.719           123.138                Norilsk          3848.063
       390   04 Jun 2027 21:24:48.713   04 Jun 2027 21:25:04.342            15.629               Magadan2           488.406
       391   04 Jun 2027 21:26:42.743   04 Jun 2027 21:27:11.847            29.104               Magadan1           909.500
       392   04 Jun 2027 21:28:09.323   04 Jun 2027 21:29:33.807            84.484                Novosib          2640.125
       393   04 Jun 2027 21:31:07.618   04 Jun 2027 21:31:13.931             6.313                Novosib           197.281
       394   04 Jun 2027 21:32:13.091   04 Jun 2027 21:32:53.120            40.029                Novosib          1250.906
       395   04 Jun 2027 21:40:27.768   04 Jun 2027 21:42:17.734           109.966                Sumatra          3436.437
       396   04 Jun 2027 21:49:09.631   04 Jun 2027 21:49:59.922            50.291                Sumatra          1571.594
       397   04 Jun 2027 22:54:55.177   04 Jun 2027 22:55:42.709            47.532                Anadyr1          1485.375
       398   04 Jun 2027 22:58:40.926   04 Jun 2027 22:58:58.036            17.110                Norilsk           534.688
       399   04 Jun 2027 22:59:18.338   04 Jun 2027 23:00:27.634            69.296               Magadan1          2165.500
       400   04 Jun 2027 23:00:27.634   04 Jun 2027 23:00:50.068            22.434               Magadan2           701.062
       401   04 Jun 2027 23:02:12.510   04 Jun 2027 23:02:38.071            25.561               Magadan2           798.781
       402   04 Jun 2027 23:03:28.971   04 Jun 2027 23:05:01.532            92.561                Novosib          2892.531
       403   04 Jun 2027 23:07:57.596   04 Jun 2027 23:08:06.661             9.065                Novosib           283.281
       404   04 Jun 2027 23:10:09.905   04 Jun 2027 23:12:33.534           143.629                  Delhi          4488.406
       405   05 Jun 2027 00:28:21.309   05 Jun 2027 00:28:39.305            17.996                Anadyr1           562.375
       406   05 Jun 2027 00:29:23.399   05 Jun 2027 00:30:33.869            70.470                Anadyr2          2202.188
       407   05 Jun 2027 00:31:11.527   05 Jun 2027 00:31:24.101            12.574                Anadyr1           392.938
       408   05 Jun 2027 00:33:47.857   05 Jun 2027 00:33:59.843            11.986                Anadyr2           374.562
       409   05 Jun 2027 00:34:12.155   05 Jun 2027 00:34:25.224            13.069                Anadyr1           408.406
       410   05 Jun 2027 00:34:30.048   05 Jun 2027 00:37:07.263           157.215               Magadan2          4912.969
       411   05 Jun 2027 00:37:10.090   05 Jun 2027 00:38:09.401            59.311              Murmansk2          1853.469
       412   05 Jun 2027 00:38:09.401   05 Jun 2027 00:39:44.803            95.402              Murmansk1          2981.313
       413   05 Jun 2027 00:41:21.373   05 Jun 2027 00:42:51.152            89.779                 Moscow          2805.594
       414   05 Jun 2027 01:10:28.304   05 Jun 2027 01:11:01.010            32.706               CapeTown          1022.063
       415   05 Jun 2027 02:01:52.191   05 Jun 2027 02:03:36.619           104.428                Anadyr2          3263.375
       416   05 Jun 2027 02:04:31.889   05 Jun 2027 02:04:58.514            26.625                Anadyr1           832.031
       417   05 Jun 2027 02:06:35.744   05 Jun 2027 02:08:27.376           111.632               Magadan2          3488.500
       418   05 Jun 2027 02:10:25.439   05 Jun 2027 02:10:37.226            11.787               Magadan1           368.344
       419   05 Jun 2027 02:11:40.091   05 Jun 2027 02:12:01.037            20.946                Norilsk           654.563
       420   05 Jun 2027 02:12:47.438   05 Jun 2027 02:14:20.803            93.365              Murmansk1          2917.656
       421   05 Jun 2027 02:15:31.934   05 Jun 2027 02:16:43.583            71.649                Novosib          2239.031
       422   05 Jun 2027 02:27:08.746   05 Jun 2027 02:27:17.383             8.637                 Moscow           269.906
       423   05 Jun 2027 02:40:10.115   05 Jun 2027 02:41:19.526            69.411               CapeTown          2169.094
       424   05 Jun 2027 03:39:17.381   05 Jun 2027 03:39:41.119            23.738                Anadyr1           741.812
       425   05 Jun 2027 03:43:25.849   05 Jun 2027 03:46:04.142           158.293               Magadan2          4946.656
       426   05 Jun 2027 03:46:04.142   05 Jun 2027 03:46:36.726            32.584               Magadan1          1018.250
       427   05 Jun 2027 03:47:10.304   05 Jun 2027 03:47:18.807             8.503               Magadan1           265.719
       428   05 Jun 2027 03:47:51.918   05 Jun 2027 03:49:28.228            96.310                Anadyr1          3009.687
       429   05 Jun 2027 05:20:09.651   05 Jun 2027 05:21:16.629            66.978                Anadyr2          2093.062
       430   05 Jun 2027 05:21:18.699   05 Jun 2027 05:21:32.173            13.474               Magadan1           421.062
       431   05 Jun 2027 05:21:49.766   05 Jun 2027 05:25:26.471           216.705                Anadyr2          6772.031
       432   05 Jun 2027 06:53:22.108   05 Jun 2027 06:53:30.042             7.934               Magadan1           247.938
       433   05 Jun 2027 06:53:37.242   05 Jun 2027 06:54:11.461            34.219                Anadyr1          1069.344
       434   05 Jun 2027 06:54:23.896   05 Jun 2027 06:55:13.025            49.129               Magadan2          1535.281
       435   05 Jun 2027 06:55:18.384   05 Jun 2027 06:55:24.665             6.281               Magadan2           196.281
       436   05 Jun 2027 06:55:34.377   05 Jun 2027 06:55:56.945            22.568               Magadan2           705.250
       437   05 Jun 2027 06:55:59.709   05 Jun 2027 06:57:12.670            72.961                Anadyr1          2280.031
       438   05 Jun 2027 06:57:15.602   05 Jun 2027 06:57:34.764            19.162               Magadan1           598.813
       439   05 Jun 2027 06:57:38.873   05 Jun 2027 06:57:50.269            11.396                Anadyr1           356.125
       440   05 Jun 2027 06:57:59.533   05 Jun 2027 06:59:32.191            92.658                Anadyr1          2895.562
       441   05 Jun 2027 07:00:27.958   05 Jun 2027 07:00:39.913            11.955                Anadyr2           373.594
       442   05 Jun 2027 07:43:28.074   05 Jun 2027 07:44:14.542            46.468            RioGallegos          1452.125
       443   05 Jun 2027 08:29:48.439   05 Jun 2027 08:30:18.193            29.754               Magadan1           929.812
       444   05 Jun 2027 08:30:27.810   05 Jun 2027 08:30:45.692            17.882                Irkutsk           558.813
       445   05 Jun 2027 08:31:13.078   05 Jun 2027 08:31:56.453            43.375                Irkutsk          1355.469
       446   05 Jun 2027 08:32:30.931   05 Jun 2027 08:32:32.482             1.551                Novosib            48.469
       447   05 Jun 2027 08:32:32.722   05 Jun 2027 08:32:59.495            26.773               Magadan1           836.656
       448   05 Jun 2027 08:33:26.463   05 Jun 2027 08:33:47.815            21.352                Irkutsk           667.250
       449   05 Jun 2027 08:33:59.268   05 Jun 2027 08:34:33.682            34.414                Irkutsk          1075.437
       450   05 Jun 2027 08:34:58.725   05 Jun 2027 08:35:05.522             6.797              Murmansk1           212.406
       451   05 Jun 2027 08:35:10.852   05 Jun 2027 08:35:52.454            41.602                Irkutsk          1300.062
       452   05 Jun 2027 08:36:34.942   05 Jun 2027 08:36:45.870            10.928                Irkutsk           341.500
       453   05 Jun 2027 08:38:01.142   05 Jun 2027 08:38:04.818             3.676                Norilsk           114.875
       454   05 Jun 2027 09:11:39.169   05 Jun 2027 09:13:32.470           113.301            RioGallegos          3540.656
       455   05 Jun 2027 09:46:25.905   05 Jun 2027 09:47:04.593            38.688                Sumatra          1209.000
       456   05 Jun 2027 10:08:55.993   05 Jun 2027 10:09:01.958             5.965                Irkutsk           186.406
       457   05 Jun 2027 10:09:08.831   05 Jun 2027 10:09:30.585            21.754                Norilsk           679.813
       458   05 Jun 2027 10:09:38.213   05 Jun 2027 10:10:01.310            23.097                Novosib           721.781
       459   05 Jun 2027 10:10:21.202   05 Jun 2027 10:10:30.884             9.682                Irkutsk           302.562
       460   05 Jun 2027 10:10:37.005   05 Jun 2027 10:10:50.007            13.002                Novosib           406.313
       461   05 Jun 2027 10:11:01.230   05 Jun 2027 10:11:02.326             1.096                Irkutsk            34.250
       462   05 Jun 2027 10:11:06.194   05 Jun 2027 10:12:01.244            55.050                Novosib          1720.313
       463   05 Jun 2027 10:12:20.489   05 Jun 2027 10:12:37.126            16.637                Novosib           519.906
       464   05 Jun 2027 10:13:40.819   05 Jun 2027 10:14:06.709            25.890                Novosib           809.062
       465   05 Jun 2027 10:51:17.843   05 Jun 2027 10:51:38.588            20.745            RioGallegos           648.281
       466   05 Jun 2027 10:52:57.762   05 Jun 2027 10:53:26.492            28.730            RioGallegos           897.813
       467   05 Jun 2027 11:26:41.213   05 Jun 2027 11:27:31.649            50.436                Sumatra          1576.125
       468   05 Jun 2027 11:32:58.719   05 Jun 2027 11:33:46.537            47.818                  Delhi          1494.313
       469   05 Jun 2027 11:45:12.588   05 Jun 2027 11:46:21.659            69.071                Novosib          2158.469
       470   05 Jun 2027 11:46:26.594   05 Jun 2027 11:46:42.753            16.159                Novosib           504.969
       471   05 Jun 2027 11:47:22.584   05 Jun 2027 11:47:36.620            14.036                Novosib           438.625
       472   05 Jun 2027 11:47:40.812   05 Jun 2027 11:48:06.871            26.059                Norilsk           814.344
       473   05 Jun 2027 11:48:12.208   05 Jun 2027 11:48:21.934             9.726                Norilsk           303.937
       474   05 Jun 2027 11:48:31.354   05 Jun 2027 11:49:08.597            37.243                Novosib          1163.844
       475   05 Jun 2027 13:15:02.463   05 Jun 2027 13:15:57.689            55.226                 Moscow          1725.812
       476   05 Jun 2027 13:18:02.955   05 Jun 2027 13:18:21.718            18.763                 Moscow           586.344
       477   05 Jun 2027 13:22:07.792   05 Jun 2027 13:24:39.749           151.957                Norilsk          4748.656
       478   05 Jun 2027 13:26:27.365   05 Jun 2027 13:28:01.160            93.795                Norilsk          2931.094
       479   05 Jun 2027 14:29:51.988   05 Jun 2027 14:30:54.064            62.076               CapeTown          1939.875
       480   05 Jun 2027 14:31:29.164   05 Jun 2027 14:32:52.621            83.457               CapeTown          2608.031
       481   05 Jun 2027 14:52:09.979   05 Jun 2027 14:53:04.816            54.837                 Moscow          1713.656
       482   05 Jun 2027 14:55:56.953   05 Jun 2027 14:56:36.080            39.127              Murmansk1          1222.719
