uniorb/output/strategy_4/Camera/Camera_KinoSat_110604.txt

KinoSat_110604
-------------------------
    Access    *     Start Time (UTCG)     *     Stop Time (UTCG)  *   Duration (s) *   Data (Mbytes)
         1   01 Jun 2027 03:53:42.974   01 Jun 2027 03:55:41.456           118.482         59241.000
         2   01 Jun 2027 05:28:47.635   01 Jun 2027 05:30:45.352           117.717         58858.500
         3   01 Jun 2027 05:30:54.886   01 Jun 2027 05:31:14.728            19.842          9921.000
         4   01 Jun 2027 05:34:46.938   01 Jun 2027 05:35:00.801            13.863          6931.500
         5   01 Jun 2027 05:35:34.365   01 Jun 2027 05:35:40.218             5.853          2926.500
         6   01 Jun 2027 07:04:52.981   01 Jun 2027 07:06:17.479            84.498         42249.000
         7   01 Jun 2027 07:07:21.406   01 Jun 2027 07:08:12.849            51.443         25721.500
         8   01 Jun 2027 07:08:24.031   01 Jun 2027 07:08:27.017             2.986          1493.000
         9   01 Jun 2027 07:10:28.778   01 Jun 2027 07:10:28.778             0.000             0.000
        10   01 Jun 2027 07:10:50.011   01 Jun 2027 07:11:12.544            22.533         11266.500
        11   01 Jun 2027 08:42:51.116   01 Jun 2027 08:45:22.554           151.438         75719.000
        12   01 Jun 2027 08:45:56.269   01 Jun 2027 08:45:56.269             0.000             0.000
        13   01 Jun 2027 08:47:06.629   01 Jun 2027 08:47:15.662             9.033          4516.500
        14   01 Jun 2027 10:18:42.374   01 Jun 2027 10:20:59.696           137.322         68661.000
        15   01 Jun 2027 10:23:29.932   01 Jun 2027 10:23:35.729             5.797          2898.500
        16   02 Jun 2027 04:05:27.627   02 Jun 2027 04:06:03.306            35.679         17839.500
        17   02 Jun 2027 04:06:09.465   02 Jun 2027 04:06:09.887             0.422           211.000
        18   02 Jun 2027 04:06:38.208   02 Jun 2027 04:06:38.230             0.022            11.000
        19   02 Jun 2027 04:08:40.500   02 Jun 2027 04:09:01.684            21.184         10592.000
        20   02 Jun 2027 05:40:13.340   02 Jun 2027 05:43:17.848           184.508         92254.000
        21   02 Jun 2027 05:47:05.065   02 Jun 2027 05:47:07.538             2.473          1236.500
        22   02 Jun 2027 05:47:41.882   02 Jun 2027 05:47:46.103             4.221          2110.500
        23   02 Jun 2027 07:17:02.798   02 Jun 2027 07:19:26.276           143.478         71739.000
        24   02 Jun 2027 07:20:39.119   02 Jun 2027 07:21:12.972            33.853         16926.500
        25   02 Jun 2027 07:21:33.356   02 Jun 2027 07:21:57.218            23.862         11931.000
        26   02 Jun 2027 07:22:50.560   02 Jun 2027 07:23:21.925            31.365         15682.500
        27   02 Jun 2027 08:55:13.297   02 Jun 2027 08:59:00.678           227.381        113690.500
        28   02 Jun 2027 10:28:30.915   02 Jun 2027 10:29:07.551            36.636         16760.876
        29   02 Jun 2027 10:35:53.145   02 Jun 2027 10:35:54.686             1.541           558.625
        30   03 Jun 2027 04:15:15.656   03 Jun 2027 04:16:08.084            52.428         26214.000
        31   03 Jun 2027 04:17:11.648   03 Jun 2027 04:17:23.409            11.761          5880.500
        32   03 Jun 2027 04:21:44.345   03 Jun 2027 04:21:46.623             2.278          1139.000
        33   03 Jun 2027 04:23:07.056   03 Jun 2027 04:23:09.581             2.525          1262.500
        34   03 Jun 2027 05:52:20.266   03 Jun 2027 05:54:43.221           142.955         71477.500
        35   03 Jun 2027 05:54:51.657   03 Jun 2027 05:55:01.031             9.374          4687.000
        36   03 Jun 2027 05:55:23.138   03 Jun 2027 05:55:57.184            34.046         17023.000
        37   03 Jun 2027 05:59:45.966   03 Jun 2027 05:59:46.465             0.499           249.500
        38   03 Jun 2027 07:29:18.368   03 Jun 2027 07:30:52.423            94.055         46501.468
        39   03 Jun 2027 07:34:22.751   03 Jun 2027 07:34:31.083             8.332          1676.406
        40   03 Jun 2027 07:35:23.865   03 Jun 2027 07:35:26.871             3.006           687.312
        41   03 Jun 2027 09:07:14.648   03 Jun 2027 09:07:27.580            12.932          4635.156
        42   03 Jun 2027 10:40:36.083   03 Jun 2027 10:40:44.541             8.458          4218.562
        43   04 Jun 2027 04:26:43.509   04 Jun 2027 04:28:32.713           109.204         54602.000
        44   04 Jun 2027 04:28:58.389   04 Jun 2027 04:29:04.397             6.008          3004.000
        45   04 Jun 2027 04:30:07.208   04 Jun 2027 04:30:08.301             1.093           546.500
        46   04 Jun 2027 04:30:18.005   04 Jun 2027 04:30:33.708            15.703          7851.500
        47   04 Jun 2027 04:32:45.077   04 Jun 2027 04:32:53.822             8.745          4372.500
        48   04 Jun 2027 04:33:16.389   04 Jun 2027 04:33:33.219            16.830          8415.000
        49   04 Jun 2027 04:33:49.158   04 Jun 2027 04:34:15.646            26.488         13244.000
        50   04 Jun 2027 04:35:13.185   04 Jun 2027 04:35:25.561            12.376          6188.000
        51   04 Jun 2027 06:04:22.301   04 Jun 2027 06:06:37.911           135.610         67805.000
        52   04 Jun 2027 06:07:47.321   04 Jun 2027 06:08:03.156            15.835          7917.500
        53   04 Jun 2027 06:08:30.229   04 Jun 2027 06:08:40.839            10.610          2014.781
        54   04 Jun 2027 06:09:34.168   04 Jun 2027 06:09:37.010             2.842          1360.656
        55   04 Jun 2027 06:10:28.648   04 Jun 2027 06:10:30.166             1.518           707.781
        56   04 Jun 2027 07:41:08.997   04 Jun 2027 07:41:15.777             6.780           541.750
        57   04 Jun 2027 07:46:05.130   04 Jun 2027 07:46:08.557             3.427          1277.344
        58   04 Jun 2027 07:47:24.553   04 Jun 2027 07:47:29.038             4.485          1118.625
        59   04 Jun 2027 09:19:11.815   04 Jun 2027 09:19:16.855             5.040          2400.812
        60   04 Jun 2027 09:23:20.014   04 Jun 2027 09:23:21.277             1.263           356.125
        61   04 Jun 2027 10:53:02.392   04 Jun 2027 10:53:02.728             0.336            27.687
        62   05 Jun 2027 03:03:24.572   05 Jun 2027 03:03:35.903            11.331          5665.500
        63   05 Jun 2027 03:06:46.349   05 Jun 2027 03:06:58.397            12.048          6024.000
        64   05 Jun 2027 03:07:12.249   05 Jun 2027 03:07:21.988             9.739          4869.500
        65   05 Jun 2027 04:38:17.275   05 Jun 2027 04:41:06.757           169.482         84741.000
        66   05 Jun 2027 04:41:44.628   05 Jun 2027 04:41:49.297             4.669          2334.500
        67   05 Jun 2027 04:42:28.284   05 Jun 2027 04:42:28.571             0.287           143.500
        68   05 Jun 2027 04:46:52.583   05 Jun 2027 04:47:25.751            33.168         16584.000
        69   05 Jun 2027 06:16:24.087   05 Jun 2027 06:17:53.199            89.112         43399.094
        70   05 Jun 2027 06:18:48.539   05 Jun 2027 06:18:53.055             4.516          1628.125
        71   05 Jun 2027 06:18:55.159   05 Jun 2027 06:18:55.159             0.000             0.000
        72   05 Jun 2027 06:19:01.809   05 Jun 2027 06:19:03.414             1.605           273.562
        73   05 Jun 2027 06:19:33.331   05 Jun 2027 06:19:33.331             0.000             0.000
        74   05 Jun 2027 06:20:02.154   05 Jun 2027 06:20:05.958             3.804          1708.344
        75   05 Jun 2027 06:20:57.067   05 Jun 2027 06:20:59.518             2.451            46.812
        76   05 Jun 2027 06:21:55.561   05 Jun 2027 06:21:57.729             2.168           553.187
        77   05 Jun 2027 07:53:19.083   05 Jun 2027 07:53:26.940             7.857           910.156
        78   05 Jun 2027 07:56:29.751   05 Jun 2027 07:56:32.966             3.215           705.187
        79   05 Jun 2027 07:57:19.941   05 Jun 2027 07:57:23.477             3.536          1256.813
        80   05 Jun 2027 09:30:26.560   05 Jun 2027 09:30:37.578            11.018          2723.156
        81   05 Jun 2027 09:31:58.426   05 Jun 2027 09:32:04.179             5.753          1614.750
        82   05 Jun 2027 11:05:20.229   05 Jun 2027 11:05:23.993             3.764           277.469
        83   06 Jun 2027 03:17:46.198   06 Jun 2027 03:18:13.501            27.303         13651.500
        84   06 Jun 2027 03:19:09.541   06 Jun 2027 03:19:13.326             3.785          1892.500
        85   06 Jun 2027 04:51:18.552   06 Jun 2027 04:53:40.441           141.889         70944.500
        86   06 Jun 2027 04:54:21.200   06 Jun 2027 04:54:46.012            24.812         12406.000
        87   06 Jun 2027 04:56:03.288   06 Jun 2027 04:56:18.011            14.723          7361.500
        88   06 Jun 2027 04:58:26.378   06 Jun 2027 04:58:48.566            22.188         11094.000
        89   06 Jun 2027 04:58:58.802   06 Jun 2027 04:58:58.802             0.000             0.000
        90   06 Jun 2027 04:59:47.446   06 Jun 2027 04:59:51.636             4.190          2095.000
        91   06 Jun 2027 06:28:51.163   06 Jun 2027 06:30:11.291            80.128         39857.687
        92   06 Jun 2027 06:30:56.448   06 Jun 2027 06:30:59.034             2.586           198.000
        93   06 Jun 2027 06:31:42.421   06 Jun 2027 06:31:45.919             3.498           990.281
        94   06 Jun 2027 08:05:45.829   06 Jun 2027 08:05:50.872             5.043          1499.625
        95   06 Jun 2027 08:09:29.545   06 Jun 2027 08:09:32.068             2.523           584.094
        96   06 Jun 2027 09:42:40.100   06 Jun 2027 09:42:45.603             5.503          2740.156
        97   06 Jun 2027 11:19:49.695   06 Jun 2027 11:19:52.390             2.695           905.656
        98   07 Jun 2027 03:29:50.194   07 Jun 2027 03:30:00.242            10.048          5024.000
        99   07 Jun 2027 03:31:36.900   07 Jun 2027 03:31:54.367            17.467          8733.500
       100   07 Jun 2027 03:33:19.266   07 Jun 2027 03:33:25.961             6.695          3347.500
       101   07 Jun 2027 05:01:58.119   07 Jun 2027 05:02:08.656            10.537          5268.500
       102   07 Jun 2027 05:03:57.197   07 Jun 2027 05:04:59.336            62.139         31069.500
       103   07 Jun 2027 05:05:15.483   07 Jun 2027 05:05:40.407            24.924         12462.000
       104   07 Jun 2027 05:06:21.512   07 Jun 2027 05:06:28.112             6.600          3300.000
       105   07 Jun 2027 05:08:35.025   07 Jun 2027 05:10:29.067           114.042         57021.000
       106   07 Jun 2027 05:11:45.347   07 Jun 2027 05:11:45.855             0.508           254.000
       107   07 Jun 2027 06:40:55.647   07 Jun 2027 06:42:12.953            77.306         36815.687
       108   07 Jun 2027 06:46:50.412   07 Jun 2027 06:46:55.109             4.697          1055.500
       109   07 Jun 2027 08:18:26.724   07 Jun 2027 08:18:28.454             1.730           345.719
       110   07 Jun 2027 08:21:00.935   07 Jun 2027 08:21:03.709             2.774           610.531
       111   07 Jun 2027 08:21:16.759   07 Jun 2027 08:21:21.417             4.658            86.250
       112   07 Jun 2027 09:54:45.044   07 Jun 2027 09:54:53.591             8.547          3799.469
       113   07 Jun 2027 11:32:59.395   07 Jun 2027 11:33:01.403             2.008           120.250
       114   08 Jun 2027 03:42:00.195   08 Jun 2027 03:42:09.787             9.592          4796.000
       115   08 Jun 2027 03:42:58.347   08 Jun 2027 03:43:03.598             5.251          2625.500
       116   08 Jun 2027 03:43:25.929   08 Jun 2027 03:43:27.861             1.932           966.000
       117   08 Jun 2027 03:44:25.000   08 Jun 2027 03:44:52.493            27.493         13746.500
       118   08 Jun 2027 05:17:11.179   08 Jun 2027 05:18:20.870            69.691         34845.500
       119   08 Jun 2027 05:18:42.391   08 Jun 2027 05:19:12.704            30.313         15156.500
       120   08 Jun 2027 05:20:03.013   08 Jun 2027 05:20:58.827            55.814         27907.000
       121   08 Jun 2027 05:21:43.796   08 Jun 2027 05:22:43.308            59.512         29756.000
       122   08 Jun 2027 05:23:46.083   08 Jun 2027 05:23:48.163             2.080          1040.000
       123   08 Jun 2027 06:53:30.160   08 Jun 2027 06:54:42.263            72.103         35894.719
       124   08 Jun 2027 08:30:53.043   08 Jun 2027 08:30:59.509             6.466          1609.688
       125   08 Jun 2027 08:35:19.042   08 Jun 2027 08:35:20.444             1.402           193.969
       126   08 Jun 2027 10:07:02.406   08 Jun 2027 10:07:14.958            12.552          5463.625
       127   08 Jun 2027 10:11:39.067   08 Jun 2027 10:11:40.035             0.968           304.719
       128   09 Jun 2027 03:53:57.350   09 Jun 2027 03:54:27.219            29.869         14934.500
       129   09 Jun 2027 05:29:01.616   09 Jun 2027 05:32:04.699           183.083         91541.500
       130   09 Jun 2027 05:35:51.737   09 Jun 2027 05:35:55.031             3.294          1647.000
       131   09 Jun 2027 07:05:07.250   09 Jun 2027 07:06:57.820           110.570         55074.437
       132   09 Jun 2027 07:09:56.959   09 Jun 2027 07:10:02.987             6.028            37.344
       133   09 Jun 2027 08:43:05.799   09 Jun 2027 08:43:17.451            11.652          4501.781
       134   09 Jun 2027 08:45:10.183   09 Jun 2027 08:45:13.768             3.585           593.656
       135   09 Jun 2027 08:45:37.273   09 Jun 2027 08:45:40.138             2.865           654.000
       136   09 Jun 2027 10:18:56.863   09 Jun 2027 10:19:09.239            12.376          6057.000
       137   10 Jun 2027 04:05:42.084   10 Jun 2027 04:06:04.874            22.790         11395.000
       138   10 Jun 2027 04:06:53.763   10 Jun 2027 04:06:55.189             1.426           713.000
       139   10 Jun 2027 04:08:56.957   10 Jun 2027 04:09:16.740            19.783          9891.500
       140   10 Jun 2027 05:40:27.994   10 Jun 2027 05:41:52.504            84.510         42255.000
       141   10 Jun 2027 05:42:16.212   10 Jun 2027 05:42:51.038            34.826         17413.000
       142   10 Jun 2027 05:43:25.128   10 Jun 2027 05:43:37.282            12.154          6077.000
       143   10 Jun 2027 05:44:52.439   10 Jun 2027 05:45:13.706            21.267         10633.500
       144   10 Jun 2027 05:47:56.586   10 Jun 2027 05:48:00.778             4.192          2096.000
       145   10 Jun 2027 07:17:17.571   10 Jun 2027 07:19:37.057           139.486         68886.031
       146   10 Jun 2027 08:55:27.962   10 Jun 2027 08:55:38.005            10.043          4823.781
       147   10 Jun 2027 08:57:08.051   10 Jun 2027 08:57:12.249             4.198           923.656
       148   10 Jun 2027 08:58:13.440   10 Jun 2027 08:58:18.908             5.468           585.187
       149   10 Jun 2027 08:58:35.741   10 Jun 2027 08:58:39.027             3.286           526.031
       150   10 Jun 2027 08:59:09.785   10 Jun 2027 08:59:13.008             3.223           722.844
       151   10 Jun 2027 10:28:45.301   10 Jun 2027 10:28:56.538            11.237          5590.844
       152   11 Jun 2027 04:15:30.071   11 Jun 2027 04:16:00.776            30.705         15352.500
       153   11 Jun 2027 04:16:09.642   11 Jun 2027 04:16:22.739            13.097          6548.500
       154   11 Jun 2027 04:17:26.189   11 Jun 2027 04:17:38.627            12.438          6219.000
       155   11 Jun 2027 04:19:58.181   11 Jun 2027 04:20:01.399             3.218          1609.000
       156   11 Jun 2027 04:20:06.278   11 Jun 2027 04:20:39.178            32.900         16450.000
       157   11 Jun 2027 04:23:21.234   11 Jun 2027 04:23:24.411             3.177          1588.500
       158   11 Jun 2027 05:52:34.809   11 Jun 2027 05:54:28.019           113.210         56605.000
       159   11 Jun 2027 05:54:56.417   11 Jun 2027 05:55:26.407            29.990         14995.000
       160   11 Jun 2027 05:56:19.916   11 Jun 2027 05:57:03.236            43.320         21660.000
       161   11 Jun 2027 06:00:00.659   11 Jun 2027 06:00:01.202             0.543           271.500
       162   11 Jun 2027 07:29:32.948   11 Jun 2027 07:30:37.826            64.878         31834.719
       163   11 Jun 2027 07:34:40.457   11 Jun 2027 07:34:46.298             5.841          1796.719
       164   11 Jun 2027 07:35:40.599   11 Jun 2027 07:35:41.500             0.901           450.500
       165   11 Jun 2027 09:07:29.224   11 Jun 2027 09:07:42.080            12.856          4087.094
       166   11 Jun 2027 10:40:50.875   11 Jun 2027 10:40:59.339             8.464          4080.094
       167   12 Jun 2027 04:26:57.688   12 Jun 2027 04:28:46.910           109.222         54611.000
       168   12 Jun 2027 04:29:15.167   12 Jun 2027 04:29:27.884            12.717          6358.500
       169   12 Jun 2027 04:30:22.121   12 Jun 2027 04:30:27.384             5.263          2631.500
       170   12 Jun 2027 04:35:27.978   12 Jun 2027 04:35:40.146            12.168          6084.000
       171   12 Jun 2027 06:04:36.861   12 Jun 2027 06:07:18.926           162.065         81032.500
       172   12 Jun 2027 06:07:43.666   12 Jun 2027 06:08:17.828            34.162         15845.781
       173   12 Jun 2027 06:09:49.214   12 Jun 2027 06:09:58.114             8.900          2855.813
       174   12 Jun 2027 06:10:42.941   12 Jun 2027 06:10:46.560             3.619           681.844
       175   12 Jun 2027 07:41:23.783   12 Jun 2027 07:41:25.536             1.753           808.250
       176   12 Jun 2027 09:19:26.237   12 Jun 2027 09:19:35.086             8.849          2941.625
       177   12 Jun 2027 09:22:39.213   12 Jun 2027 09:22:41.359             2.146           215.344
       178   12 Jun 2027 09:23:17.947   12 Jun 2027 09:23:23.579             5.632           550.219
       179   12 Jun 2027 09:23:34.998   12 Jun 2027 09:23:36.649             1.651           356.844
       180   12 Jun 2027 10:53:17.132   12 Jun 2027 10:53:22.764             5.632          1510.469
       181   13 Jun 2027 03:03:38.898   13 Jun 2027 03:03:50.795            11.897          5948.500
       182   13 Jun 2027 03:06:32.492   13 Jun 2027 03:06:32.492             0.000             0.000
       183   13 Jun 2027 03:07:02.174   13 Jun 2027 03:07:13.021            10.847          5423.500
       184   13 Jun 2027 03:07:29.681   13 Jun 2027 03:07:37.736             8.055          4027.500
       185   13 Jun 2027 04:38:31.858   13 Jun 2027 04:40:28.632           116.774         58387.000
       186   13 Jun 2027 04:40:53.742   13 Jun 2027 04:41:29.788            36.046         18023.000
       187   13 Jun 2027 04:42:14.380   13 Jun 2027 04:42:34.737            20.357         10178.500
       188   13 Jun 2027 04:47:06.866   13 Jun 2027 04:47:22.763            15.897          7948.500
       189   13 Jun 2027 04:47:27.833   13 Jun 2027 04:47:41.169            13.336          6668.000
       190   13 Jun 2027 06:16:38.958   13 Jun 2027 06:18:12.060            93.102         46551.000
       191   13 Jun 2027 06:19:04.003   13 Jun 2027 06:19:10.911             6.908          2370.312
       192   13 Jun 2027 06:19:24.921   13 Jun 2027 06:19:24.921             0.000             0.000
       193   13 Jun 2027 06:19:49.018   13 Jun 2027 06:19:53.789             4.771          1190.844
       194   13 Jun 2027 06:21:11.356   13 Jun 2027 06:21:12.166             0.810           138.219
       195   13 Jun 2027 06:21:15.062   13 Jun 2027 06:21:15.848             0.786            90.500
       196   13 Jun 2027 06:21:53.109   13 Jun 2027 06:21:54.835             1.726           327.500
       197   13 Jun 2027 07:53:34.011   13 Jun 2027 07:53:42.363             8.352          1180.906
       198   13 Jun 2027 07:53:55.113   13 Jun 2027 07:53:58.673             3.560           154.500
       199   13 Jun 2027 07:57:57.807   13 Jun 2027 07:58:00.194             2.387           666.875
       200   13 Jun 2027 09:30:41.162   13 Jun 2027 09:30:47.323             6.161          2784.031
       201   13 Jun 2027 11:05:35.565   13 Jun 2027 11:05:38.501             2.936           199.125
