uniorb/output/strategy_4/Camera/Camera_KinoSat_111801.txt

KinoSat_111801
-------------------------
    Access    *     Start Time (UTCG)     *     Stop Time (UTCG)  *   Duration (s) *   Data (Mbytes)
         1   01 Jun 2027 03:44:00.441   01 Jun 2027 03:44:27.026            26.585         13292.500
         2   01 Jun 2027 03:44:32.009   01 Jun 2027 03:45:06.600            34.591         17295.500
         3   01 Jun 2027 03:45:10.324   01 Jun 2027 03:46:26.709            76.385         38192.500
         4   01 Jun 2027 03:48:35.030   01 Jun 2027 03:48:49.736            14.706          7353.000
         5   01 Jun 2027 03:49:09.215   01 Jun 2027 03:49:23.518            14.303          7151.500
         6   01 Jun 2027 05:22:46.934   01 Jun 2027 05:24:11.648            84.714         42357.000
         7   01 Jun 2027 05:24:37.148   01 Jun 2027 05:24:51.436            14.288          7144.000
         8   01 Jun 2027 05:25:04.383   01 Jun 2027 05:25:04.383             0.000             0.000
         9   01 Jun 2027 05:25:22.234   01 Jun 2027 05:25:32.079             9.845          4922.500
        10   01 Jun 2027 05:25:59.526   01 Jun 2027 05:26:05.204             5.678          2839.000
        11   01 Jun 2027 05:28:01.717   01 Jun 2027 05:28:03.373             1.656           828.000
        12   01 Jun 2027 05:29:25.874   01 Jun 2027 05:29:41.158            15.284          7642.000
        13   01 Jun 2027 05:29:44.935   01 Jun 2027 05:29:47.945             3.010          1505.000
        14   01 Jun 2027 06:47:07.707   01 Jun 2027 06:48:15.368            67.661         33830.500
        15   01 Jun 2027 06:59:24.339   01 Jun 2027 06:59:52.013            27.674         13837.000
        16   01 Jun 2027 08:21:14.755   01 Jun 2027 08:22:28.587            73.832         36916.000
        17   01 Jun 2027 08:23:18.200   01 Jun 2027 08:23:52.741            34.541         17270.500
        18   01 Jun 2027 08:25:23.490   01 Jun 2027 08:25:23.490             0.000             0.000
        19   01 Jun 2027 08:25:46.128   01 Jun 2027 08:25:58.841            12.713          6356.500
        20   01 Jun 2027 08:26:27.538   01 Jun 2027 08:26:55.302            27.764         13882.000
        21   01 Jun 2027 09:56:02.834   01 Jun 2027 09:57:04.090            61.256         30628.000
        22   01 Jun 2027 09:58:06.941   01 Jun 2027 09:58:33.787            26.846         13423.000
        23   01 Jun 2027 10:04:59.165   01 Jun 2027 10:04:59.282             0.117            58.500
        24   01 Jun 2027 11:39:52.182   01 Jun 2027 11:41:19.853            87.671         43835.500
        25   02 Jun 2027 03:56:43.208   02 Jun 2027 03:56:59.329            16.121          8060.500
        26   02 Jun 2027 03:57:07.405   02 Jun 2027 03:58:19.877            72.472         36236.000
        27   02 Jun 2027 03:58:47.567   02 Jun 2027 03:59:51.115            63.548         31774.000
        28   02 Jun 2027 04:01:19.363   02 Jun 2027 04:01:21.133             1.770           885.000
        29   02 Jun 2027 04:01:44.973   02 Jun 2027 04:01:50.984             6.011          3005.500
        30   02 Jun 2027 05:35:11.369   02 Jun 2027 05:36:37.124            85.755         42877.500
        31   02 Jun 2027 05:37:03.722   02 Jun 2027 05:38:53.865           110.143         55071.500
        32   02 Jun 2027 05:38:57.260   02 Jun 2027 05:40:08.012            70.752         35376.000
        33   02 Jun 2027 06:59:05.891   02 Jun 2027 06:59:33.341            27.450         13725.000
        34   02 Jun 2027 07:01:11.508   02 Jun 2027 07:01:11.508             0.000             0.000
        35   02 Jun 2027 08:35:03.138   02 Jun 2027 08:37:56.695           173.557         86778.500
        36   02 Jun 2027 08:38:22.262   02 Jun 2027 08:38:59.348            37.086         18543.000
        37   02 Jun 2027 10:08:51.731   02 Jun 2027 10:10:03.875            72.144         35809.251
        38   02 Jun 2027 10:10:57.109   02 Jun 2027 10:10:58.867             1.758           879.000
        39   02 Jun 2027 10:11:11.782   02 Jun 2027 10:11:13.442             1.660           460.094
        40   02 Jun 2027 10:16:24.083   02 Jun 2027 10:16:42.658            18.575          9097.156
        41   02 Jun 2027 10:17:08.611   02 Jun 2027 10:17:14.028             5.417           390.656
        42   02 Jun 2027 11:46:01.317   02 Jun 2027 11:46:14.016            12.699          5530.812
        43   02 Jun 2027 11:51:11.781   02 Jun 2027 11:51:27.316            15.535          7733.844
        44   02 Jun 2027 11:52:16.545   02 Jun 2027 11:52:20.474             3.929           998.375
        45   02 Jun 2027 11:52:37.458   02 Jun 2027 11:52:40.879             3.421           120.281
        46   03 Jun 2027 04:09:27.656   03 Jun 2027 04:09:34.064             6.408          3204.000
        47   03 Jun 2027 04:10:08.935   03 Jun 2027 04:10:55.701            46.766         23383.000
        48   03 Jun 2027 04:10:57.231   03 Jun 2027 04:12:11.836            74.605         37302.500
        49   03 Jun 2027 04:13:50.698   03 Jun 2027 04:14:18.937            28.239         14119.500
        50   03 Jun 2027 05:47:35.368   03 Jun 2027 05:48:18.814            43.446         21723.000
        51   03 Jun 2027 05:48:25.614   03 Jun 2027 05:50:31.608           125.994         62640.593
        52   03 Jun 2027 07:10:58.830   03 Jun 2027 07:11:19.155            20.325          8841.969
        53   03 Jun 2027 07:12:18.321   03 Jun 2027 07:12:18.321             0.000             0.000
        54   03 Jun 2027 07:12:37.108   03 Jun 2027 07:12:43.563             6.455          2312.625
        55   03 Jun 2027 08:47:21.165   03 Jun 2027 08:47:42.031            20.866          9467.437
        56   03 Jun 2027 08:48:10.705   03 Jun 2027 08:48:11.843             1.138           557.750
        57   03 Jun 2027 08:50:07.094   03 Jun 2027 08:50:15.428             8.334          3476.750
        58   03 Jun 2027 10:21:13.544   03 Jun 2027 10:21:18.975             5.431          2319.094
        59   03 Jun 2027 10:22:59.820   03 Jun 2027 10:22:59.820             0.000             0.000
        60   03 Jun 2027 10:23:15.813   03 Jun 2027 10:23:21.286             5.473          2654.219
        61   03 Jun 2027 10:24:01.414   03 Jun 2027 10:24:08.305             6.891          1213.562
        62   03 Jun 2027 10:26:40.886   03 Jun 2027 10:26:46.265             5.379          1876.938
        63   03 Jun 2027 10:27:47.759   03 Jun 2027 10:27:54.743             6.984           781.875
        64   03 Jun 2027 10:28:22.125   03 Jun 2027 10:28:25.870             3.745           683.969
        65   03 Jun 2027 10:29:21.478   03 Jun 2027 10:29:23.575             2.097          1048.500
        66   03 Jun 2027 11:58:28.083   03 Jun 2027 11:58:38.779            10.696          4933.656
        67   04 Jun 2027 04:22:13.141   04 Jun 2027 04:22:27.486            14.345          7172.500
        68   04 Jun 2027 04:22:33.336   04 Jun 2027 04:24:12.665            99.329         49664.500
        69   04 Jun 2027 04:24:28.050   04 Jun 2027 04:24:52.604            24.554         12277.000
        70   04 Jun 2027 05:59:54.498   04 Jun 2027 06:03:18.324           203.826        101073.031
        71   04 Jun 2027 07:22:47.823   04 Jun 2027 07:23:08.775            20.952          7166.250
        72   04 Jun 2027 07:25:05.533   04 Jun 2027 07:25:15.012             9.479          3475.313
        73   04 Jun 2027 08:59:24.767   04 Jun 2027 08:59:30.586             5.819          2756.594
        74   04 Jun 2027 09:02:06.934   04 Jun 2027 09:02:15.847             8.913          4138.656
        75   04 Jun 2027 10:34:31.523   04 Jun 2027 10:34:36.506             4.983          2165.031
        76   04 Jun 2027 10:35:36.100   04 Jun 2027 10:35:37.743             1.643           671.500
        77   04 Jun 2027 10:37:39.053   04 Jun 2027 10:37:46.675             7.622          3790.938
        78   04 Jun 2027 10:38:48.567   04 Jun 2027 10:38:55.975             7.408          1744.156
        79   04 Jun 2027 10:39:54.440   04 Jun 2027 10:40:02.616             8.176          1573.156
        80   04 Jun 2027 10:40:33.915   04 Jun 2027 10:40:35.028             1.113           467.281
        81   04 Jun 2027 10:40:45.679   04 Jun 2027 10:40:47.521             1.842           332.844
        82   04 Jun 2027 10:41:16.682   04 Jun 2027 10:41:17.703             1.021           451.438
        83   05 Jun 2027 03:00:00.000   05 Jun 2027 03:00:18.746            18.746          9373.000
        84   05 Jun 2027 03:00:20.012   05 Jun 2027 03:00:45.896            25.884         12942.000
        85   05 Jun 2027 03:01:19.707   05 Jun 2027 03:01:22.481             2.774          1387.000
        86   05 Jun 2027 03:01:28.763   05 Jun 2027 03:01:31.538             2.775          1387.500
        87   05 Jun 2027 04:33:21.870   05 Jun 2027 04:34:21.991            60.121         30060.500
        88   05 Jun 2027 04:34:29.400   05 Jun 2027 04:35:21.180            51.780         25890.000
        89   05 Jun 2027 04:36:57.767   05 Jun 2027 04:37:31.257            33.490         16745.000
        90   05 Jun 2027 04:37:41.785   05 Jun 2027 04:37:43.939             2.154          1077.000
        91   05 Jun 2027 06:11:38.987   05 Jun 2027 06:12:13.794            34.807         17403.500
        92   05 Jun 2027 06:12:27.653   05 Jun 2027 06:14:04.782            97.129         47941.312
        93   05 Jun 2027 06:15:21.095   05 Jun 2027 06:15:22.599             1.504           623.031
        94   05 Jun 2027 07:35:01.709   05 Jun 2027 07:35:13.522            11.813          5125.375
        95   05 Jun 2027 07:35:52.314   05 Jun 2027 07:35:54.922             2.608           677.312
        96   05 Jun 2027 07:36:32.065   05 Jun 2027 07:36:34.128             2.063           966.656
        97   05 Jun 2027 07:37:03.189   05 Jun 2027 07:37:05.420             2.231           908.156
        98   05 Jun 2027 07:37:37.532   05 Jun 2027 07:37:41.726             4.194            84.781
        99   05 Jun 2027 07:37:51.764   05 Jun 2027 07:37:52.824             1.060           313.688
       100   05 Jun 2027 09:11:35.513   05 Jun 2027 09:11:48.963            13.450          3511.406
       101   05 Jun 2027 09:12:44.144   05 Jun 2027 09:12:48.989             4.845          1724.406
       102   05 Jun 2027 09:13:06.185   05 Jun 2027 09:13:08.908             2.723           324.031
       103   05 Jun 2027 09:13:55.601   05 Jun 2027 09:14:06.170            10.569          1055.875
       104   05 Jun 2027 10:47:03.807   05 Jun 2027 10:47:14.720            10.913          5277.125
       105   05 Jun 2027 10:49:36.258   05 Jun 2027 10:49:43.702             7.444          3007.688
       106   05 Jun 2027 10:50:11.406   05 Jun 2027 10:50:12.557             1.151           376.531
       107   05 Jun 2027 10:51:08.249   05 Jun 2027 10:51:11.520             3.271          1284.219
       108   05 Jun 2027 10:51:58.363   05 Jun 2027 10:52:08.869            10.506           874.000
       109   05 Jun 2027 10:52:20.980   05 Jun 2027 10:52:22.599             1.619           241.094
       110   05 Jun 2027 10:52:54.249   05 Jun 2027 10:52:57.213             2.964           289.563
       111   05 Jun 2027 10:53:20.090   05 Jun 2027 10:53:21.399             1.309           607.187
       112   06 Jun 2027 03:07:10.691   06 Jun 2027 03:07:15.676             4.985          2492.500
       113   06 Jun 2027 03:07:26.775   06 Jun 2027 03:07:38.130            11.355          5677.500
       114   06 Jun 2027 03:07:40.021   06 Jun 2027 03:08:15.235            35.214         17607.000
       115   06 Jun 2027 03:08:23.712   06 Jun 2027 03:08:31.742             8.030          4015.000
       116   06 Jun 2027 03:08:56.656   06 Jun 2027 03:09:03.652             6.996          3498.000
       117   06 Jun 2027 03:10:02.429   06 Jun 2027 03:10:08.115             5.686          2843.000
       118   06 Jun 2027 03:10:20.329   06 Jun 2027 03:10:34.343            14.014          7007.000
       119   06 Jun 2027 03:11:27.470   06 Jun 2027 03:11:31.703             4.233          2116.500
       120   06 Jun 2027 03:11:37.314   06 Jun 2027 03:11:47.397            10.083          5041.500
       121   06 Jun 2027 03:12:55.965   06 Jun 2027 03:13:12.007            16.042          8021.000
       122   06 Jun 2027 03:13:55.119   06 Jun 2027 03:14:03.293             8.174          4087.000
       123   06 Jun 2027 04:46:28.462   06 Jun 2027 04:49:06.192           157.730         78865.000
       124   06 Jun 2027 04:52:52.103   06 Jun 2027 04:53:37.226            45.123         21711.313
       125   06 Jun 2027 06:23:35.727   06 Jun 2027 06:23:58.870            23.143         11420.469
       126   06 Jun 2027 07:47:31.688   06 Jun 2027 07:47:37.895             6.207          3092.375
       127   06 Jun 2027 07:48:10.428   06 Jun 2027 07:48:16.039             5.611           209.938
       128   06 Jun 2027 07:49:38.426   06 Jun 2027 07:49:44.908             6.482          2420.281
       129   06 Jun 2027 09:23:26.084   06 Jun 2027 09:23:37.585            11.501          2524.281
       130   06 Jun 2027 09:25:11.636   06 Jun 2027 09:25:17.818             6.182          2826.313
       131   06 Jun 2027 09:25:43.722   06 Jun 2027 09:25:53.677             9.955           267.000
       132   06 Jun 2027 09:26:44.544   06 Jun 2027 09:26:48.022             3.478          1477.813
       133   06 Jun 2027 10:58:19.047   06 Jun 2027 10:58:28.527             9.480          3035.969
       134   06 Jun 2027 11:00:27.904   06 Jun 2027 11:00:34.103             6.199          3092.781
       135   06 Jun 2027 11:01:37.362   06 Jun 2027 11:01:41.315             3.953           695.687
       136   06 Jun 2027 11:02:53.279   06 Jun 2027 11:02:56.237             2.958          1272.000
       137   06 Jun 2027 11:03:03.802   06 Jun 2027 11:03:05.173             1.371           128.625
       138   06 Jun 2027 11:04:04.789   06 Jun 2027 11:04:09.907             5.118          1110.094
       139   06 Jun 2027 11:04:45.654   06 Jun 2027 11:04:47.846             2.192           706.531
       140   06 Jun 2027 11:04:56.581   06 Jun 2027 11:05:01.194             4.613           119.250
       141   06 Jun 2027 11:05:16.690   06 Jun 2027 11:05:19.275             2.585           156.625
       142   07 Jun 2027 03:19:52.075   07 Jun 2027 03:22:30.957           158.882         79441.000
       143   07 Jun 2027 03:24:07.471   07 Jun 2027 03:24:31.553            24.082         12041.000
       144   07 Jun 2027 03:25:07.097   07 Jun 2027 03:25:08.349             1.252           626.000
       145   07 Jun 2027 03:25:37.185   07 Jun 2027 03:25:53.564            16.379          8189.500
       146   07 Jun 2027 03:26:15.940   07 Jun 2027 03:26:16.063             0.123            61.500
       147   07 Jun 2027 04:58:32.902   07 Jun 2027 05:00:15.005           102.103         49021.187
       148   07 Jun 2027 05:00:32.690   07 Jun 2027 05:00:39.551             6.861           265.563
       149   07 Jun 2027 05:04:42.401   07 Jun 2027 05:04:55.800            13.399          6645.156
       150   07 Jun 2027 05:06:06.710   07 Jun 2027 05:06:09.786             3.076          1538.000
       151   07 Jun 2027 06:24:17.234   07 Jun 2027 06:24:25.005             7.771          3802.688
       152   07 Jun 2027 06:35:32.929   07 Jun 2027 06:35:39.438             6.509          3032.344
       153   07 Jun 2027 07:58:08.798   07 Jun 2027 07:58:15.932             7.134          3363.375
       154   07 Jun 2027 07:58:17.271   07 Jun 2027 07:58:17.685             0.414            41.844
       155   07 Jun 2027 07:59:17.555   07 Jun 2027 07:59:23.626             6.071          1598.375
       156   07 Jun 2027 07:59:31.845   07 Jun 2027 07:59:32.730             0.885           228.969
       157   07 Jun 2027 08:00:32.937   07 Jun 2027 08:00:35.566             2.629           839.281
       158   07 Jun 2027 08:02:21.460   07 Jun 2027 08:02:25.463             4.003          1541.312
       159   07 Jun 2027 09:33:42.728   07 Jun 2027 09:33:47.458             4.730          2132.187
       160   07 Jun 2027 09:34:03.616   07 Jun 2027 09:34:06.404             2.788            61.531
       161   07 Jun 2027 09:34:18.550   07 Jun 2027 09:34:22.576             4.026            82.656
       162   07 Jun 2027 09:36:45.399   07 Jun 2027 09:36:50.097             4.698          1584.781
       163   07 Jun 2027 09:38:09.414   07 Jun 2027 09:38:10.172             0.758           340.375
       164   07 Jun 2027 09:39:35.937   07 Jun 2027 09:39:43.138             7.201          2494.375
       165   07 Jun 2027 11:10:27.618   07 Jun 2027 11:10:37.344             9.726          3982.469
       166   07 Jun 2027 11:13:00.286   07 Jun 2027 11:13:09.001             8.715          4122.875
       167   07 Jun 2027 11:14:21.479   07 Jun 2027 11:14:27.437             5.958          1715.688
       168   07 Jun 2027 11:15:07.882   07 Jun 2027 11:15:14.323             6.441           826.437
       169   07 Jun 2027 11:15:57.129   07 Jun 2027 11:16:05.042             7.913          1257.563
       170   07 Jun 2027 11:16:50.792   07 Jun 2027 11:16:57.069             6.277          1232.063
       171   07 Jun 2027 11:17:10.998   07 Jun 2027 11:17:12.056             1.058           127.469
       172   08 Jun 2027 03:31:58.192   08 Jun 2027 03:35:06.657           188.465         94232.500
       173   08 Jun 2027 03:36:38.254   08 Jun 2027 03:36:58.673            20.419         10209.500
       174   08 Jun 2027 03:37:50.352   08 Jun 2027 03:37:53.163             2.811          1405.500
       175   08 Jun 2027 05:11:03.072   08 Jun 2027 05:12:41.418            98.346         48668.375
       176   08 Jun 2027 05:13:49.543   08 Jun 2027 05:13:53.521             3.978          1956.969
       177   08 Jun 2027 05:16:10.351   08 Jun 2027 05:16:14.546             4.195          2005.219
       178   08 Jun 2027 05:16:19.291   08 Jun 2027 05:16:20.705             1.414           148.281
       179   08 Jun 2027 05:16:53.421   08 Jun 2027 05:16:54.663             1.242           611.031
       180   08 Jun 2027 06:35:52.803   08 Jun 2027 06:36:03.512            10.709          5354.500
       181   08 Jun 2027 06:36:13.087   08 Jun 2027 06:36:13.771             0.684           320.969
       182   08 Jun 2027 06:37:08.601   08 Jun 2027 06:37:12.096             3.495          1299.062
       183   08 Jun 2027 06:47:32.934   08 Jun 2027 06:47:40.857             7.923          2980.031
       184   08 Jun 2027 06:47:54.985   08 Jun 2027 06:47:55.253             0.268           103.438
       185   08 Jun 2027 08:09:51.840   08 Jun 2027 08:10:04.359            12.519          5885.156
       186   08 Jun 2027 08:10:28.185   08 Jun 2027 08:10:29.255             1.070           237.344
       187   08 Jun 2027 08:12:20.783   08 Jun 2027 08:12:26.345             5.562          2762.000
       188   08 Jun 2027 08:13:41.193   08 Jun 2027 08:13:50.797             9.604          2001.937
       189   08 Jun 2027 08:14:43.325   08 Jun 2027 08:14:49.673             6.348          1316.656
       190   08 Jun 2027 09:44:50.112   08 Jun 2027 09:44:57.057             6.945          2594.219
       191   08 Jun 2027 09:47:52.661   08 Jun 2027 09:47:55.195             2.534           668.812
       192   08 Jun 2027 09:49:59.354   08 Jun 2027 09:50:09.525            10.171          2827.219
       193   08 Jun 2027 09:51:36.416   08 Jun 2027 09:51:41.649             5.233          2467.688
       194   08 Jun 2027 11:25:18.892   08 Jun 2027 11:25:37.880            18.988          9302.281
       195   08 Jun 2027 11:28:32.073   08 Jun 2027 11:28:43.140            11.067          5443.531
       196   08 Jun 2027 11:29:27.507   08 Jun 2027 11:29:31.615             4.108           928.375
       197   09 Jun 2027 03:44:18.474   09 Jun 2027 03:45:23.805            65.331         32665.500
       198   09 Jun 2027 03:45:27.876   09 Jun 2027 03:46:21.772            53.896         26948.000
       199   09 Jun 2027 03:46:23.713   09 Jun 2027 03:46:42.483            18.770          9385.000
       200   09 Jun 2027 03:48:15.959   09 Jun 2027 03:48:20.814             4.855          2427.500
       201   09 Jun 2027 03:49:50.200   09 Jun 2027 03:50:17.718            27.518         13759.000
       202   09 Jun 2027 05:23:05.563   09 Jun 2027 05:25:22.257           136.694         67591.625
       203   09 Jun 2027 05:27:00.469   09 Jun 2027 05:27:07.745             7.276          3069.125
       204   09 Jun 2027 05:27:08.802   09 Jun 2027 05:27:09.083             0.281            33.031
       205   09 Jun 2027 05:27:49.585   09 Jun 2027 05:27:53.695             4.110           974.094
       206   09 Jun 2027 05:27:57.946   09 Jun 2027 05:27:59.725             1.779           132.844
       207   09 Jun 2027 05:28:39.307   09 Jun 2027 05:28:40.416             1.109           542.562
       208   09 Jun 2027 05:29:58.292   09 Jun 2027 05:30:03.341             5.049          2372.500
       209   09 Jun 2027 06:47:25.763   09 Jun 2027 06:47:38.333            12.570          5882.969
       210   09 Jun 2027 06:48:32.647   09 Jun 2027 06:48:38.211             5.564          1496.156
       211   09 Jun 2027 06:48:51.126   09 Jun 2027 06:48:54.603             3.477           290.750
       212   09 Jun 2027 06:49:27.711   09 Jun 2027 06:49:30.036             2.325           411.844
       213   09 Jun 2027 06:59:41.632   09 Jun 2027 06:59:55.346            13.714          3378.625
       214   09 Jun 2027 08:21:28.827   09 Jun 2027 08:21:40.283            11.456          5472.250
       215   09 Jun 2027 08:22:05.477   09 Jun 2027 08:22:08.837             3.360           126.531
       216   09 Jun 2027 08:23:42.753   09 Jun 2027 08:23:48.071             5.318          2196.750
       217   09 Jun 2027 08:24:43.954   09 Jun 2027 08:24:43.954             0.000             0.000
       218   09 Jun 2027 08:25:00.739   09 Jun 2027 08:25:10.813            10.074          1584.562
       219   09 Jun 2027 08:26:04.074   09 Jun 2027 08:26:09.112             5.038           763.219
       220   09 Jun 2027 09:56:18.010   09 Jun 2027 09:56:24.329             6.319          2554.625
       221   09 Jun 2027 09:58:18.191   09 Jun 2027 09:58:22.263             4.072           348.656
       222   09 Jun 2027 09:59:03.833   09 Jun 2027 09:59:09.503             5.670          1218.031
       223   09 Jun 2027 10:00:04.864   09 Jun 2027 10:00:07.917             3.053           477.438
       224   09 Jun 2027 10:03:14.003   09 Jun 2027 10:03:18.883             4.880          2322.813
       225   09 Jun 2027 10:04:41.644   09 Jun 2027 10:04:46.361             4.717          1803.312
       226   09 Jun 2027 10:05:04.892   09 Jun 2027 10:05:05.788             0.896            62.687
       227   09 Jun 2027 10:05:22.246   09 Jun 2027 10:05:23.480             1.234           377.750
       228   09 Jun 2027 11:34:11.500   09 Jun 2027 11:34:32.761            21.261          3882.750
       229   09 Jun 2027 11:35:17.351   09 Jun 2027 11:35:22.301             4.950           554.906
       230   09 Jun 2027 11:37:08.449   09 Jun 2027 11:37:11.423             2.974          1368.312
       231   09 Jun 2027 11:38:27.070   09 Jun 2027 11:38:31.643             4.573          1416.313
       232   09 Jun 2027 11:38:50.500   09 Jun 2027 11:38:52.613             2.113           289.563
       233   09 Jun 2027 11:39:22.704   09 Jun 2027 11:39:26.150             3.446           809.563
       234   09 Jun 2027 11:40:36.620   09 Jun 2027 11:40:43.600             6.980          1905.375
       235   09 Jun 2027 11:40:59.245   09 Jun 2027 11:41:02.349             3.104           311.844
       236   09 Jun 2027 11:41:28.083   09 Jun 2027 11:41:32.108             4.025           695.781
       237   10 Jun 2027 03:57:01.376   10 Jun 2027 03:57:15.268            13.892          6946.000
       238   10 Jun 2027 03:57:24.855   10 Jun 2027 03:58:17.607            52.752         26376.000
       239   10 Jun 2027 03:59:53.519   10 Jun 2027 04:00:54.903            61.384         30692.000
       240   10 Jun 2027 05:35:31.504   10 Jun 2027 05:36:52.073            80.569         40284.500
       241   10 Jun 2027 05:37:33.023   10 Jun 2027 05:38:14.550            41.527         20763.500
       242   10 Jun 2027 05:38:40.665   10 Jun 2027 05:39:08.702            28.037         14018.500
       243   10 Jun 2027 05:39:11.504   10 Jun 2027 05:39:51.802            40.298         18737.782
       244   10 Jun 2027 06:59:22.481   10 Jun 2027 06:59:44.782            22.301          8014.750
       245   10 Jun 2027 07:01:31.168   10 Jun 2027 07:01:37.935             6.767          3320.875
       246   10 Jun 2027 08:35:22.229   10 Jun 2027 08:35:30.287             8.058          4029.000
       247   10 Jun 2027 08:35:44.287   10 Jun 2027 08:35:57.613            13.326          3035.750
       248   10 Jun 2027 08:36:18.036   10 Jun 2027 08:36:19.603             1.567           594.406
       249   10 Jun 2027 08:38:24.479   10 Jun 2027 08:38:31.385             6.906          2870.281
       250   10 Jun 2027 10:09:10.471   10 Jun 2027 10:09:17.420             6.949          2354.812
       251   10 Jun 2027 10:11:17.185   10 Jun 2027 10:11:19.903             2.718           954.687
       252   10 Jun 2027 10:11:45.209   10 Jun 2027 10:11:54.038             8.829           627.875
       253   10 Jun 2027 10:13:20.644   10 Jun 2027 10:13:24.669             4.025           256.281
       254   10 Jun 2027 10:15:09.132   10 Jun 2027 10:15:15.533             6.401          2179.719
       255   10 Jun 2027 10:16:14.580   10 Jun 2027 10:16:19.084             4.504          1443.469
       256   10 Jun 2027 11:46:19.254   10 Jun 2027 11:46:28.787             9.533          4632.562
       257   10 Jun 2027 11:47:44.482   10 Jun 2027 11:47:51.459             6.977          1720.438
       258   10 Jun 2027 11:48:34.895   10 Jun 2027 11:48:37.556             2.661          1283.656
       259   10 Jun 2027 11:49:04.368   10 Jun 2027 11:49:08.697             4.329           815.844
       260   10 Jun 2027 11:50:24.589   10 Jun 2027 11:50:32.179             7.590          1191.469
       261   10 Jun 2027 11:50:46.650   10 Jun 2027 11:50:48.321             1.671           201.938
       262   10 Jun 2027 11:50:56.696   10 Jun 2027 11:50:57.958             1.262           225.437
       263   10 Jun 2027 11:51:05.400   10 Jun 2027 11:51:06.728             1.328           232.562
       264   10 Jun 2027 11:51:24.321   10 Jun 2027 11:51:26.563             2.242           317.531
       265   10 Jun 2027 11:52:31.216   10 Jun 2027 11:52:38.513             7.297          1842.344
       266   10 Jun 2027 11:52:52.012   10 Jun 2027 11:52:52.942             0.930            34.594
       267   10 Jun 2027 11:52:54.354   10 Jun 2027 11:52:58.651             4.297            44.125
       268   11 Jun 2027 04:09:41.866   11 Jun 2027 04:10:03.967            22.101         11050.500
       269   11 Jun 2027 04:10:17.373   11 Jun 2027 04:12:09.232           111.859         55929.500
       270   11 Jun 2027 04:13:39.857   11 Jun 2027 04:13:50.864            11.007          5503.500
       271   11 Jun 2027 05:47:52.565   11 Jun 2027 05:48:18.845            26.280         13140.000
       272   11 Jun 2027 05:49:42.835   11 Jun 2027 05:52:18.972           156.137         77465.531
       273   11 Jun 2027 07:11:15.949   11 Jun 2027 07:11:38.471            22.522         11261.000
       274   11 Jun 2027 07:12:35.573   11 Jun 2027 07:12:44.336             8.763          3104.156
       275   11 Jun 2027 07:12:57.145   11 Jun 2027 07:12:58.388             1.243           400.281
       276   11 Jun 2027 07:13:46.016   11 Jun 2027 07:13:46.802             0.786           393.000
       277   11 Jun 2027 08:47:38.079   11 Jun 2027 08:48:01.160            23.081          8100.281
       278   11 Jun 2027 08:48:12.633   11 Jun 2027 08:48:14.750             2.117            64.187
       279   11 Jun 2027 08:48:17.896   11 Jun 2027 08:48:18.136             0.240            81.469
       280   11 Jun 2027 08:48:35.823   11 Jun 2027 08:48:39.884             4.061           432.156
       281   11 Jun 2027 08:49:33.641   11 Jun 2027 08:49:35.928             2.287           865.906
       282   11 Jun 2027 08:50:09.255   11 Jun 2027 08:50:12.776             3.521           871.500
       283   11 Jun 2027 10:21:34.618   11 Jun 2027 10:21:40.680             6.062          2493.375
       284   11 Jun 2027 10:23:19.651   11 Jun 2027 10:23:26.830             7.179          2213.531
       285   11 Jun 2027 10:23:39.193   11 Jun 2027 10:23:39.964             0.771           126.125
       286   11 Jun 2027 10:25:58.376   11 Jun 2027 10:26:08.508            10.132          2995.125
       287   11 Jun 2027 10:28:19.418   11 Jun 2027 10:28:25.329             5.911          2583.469
       288   11 Jun 2027 10:28:38.342   11 Jun 2027 10:28:38.693             0.351           173.625
       289   11 Jun 2027 10:28:50.270   11 Jun 2027 10:28:52.629             2.359           259.031
       290   11 Jun 2027 11:58:45.051   11 Jun 2027 11:58:59.047            13.996          6145.875
       291   12 Jun 2027 04:21:44.576   12 Jun 2027 04:22:44.924            60.348         30174.000
       292   12 Jun 2027 04:22:50.706   12 Jun 2027 04:24:26.600            95.894         47947.000
       293   12 Jun 2027 04:24:38.125   12 Jun 2027 04:24:47.400             9.275          4637.500
       294   12 Jun 2027 06:00:45.182   12 Jun 2027 06:03:36.443           171.261         85496.188
       295   12 Jun 2027 07:23:08.516   12 Jun 2027 07:23:24.915            16.399          5948.687
       296   12 Jun 2027 07:24:36.731   12 Jun 2027 07:24:41.145             4.414          2098.812
       297   12 Jun 2027 07:25:05.244   12 Jun 2027 07:25:06.430             1.186           419.719
       298   12 Jun 2027 07:25:47.777   12 Jun 2027 07:25:47.777             0.000             0.000
       299   12 Jun 2027 09:00:11.269   12 Jun 2027 09:00:25.048            13.779          5309.281
       300   12 Jun 2027 09:00:39.533   12 Jun 2027 09:00:39.946             0.413            77.531
       301   12 Jun 2027 09:00:43.417   12 Jun 2027 09:00:50.646             7.229           108.469
       302   12 Jun 2027 09:01:24.022   12 Jun 2027 09:01:24.645             0.623            82.500
       303   12 Jun 2027 09:02:11.491   12 Jun 2027 09:02:17.623             6.132          1337.000
       304   12 Jun 2027 10:34:51.167   12 Jun 2027 10:34:57.346             6.179          2662.250
       305   12 Jun 2027 10:35:58.011   12 Jun 2027 10:36:01.775             3.764           842.875
       306   12 Jun 2027 10:38:03.370   12 Jun 2027 10:38:10.672             7.302          1251.219
       307   12 Jun 2027 10:40:45.998   12 Jun 2027 10:40:53.908             7.910          3953.219
       308   12 Jun 2027 10:41:24.429   12 Jun 2027 10:41:25.968             1.539           706.750
       309   12 Jun 2027 10:41:30.549   12 Jun 2027 10:41:31.356             0.807           143.156
       310   13 Jun 2027 03:00:00.000   13 Jun 2027 03:00:36.939            36.939         18469.500
       311   13 Jun 2027 04:33:40.091   13 Jun 2027 04:34:36.664            56.573         28286.500
       312   13 Jun 2027 04:34:46.969   13 Jun 2027 04:35:56.905            69.936         34968.000
       313   13 Jun 2027 04:36:07.979   13 Jun 2027 04:36:19.777            11.798          5899.000
       314   13 Jun 2027 04:37:56.506   13 Jun 2027 04:37:58.412             1.906           953.000
       315   13 Jun 2027 06:11:56.177   13 Jun 2027 06:14:32.531           156.354         77061.938
       316   13 Jun 2027 07:35:17.851   13 Jun 2027 07:35:28.167            10.316          4304.688
       317   13 Jun 2027 07:36:08.581   13 Jun 2027 07:36:10.143             1.562           698.125
       318   13 Jun 2027 07:36:48.668   13 Jun 2027 07:36:52.521             3.853           942.625
       319   13 Jun 2027 07:38:23.452   13 Jun 2027 07:38:25.873             2.421          1112.031
       320   13 Jun 2027 09:11:53.041   13 Jun 2027 09:12:05.450            12.409          2248.313
       321   13 Jun 2027 09:13:04.133   13 Jun 2027 09:13:10.011             5.878          1829.594
       322   13 Jun 2027 09:13:22.022   13 Jun 2027 09:13:24.492             2.470           249.375
       323   13 Jun 2027 09:14:13.446   13 Jun 2027 09:14:23.727            10.281          1043.094
       324   13 Jun 2027 10:47:19.972   13 Jun 2027 10:47:31.490            11.518          5309.812
       325   13 Jun 2027 10:48:42.951   13 Jun 2027 10:48:45.175             2.224           717.469
       326   13 Jun 2027 10:53:23.145   13 Jun 2027 10:53:36.347            13.202          6547.750
