uniorb/output/strategy_4/Camera/Camera_KinoSat_110709.txt

KinoSat_110709
-------------------------
    Access    *     Start Time (UTCG)     *     Stop Time (UTCG)  *   Duration (s) *   Data (Mbytes)
         1   01 Jun 2027 03:01:23.349   01 Jun 2027 03:01:31.758             8.409          4204.500
         2   01 Jun 2027 03:01:43.860   01 Jun 2027 03:02:01.530            17.670          8835.000
         3   01 Jun 2027 03:03:27.938   01 Jun 2027 03:03:27.938             0.000             0.000
         4   01 Jun 2027 03:03:51.803   01 Jun 2027 03:04:17.469            25.666         12833.000
         5   01 Jun 2027 04:37:08.283   01 Jun 2027 04:38:53.158           104.875         52437.500
         6   01 Jun 2027 04:38:58.187   01 Jun 2027 04:39:08.451            10.264          5132.000
         7   01 Jun 2027 04:40:40.623   01 Jun 2027 04:40:59.121            18.498          9249.000
         8   01 Jun 2027 06:11:52.090   01 Jun 2027 06:13:43.715           111.625         55812.500
         9   01 Jun 2027 06:15:17.918   01 Jun 2027 06:15:24.193             6.275          3137.500
        10   01 Jun 2027 06:16:23.576   01 Jun 2027 06:16:30.910             7.334          3667.000
        11   01 Jun 2027 06:16:39.829   01 Jun 2027 06:16:40.330             0.501           250.500
        12   01 Jun 2027 06:17:37.511   01 Jun 2027 06:17:48.633            11.122          5561.000
        13   01 Jun 2027 06:18:45.797   01 Jun 2027 06:19:07.149            21.352         10676.000
        14   01 Jun 2027 07:48:39.733   01 Jun 2027 07:49:57.850            78.117         39058.500
        15   01 Jun 2027 07:50:31.349   01 Jun 2027 07:52:02.438            91.089         45544.500
        16   01 Jun 2027 07:54:58.836   01 Jun 2027 07:55:00.882             2.046          1023.000
        17   01 Jun 2027 09:26:55.008   01 Jun 2027 09:30:10.258           195.250         97625.000
        18   01 Jun 2027 11:00:12.534   01 Jun 2027 11:01:44.686            92.152         46076.000
        19   01 Jun 2027 11:02:01.357   01 Jun 2027 11:03:04.229            62.872         31436.000
        20   01 Jun 2027 11:05:20.057   01 Jun 2027 11:05:20.057             0.000             0.000
        21   01 Jun 2027 11:06:31.606   01 Jun 2027 11:06:32.186             0.580           290.000
        22   01 Jun 2027 11:07:08.651   01 Jun 2027 11:07:33.928            25.277         12638.500
        23   02 Jun 2027 03:11:59.146   02 Jun 2027 03:12:13.297            14.151          7075.500
        24   02 Jun 2027 03:16:11.104   02 Jun 2027 03:16:16.672             5.568          2784.000
        25   02 Jun 2027 04:47:03.088   02 Jun 2027 04:48:20.128            77.040         38520.000
        26   02 Jun 2027 04:48:52.732   02 Jun 2027 04:50:18.382            85.650         42825.000
        27   02 Jun 2027 04:51:12.421   02 Jun 2027 04:51:23.757            11.336          5668.000
        28   02 Jun 2027 06:24:00.222   02 Jun 2027 06:28:25.456           265.234        132617.000
        29   02 Jun 2027 06:28:29.128   02 Jun 2027 06:28:52.195            23.067         11533.500
        30   02 Jun 2027 06:30:31.324   02 Jun 2027 06:30:32.799             1.475           737.500
        31   02 Jun 2027 08:00:58.910   02 Jun 2027 08:03:11.961           133.051         66525.500
        32   02 Jun 2027 08:05:15.450   02 Jun 2027 08:05:16.038             0.588           294.000
        33   02 Jun 2027 08:06:04.261   02 Jun 2027 08:06:39.792            35.531         17765.500
        34   02 Jun 2027 09:38:53.138   02 Jun 2027 09:39:32.807            39.669         16707.656
        35   02 Jun 2027 09:39:36.659   02 Jun 2027 09:39:38.365             1.706           101.344
        36   02 Jun 2027 09:40:08.191   02 Jun 2027 09:40:10.985             2.794           289.875
        37   02 Jun 2027 09:41:32.982   02 Jun 2027 09:41:36.729             3.747          1707.281
        38   02 Jun 2027 09:42:26.066   02 Jun 2027 09:42:30.312             4.246           417.094
        39   02 Jun 2027 09:42:35.898   02 Jun 2027 09:42:38.344             2.446           123.656
        40   02 Jun 2027 11:12:12.028   02 Jun 2027 11:12:21.628             9.600          3544.094
        41   03 Jun 2027 03:23:28.980   03 Jun 2027 03:23:45.662            16.682          8341.000
        42   03 Jun 2027 03:28:14.824   03 Jun 2027 03:28:21.309             6.485          3242.500
        43   03 Jun 2027 04:58:28.089   03 Jun 2027 05:01:59.873           211.784        105892.000
        44   03 Jun 2027 05:02:59.107   03 Jun 2027 05:02:59.107             0.000             0.000
        45   03 Jun 2027 05:04:16.556   03 Jun 2027 05:04:30.149            13.593          6796.500
        46   03 Jun 2027 06:36:04.245   03 Jun 2027 06:37:16.663            72.418         36145.531
        47   03 Jun 2027 06:38:31.343   03 Jun 2027 06:38:33.444             2.101           641.406
        48   03 Jun 2027 06:39:06.126   03 Jun 2027 06:39:07.301             1.175           107.312
        49   03 Jun 2027 06:40:50.601   03 Jun 2027 06:41:05.659            15.058          3046.969
        50   03 Jun 2027 06:41:11.340   03 Jun 2027 06:41:11.340             0.000             0.000
        51   03 Jun 2027 06:41:37.908   03 Jun 2027 06:41:41.731             3.823          1007.781
        52   03 Jun 2027 06:42:11.004   03 Jun 2027 06:42:12.039             1.035           497.063
        53   03 Jun 2027 08:12:47.990   03 Jun 2027 08:12:55.513             7.523          1518.781
        54   03 Jun 2027 08:15:39.825   03 Jun 2027 08:15:44.681             4.856           842.344
        55   03 Jun 2027 08:16:36.867   03 Jun 2027 08:16:39.170             2.303           893.687
        56   03 Jun 2027 08:16:43.776   03 Jun 2027 08:16:44.600             0.824            77.313
        57   03 Jun 2027 08:16:50.396   03 Jun 2027 08:16:50.945             0.549           181.125
        58   03 Jun 2027 08:17:27.619   03 Jun 2027 08:17:30.750             3.131           827.156
        59   03 Jun 2027 08:17:57.268   03 Jun 2027 08:17:59.553             2.285           197.094
        60   03 Jun 2027 08:19:08.838   03 Jun 2027 08:19:16.256             7.418          1479.437
        61   03 Jun 2027 09:50:52.513   03 Jun 2027 09:51:00.247             7.734          3351.281
        62   03 Jun 2027 09:52:02.063   03 Jun 2027 09:52:04.361             2.298           198.906
        63   03 Jun 2027 09:52:36.895   03 Jun 2027 09:52:42.328             5.433          1016.688
        64   03 Jun 2027 09:54:14.653   03 Jun 2027 09:54:17.755             3.102           209.844
        65   03 Jun 2027 09:54:34.907   03 Jun 2027 09:54:37.125             2.218            85.250
        66   03 Jun 2027 11:24:37.493   03 Jun 2027 11:24:39.444             1.951           481.031
        67   04 Jun 2027 03:35:05.078   04 Jun 2027 03:35:08.609             3.531          1765.500
        68   04 Jun 2027 03:35:09.061   04 Jun 2027 03:35:13.050             3.989          1994.500
        69   04 Jun 2027 03:35:27.771   04 Jun 2027 03:35:41.657            13.886          6943.000
        70   04 Jun 2027 03:41:00.087   04 Jun 2027 03:41:04.052             3.965          1982.500
        71   04 Jun 2027 05:09:58.739   04 Jun 2027 05:13:45.925           227.186        113593.000
        72   04 Jun 2027 05:15:02.032   04 Jun 2027 05:15:08.006             5.974          2987.000
        73   04 Jun 2027 05:19:01.142   04 Jun 2027 05:19:31.413            30.271         15135.500
        74   04 Jun 2027 06:48:02.305   04 Jun 2027 06:48:38.565            36.260         17928.656
        75   04 Jun 2027 06:50:51.972   04 Jun 2027 06:50:53.468             1.496           426.031
        76   04 Jun 2027 06:51:16.414   04 Jun 2027 06:51:17.975             1.561           382.281
        77   04 Jun 2027 06:52:14.973   04 Jun 2027 06:52:18.162             3.189          1138.875
        78   04 Jun 2027 06:52:31.763   04 Jun 2027 06:52:34.655             2.892           260.687
        79   04 Jun 2027 06:52:55.665   04 Jun 2027 06:52:58.200             2.535           235.469
        80   04 Jun 2027 06:53:08.219   04 Jun 2027 06:53:09.627             1.408           313.094
        81   04 Jun 2027 06:53:35.788   04 Jun 2027 06:53:35.788             0.000             0.000
        82   04 Jun 2027 06:53:40.015   04 Jun 2027 06:53:41.402             1.387           390.844
        83   04 Jun 2027 08:24:55.543   04 Jun 2027 08:25:05.840            10.297          5053.687
        84   04 Jun 2027 08:27:09.323   04 Jun 2027 08:27:11.954             2.631          1220.062
        85   04 Jun 2027 08:27:48.677   04 Jun 2027 08:27:51.701             3.024           279.250
        86   04 Jun 2027 08:27:59.206   04 Jun 2027 08:28:04.553             5.347            76.687
        87   04 Jun 2027 08:28:56.282   04 Jun 2027 08:29:01.625             5.343          1616.531
        88   04 Jun 2027 08:29:25.469   04 Jun 2027 08:29:30.109             4.640           345.062
        89   04 Jun 2027 08:30:30.460   04 Jun 2027 08:30:36.133             5.673          1720.719
        90   04 Jun 2027 08:31:09.315   04 Jun 2027 08:31:17.783             8.468           843.750
        91   04 Jun 2027 10:02:05.730   04 Jun 2027 10:02:20.487            14.757          5142.625
        92   04 Jun 2027 10:03:09.016   04 Jun 2027 10:03:10.411             1.395           414.469
        93   04 Jun 2027 10:03:16.958   04 Jun 2027 10:03:17.181             0.223           106.187
        94   04 Jun 2027 10:05:22.053   04 Jun 2027 10:05:24.376             2.323           407.937
        95   04 Jun 2027 10:05:58.051   04 Jun 2027 10:06:01.466             3.415           938.344
        96   04 Jun 2027 11:36:52.433   04 Jun 2027 11:36:56.062             3.629          1701.875
        97   05 Jun 2027 03:49:23.748   05 Jun 2027 03:49:28.228             4.480          2240.000
        98   05 Jun 2027 03:49:57.362   05 Jun 2027 03:50:13.342            15.980          7990.000
        99   05 Jun 2027 05:22:57.222   05 Jun 2027 05:26:31.786           214.564        107282.000
       100   05 Jun 2027 05:30:08.604   05 Jun 2027 05:30:11.814             3.210          1605.000
       101   05 Jun 2027 05:31:10.023   05 Jun 2027 05:31:30.865            20.842         10421.000
       102   05 Jun 2027 07:00:24.194   05 Jun 2027 07:01:17.429            53.235         25765.250
       103   05 Jun 2027 07:03:05.312   05 Jun 2027 07:03:09.699             4.387          1299.219
       104   05 Jun 2027 07:03:19.707   05 Jun 2027 07:03:21.124             1.417           107.656
       105   05 Jun 2027 07:04:55.535   05 Jun 2027 07:05:00.083             4.548          2100.500
       106   05 Jun 2027 07:06:19.878   05 Jun 2027 07:06:24.460             4.582          1221.813
       107   05 Jun 2027 08:37:24.470   05 Jun 2027 08:37:35.752            11.282          4201.000
       108   05 Jun 2027 08:39:37.377   05 Jun 2027 08:39:46.380             9.003          2391.844
       109   05 Jun 2027 08:40:41.259   05 Jun 2027 08:40:44.159             2.900          1284.031
       110   05 Jun 2027 08:41:40.623   05 Jun 2027 08:41:43.866             3.243          1616.813
       111   05 Jun 2027 08:42:32.624   05 Jun 2027 08:42:35.051             2.427          1174.531
       112   05 Jun 2027 10:14:18.489   05 Jun 2027 10:14:34.889            16.400          7686.906
       113   05 Jun 2027 11:51:27.652   05 Jun 2027 11:51:35.091             7.439           392.656
       114   06 Jun 2027 04:01:29.304   06 Jun 2027 04:01:46.309            17.005          8502.500
       115   06 Jun 2027 05:33:40.320   06 Jun 2027 05:33:48.530             8.210          4105.000
       116   06 Jun 2027 05:35:36.047   06 Jun 2027 05:38:41.778           185.731         92865.500
       117   06 Jun 2027 05:41:45.306   06 Jun 2027 05:42:07.113            21.807         10903.500
       118   06 Jun 2027 07:12:33.933   06 Jun 2027 07:13:55.367            81.434         40532.719
       119   06 Jun 2027 07:15:39.154   06 Jun 2027 07:15:40.742             1.588           568.188
       120   06 Jun 2027 07:16:29.504   06 Jun 2027 07:16:30.559             1.055           418.438
       121   06 Jun 2027 07:17:48.207   06 Jun 2027 07:17:55.983             7.776          1867.875
       122   06 Jun 2027 07:18:19.135   06 Jun 2027 07:18:22.328             3.193           157.469
       123   06 Jun 2027 08:49:49.811   06 Jun 2027 08:49:59.267             9.456          4583.156
       124   06 Jun 2027 08:51:46.862   06 Jun 2027 08:51:47.596             0.734           305.469
       125   06 Jun 2027 08:52:32.577   06 Jun 2027 08:52:36.397             3.820          1405.656
       126   06 Jun 2027 10:26:19.274   06 Jun 2027 10:26:33.731            14.457          6387.375
       127   06 Jun 2027 10:30:16.763   06 Jun 2027 10:30:18.836             2.073           183.531
       128   06 Jun 2027 10:30:51.077   06 Jun 2027 10:30:52.354             1.277           445.469
       129   06 Jun 2027 10:31:04.598   06 Jun 2027 10:31:08.084             3.486            14.469
       130   07 Jun 2027 04:13:38.284   07 Jun 2027 04:14:07.101            28.817         14408.500
       131   07 Jun 2027 04:15:35.088   07 Jun 2027 04:15:38.170             3.082          1541.000
       132   07 Jun 2027 04:16:01.763   07 Jun 2027 04:16:15.411            13.648          6824.000
       133   07 Jun 2027 04:17:04.395   07 Jun 2027 04:17:08.990             4.595          2297.500
       134   07 Jun 2027 05:48:48.806   07 Jun 2027 05:51:28.885           160.079         80039.500
       135   07 Jun 2027 05:54:45.901   07 Jun 2027 05:55:27.157            41.256         20628.000
       136   07 Jun 2027 07:25:08.019   07 Jun 2027 07:26:28.095            80.076         36905.813
       137   07 Jun 2027 07:28:29.959   07 Jun 2027 07:28:33.217             3.258          1295.875
       138   07 Jun 2027 07:28:50.490   07 Jun 2027 07:28:51.653             1.163           525.469
       139   07 Jun 2027 07:30:48.909   07 Jun 2027 07:30:50.384             1.475           324.031
       140   07 Jun 2027 09:02:31.832   07 Jun 2027 09:02:41.993            10.161          4317.406
       141   07 Jun 2027 09:06:43.407   07 Jun 2027 09:06:49.946             6.539           758.344
       142   07 Jun 2027 10:38:44.052   07 Jun 2027 10:38:54.898            10.846          5144.125
       143   07 Jun 2027 10:40:33.544   07 Jun 2027 10:40:35.930             2.386           574.844
       144   08 Jun 2027 04:25:39.524   08 Jun 2027 04:27:06.336            86.812         43406.000
       145   08 Jun 2027 04:28:39.813   08 Jun 2027 04:29:06.779            26.966         13483.000
       146   08 Jun 2027 06:00:52.248   08 Jun 2027 06:03:29.124           156.876         78438.000
       147   08 Jun 2027 06:05:08.255   08 Jun 2027 06:05:48.812            40.557         20138.218
       148   08 Jun 2027 06:05:55.922   08 Jun 2027 06:05:58.424             2.502           145.531
       149   08 Jun 2027 06:07:30.174   08 Jun 2027 06:07:32.513             2.339          1169.500
       150   08 Jun 2027 07:36:47.279   08 Jun 2027 07:36:54.145             6.866          3040.531
       151   08 Jun 2027 07:39:19.446   08 Jun 2027 07:39:21.302             1.856           460.344
       152   08 Jun 2027 07:39:25.539   08 Jun 2027 07:39:27.059             1.520           132.406
       153   08 Jun 2027 07:40:32.225   08 Jun 2027 07:40:32.225             0.000             0.000
       154   08 Jun 2027 07:40:52.424   08 Jun 2027 07:40:55.793             3.369          1199.906
       155   08 Jun 2027 07:42:07.669   08 Jun 2027 07:42:11.204             3.535          1053.031
       156   08 Jun 2027 07:42:41.604   08 Jun 2027 07:42:44.135             2.531            39.750
       157   08 Jun 2027 09:14:44.651   08 Jun 2027 09:15:08.916            24.265          6669.594
       158   08 Jun 2027 09:15:34.211   08 Jun 2027 09:15:37.047             2.836           126.250
       159   08 Jun 2027 09:16:53.616   08 Jun 2027 09:17:07.194            13.578          1595.687
       160   08 Jun 2027 09:17:50.109   08 Jun 2027 09:17:54.637             4.528           356.781
       161   08 Jun 2027 09:18:11.351   08 Jun 2027 09:18:12.675             1.324            75.813
       162   08 Jun 2027 09:18:22.585   08 Jun 2027 09:18:27.905             5.320             1.750
       163   08 Jun 2027 09:18:59.069   08 Jun 2027 09:19:01.573             2.504           855.063
       164   08 Jun 2027 10:50:37.716   08 Jun 2027 10:50:50.640            12.924          5330.156
       165   08 Jun 2027 10:52:11.386   08 Jun 2027 10:52:11.552             0.166             9.469
       166   09 Jun 2027 03:00:59.938   09 Jun 2027 03:01:10.690            10.752          5376.000
       167   09 Jun 2027 03:01:58.171   09 Jun 2027 03:02:18.288            20.117         10058.500
       168   09 Jun 2027 04:37:22.886   09 Jun 2027 04:40:05.405           162.519         81259.500
       169   09 Jun 2027 04:40:08.835   09 Jun 2027 04:40:20.873            12.038          6019.000
       170   09 Jun 2027 04:41:35.549   09 Jun 2027 04:41:42.390             6.841          3420.500
       171   09 Jun 2027 06:12:06.762   09 Jun 2027 06:13:46.519            99.757         48654.250
       172   09 Jun 2027 06:15:14.474   09 Jun 2027 06:15:17.981             3.507          1753.500
       173   09 Jun 2027 06:15:24.291   09 Jun 2027 06:15:28.007             3.716           349.562
       174   09 Jun 2027 06:17:06.674   09 Jun 2027 06:17:07.872             1.198           599.000
       175   09 Jun 2027 06:17:16.844   09 Jun 2027 06:17:23.252             6.408          2290.219
       176   09 Jun 2027 06:17:57.437   09 Jun 2027 06:18:00.278             2.841           253.687
       177   09 Jun 2027 06:18:56.271   09 Jun 2027 06:19:00.315             4.044          1625.625
       178   09 Jun 2027 07:48:54.760   09 Jun 2027 07:48:57.756             2.996          1361.000
       179   09 Jun 2027 07:52:40.814   09 Jun 2027 07:52:50.474             9.660          2318.750
       180   09 Jun 2027 07:53:09.003   09 Jun 2027 07:53:11.175             2.172           556.094
       181   09 Jun 2027 07:53:42.704   09 Jun 2027 07:53:44.133             1.429           709.094
       182   09 Jun 2027 07:54:10.445   09 Jun 2027 07:54:13.077             2.632           704.438
       183   09 Jun 2027 07:54:52.705   09 Jun 2027 07:55:04.800            12.095           333.812
       184   09 Jun 2027 09:27:09.800   09 Jun 2027 09:27:23.200            13.400          6339.312
       185   09 Jun 2027 09:28:03.971   09 Jun 2027 09:28:06.002             2.031           524.187
       186   09 Jun 2027 09:28:53.769   09 Jun 2027 09:28:58.591             4.822          1393.094
       187   09 Jun 2027 09:30:03.991   09 Jun 2027 09:30:06.701             2.710           444.281
       188   09 Jun 2027 09:30:27.263   09 Jun 2027 09:30:28.448             1.185            53.906
       189   09 Jun 2027 09:30:57.306   09 Jun 2027 09:31:01.014             3.708           702.094
       190   09 Jun 2027 11:00:26.959   09 Jun 2027 11:00:38.145            11.186          5424.000
       191   10 Jun 2027 03:12:13.474   10 Jun 2027 03:12:38.036            24.562         12281.000
       192   10 Jun 2027 04:47:17.167   10 Jun 2027 04:48:35.080            77.913         38956.500
       193   10 Jun 2027 04:49:07.223   10 Jun 2027 04:51:10.759           123.536         61768.000
       194   10 Jun 2027 04:52:28.386   10 Jun 2027 04:52:28.531             0.145            72.500
       195   10 Jun 2027 06:24:14.956   10 Jun 2027 06:25:40.535            85.579         42069.312
       196   10 Jun 2027 06:26:26.489   10 Jun 2027 06:26:29.690             3.201           177.781
       197   10 Jun 2027 06:26:36.385   10 Jun 2027 06:26:37.384             0.999           209.219
       198   10 Jun 2027 06:26:50.634   10 Jun 2027 06:26:52.979             2.345           175.562
       199   10 Jun 2027 06:28:41.792   10 Jun 2027 06:28:49.929             8.137          1799.750
       200   10 Jun 2027 06:30:39.191   10 Jun 2027 06:30:45.773             6.582          2869.875
       201   10 Jun 2027 08:01:13.237   10 Jun 2027 08:01:15.833             2.596           383.437
       202   10 Jun 2027 08:02:14.279   10 Jun 2027 08:02:22.321             8.042           542.000
       203   10 Jun 2027 08:03:26.792   10 Jun 2027 08:03:33.844             7.052          1907.344
       204   10 Jun 2027 08:04:04.042   10 Jun 2027 08:04:06.822             2.780           494.500
       205   10 Jun 2027 08:04:50.369   10 Jun 2027 08:04:55.180             4.811           707.250
       206   10 Jun 2027 08:05:19.067   10 Jun 2027 08:05:22.677             3.610           746.469
       207   10 Jun 2027 08:05:38.838   10 Jun 2027 08:05:40.043             1.205           282.125
       208   10 Jun 2027 08:06:30.615   10 Jun 2027 08:06:34.621             4.006          1547.188
       209   10 Jun 2027 09:39:07.914   10 Jun 2027 09:39:20.909            12.995          5641.875
       210   10 Jun 2027 09:40:22.289   10 Jun 2027 09:40:25.753             3.464           224.750
       211   10 Jun 2027 09:41:59.290   10 Jun 2027 09:42:06.347             7.057           349.344
       212   10 Jun 2027 09:42:36.782   10 Jun 2027 09:42:38.097             1.315           291.031
       213   10 Jun 2027 11:12:26.912   10 Jun 2027 11:12:37.139            10.227          4240.375
       214   11 Jun 2027 03:23:43.379   11 Jun 2027 03:24:01.984            18.605          9302.500
       215   11 Jun 2027 03:28:25.713   11 Jun 2027 03:28:31.996             6.283          3141.500
       216   11 Jun 2027 04:58:42.160   11 Jun 2027 05:02:13.463           211.303        105651.500
       217   11 Jun 2027 05:07:05.692   11 Jun 2027 05:07:19.895            14.203          7101.500
       218   11 Jun 2027 06:36:18.408   11 Jun 2027 06:37:28.169            69.761         33477.563
       219   11 Jun 2027 06:38:26.879   11 Jun 2027 06:38:33.769             6.890          1619.062
       220   11 Jun 2027 06:39:03.763   11 Jun 2027 06:39:04.979             1.216           522.219
       221   11 Jun 2027 06:39:21.669   11 Jun 2027 06:39:23.310             1.641            91.219
       222   11 Jun 2027 06:39:51.102   11 Jun 2027 06:39:51.102             0.000             0.000
       223   11 Jun 2027 06:41:05.737   11 Jun 2027 06:41:13.339             7.602          2965.687
       224   11 Jun 2027 06:41:22.406   11 Jun 2027 06:41:24.816             2.410           283.344
       225   11 Jun 2027 06:41:54.008   11 Jun 2027 06:41:54.008             0.000             0.000
       226   11 Jun 2027 06:42:10.333   11 Jun 2027 06:42:16.824             6.491          1346.375
       227   11 Jun 2027 08:13:02.659   11 Jun 2027 08:13:13.346            10.687          1452.719
       228   11 Jun 2027 08:15:54.470   11 Jun 2027 08:15:57.888             3.418           777.219
       229   11 Jun 2027 08:16:24.784   11 Jun 2027 08:16:30.178             5.394           840.500
       230   11 Jun 2027 08:16:59.883   11 Jun 2027 08:17:04.645             4.762           712.406
       231   11 Jun 2027 08:17:16.184   11 Jun 2027 08:17:18.075             1.891           360.594
       232   11 Jun 2027 08:17:47.526   11 Jun 2027 08:17:53.240             5.714           920.344
       233   11 Jun 2027 08:18:37.459   11 Jun 2027 08:18:40.318             2.859           911.406
       234   11 Jun 2027 08:19:41.649   11 Jun 2027 08:19:43.894             2.245          1122.500
       235   11 Jun 2027 09:51:07.318   11 Jun 2027 09:51:16.042             8.724          4007.625
       236   11 Jun 2027 09:52:10.444   11 Jun 2027 09:52:13.814             3.370           249.750
       237   11 Jun 2027 09:52:39.088   11 Jun 2027 09:52:41.798             2.710           659.312
       238   11 Jun 2027 09:54:10.423   11 Jun 2027 09:54:12.559             2.136            86.937
       239   11 Jun 2027 09:54:29.899   11 Jun 2027 09:54:32.647             2.748           242.687
       240   11 Jun 2027 09:54:49.911   11 Jun 2027 09:54:52.762             2.851            72.094
       241   11 Jun 2027 11:24:52.823   11 Jun 2027 11:24:54.367             1.544           431.719
       242   12 Jun 2027 03:35:19.570   12 Jun 2027 03:35:23.614             4.044          2022.000
       243   12 Jun 2027 03:35:27.750   12 Jun 2027 03:35:42.839            15.089          7544.500
       244   12 Jun 2027 03:41:16.725   12 Jun 2027 03:41:18.789             2.064          1032.000
       245   12 Jun 2027 05:10:12.704   12 Jun 2027 05:13:41.862           209.158        104579.000
       246   12 Jun 2027 05:14:04.316   12 Jun 2027 05:14:16.963            12.647          6323.500
       247   12 Jun 2027 05:15:18.161   12 Jun 2027 05:15:22.849             4.688          2344.000
       248   12 Jun 2027 05:18:49.538   12 Jun 2027 05:19:18.186            28.648         14324.000
       249   12 Jun 2027 06:48:17.343   12 Jun 2027 06:49:04.788            47.445         23074.438
       250   12 Jun 2027 06:49:38.019   12 Jun 2027 06:49:40.978             2.959           644.937
       251   12 Jun 2027 06:51:07.774   12 Jun 2027 06:51:11.589             3.815           463.781
       252   12 Jun 2027 06:51:34.144   12 Jun 2027 06:51:35.183             1.039           435.156
       253   12 Jun 2027 06:51:53.228   12 Jun 2027 06:51:57.091             3.863           335.656
       254   12 Jun 2027 06:53:03.236   12 Jun 2027 06:53:08.704             5.468          1833.937
       255   12 Jun 2027 06:53:16.445   12 Jun 2027 06:53:17.654             1.209           147.375
       256   12 Jun 2027 06:54:13.997   12 Jun 2027 06:54:20.028             6.031          1760.719
       257   12 Jun 2027 08:25:10.564   12 Jun 2027 08:25:22.053            11.489          5067.125
       258   12 Jun 2027 08:27:42.880   12 Jun 2027 08:27:46.641             3.761          1805.813
       259   12 Jun 2027 08:28:12.784   12 Jun 2027 08:28:14.266             1.482           575.250
       260   12 Jun 2027 08:28:20.393   12 Jun 2027 08:28:20.863             0.470           191.469
       261   12 Jun 2027 08:28:58.348   12 Jun 2027 08:29:01.690             3.342          1171.406
       262   12 Jun 2027 08:29:28.729   12 Jun 2027 08:29:31.819             3.090           822.781
       263   12 Jun 2027 08:29:47.552   12 Jun 2027 08:29:48.144             0.592           217.875
       264   12 Jun 2027 08:30:30.002   12 Jun 2027 08:30:31.815             1.813           119.094
       265   12 Jun 2027 08:31:17.114   12 Jun 2027 08:31:20.896             3.782          1053.531
       266   12 Jun 2027 10:02:20.446   12 Jun 2027 10:02:31.558            11.112          4617.688
       267   12 Jun 2027 10:03:12.604   12 Jun 2027 10:03:14.407             1.803            69.688
       268   12 Jun 2027 10:04:25.485   12 Jun 2027 10:04:28.682             3.197          1187.750
       269   12 Jun 2027 10:05:35.887   12 Jun 2027 10:05:37.758             1.871           361.031
       270   12 Jun 2027 10:06:15.085   12 Jun 2027 10:06:17.568             2.483          1002.375
       271   12 Jun 2027 11:37:07.526   12 Jun 2027 11:37:10.994             3.468          1702.062
       272   13 Jun 2027 03:49:38.536   13 Jun 2027 03:49:43.363             4.827          2413.500
       273   13 Jun 2027 03:51:32.115   13 Jun 2027 03:51:36.793             4.678          2339.000
       274   13 Jun 2027 05:23:11.896   13 Jun 2027 05:26:20.117           188.221         94110.500
       275   13 Jun 2027 05:30:22.952   13 Jun 2027 05:30:55.422            32.470         16235.000
       276   13 Jun 2027 05:31:24.872   13 Jun 2027 05:31:45.570            20.698         10349.000
       277   13 Jun 2027 07:00:39.541   13 Jun 2027 07:01:40.833            61.292         28503.781
       278   13 Jun 2027 07:02:38.242   13 Jun 2027 07:02:40.418             2.176           418.719
       279   13 Jun 2027 07:03:37.433   13 Jun 2027 07:03:43.333             5.900           503.250
       280   13 Jun 2027 07:04:02.703   13 Jun 2027 07:04:03.816             1.113           177.688
       281   13 Jun 2027 07:04:06.245   13 Jun 2027 07:04:06.351             0.106            48.719
       282   13 Jun 2027 07:04:51.141   13 Jun 2027 07:04:55.621             4.480          1296.563
       283   13 Jun 2027 07:06:10.562   13 Jun 2027 07:06:17.525             6.963          2019.187
       284   13 Jun 2027 08:37:39.071   13 Jun 2027 08:37:51.052            11.981          4491.812
       285   13 Jun 2027 08:38:51.133   13 Jun 2027 08:38:55.639             4.506           302.938
       286   13 Jun 2027 08:39:20.955   13 Jun 2027 08:39:23.159             2.204           299.156
       287   13 Jun 2027 08:40:17.608   13 Jun 2027 08:40:23.466             5.858           741.906
       288   13 Jun 2027 08:40:53.708   13 Jun 2027 08:40:55.946             2.238           814.562
       289   13 Jun 2027 08:41:04.208   13 Jun 2027 08:41:06.691             2.483            60.156
       290   13 Jun 2027 08:41:55.839   13 Jun 2027 08:41:58.342             2.503          1062.719
       291   13 Jun 2027 08:42:48.513   13 Jun 2027 08:42:52.387             3.874          1196.219
       292   13 Jun 2027 10:14:33.057   13 Jun 2027 10:14:45.857            12.800          6377.594
       293   13 Jun 2027 10:16:45.534   13 Jun 2027 10:16:47.044             1.510           175.094
       294   13 Jun 2027 11:51:42.473   13 Jun 2027 11:51:44.001             1.528           310.719
