uniorb/output/strategy_4/Camera/Camera_KinoSat_111804.txt

KinoSat_111804
-------------------------
    Access    *     Start Time (UTCG)     *     Stop Time (UTCG)  *   Duration (s) *   Data (Mbytes)
         1   01 Jun 2027 03:14:15.176   01 Jun 2027 03:15:56.264           101.088         50544.000
         2   01 Jun 2027 03:16:09.046   01 Jun 2027 03:16:13.615             4.569          2284.500
         3   01 Jun 2027 03:18:52.429   01 Jun 2027 03:19:01.956             9.527          4763.500
         4   01 Jun 2027 03:20:04.850   01 Jun 2027 03:20:17.610            12.760          6380.000
         5   01 Jun 2027 03:20:25.642   01 Jun 2027 03:20:38.112            12.470          6235.000
         6   01 Jun 2027 03:20:50.389   01 Jun 2027 03:20:51.323             0.934           467.000
         7   01 Jun 2027 04:53:30.992   01 Jun 2027 04:54:53.477            82.485         41242.500
         8   01 Jun 2027 04:55:55.325   01 Jun 2027 04:56:03.629             8.304          4152.000
         9   01 Jun 2027 04:57:20.278   01 Jun 2027 04:57:20.278             0.000             0.000
        10   01 Jun 2027 04:57:28.891   01 Jun 2027 04:57:32.891             4.000          2000.000
        11   01 Jun 2027 04:57:48.523   01 Jun 2027 04:57:54.390             5.867          2933.500
        12   01 Jun 2027 04:57:58.093   01 Jun 2027 04:58:03.210             5.117          2558.500
        13   01 Jun 2027 05:00:28.213   01 Jun 2027 05:01:05.518            37.305         18652.500
        14   01 Jun 2027 06:19:37.034   01 Jun 2027 06:20:06.522            29.488         14744.000
        15   01 Jun 2027 06:30:33.404   01 Jun 2027 06:31:34.789            61.385         30692.500
        16   01 Jun 2027 07:53:52.908   01 Jun 2027 07:56:16.256           143.348         71674.000
        17   01 Jun 2027 07:57:01.791   01 Jun 2027 07:57:20.410            18.619          9309.500
        18   01 Jun 2027 09:30:15.598   01 Jun 2027 09:30:35.692            20.094         10047.000
        19   01 Jun 2027 09:33:03.087   01 Jun 2027 09:33:33.180            30.093         15046.500
        20   01 Jun 2027 11:05:00.768   01 Jun 2027 11:07:31.222           150.454         75227.000
        21   01 Jun 2027 11:11:54.896   01 Jun 2027 11:12:33.227            38.331         19165.500
        22   02 Jun 2027 03:26:53.436   02 Jun 2027 03:27:01.946             8.510          4255.000
        23   02 Jun 2027 03:27:37.048   02 Jun 2027 03:29:41.152           124.104         62052.000
        24   02 Jun 2027 03:29:53.226   02 Jun 2027 03:30:01.976             8.750          4375.000
        25   02 Jun 2027 03:30:30.137   02 Jun 2027 03:30:40.870            10.733          5366.500
        26   02 Jun 2027 03:31:57.833   02 Jun 2027 03:32:13.646            15.813          7906.500
        27   02 Jun 2027 03:32:29.828   02 Jun 2027 03:32:31.551             1.723           861.500
        28   02 Jun 2027 03:32:51.507   02 Jun 2027 03:32:56.950             5.443          2721.500
        29   02 Jun 2027 03:33:10.051   02 Jun 2027 03:33:18.227             8.176          4088.000
        30   02 Jun 2027 05:05:54.917   02 Jun 2027 05:09:00.784           185.867         92933.500
        31   02 Jun 2027 05:11:38.818   02 Jun 2027 05:13:09.787            90.969         45484.500
        32   02 Jun 2027 06:30:55.264   02 Jun 2027 06:31:02.018             6.754          3377.000
        33   02 Jun 2027 06:42:35.297   02 Jun 2027 06:43:55.445            80.148         40074.000
        34   02 Jun 2027 08:04:51.203   02 Jun 2027 08:06:07.074            75.871         37935.500
        35   02 Jun 2027 08:06:48.229   02 Jun 2027 08:07:07.253            19.024          9512.000
        36   02 Jun 2027 08:07:35.124   02 Jun 2027 08:08:28.214            53.090         26545.000
        37   02 Jun 2027 09:40:03.321   02 Jun 2027 09:40:43.774            40.453         18822.969
        38   02 Jun 2027 09:41:17.206   02 Jun 2027 09:41:25.716             8.510            71.313
        39   02 Jun 2027 09:41:59.608   02 Jun 2027 09:42:00.932             1.324             9.594
        40   02 Jun 2027 09:43:37.437   02 Jun 2027 09:43:40.967             3.530          1366.937
        41   02 Jun 2027 09:46:29.567   02 Jun 2027 09:46:44.107            14.540          5127.313
        42   02 Jun 2027 11:17:11.482   02 Jun 2027 11:17:24.355            12.873          5372.937
        43   02 Jun 2027 11:20:19.420   02 Jun 2027 11:20:22.375             2.955          1477.500
        44   02 Jun 2027 11:23:40.402   02 Jun 2027 11:23:59.856            19.454          8387.844
        45   02 Jun 2027 11:24:11.380   02 Jun 2027 11:24:13.024             1.644           135.344
        46   03 Jun 2027 03:39:11.375   03 Jun 2027 03:41:53.299           161.924         80962.000
        47   03 Jun 2027 03:42:01.573   03 Jun 2027 03:42:29.294            27.721         13860.500
        48   03 Jun 2027 03:43:59.157   03 Jun 2027 03:44:20.279            21.122         10561.000
        49   03 Jun 2027 03:44:53.431   03 Jun 2027 03:44:57.175             3.744          1872.000
        50   03 Jun 2027 05:18:13.693   03 Jun 2027 05:19:56.375           102.682         51152.469
        51   03 Jun 2027 05:20:20.378   03 Jun 2027 05:20:20.749             0.371           185.500
        52   03 Jun 2027 05:20:31.327   03 Jun 2027 05:20:33.080             1.753           460.406
        53   03 Jun 2027 05:21:33.126   03 Jun 2027 05:21:37.250             4.124          1822.625
        54   03 Jun 2027 05:22:36.380   03 Jun 2027 05:22:42.106             5.726          1847.812
        55   03 Jun 2027 05:23:20.883   03 Jun 2027 05:23:24.618             3.735           984.875
        56   03 Jun 2027 05:24:17.228   03 Jun 2027 05:24:19.782             2.554          1167.531
        57   03 Jun 2027 05:24:57.529   03 Jun 2027 05:24:59.453             1.924           347.781
        58   03 Jun 2027 06:42:17.155   03 Jun 2027 06:42:31.035            13.880          5211.844
        59   03 Jun 2027 06:43:31.895   03 Jun 2027 06:43:36.338             4.443          1881.687
        60   03 Jun 2027 06:44:14.103   03 Jun 2027 06:44:14.103             0.000             0.000
        61   03 Jun 2027 06:54:32.345   03 Jun 2027 06:54:38.719             6.374          2838.000
        62   03 Jun 2027 08:16:32.957   03 Jun 2027 08:16:50.396            17.439          5854.562
        63   03 Jun 2027 08:17:03.428   03 Jun 2027 08:17:03.428             0.000             0.000
        64   03 Jun 2027 08:17:48.957   03 Jun 2027 08:17:50.795             1.838           919.000
        65   03 Jun 2027 08:18:38.740   03 Jun 2027 08:18:43.497             4.757          1956.406
        66   03 Jun 2027 08:19:20.335   03 Jun 2027 08:19:25.542             5.207           625.094
        67   03 Jun 2027 08:19:40.753   03 Jun 2027 08:19:47.644             6.891           466.969
        68   03 Jun 2027 08:21:22.973   03 Jun 2027 08:21:29.317             6.344          2042.250
        69   03 Jun 2027 08:21:41.208   03 Jun 2027 08:21:41.613             0.405            76.250
        70   03 Jun 2027 09:51:30.879   03 Jun 2027 09:51:46.030            15.151          3872.750
        71   03 Jun 2027 09:53:13.404   03 Jun 2027 09:53:19.656             6.252           283.344
        72   03 Jun 2027 09:55:17.245   03 Jun 2027 09:55:17.245             0.000             0.000
        73   03 Jun 2027 09:56:59.217   03 Jun 2027 09:57:09.067             9.850          4003.063
        74   03 Jun 2027 09:58:21.723   03 Jun 2027 09:58:23.413             1.690           740.875
        75   03 Jun 2027 09:59:43.075   03 Jun 2027 09:59:49.118             6.043           946.250
        76   03 Jun 2027 11:31:08.842   03 Jun 2027 11:31:26.797            17.955          8390.687
        77   03 Jun 2027 11:35:19.681   03 Jun 2027 11:35:34.239            14.558          6400.063
        78   03 Jun 2027 11:36:16.483   03 Jun 2027 11:36:37.156            20.673          1199.687
        79   04 Jun 2027 03:51:57.389   04 Jun 2027 03:52:22.608            25.219         12609.500
        80   04 Jun 2027 03:52:24.955   04 Jun 2027 03:53:29.060            64.105         32052.500
        81   04 Jun 2027 03:55:04.054   04 Jun 2027 03:56:04.245            60.191         30095.500
        82   04 Jun 2027 03:56:49.652   04 Jun 2027 03:57:26.398            36.746         18373.000
        83   04 Jun 2027 05:30:19.564   04 Jun 2027 05:32:05.969           106.405         53202.500
        84   04 Jun 2027 05:32:28.554   04 Jun 2027 05:32:44.552            15.998          5581.812
        85   04 Jun 2027 05:34:24.513   04 Jun 2027 05:34:29.120             4.607          1519.312
        86   04 Jun 2027 05:35:49.060   04 Jun 2027 05:35:53.820             4.760          1832.156
        87   04 Jun 2027 06:54:24.672   04 Jun 2027 06:54:40.169            15.497          7398.000
        88   04 Jun 2027 06:55:19.954   04 Jun 2027 06:55:22.628             2.674           995.406
        89   04 Jun 2027 08:28:12.655   04 Jun 2027 08:28:30.811            18.156          8816.844
        90   04 Jun 2027 08:29:30.109   04 Jun 2027 08:29:32.938             2.829          1241.531
        91   04 Jun 2027 08:30:09.067   04 Jun 2027 08:30:10.729             1.662           257.000
        92   04 Jun 2027 08:30:50.804   04 Jun 2027 08:30:53.516             2.712          1049.531
        93   04 Jun 2027 08:31:49.069   04 Jun 2027 08:31:53.536             4.467          1193.344
        94   04 Jun 2027 08:33:23.835   04 Jun 2027 08:33:29.996             6.161          2548.094
        95   04 Jun 2027 10:03:04.779   04 Jun 2027 10:03:10.411             5.632          2816.000
        96   04 Jun 2027 10:04:02.010   04 Jun 2027 10:04:09.277             7.267          2821.344
        97   04 Jun 2027 10:05:33.211   04 Jun 2027 10:05:37.274             4.063           814.156
        98   04 Jun 2027 10:06:10.660   04 Jun 2027 10:06:11.817             1.157           546.438
        99   04 Jun 2027 10:08:59.222   04 Jun 2027 10:09:08.348             9.126          4157.375
       100   04 Jun 2027 10:10:11.690   04 Jun 2027 10:10:15.196             3.506          1703.219
       101   04 Jun 2027 10:10:32.708   04 Jun 2027 10:10:34.709             2.001           547.250
       102   04 Jun 2027 10:10:42.593   04 Jun 2027 10:10:43.076             0.483           214.813
       103   04 Jun 2027 10:11:40.643   04 Jun 2027 10:11:43.623             2.980           523.656
       104   04 Jun 2027 10:12:05.910   04 Jun 2027 10:12:08.065             2.155           689.031
       105   04 Jun 2027 10:12:24.629   04 Jun 2027 10:12:34.725            10.096           461.000
       106   04 Jun 2027 11:41:12.964   04 Jun 2027 11:41:32.575            19.611          6260.781
       107   04 Jun 2027 11:41:58.906   04 Jun 2027 11:42:00.594             1.688           564.062
       108   04 Jun 2027 11:42:53.306   04 Jun 2027 11:42:56.088             2.782           647.750
       109   04 Jun 2027 11:43:07.761   04 Jun 2027 11:43:10.343             2.582           364.781
       110   04 Jun 2027 11:44:08.342   04 Jun 2027 11:44:16.046             7.704          1098.094
       111   04 Jun 2027 11:45:25.124   04 Jun 2027 11:45:35.046             9.922          1285.375
       112   04 Jun 2027 11:45:41.145   04 Jun 2027 11:45:42.911             1.766           190.594
       113   04 Jun 2027 11:45:56.153   04 Jun 2027 11:45:58.870             2.717           313.594
       114   04 Jun 2027 11:46:38.784   04 Jun 2027 11:46:40.950             2.166          1041.719
       115   04 Jun 2027 11:47:20.562   04 Jun 2027 11:47:25.623             5.061          1233.719
       116   04 Jun 2027 11:47:35.744   04 Jun 2027 11:47:36.559             0.815           316.281
       117   04 Jun 2027 11:47:59.318   04 Jun 2027 11:48:01.664             2.346           296.188
       118   04 Jun 2027 11:48:16.904   04 Jun 2027 11:48:17.475             0.571           275.937
       119   05 Jun 2027 04:04:30.131   05 Jun 2027 04:05:22.127            51.996         25998.000
       120   05 Jun 2027 04:05:32.108   05 Jun 2027 04:06:14.047            41.939         20969.500
       121   05 Jun 2027 04:06:14.597   05 Jun 2027 04:08:25.439           130.842         65421.000
       122   05 Jun 2027 04:09:19.859   05 Jun 2027 04:09:36.177            16.318          8159.000
       123   05 Jun 2027 05:42:54.294   05 Jun 2027 05:43:34.162            39.868         19934.000
       124   05 Jun 2027 05:44:37.787   05 Jun 2027 05:45:33.711            55.924         27784.031
       125   05 Jun 2027 05:47:27.270   05 Jun 2027 05:47:28.927             1.657           461.594
       126   05 Jun 2027 07:06:20.197   05 Jun 2027 07:06:34.800            14.603          6730.063
       127   05 Jun 2027 07:07:34.965   05 Jun 2027 07:07:39.655             4.690          1639.219
       128   05 Jun 2027 08:42:35.051   05 Jun 2027 08:42:58.446            23.395         10052.875
       129   05 Jun 2027 08:43:08.686   05 Jun 2027 08:43:11.166             2.480           281.625
       130   05 Jun 2027 08:44:00.190   05 Jun 2027 08:44:07.978             7.788          1500.594
       131   05 Jun 2027 08:44:57.031   05 Jun 2027 08:45:00.659             3.628           658.156
       132   05 Jun 2027 10:16:07.597   05 Jun 2027 10:16:15.274             7.677          3360.844
       133   05 Jun 2027 10:17:42.869   05 Jun 2027 10:17:42.869             0.000             0.000
       134   05 Jun 2027 10:18:04.074   05 Jun 2027 10:18:08.763             4.689          1750.906
       135   05 Jun 2027 10:18:42.151   05 Jun 2027 10:18:49.148             6.997           491.781
       136   05 Jun 2027 10:20:58.569   05 Jun 2027 10:21:06.960             8.391          3959.250
       137   05 Jun 2027 10:22:06.219   05 Jun 2027 10:22:10.432             4.213           358.781
       138   05 Jun 2027 10:23:19.835   05 Jun 2027 10:23:25.435             5.600           406.875
       139   05 Jun 2027 10:24:40.126   05 Jun 2027 10:24:41.157             1.031           515.500
       140   05 Jun 2027 11:53:40.173   05 Jun 2027 11:53:54.844            14.671          6574.781
       141   05 Jun 2027 11:56:23.040   05 Jun 2027 11:56:28.158             5.118          1340.750
       142   05 Jun 2027 11:57:24.373   05 Jun 2027 11:57:28.998             4.625          1127.656
       143   05 Jun 2027 11:57:56.250   05 Jun 2027 11:57:59.485             3.235           250.062
       144   05 Jun 2027 11:58:06.543   05 Jun 2027 11:58:06.913             0.370           165.094
       145   05 Jun 2027 11:59:29.432   05 Jun 2027 11:59:34.829             5.397          2492.594
       146   06 Jun 2027 04:16:29.966   06 Jun 2027 04:16:37.878             7.912          3956.000
       147   06 Jun 2027 04:16:45.018   06 Jun 2027 04:18:45.653           120.635         60317.500
       148   06 Jun 2027 04:19:50.484   06 Jun 2027 04:20:01.511            11.027          5513.500
       149   06 Jun 2027 04:20:45.111   06 Jun 2027 04:21:37.098            51.987         25993.500
       150   06 Jun 2027 04:22:02.249   06 Jun 2027 04:22:09.641             7.392          3696.000
       151   06 Jun 2027 05:54:33.192   06 Jun 2027 05:54:59.200            26.008         13004.000
       152   06 Jun 2027 05:55:20.615   06 Jun 2027 05:57:07.964           107.349         53674.500
       153   06 Jun 2027 05:57:35.868   06 Jun 2027 05:57:41.457             5.589          2635.093
       154   06 Jun 2027 05:58:48.554   06 Jun 2027 05:58:51.536             2.982          1482.406
       155   06 Jun 2027 05:59:11.888   06 Jun 2027 05:59:16.114             4.226           199.094
       156   06 Jun 2027 07:18:12.212   06 Jun 2027 07:18:33.567            21.355         10576.938
       157   06 Jun 2027 07:19:36.231   06 Jun 2027 07:19:36.231             0.000             0.000
       158   06 Jun 2027 07:20:11.099   06 Jun 2027 07:20:20.774             9.675          3010.000
       159   06 Jun 2027 08:54:39.411   06 Jun 2027 08:54:50.845            11.434          5512.750
       160   06 Jun 2027 08:55:27.172   06 Jun 2027 08:55:28.801             1.629           441.500
       161   06 Jun 2027 08:56:09.103   06 Jun 2027 08:56:13.679             4.576          1259.437
       162   06 Jun 2027 08:56:15.703   06 Jun 2027 08:56:17.006             1.303            44.906
       163   06 Jun 2027 08:57:10.109   06 Jun 2027 08:57:15.101             4.992          1200.969
       164   06 Jun 2027 10:26:54.510   06 Jun 2027 10:26:56.701             2.191          1095.500
       165   06 Jun 2027 10:28:47.053   06 Jun 2027 10:28:51.364             4.311          1872.188
       166   06 Jun 2027 10:30:35.044   06 Jun 2027 10:30:45.380            10.336          2706.937
       167   06 Jun 2027 10:32:09.619   06 Jun 2027 10:32:16.393             6.774          2630.969
       168   06 Jun 2027 10:32:40.057   06 Jun 2027 10:32:40.302             0.245            11.906
       169   06 Jun 2027 10:33:48.190   06 Jun 2027 10:33:52.754             4.564          1595.844
       170   06 Jun 2027 10:34:42.514   06 Jun 2027 10:34:45.692             3.178           330.313
       171   06 Jun 2027 10:35:14.149   06 Jun 2027 10:35:20.092             5.943           715.437
       172   06 Jun 2027 10:35:42.973   06 Jun 2027 10:35:45.442             2.469           252.156
       173   06 Jun 2027 10:36:12.467   06 Jun 2027 10:36:13.466             0.999           474.625
       174   06 Jun 2027 10:36:26.059   06 Jun 2027 10:36:26.889             0.830           335.406
       175   06 Jun 2027 10:36:35.397   06 Jun 2027 10:36:36.050             0.653           255.656
       176   07 Jun 2027 04:28:38.364   07 Jun 2027 04:29:38.480            60.116         30058.000
       177   07 Jun 2027 04:29:47.443   07 Jun 2027 04:31:58.914           131.471         65735.500
       178   07 Jun 2027 04:32:08.305   07 Jun 2027 04:32:13.079             4.774          2387.000
       179   07 Jun 2027 06:08:13.728   07 Jun 2027 06:10:27.869           134.141         65384.250
       180   07 Jun 2027 07:30:20.534   07 Jun 2027 07:30:30.540            10.006          4980.187
       181   07 Jun 2027 07:31:13.023   07 Jun 2027 07:31:14.755             1.732           779.875
       182   07 Jun 2027 07:31:17.262   07 Jun 2027 07:31:24.974             7.712            47.094
       183   07 Jun 2027 07:32:41.681   07 Jun 2027 07:32:45.941             4.260          2013.531
       184   07 Jun 2027 07:33:05.993   07 Jun 2027 07:33:06.727             0.734           239.500
       185   07 Jun 2027 09:07:08.414   07 Jun 2027 09:07:20.672            12.258          5921.125
       186   07 Jun 2027 09:07:58.250   07 Jun 2027 09:07:59.113             0.863           195.000
       187   07 Jun 2027 09:08:25.818   07 Jun 2027 09:08:30.262             4.444           834.531
       188   07 Jun 2027 09:09:03.283   07 Jun 2027 09:09:08.055             4.772           993.937
       189   07 Jun 2027 09:09:49.319   07 Jun 2027 09:09:52.268             2.949          1159.969
       190   07 Jun 2027 10:42:00.961   07 Jun 2027 10:42:10.591             9.630          4399.375
       191   07 Jun 2027 10:43:07.941   07 Jun 2027 10:43:14.850             6.909          1328.688
       192   07 Jun 2027 10:45:27.040   07 Jun 2027 10:45:35.356             8.316          3917.937
       193   07 Jun 2027 10:48:07.852   07 Jun 2027 10:48:13.798             5.946          2973.000
       194   07 Jun 2027 10:48:30.042   07 Jun 2027 10:48:34.886             4.844          1893.188
       195   08 Jun 2027 03:02:26.703   08 Jun 2027 03:02:32.453             5.750          2875.000
       196   08 Jun 2027 03:02:35.276   08 Jun 2027 03:02:42.265             6.989          3494.500
       197   08 Jun 2027 03:03:08.075   08 Jun 2027 03:03:30.960            22.885         11442.500
       198   08 Jun 2027 03:04:50.072   08 Jun 2027 03:05:00.134            10.062          5031.000
       199   08 Jun 2027 03:05:44.039   08 Jun 2027 03:06:03.081            19.042          9521.000
       200   08 Jun 2027 03:07:46.789   08 Jun 2027 03:07:58.425            11.636          5818.000
       201   08 Jun 2027 03:08:21.837   08 Jun 2027 03:08:21.840             0.003             1.500
       202   08 Jun 2027 03:08:51.911   08 Jun 2027 03:08:58.832             6.921          3460.500
       203   08 Jun 2027 04:40:43.226   08 Jun 2027 04:40:56.793            13.567          6783.500
       204   08 Jun 2027 04:41:45.568   08 Jun 2027 04:44:18.573           153.005         76502.500
       205   08 Jun 2027 04:44:38.019   08 Jun 2027 04:45:27.335            49.316         24658.000
       206   08 Jun 2027 04:46:05.961   08 Jun 2027 04:46:16.726            10.765          5382.500
       207   08 Jun 2027 04:48:56.847   08 Jun 2027 04:49:17.345            20.498          9772.657
       208   08 Jun 2027 06:18:54.312   08 Jun 2027 06:19:24.974            30.662         13868.437
       209   08 Jun 2027 06:20:01.850   08 Jun 2027 06:20:07.353             5.503           449.250
       210   08 Jun 2027 07:43:03.454   08 Jun 2027 07:43:16.506            13.052          4245.688
       211   08 Jun 2027 07:43:37.406   08 Jun 2027 07:43:37.951             0.545           272.500
       212   08 Jun 2027 07:44:57.208   08 Jun 2027 07:45:05.604             8.396          2751.031
       213   08 Jun 2027 09:18:46.866   08 Jun 2027 09:18:58.668            11.802          2342.562
       214   08 Jun 2027 09:20:18.289   08 Jun 2027 09:20:24.088             5.799          2397.375
       215   08 Jun 2027 09:20:52.042   08 Jun 2027 09:20:55.166             3.124           494.469
       216   08 Jun 2027 09:21:57.852   08 Jun 2027 09:22:00.692             2.840          1370.875
       217   08 Jun 2027 10:53:44.759   08 Jun 2027 10:53:50.582             5.823          2124.531
       218   08 Jun 2027 10:55:34.299   08 Jun 2027 10:55:39.983             5.684          2563.219
       219   08 Jun 2027 11:00:22.085   08 Jun 2027 11:00:41.109            19.024          7845.000
       220   09 Jun 2027 03:15:02.033   09 Jun 2027 03:17:10.750           128.717         64358.500
       221   09 Jun 2027 03:17:27.722   09 Jun 2027 03:17:34.935             7.213          3606.500
       222   09 Jun 2027 03:20:08.666   09 Jun 2027 03:20:10.572             1.906           953.000
       223   09 Jun 2027 03:21:05.391   09 Jun 2027 03:21:36.023            30.632         15316.000
       224   09 Jun 2027 04:53:48.698   09 Jun 2027 04:55:53.614           124.916         62192.688
       225   09 Jun 2027 04:56:46.794   09 Jun 2027 04:56:50.127             3.333          1561.625
       226   09 Jun 2027 04:58:07.212   09 Jun 2027 04:58:12.804             5.592          1137.750
       227   09 Jun 2027 04:59:57.673   09 Jun 2027 05:00:04.365             6.692          3239.469
       228   09 Jun 2027 05:00:25.418   09 Jun 2027 05:00:26.717             1.299           470.531
       229   09 Jun 2027 06:19:51.032   09 Jun 2027 06:20:04.876            13.844          5416.781
       230   09 Jun 2027 06:20:21.727   09 Jun 2027 06:20:22.216             0.489           200.563
       231   09 Jun 2027 06:30:50.606   09 Jun 2027 06:30:54.783             4.177          1766.594
       232   09 Jun 2027 06:31:52.283   09 Jun 2027 06:31:56.068             3.785          1563.187
       233   09 Jun 2027 07:53:51.554   09 Jun 2027 07:54:07.769            16.215          7141.219
       234   09 Jun 2027 07:55:38.277   09 Jun 2027 07:55:44.550             6.273          2096.625
       235   09 Jun 2027 07:56:58.983   09 Jun 2027 07:57:06.786             7.803          2184.625
       236   09 Jun 2027 09:30:32.149   09 Jun 2027 09:30:45.459            13.310          3610.312
       237   09 Jun 2027 09:32:47.907   09 Jun 2027 09:32:56.303             8.396          3623.469
       238   09 Jun 2027 09:33:19.614   09 Jun 2027 09:33:20.525             0.911           131.687
       239   09 Jun 2027 09:33:30.095   09 Jun 2027 09:33:32.545             2.450           299.063
       240   09 Jun 2027 11:05:40.995   09 Jun 2027 11:05:49.020             8.025          3781.406
       241   09 Jun 2027 11:05:56.048   09 Jun 2027 11:05:56.652             0.604            70.250
       242   09 Jun 2027 11:08:04.931   09 Jun 2027 11:08:06.725             1.794           854.344
       243   09 Jun 2027 11:08:46.186   09 Jun 2027 11:08:46.186             0.000             0.000
       244   09 Jun 2027 11:12:11.275   09 Jun 2027 11:12:28.163            16.888          6611.719
       245   09 Jun 2027 11:12:47.861   09 Jun 2027 11:12:51.128             3.267           615.563
       246   10 Jun 2027 03:27:12.187   10 Jun 2027 03:30:19.932           187.745         93872.500
       247   10 Jun 2027 03:33:09.738   10 Jun 2027 03:33:20.574            10.836          5418.000
       248   10 Jun 2027 05:06:14.988   10 Jun 2027 05:07:59.704           104.716         50413.968
       249   10 Jun 2027 05:08:42.490   10 Jun 2027 05:08:43.783             1.293           646.500
       250   10 Jun 2027 05:11:19.315   10 Jun 2027 05:11:32.676            13.361          5254.875
       251   10 Jun 2027 05:11:42.731   10 Jun 2027 05:11:45.203             2.472           226.312
       252   10 Jun 2027 05:12:15.016   10 Jun 2027 05:12:17.973             2.957           861.562
       253   10 Jun 2027 06:31:11.556   10 Jun 2027 06:31:19.427             7.871          3816.469
       254   10 Jun 2027 06:31:50.309   10 Jun 2027 06:31:55.380             5.071           965.063
       255   10 Jun 2027 06:32:22.403   10 Jun 2027 06:32:25.607             3.204           777.531
       256   10 Jun 2027 06:42:53.282   10 Jun 2027 06:42:57.809             4.527          2182.156
       257   10 Jun 2027 08:05:07.334   10 Jun 2027 08:05:18.126            10.792          5380.406
       258   10 Jun 2027 08:05:18.370   10 Jun 2027 08:05:19.067             0.697             7.625
       259   10 Jun 2027 08:05:44.908   10 Jun 2027 08:05:46.278             1.370           659.031
       260   10 Jun 2027 08:07:05.895   10 Jun 2027 08:07:09.616             3.721          1733.187
       261   10 Jun 2027 08:07:52.301   10 Jun 2027 08:07:59.715             7.414           866.281
       262   10 Jun 2027 08:09:39.602   10 Jun 2027 08:09:39.602             0.000             0.000
       263   10 Jun 2027 09:40:15.631   10 Jun 2027 09:40:22.289             6.658          3257.906
       264   10 Jun 2027 09:41:02.711   10 Jun 2027 09:41:04.934             2.223           701.750
       265   10 Jun 2027 09:42:16.244   10 Jun 2027 09:42:21.359             5.115          1386.656
       266   10 Jun 2027 09:43:52.769   10 Jun 2027 09:43:56.759             3.990          1315.219
       267   10 Jun 2027 09:44:52.765   10 Jun 2027 09:44:59.482             6.717          1610.031
       268   10 Jun 2027 09:45:44.499   10 Jun 2027 09:45:46.764             2.265           878.000
       269   10 Jun 2027 09:46:23.538   10 Jun 2027 09:46:24.828             1.290           382.937
       270   10 Jun 2027 09:46:44.109   10 Jun 2027 09:46:50.898             6.789           595.687
       271   10 Jun 2027 11:18:37.841   10 Jun 2027 11:18:56.452            18.611          7370.000
       272   10 Jun 2027 11:20:39.339   10 Jun 2027 11:20:39.339             0.000             0.000
       273   10 Jun 2027 11:23:56.368   10 Jun 2027 11:24:14.871            18.503          6690.938
       274   11 Jun 2027 03:39:29.572   11 Jun 2027 03:40:02.315            32.743         16371.500
       275   11 Jun 2027 03:40:02.746   11 Jun 2027 03:43:22.262           199.516         99758.000
       276   11 Jun 2027 05:18:28.767   11 Jun 2027 05:19:58.144            89.377         41941.250
       277   11 Jun 2027 05:20:50.096   11 Jun 2027 05:20:52.300             2.204           793.500
       278   11 Jun 2027 05:22:51.443   11 Jun 2027 05:22:56.171             4.728          1770.375
       279   11 Jun 2027 05:23:37.937   11 Jun 2027 05:23:40.173             2.236          1036.406
       280   11 Jun 2027 05:24:36.334   11 Jun 2027 05:24:39.555             3.221          1274.688
       281   11 Jun 2027 05:25:15.990   11 Jun 2027 05:25:17.542             1.552           471.750
       282   11 Jun 2027 06:42:37.038   11 Jun 2027 06:42:48.645            11.607          4516.750
       283   11 Jun 2027 06:43:07.660   11 Jun 2027 06:43:07.660             0.000             0.000
       284   11 Jun 2027 06:43:16.205   11 Jun 2027 06:43:16.205             0.000             0.000
       285   11 Jun 2027 06:43:49.181   11 Jun 2027 06:43:53.106             3.925          1891.750
       286   11 Jun 2027 06:44:31.687   11 Jun 2027 06:44:34.993             3.306          1205.656
       287   11 Jun 2027 06:44:51.742   11 Jun 2027 06:44:51.941             0.199            99.500
       288   11 Jun 2027 06:54:50.724   11 Jun 2027 06:54:57.453             6.729          2870.969
       289   11 Jun 2027 08:16:52.514   11 Jun 2027 08:17:04.645            12.131          5925.563
       290   11 Jun 2027 08:17:21.657   11 Jun 2027 08:17:23.528             1.871           101.031
       291   11 Jun 2027 08:18:01.201   11 Jun 2027 08:18:01.201             0.000             0.000
       292   11 Jun 2027 08:18:55.757   11 Jun 2027 08:19:01.655             5.898          2125.719
       293   11 Jun 2027 08:19:37.398   11 Jun 2027 08:19:41.649             4.251           539.219
       294   11 Jun 2027 08:19:58.112   11 Jun 2027 08:20:02.322             4.210           467.062
       295   11 Jun 2027 08:21:40.737   11 Jun 2027 08:21:46.166             5.429          2111.750
       296   11 Jun 2027 08:21:58.416   11 Jun 2027 08:21:59.006             0.590           147.313
       297   11 Jun 2027 09:51:44.583   11 Jun 2027 09:51:52.401             7.818          2956.750
       298   11 Jun 2027 09:54:16.643   11 Jun 2027 09:54:22.133             5.490          1648.750
       299   11 Jun 2027 09:57:16.920   11 Jun 2027 09:57:25.133             8.213          4027.969
       300   11 Jun 2027 09:58:38.097   11 Jun 2027 09:58:41.020             2.923           650.313
       301   11 Jun 2027 09:59:15.563   11 Jun 2027 09:59:23.580             8.017          1079.469
       302   11 Jun 2027 11:31:24.744   11 Jun 2027 11:31:41.496            16.752          8132.813
       303   11 Jun 2027 11:32:30.033   11 Jun 2027 11:32:30.033             0.000             0.000
       304   11 Jun 2027 11:35:34.955   11 Jun 2027 11:35:49.400            14.445          6417.000
       305   11 Jun 2027 11:35:53.557   11 Jun 2027 11:35:54.740             1.183           129.906
       306   11 Jun 2027 11:36:05.846   11 Jun 2027 11:36:07.366             1.520            51.437
       307   11 Jun 2027 11:36:29.832   11 Jun 2027 11:36:32.643             2.811           377.531
       308   12 Jun 2027 03:52:15.457   12 Jun 2027 03:53:44.636            89.179         44589.500
       309   12 Jun 2027 03:55:18.416   12 Jun 2027 03:56:17.741            59.325         29662.500
       310   12 Jun 2027 03:56:55.817   12 Jun 2027 03:56:58.937             3.120          1560.000
       311   12 Jun 2027 03:57:20.648   12 Jun 2027 03:57:31.011            10.363          5181.500
       312   12 Jun 2027 05:30:38.448   12 Jun 2027 05:32:21.009           102.561         51280.500
       313   12 Jun 2027 05:32:46.967   12 Jun 2027 05:33:27.300            40.333         20071.312
       314   12 Jun 2027 05:34:38.861   12 Jun 2027 05:34:43.473             4.612          1416.906
       315   12 Jun 2027 05:35:46.175   12 Jun 2027 05:35:48.796             2.621          1272.812
       316   12 Jun 2027 06:54:41.918   12 Jun 2027 06:54:51.429             9.511          4612.594
       317   12 Jun 2027 06:55:22.949   12 Jun 2027 06:55:22.949             0.000             0.000
       318   12 Jun 2027 06:55:37.435   12 Jun 2027 06:55:40.692             3.257          1057.969
       319   12 Jun 2027 08:28:27.975   12 Jun 2027 08:28:42.688            14.713          6955.906
       320   12 Jun 2027 08:29:48.144   12 Jun 2027 08:29:51.646             3.502          1303.719
       321   12 Jun 2027 08:30:24.377   12 Jun 2027 08:30:25.090             0.713           199.781
       322   12 Jun 2027 08:31:09.949   12 Jun 2027 08:31:17.114             7.165          1044.906
       323   12 Jun 2027 08:32:06.610   12 Jun 2027 08:32:12.555             5.945          1201.750
       324   12 Jun 2027 08:33:41.563   12 Jun 2027 08:33:50.188             8.625          2627.031
       325   12 Jun 2027 10:04:28.682   12 Jun 2027 10:04:35.059             6.377          3029.000
       326   12 Jun 2027 10:05:52.545   12 Jun 2027 10:05:55.365             2.820           855.656
       327   12 Jun 2027 10:06:29.610   12 Jun 2027 10:06:31.237             1.627           519.531
       328   12 Jun 2027 10:07:04.174   12 Jun 2027 10:07:04.718             0.544           123.563
       329   12 Jun 2027 10:10:29.968   12 Jun 2027 10:10:36.757             6.789          2284.406
       330   12 Jun 2027 10:11:39.255   12 Jun 2027 10:11:40.248             0.993           496.500
       331   12 Jun 2027 10:11:57.732   12 Jun 2027 10:11:59.497             1.765           882.500
       332   12 Jun 2027 10:12:21.681   12 Jun 2027 10:12:24.290             2.609           854.031
       333   12 Jun 2027 11:41:31.511   12 Jun 2027 11:41:47.958            16.447          5993.000
       334   12 Jun 2027 11:46:10.749   12 Jun 2027 11:46:22.071            11.322          5661.000
       335   12 Jun 2027 11:47:01.037   12 Jun 2027 11:47:09.245             8.208          2989.094
       336   12 Jun 2027 11:47:50.481   12 Jun 2027 11:47:53.265             2.784           516.687
       337   12 Jun 2027 11:48:07.643   12 Jun 2027 11:48:09.287             1.644           435.344
       338   12 Jun 2027 11:48:32.796   12 Jun 2027 11:48:39.577             6.781           660.563
       339   13 Jun 2027 04:04:49.948   13 Jun 2027 04:05:38.722            48.774         24387.000
       340   13 Jun 2027 04:05:48.469   13 Jun 2027 04:06:31.327            42.858         21429.000
       341   13 Jun 2027 04:06:32.074   13 Jun 2027 04:08:21.676           109.602         54801.000
       342   13 Jun 2027 04:09:03.046   13 Jun 2027 04:09:07.410             4.364          2182.000
       343   13 Jun 2027 04:09:32.721   13 Jun 2027 04:09:44.788            12.067          6033.500
       344   13 Jun 2027 05:43:12.387   13 Jun 2027 05:43:48.941            36.554         18277.000
       345   13 Jun 2027 05:44:56.298   13 Jun 2027 05:45:31.311            35.013         17506.500
       346   13 Jun 2027 05:45:57.688   13 Jun 2027 05:46:32.844            35.156         17447.625
       347   13 Jun 2027 05:47:44.380   13 Jun 2027 05:47:48.993             4.613           519.531
       348   13 Jun 2027 07:06:36.902   13 Jun 2027 07:06:53.931            17.029          6924.469
       349   13 Jun 2027 07:07:52.222   13 Jun 2027 07:07:55.874             3.652          1697.188
       350   13 Jun 2027 07:08:57.151   13 Jun 2027 07:08:59.970             2.819          1409.500
       351   13 Jun 2027 08:42:56.153   13 Jun 2027 08:43:17.310            21.157          9348.469
       352   13 Jun 2027 08:43:29.410   13 Jun 2027 08:43:30.656             1.246            99.781
       353   13 Jun 2027 08:43:52.887   13 Jun 2027 08:43:58.271             5.384           602.812
       354   13 Jun 2027 08:44:52.028   13 Jun 2027 08:44:58.443             6.415          1065.594
       355   13 Jun 2027 08:45:25.662   13 Jun 2027 08:45:28.303             2.641           445.406
       356   13 Jun 2027 10:16:26.491   13 Jun 2027 10:16:31.904             5.413          2571.937
       357   13 Jun 2027 10:17:52.501   13 Jun 2027 10:17:56.153             3.652           828.062
       358   13 Jun 2027 10:18:45.645   13 Jun 2027 10:18:51.232             5.587           684.031
       359   13 Jun 2027 10:19:12.501   13 Jun 2027 10:19:16.220             3.719           427.437
       360   13 Jun 2027 10:22:18.959   13 Jun 2027 10:22:25.381             6.422          1962.875
       361   13 Jun 2027 10:23:40.002   13 Jun 2027 10:23:41.029             1.027           424.625
       362   13 Jun 2027 10:24:02.132   13 Jun 2027 10:24:02.897             0.765           382.500
       363   13 Jun 2027 10:24:57.245   13 Jun 2027 10:24:58.421             1.176           588.000
       364   13 Jun 2027 11:53:57.615   13 Jun 2027 11:54:09.156            11.541          4975.156
       365   13 Jun 2027 11:56:15.711   13 Jun 2027 11:56:17.465             1.754           370.719
       366   13 Jun 2027 11:57:38.283   13 Jun 2027 11:57:45.004             6.721          1862.062
       367   13 Jun 2027 11:58:04.946   13 Jun 2027 11:58:05.653             0.707           240.875
       368   13 Jun 2027 11:58:30.589   13 Jun 2027 11:58:35.489             4.900           512.344
       369   13 Jun 2027 11:59:23.879   13 Jun 2027 11:59:31.692             7.813          1036.500
       370   13 Jun 2027 11:59:56.763   13 Jun 2027 12:00:00.000             3.237           379.187
