uniorb/output/strategy_4/Camera/Camera_KinoSat_111905.txt

KinoSat_111905
-------------------------
    Access    *     Start Time (UTCG)     *     Stop Time (UTCG)  *   Duration (s) *   Data (Mbytes)
         1   01 Jun 2027 03:00:45.546   01 Jun 2027 03:00:55.137             9.591          4795.500
         2   01 Jun 2027 03:01:31.758   01 Jun 2027 03:01:31.758             0.000             0.000
         3   01 Jun 2027 03:01:41.989   01 Jun 2027 03:01:43.860             1.871           935.500
         4   01 Jun 2027 03:02:26.641   01 Jun 2027 03:02:58.419            31.778         15889.000
         5   01 Jun 2027 03:03:26.731   01 Jun 2027 03:03:31.576             4.845          2422.500
         6   01 Jun 2027 03:03:51.308   01 Jun 2027 03:04:06.675            15.367          7683.500
         7   01 Jun 2027 03:05:17.472   01 Jun 2027 03:05:39.879            22.407         11203.500
         8   01 Jun 2027 03:07:30.067   01 Jun 2027 03:07:33.994             3.927          1963.500
         9   01 Jun 2027 03:07:46.605   01 Jun 2027 03:07:58.939            12.334          6167.000
        10   01 Jun 2027 04:38:53.946   01 Jun 2027 04:39:22.252            28.306         14153.000
        11   01 Jun 2027 04:39:29.081   01 Jun 2027 04:40:37.606            68.525         34262.500
        12   01 Jun 2027 04:42:18.909   01 Jun 2027 04:42:19.229             0.320           160.000
        13   01 Jun 2027 04:42:50.717   01 Jun 2027 04:43:14.747            24.030         12015.000
        14   01 Jun 2027 06:16:54.539   01 Jun 2027 06:19:00.836           126.297         63148.500
        15   01 Jun 2027 06:19:15.096   01 Jun 2027 06:19:18.240             3.144          1572.000
        16   01 Jun 2027 07:40:35.460   01 Jun 2027 07:42:34.299           118.839         59419.500
        17   01 Jun 2027 09:16:57.672   01 Jun 2027 09:17:38.893            41.221         20610.500
        18   01 Jun 2027 09:18:25.423   01 Jun 2027 09:19:01.054            35.631         17815.500
        19   01 Jun 2027 09:19:26.077   01 Jun 2027 09:19:41.536            15.459          7729.500
        20   01 Jun 2027 10:51:01.720   01 Jun 2027 10:52:53.540           111.820         55910.000
        21   01 Jun 2027 10:54:20.651   01 Jun 2027 10:54:51.061            30.410         15205.000
        22   01 Jun 2027 10:57:35.877   01 Jun 2027 10:57:55.513            19.636          9818.000
        23   01 Jun 2027 10:58:00.112   01 Jun 2027 10:58:26.824            26.712         13356.000
        24   01 Jun 2027 10:58:58.765   01 Jun 2027 10:59:01.311             2.546          1273.000
        25   02 Jun 2027 03:12:49.644   02 Jun 2027 03:13:31.562            41.918         20959.000
        26   02 Jun 2027 03:14:09.449   02 Jun 2027 03:15:41.506            92.057         46028.500
        27   02 Jun 2027 03:18:26.722   02 Jun 2027 03:18:27.836             1.114           557.000
        28   02 Jun 2027 03:19:25.735   02 Jun 2027 03:19:39.615            13.880          6940.000
        29   02 Jun 2027 04:51:00.650   02 Jun 2027 04:52:03.712            63.062         31531.000
        30   02 Jun 2027 04:52:10.274   02 Jun 2027 04:55:37.854           207.580        103790.000
        31   02 Jun 2027 06:30:08.065   02 Jun 2027 06:32:36.838           148.773         74386.500
        32   02 Jun 2027 07:52:39.353   02 Jun 2027 07:53:40.512            61.159         30579.500
        33   02 Jun 2027 07:54:17.391   02 Jun 2027 07:55:04.297            46.906         23453.000
        34   02 Jun 2027 09:29:08.576   02 Jun 2027 09:30:54.204           105.628         52814.000
        35   02 Jun 2027 09:31:28.338   02 Jun 2027 09:31:31.491             3.153          1319.157
        36   02 Jun 2027 09:31:46.754   02 Jun 2027 09:31:47.928             1.174           169.688
        37   02 Jun 2027 11:04:13.587   02 Jun 2027 11:04:35.861            22.274          4849.531
        38   02 Jun 2027 11:05:34.078   02 Jun 2027 11:05:40.679             6.601          1286.344
        39   02 Jun 2027 11:06:07.551   02 Jun 2027 11:06:09.729             2.178            56.781
        40   02 Jun 2027 11:07:08.480   02 Jun 2027 11:07:10.999             2.519           867.719
        41   02 Jun 2027 11:10:17.014   02 Jun 2027 11:10:29.822            12.808          5747.781
        42   02 Jun 2027 11:10:53.573   02 Jun 2027 11:10:57.381             3.808           217.125
        43   03 Jun 2027 03:24:48.084   03 Jun 2027 03:25:24.798            36.714         18357.000
        44   03 Jun 2027 03:25:38.520   03 Jun 2027 03:28:19.436           160.916         80458.000
        45   03 Jun 2027 03:28:34.381   03 Jun 2027 03:28:45.491            11.110          5555.000
        46   03 Jun 2027 03:30:41.923   03 Jun 2027 03:30:54.534            12.611          6305.500
        47   03 Jun 2027 05:03:03.094   03 Jun 2027 05:03:43.884            40.790         20395.000
        48   03 Jun 2027 05:04:07.930   03 Jun 2027 05:05:33.032            85.102         42060.687
        49   03 Jun 2027 05:06:44.752   03 Jun 2027 05:06:49.971             5.219          1513.437
        50   03 Jun 2027 05:07:55.259   03 Jun 2027 05:07:57.208             1.949           867.094
        51   03 Jun 2027 06:41:15.202   03 Jun 2027 06:41:25.534            10.332          4126.375
        52   03 Jun 2027 08:04:35.873   03 Jun 2027 08:04:56.903            21.030          7215.250
        53   03 Jun 2027 08:05:23.816   03 Jun 2027 08:05:25.176             1.360           351.500
        54   03 Jun 2027 08:06:15.221   03 Jun 2027 08:06:19.893             4.672           990.062
        55   03 Jun 2027 08:07:26.619   03 Jun 2027 08:07:32.511             5.892          2085.188
        56   03 Jun 2027 09:41:13.681   03 Jun 2027 09:41:21.991             8.310          2347.313
        57   03 Jun 2027 09:42:57.630   03 Jun 2027 09:43:01.590             3.960           296.563
        58   03 Jun 2027 09:43:30.307   03 Jun 2027 09:43:38.040             7.733           506.969
        59   03 Jun 2027 09:44:32.825   03 Jun 2027 09:44:33.983             1.158           534.313
        60   03 Jun 2027 11:16:23.979   03 Jun 2027 11:16:31.208             7.229          3438.094
        61   03 Jun 2027 11:17:39.137   03 Jun 2027 11:17:46.034             6.897          1819.437
        62   03 Jun 2027 11:18:50.103   03 Jun 2027 11:18:55.388             5.285          1528.438
        63   03 Jun 2027 11:20:02.841   03 Jun 2027 11:20:06.382             3.541          1708.781
        64   03 Jun 2027 11:20:42.122   03 Jun 2027 11:20:47.087             4.965           788.938
        65   03 Jun 2027 11:22:04.441   03 Jun 2027 11:22:09.580             5.139          2104.906
        66   03 Jun 2027 11:22:27.673   03 Jun 2027 11:22:28.280             0.607            31.906
        67   03 Jun 2027 11:22:58.554   03 Jun 2027 11:23:00.036             1.482           463.875
        68   04 Jun 2027 03:36:50.192   04 Jun 2027 03:37:12.072            21.880         10940.000
        69   04 Jun 2027 03:37:15.300   04 Jun 2027 03:40:10.799           175.499         87749.500
        70   04 Jun 2027 03:41:23.114   04 Jun 2027 03:41:44.603            21.489         10744.500
        71   04 Jun 2027 03:41:53.933   04 Jun 2027 03:42:48.264            54.331         27165.500
        72   04 Jun 2027 03:43:16.460   04 Jun 2027 03:43:16.803             0.343           171.500
        73   04 Jun 2027 05:16:07.905   04 Jun 2027 05:17:21.320            73.415         36050.219
        74   04 Jun 2027 05:18:39.129   04 Jun 2027 05:18:40.448             1.319           195.625
        75   04 Jun 2027 05:19:52.635   04 Jun 2027 05:19:58.510             5.875          2255.844
        76   04 Jun 2027 05:22:47.775   04 Jun 2027 05:23:00.955            13.180          5049.500
        77   04 Jun 2027 06:42:26.423   04 Jun 2027 06:42:36.710            10.287          4963.281
        78   04 Jun 2027 06:53:12.916   04 Jun 2027 06:53:16.453             3.537          1741.000
        79   04 Jun 2027 06:54:34.197   04 Jun 2027 06:54:35.182             0.985           175.719
        80   04 Jun 2027 06:56:38.798   04 Jun 2027 06:56:39.384             0.586            54.469
        81   04 Jun 2027 08:17:12.129   04 Jun 2027 08:17:36.387            24.258          8985.094
        82   04 Jun 2027 08:18:15.460   04 Jun 2027 08:18:25.140             9.680           917.375
        83   04 Jun 2027 08:19:54.681   04 Jun 2027 08:19:55.517             0.836           418.000
        84   04 Jun 2027 09:52:57.657   04 Jun 2027 09:53:05.710             8.053          2127.656
        85   04 Jun 2027 09:55:31.937   04 Jun 2027 09:55:37.554             5.617          1681.500
        86   04 Jun 2027 09:55:39.866   04 Jun 2027 09:55:40.108             0.242            72.250
        87   04 Jun 2027 11:27:48.251   04 Jun 2027 11:27:53.225             4.974          2205.781
        88   04 Jun 2027 11:30:32.084   04 Jun 2027 11:30:32.084             0.000             0.000
        89   04 Jun 2027 11:31:18.173   04 Jun 2027 11:31:29.114            10.941          5436.625
        90   04 Jun 2027 11:32:48.712   04 Jun 2027 11:32:51.010             2.298           334.250
        91   04 Jun 2027 11:33:51.391   04 Jun 2027 11:33:57.436             6.045          1052.344
        92   04 Jun 2027 11:34:27.476   04 Jun 2027 11:34:29.070             1.594           653.188
        93   04 Jun 2027 11:34:50.357   04 Jun 2027 11:34:54.310             3.953           665.219
        94   05 Jun 2027 03:49:30.774   05 Jun 2027 03:52:26.979           176.205         88102.500
        95   05 Jun 2027 03:54:32.002   05 Jun 2027 03:54:36.095             4.093          2046.500
        96   05 Jun 2027 03:54:50.841   05 Jun 2027 03:54:51.182             0.341           170.500
        97   05 Jun 2027 03:55:07.777   05 Jun 2027 03:55:21.239            13.462          6731.000
        98   05 Jun 2027 05:28:28.904   05 Jun 2027 05:30:44.771           135.867         67523.125
        99   05 Jun 2027 05:31:20.743   05 Jun 2027 05:31:23.243             2.500          1098.562
       100   05 Jun 2027 05:31:30.079   05 Jun 2027 05:31:30.652             0.573           213.625
       101   05 Jun 2027 05:32:02.249   05 Jun 2027 05:32:05.754             3.505           870.375
       102   05 Jun 2027 05:34:25.352   05 Jun 2027 05:34:34.488             9.136          4315.938
       103   05 Jun 2027 06:53:42.579   05 Jun 2027 06:53:55.124            12.545          5872.625
       104   05 Jun 2027 06:54:23.896   05 Jun 2027 06:54:26.633             2.737           420.937
       105   05 Jun 2027 07:05:13.484   05 Jun 2027 07:05:19.587             6.103          2664.875
       106   05 Jun 2027 07:06:17.008   05 Jun 2027 07:06:19.878             2.870           642.344
       107   05 Jun 2027 08:27:51.094   05 Jun 2027 08:28:04.486            13.392          5172.312
       108   05 Jun 2027 08:29:26.648   05 Jun 2027 08:29:30.567             3.919          1530.313
       109   05 Jun 2027 08:30:18.193   05 Jun 2027 08:30:25.421             7.228           929.812
       110   05 Jun 2027 08:31:56.200   05 Jun 2027 08:31:56.200             0.000             0.000
       111   05 Jun 2027 10:02:59.270   05 Jun 2027 10:03:06.840             7.570          2952.562
       112   05 Jun 2027 10:03:21.655   05 Jun 2027 10:03:23.889             2.234           361.531
       113   05 Jun 2027 10:04:42.295   05 Jun 2027 10:04:44.226             1.931            50.687
       114   05 Jun 2027 10:07:33.173   05 Jun 2027 10:07:38.551             5.378          2146.719
       115   05 Jun 2027 10:08:29.925   05 Jun 2027 10:08:32.032             2.107           780.094
       116   05 Jun 2027 10:09:03.016   05 Jun 2027 10:09:08.756             5.740           736.187
       117   05 Jun 2027 11:39:42.911   05 Jun 2027 11:39:59.635            16.724          2444.625
       118   05 Jun 2027 11:46:09.302   05 Jun 2027 11:46:32.447            23.145         11552.094
       119   05 Jun 2027 11:47:10.727   05 Jun 2027 11:47:10.874             0.147            73.500
       120   06 Jun 2027 04:01:46.704   06 Jun 2027 04:03:09.646            82.942         41471.000
       121   06 Jun 2027 04:03:13.388   06 Jun 2027 04:04:48.293            94.905         47452.500
       122   06 Jun 2027 04:05:44.481   06 Jun 2027 04:05:50.706             6.225          3112.500
       123   06 Jun 2027 04:06:49.671   06 Jun 2027 04:07:03.210            13.539          6769.500
       124   06 Jun 2027 04:07:38.076   06 Jun 2027 04:07:43.142             5.066          2533.000
       125   06 Jun 2027 05:40:45.100   06 Jun 2027 05:42:28.225           103.125         51562.500
       126   06 Jun 2027 05:42:37.586   06 Jun 2027 05:42:52.721            15.135          7567.500
       127   06 Jun 2027 05:45:52.902   06 Jun 2027 05:46:28.293            35.391         16476.718
       128   06 Jun 2027 07:04:58.836   06 Jun 2027 07:05:17.932            19.096          6374.812
       129   06 Jun 2027 07:06:56.361   06 Jun 2027 07:07:02.849             6.488          2552.156
       130   06 Jun 2027 07:17:11.262   06 Jun 2027 07:17:17.787             6.525          2827.562
       131   06 Jun 2027 08:39:26.950   06 Jun 2027 08:39:51.357            24.407         11674.344
       132   06 Jun 2027 08:40:22.256   06 Jun 2027 08:40:24.013             1.757           878.500
       133   06 Jun 2027 08:42:02.316   06 Jun 2027 08:42:11.764             9.448          2549.000
       134   06 Jun 2027 08:43:26.115   06 Jun 2027 08:43:30.210             4.095          1957.062
       135   06 Jun 2027 08:44:20.712   06 Jun 2027 08:44:23.756             3.044          1393.344
       136   06 Jun 2027 10:14:19.429   06 Jun 2027 10:14:27.840             8.411          2426.531
       137   06 Jun 2027 10:16:30.142   06 Jun 2027 10:16:34.105             3.963          1391.281
       138   06 Jun 2027 10:18:05.257   06 Jun 2027 10:18:07.404             2.147           993.344
       139   06 Jun 2027 10:19:33.959   06 Jun 2027 10:19:41.880             7.921          2130.125
       140   06 Jun 2027 10:20:55.876   06 Jun 2027 10:20:58.161             2.285           596.344
       141   06 Jun 2027 10:21:31.486   06 Jun 2027 10:21:31.486             0.000             0.000
       142   06 Jun 2027 11:54:51.868   06 Jun 2027 11:54:51.868             0.000             0.000
       143   06 Jun 2027 11:55:19.867   06 Jun 2027 11:55:43.921            24.054         11853.563
       144   06 Jun 2027 11:57:19.924   06 Jun 2027 11:57:24.480             4.556          2208.344
       145   06 Jun 2027 11:58:14.776   06 Jun 2027 11:58:18.799             4.023          1230.938
       146   06 Jun 2027 11:58:47.237   06 Jun 2027 11:58:52.787             5.550           878.750
       147   07 Jun 2027 04:14:05.981   07 Jun 2027 04:14:19.249            13.268          6634.000
       148   07 Jun 2027 04:14:33.207   07 Jun 2027 04:15:46.937            73.730         36865.000
       149   07 Jun 2027 04:15:55.807   07 Jun 2027 04:16:06.634            10.827          5413.500
       150   07 Jun 2027 04:16:15.251   07 Jun 2027 04:16:15.251             0.000             0.000
       151   07 Jun 2027 04:17:35.084   07 Jun 2027 04:17:39.477             4.393          2196.500
       152   07 Jun 2027 04:17:47.507   07 Jun 2027 04:18:04.440            16.933          8466.500
       153   07 Jun 2027 04:18:48.907   07 Jun 2027 04:18:50.833             1.926           963.000
       154   07 Jun 2027 05:52:51.711   07 Jun 2027 05:56:05.876           194.165         97082.500
       155   07 Jun 2027 05:57:17.250   07 Jun 2027 05:57:44.109            26.859         13357.407
       156   07 Jun 2027 07:17:04.635   07 Jun 2027 07:17:30.997            26.362         12418.063
       157   07 Jun 2027 07:29:35.139   07 Jun 2027 07:29:38.619             3.480          1740.000
       158   07 Jun 2027 08:50:55.484   07 Jun 2027 08:51:20.196            24.712         11350.344
       159   07 Jun 2027 08:52:57.538   07 Jun 2027 08:52:59.738             2.200           459.656
       160   07 Jun 2027 08:53:18.399   07 Jun 2027 08:53:18.399             0.000             0.000
       161   07 Jun 2027 08:53:52.289   07 Jun 2027 08:53:59.255             6.966          1642.219
       162   07 Jun 2027 08:55:16.069   07 Jun 2027 08:55:22.744             6.675          2341.813
       163   07 Jun 2027 08:55:39.022   07 Jun 2027 08:55:41.910             2.888           461.688
       164   07 Jun 2027 10:25:49.553   07 Jun 2027 10:25:55.808             6.255          3112.594
       165   07 Jun 2027 10:28:31.775   07 Jun 2027 10:28:33.451             1.676           694.500
       166   07 Jun 2027 10:29:30.021   07 Jun 2027 10:29:35.611             5.590          1541.437
       167   07 Jun 2027 10:31:34.213   07 Jun 2027 10:31:44.722            10.509          3691.094
       168   07 Jun 2027 10:33:15.600   07 Jun 2027 10:33:18.069             2.469           519.063
       169   07 Jun 2027 10:33:32.880   07 Jun 2027 10:33:34.156             1.276           110.844
       170   07 Jun 2027 10:34:42.881   07 Jun 2027 10:34:43.991             1.110            21.375
       171   08 Jun 2027 04:26:43.793   08 Jun 2027 04:26:51.418             7.625          3812.500
       172   08 Jun 2027 04:27:05.324   08 Jun 2027 04:27:14.046             8.722          4361.000
       173   08 Jun 2027 04:27:15.400   08 Jun 2027 04:28:06.914            51.514         25757.000
       174   08 Jun 2027 04:28:11.867   08 Jun 2027 04:28:36.264            24.397         12198.500
       175   08 Jun 2027 04:28:48.090   08 Jun 2027 04:28:50.843             2.753          1376.500
       176   08 Jun 2027 04:28:51.001   08 Jun 2027 04:29:07.872            16.871          8435.500
       177   08 Jun 2027 04:32:12.307   08 Jun 2027 04:32:20.338             8.031          4015.500
       178   08 Jun 2027 06:05:17.010   08 Jun 2027 06:08:48.529           211.519        103434.562
       179   08 Jun 2027 06:09:31.487   08 Jun 2027 06:09:34.914             3.427           711.875
       180   08 Jun 2027 06:09:59.445   08 Jun 2027 06:10:04.704             5.259           766.594
       181   08 Jun 2027 07:29:00.632   08 Jun 2027 07:29:20.850            20.218          6954.781
       182   08 Jun 2027 07:30:16.472   08 Jun 2027 07:30:20.002             3.530          1583.063
       183   08 Jun 2027 09:05:12.953   08 Jun 2027 09:05:36.816            23.863         11494.656
       184   08 Jun 2027 09:05:51.053   08 Jun 2027 09:05:53.702             2.649           444.906
       185   08 Jun 2027 09:06:42.231   08 Jun 2027 09:06:50.106             7.875          1516.531
       186   08 Jun 2027 09:07:41.724   08 Jun 2027 09:07:43.174             1.450           635.219
       187   08 Jun 2027 09:08:18.544   08 Jun 2027 09:08:21.893             3.349          1082.094
       188   08 Jun 2027 10:38:44.814   08 Jun 2027 10:38:56.825            12.011          3725.844
       189   08 Jun 2027 10:40:55.395   08 Jun 2027 10:41:01.108             5.713           462.875
       190   08 Jun 2027 10:41:25.157   08 Jun 2027 10:41:25.157             0.000             0.000
       191   08 Jun 2027 10:41:29.015   08 Jun 2027 10:41:36.613             7.598           524.813
       192   08 Jun 2027 10:43:24.683   08 Jun 2027 10:43:32.791             8.108            53.063
       193   08 Jun 2027 10:44:48.737   08 Jun 2027 10:44:56.947             8.210          2340.344
       194   08 Jun 2027 10:45:59.038   08 Jun 2027 10:46:02.450             3.412          1188.438
       195   08 Jun 2027 10:46:55.866   08 Jun 2027 10:47:00.373             4.507          1669.250
       196   09 Jun 2027 03:01:03.858   09 Jun 2027 03:01:21.629            17.771          8885.500
       197   09 Jun 2027 03:01:25.255   09 Jun 2027 03:01:26.839             1.584           792.000
       198   09 Jun 2027 03:02:56.493   09 Jun 2027 03:03:17.415            20.922         10461.000
       199   09 Jun 2027 03:03:27.197   09 Jun 2027 03:03:27.197             0.000             0.000
       200   09 Jun 2027 03:04:05.862   09 Jun 2027 03:04:24.285            18.423          9211.500
       201   09 Jun 2027 03:04:44.885   09 Jun 2027 03:04:50.473             5.588          2794.000
       202   09 Jun 2027 03:05:07.658   09 Jun 2027 03:05:17.557             9.899          4949.500
       203   09 Jun 2027 03:06:00.261   09 Jun 2027 03:06:02.755             2.494          1247.000
       204   09 Jun 2027 04:39:10.824   09 Jun 2027 04:39:38.930            28.106         14053.000
       205   09 Jun 2027 04:39:42.804   09 Jun 2027 04:40:42.385            59.581         29790.500
       206   09 Jun 2027 04:41:08.732   09 Jun 2027 04:41:45.319            36.587         18293.500
       207   09 Jun 2027 04:42:01.323   09 Jun 2027 04:42:06.143             4.820          2410.000
       208   09 Jun 2027 04:42:27.371   09 Jun 2027 04:42:34.086             6.715          3357.500
       209   09 Jun 2027 04:42:37.082   09 Jun 2027 04:42:41.473             4.391          2195.500
       210   09 Jun 2027 04:43:45.573   09 Jun 2027 04:44:25.448            39.875         19937.500
       211   09 Jun 2027 04:44:41.947   09 Jun 2027 04:44:54.368            12.421          6210.500
       212   09 Jun 2027 04:45:01.557   09 Jun 2027 04:45:06.420             4.863          2431.500
       213   09 Jun 2027 06:17:11.542   09 Jun 2027 06:18:37.917            86.375         43131.062
       214   09 Jun 2027 06:21:47.972   09 Jun 2027 06:21:49.719             1.747           750.844
       215   09 Jun 2027 07:40:52.425   09 Jun 2027 07:41:06.514            14.089          6396.562
       216   09 Jun 2027 07:42:17.829   09 Jun 2027 07:42:24.212             6.383          1850.000
       217   09 Jun 2027 07:42:47.945   09 Jun 2027 07:42:49.782             1.837           290.250
       218   09 Jun 2027 07:43:00.795   09 Jun 2027 07:43:02.008             1.213           255.937
       219   09 Jun 2027 09:17:16.211   09 Jun 2027 09:17:37.264            21.053          9706.313
       220   09 Jun 2027 09:18:08.623   09 Jun 2027 09:18:12.135             3.512           434.812
       221   09 Jun 2027 09:18:55.933   09 Jun 2027 09:19:02.838             6.905           785.938
       222   09 Jun 2027 09:19:17.322   09 Jun 2027 09:19:19.187             1.865           261.406
       223   09 Jun 2027 09:20:21.164   09 Jun 2027 09:20:23.604             2.440          1154.719
       224   09 Jun 2027 10:49:28.529   09 Jun 2027 10:49:38.658            10.129          2166.344
       225   09 Jun 2027 10:51:22.638   09 Jun 2027 10:51:26.581             3.943           680.469
       226   09 Jun 2027 10:54:43.563   09 Jun 2027 10:54:50.158             6.595          2821.625
       227   09 Jun 2027 10:56:34.676   09 Jun 2027 10:56:47.433            12.757          2662.594
       228   09 Jun 2027 10:57:24.233   09 Jun 2027 10:57:26.244             2.011           750.625
       229   09 Jun 2027 10:57:59.190   09 Jun 2027 10:58:00.820             1.630           738.469
       230   09 Jun 2027 10:58:11.915   09 Jun 2027 10:58:12.697             0.782           239.813
       231   09 Jun 2027 10:58:21.809   09 Jun 2027 10:58:26.351             4.542           169.344
       232   09 Jun 2027 10:58:44.197   09 Jun 2027 10:58:44.650             0.453            24.750
       233   09 Jun 2027 10:59:16.036   09 Jun 2027 10:59:17.815             1.779           869.125
       234   10 Jun 2027 03:13:07.070   10 Jun 2027 03:13:48.004            40.934         20467.000
       235   10 Jun 2027 03:14:24.461   10 Jun 2027 03:16:43.029           138.568         69284.000
       236   10 Jun 2027 03:18:33.969   10 Jun 2027 03:18:40.961             6.992          3496.000
       237   10 Jun 2027 03:18:44.674   10 Jun 2027 03:18:48.492             3.818          1909.000
       238   10 Jun 2027 03:19:11.723   10 Jun 2027 03:19:41.009            29.286         14643.000
       239   10 Jun 2027 03:20:07.182   10 Jun 2027 03:20:20.470            13.288          6644.000
       240   10 Jun 2027 04:51:16.920   10 Jun 2027 04:52:20.411            63.491         31745.500
       241   10 Jun 2027 04:52:27.751   10 Jun 2027 04:52:49.830            22.079         11039.500
       242   10 Jun 2027 04:53:43.789   10 Jun 2027 04:54:19.265            35.476         17697.781
       243   10 Jun 2027 04:55:42.440   10 Jun 2027 04:55:48.490             6.050          2153.500
       244   10 Jun 2027 04:57:20.522   10 Jun 2027 04:57:25.738             5.216          2443.000
       245   10 Jun 2027 06:30:25.364   10 Jun 2027 06:30:40.072            14.708          6922.188
       246   10 Jun 2027 06:31:15.572   10 Jun 2027 06:31:15.679             0.107            39.688
       247   10 Jun 2027 07:52:57.794   10 Jun 2027 07:53:07.824            10.030          4812.875
       248   10 Jun 2027 07:54:18.948   10 Jun 2027 07:54:24.001             5.053          2197.875
       249   10 Jun 2027 07:54:35.537   10 Jun 2027 07:54:37.414             1.877            38.219
       250   10 Jun 2027 07:55:46.695   10 Jun 2027 07:55:49.897             3.202           746.094
       251   10 Jun 2027 09:29:26.951   10 Jun 2027 09:29:32.909             5.958          2436.813
       252   10 Jun 2027 09:29:55.239   10 Jun 2027 09:29:58.828             3.589           527.688
       253   10 Jun 2027 09:31:11.724   10 Jun 2027 09:31:14.304             2.580           989.156
       254   10 Jun 2027 09:31:55.868   10 Jun 2027 09:31:59.159             3.291          1052.250
       255   10 Jun 2027 11:04:34.463   10 Jun 2027 11:04:50.962            16.499          3870.875
       256   10 Jun 2027 11:05:55.102   10 Jun 2027 11:06:09.174            14.072          1426.062
       257   10 Jun 2027 11:06:59.587   10 Jun 2027 11:07:05.443             5.856          1146.750
       258   10 Jun 2027 11:08:22.599   10 Jun 2027 11:08:29.553             6.954          2353.219
       259   10 Jun 2027 11:09:01.325   10 Jun 2027 11:09:02.897             1.572           706.687
       260   10 Jun 2027 11:09:29.584   10 Jun 2027 11:09:32.948             3.364           443.500
       261   10 Jun 2027 11:09:59.102   10 Jun 2027 11:10:05.277             6.175           178.937
       262   10 Jun 2027 11:11:01.166   10 Jun 2027 11:11:03.002             1.836           733.563
       263   10 Jun 2027 11:11:11.828   10 Jun 2027 11:11:14.035             2.207           275.812
       264   11 Jun 2027 03:25:05.264   11 Jun 2027 03:25:41.443            36.179         18089.500
       265   11 Jun 2027 03:25:53.687   11 Jun 2027 03:29:01.733           188.046         94023.000
       266   11 Jun 2027 03:30:35.311   11 Jun 2027 03:30:42.817             7.506          3753.000
       267   11 Jun 2027 03:31:24.824   11 Jun 2027 03:31:39.518            14.694          7347.000
       268   11 Jun 2027 05:03:21.302   11 Jun 2027 05:04:02.709            41.407         20703.500
       269   11 Jun 2027 05:04:25.146   11 Jun 2027 05:05:27.306            62.160         30367.344
       270   11 Jun 2027 05:06:38.329   11 Jun 2027 05:06:40.404             2.075           863.781
       271   11 Jun 2027 05:08:12.011   11 Jun 2027 05:08:17.948             5.937           861.875
       272   11 Jun 2027 06:41:34.480   11 Jun 2027 06:41:43.047             8.567          3946.656
       273   11 Jun 2027 06:44:56.345   11 Jun 2027 06:44:58.074             1.729            43.344
       274   11 Jun 2027 08:05:01.675   11 Jun 2027 08:05:13.250            11.575          5402.438
       275   11 Jun 2027 08:05:40.258   11 Jun 2027 08:05:41.068             0.810           369.906
       276   11 Jun 2027 08:06:32.319   11 Jun 2027 08:06:40.585             8.266           972.406
       277   11 Jun 2027 08:07:43.886   11 Jun 2027 08:07:48.191             4.305          1978.156
       278   11 Jun 2027 09:41:30.649   11 Jun 2027 09:41:36.504             5.855          2124.469
       279   11 Jun 2027 09:43:16.592   11 Jun 2027 09:43:18.424             1.832           388.563
       280   11 Jun 2027 09:43:48.382   11 Jun 2027 09:43:51.453             3.071           484.156
       281   11 Jun 2027 09:44:53.546   11 Jun 2027 09:44:55.100             1.554           603.906
       282   11 Jun 2027 11:16:41.797   11 Jun 2027 11:16:49.988             8.191          3778.719
       283   11 Jun 2027 11:18:42.929   11 Jun 2027 11:18:50.266             7.337          3305.750
       284   11 Jun 2027 11:21:13.494   11 Jun 2027 11:21:21.102             7.608          3306.875
       285   11 Jun 2027 11:22:02.279   11 Jun 2027 11:22:12.090             9.811           924.156
       286   11 Jun 2027 11:22:43.459   11 Jun 2027 11:22:48.042             4.583           717.156
       287   11 Jun 2027 11:23:12.938   11 Jun 2027 11:23:14.366             1.428           411.688
       288   12 Jun 2027 03:37:08.508   12 Jun 2027 03:40:25.119           196.611         98305.500
       289   12 Jun 2027 03:41:36.944   12 Jun 2027 03:41:59.547            22.603         11301.500
       290   12 Jun 2027 05:16:25.977   12 Jun 2027 05:18:19.437           113.460         56311.313
       291   12 Jun 2027 05:22:46.647   12 Jun 2027 05:23:01.699            15.052          7489.281
       292   12 Jun 2027 05:23:10.038   12 Jun 2027 05:23:10.451             0.413           122.281
       293   12 Jun 2027 05:24:05.164   12 Jun 2027 05:24:11.856             6.692          1681.937
       294   12 Jun 2027 06:42:40.627   12 Jun 2027 06:42:51.550            10.923          3889.406
       295   12 Jun 2027 06:53:30.252   12 Jun 2027 06:53:35.585             5.333          2173.156
       296   12 Jun 2027 06:54:48.961   12 Jun 2027 06:54:50.668             1.707           486.125
       297   12 Jun 2027 06:56:53.273   12 Jun 2027 06:56:53.727             0.454            50.531
       298   12 Jun 2027 08:17:28.680   12 Jun 2027 08:17:51.192            22.512          8963.625
       299   12 Jun 2027 08:18:03.747   12 Jun 2027 08:18:06.012             2.265           318.875
       300   12 Jun 2027 08:19:37.701   12 Jun 2027 08:19:42.704             5.003          2421.313
       301   12 Jun 2027 09:53:15.075   12 Jun 2027 09:53:18.888             3.813          1705.531
       302   12 Jun 2027 09:55:49.976   12 Jun 2027 09:55:53.489             3.513          1750.594
       303   12 Jun 2027 09:55:59.243   12 Jun 2027 09:56:02.144             2.901            81.250
       304   12 Jun 2027 11:27:57.583   12 Jun 2027 11:28:04.413             6.830          2181.594
       305   12 Jun 2027 11:30:28.682   12 Jun 2027 11:30:36.152             7.470          3398.531
       306   12 Jun 2027 11:33:58.801   12 Jun 2027 11:34:12.864            14.063          6172.312
       307   12 Jun 2027 11:34:43.860   12 Jun 2027 11:34:53.463             9.603           663.125
       308   12 Jun 2027 11:35:23.978   12 Jun 2027 11:35:28.181             4.203           906.563
       309   13 Jun 2027 03:49:48.797   13 Jun 2027 03:53:03.673           194.876         97438.000
       310   13 Jun 2027 03:53:16.058   13 Jun 2027 03:53:17.797             1.739           869.500
       311   13 Jun 2027 05:28:47.960   13 Jun 2027 05:30:51.038           123.078         61539.000
       312   13 Jun 2027 05:33:11.060   13 Jun 2027 05:33:32.542            21.482         10741.000
       313   13 Jun 2027 05:34:40.340   13 Jun 2027 05:34:46.357             6.017          3008.500
       314   13 Jun 2027 05:35:01.248   13 Jun 2027 05:35:04.565             3.317           931.844
       315   13 Jun 2027 06:53:55.703   13 Jun 2027 06:54:09.810            14.107          5923.594
       316   13 Jun 2027 06:54:41.137   13 Jun 2027 06:54:41.137             0.000             0.000
       317   13 Jun 2027 06:55:05.257   13 Jun 2027 06:55:08.734             3.477          1131.656
       318   13 Jun 2027 07:05:31.448   13 Jun 2027 07:05:39.526             8.078          2739.125
       319   13 Jun 2027 07:06:40.922   13 Jun 2027 07:06:41.705             0.783            25.812
       320   13 Jun 2027 08:28:06.122   13 Jun 2027 08:28:20.545            14.423          5256.500
       321   13 Jun 2027 08:29:44.360   13 Jun 2027 08:29:47.598             3.238          1521.563
       322   13 Jun 2027 08:31:43.676   13 Jun 2027 08:31:51.290             7.614          3050.469
       323   13 Jun 2027 08:32:42.534   13 Jun 2027 08:32:46.135             3.601          1601.375
       324   13 Jun 2027 10:03:10.694   13 Jun 2027 10:03:15.424             4.730          1865.375
       325   13 Jun 2027 10:03:40.768   13 Jun 2027 10:03:43.137             2.369           449.125
       326   13 Jun 2027 10:04:58.400   13 Jun 2027 10:05:00.704             2.304            18.344
       327   13 Jun 2027 10:06:40.027   13 Jun 2027 10:06:46.478             6.451          1467.750
       328   13 Jun 2027 10:08:24.363   13 Jun 2027 10:08:26.680             2.317          1037.344
       329   13 Jun 2027 10:08:58.467   13 Jun 2027 10:08:59.069             0.602           268.656
       330   13 Jun 2027 11:40:04.025   13 Jun 2027 11:40:14.450            10.425          4556.937
       331   13 Jun 2027 11:46:24.108   13 Jun 2027 11:46:48.293            24.185         11551.812
       332   13 Jun 2027 11:47:28.816   13 Jun 2027 11:47:28.980             0.164            82.000
