uniorb/output/strategy_4/Camera/Camera_KinoSat_111205.txt

KinoSat_111205
-------------------------
    Access    *     Start Time (UTCG)     *     Stop Time (UTCG)  *   Duration (s) *   Data (Mbytes)
         1   01 Jun 2027 03:32:07.300   01 Jun 2027 03:34:21.627           134.327         67163.500
         2   01 Jun 2027 04:55:04.276   01 Jun 2027 04:56:14.753            70.477         35238.500
         3   01 Jun 2027 06:31:37.943   01 Jun 2027 06:33:20.536           102.593         51296.500
         4   01 Jun 2027 06:34:15.166   01 Jun 2027 06:34:20.227             5.061          2530.500
         5   01 Jun 2027 08:06:46.825   01 Jun 2027 08:08:46.465           119.640         59820.000
         6   01 Jun 2027 08:08:51.503   01 Jun 2027 08:08:58.276             6.773          3386.500
         7   01 Jun 2027 08:09:16.662   01 Jun 2027 08:09:24.004             7.342          3671.000
         8   01 Jun 2027 08:11:38.722   01 Jun 2027 08:11:51.449            12.727          6363.500
         9   01 Jun 2027 08:12:12.918   01 Jun 2027 08:12:16.761             3.843          1921.500
        10   01 Jun 2027 09:43:06.792   01 Jun 2027 09:45:52.876           166.084         83042.000
        11   01 Jun 2027 11:20:41.453   01 Jun 2027 11:22:43.147           121.694         60847.000
        12   01 Jun 2027 11:24:40.825   01 Jun 2027 11:25:01.256            20.431         10215.500
        13   02 Jun 2027 03:43:52.875   02 Jun 2027 03:44:26.417            33.542         16771.000
        14   02 Jun 2027 03:44:41.303   02 Jun 2027 03:46:31.350           110.047         55023.500
        15   02 Jun 2027 05:07:13.439   02 Jun 2027 05:08:20.667            67.228         33614.000
        16   02 Jun 2027 05:08:52.417   02 Jun 2027 05:09:13.662            21.245         10622.500
        17   02 Jun 2027 06:43:48.561   02 Jun 2027 06:46:20.459           151.898         75949.000
        18   02 Jun 2027 06:46:51.974   02 Jun 2027 06:47:02.937            10.963          5481.500
        19   02 Jun 2027 08:18:58.613   02 Jun 2027 08:22:29.773           211.160        105580.000
        20   02 Jun 2027 08:22:59.043   02 Jun 2027 08:23:55.164            56.121         28060.500
        21   02 Jun 2027 08:24:24.137   02 Jun 2027 08:24:38.952            14.815          7407.500
        22   02 Jun 2027 08:25:33.998   02 Jun 2027 08:25:34.326             0.328           164.000
        23   02 Jun 2027 09:55:19.522   02 Jun 2027 09:55:46.894            27.372         12938.251
        24   02 Jun 2027 09:57:57.125   02 Jun 2027 09:57:57.688             0.563            70.812
        25   02 Jun 2027 09:58:06.749   02 Jun 2027 09:58:07.825             1.076            38.000
        26   02 Jun 2027 09:58:23.081   02 Jun 2027 09:58:23.790             0.709           150.125
        27   02 Jun 2027 09:59:28.231   02 Jun 2027 09:59:37.096             8.865          1761.688
        28   02 Jun 2027 09:59:53.936   02 Jun 2027 09:59:58.128             4.192           526.250
        29   02 Jun 2027 10:00:47.736   02 Jun 2027 10:00:51.305             3.569           807.969
        30   02 Jun 2027 10:01:03.736   02 Jun 2027 10:01:04.446             0.710           334.062
        31   02 Jun 2027 11:32:36.356   02 Jun 2027 11:32:54.205            17.849          6429.063
        32   02 Jun 2027 11:34:16.687   02 Jun 2027 11:34:19.038             2.351           660.281
        33   02 Jun 2027 11:35:24.493   02 Jun 2027 11:35:24.779             0.286            50.250
        34   02 Jun 2027 11:36:12.566   02 Jun 2027 11:36:19.347             6.781           832.156
        35   02 Jun 2027 11:36:55.027   02 Jun 2027 11:36:57.987             2.960           787.281
        36   03 Jun 2027 03:55:49.527   03 Jun 2027 03:56:29.367            39.840         19920.000
        37   03 Jun 2027 03:56:48.403   03 Jun 2027 03:58:12.039            83.636         41818.000
        38   03 Jun 2027 05:19:46.324   03 Jun 2027 05:20:35.417            49.093         24546.500
        39   03 Jun 2027 05:20:56.921   03 Jun 2027 05:21:07.729            10.808          5404.000
        40   03 Jun 2027 05:22:12.521   03 Jun 2027 05:22:20.322             7.801          3900.500
        41   03 Jun 2027 06:55:36.529   03 Jun 2027 06:57:45.071           128.542         63369.563
        42   03 Jun 2027 06:58:12.826   03 Jun 2027 06:58:12.826             0.000             0.000
        43   03 Jun 2027 06:58:54.907   03 Jun 2027 06:58:57.699             2.792          1396.000
        44   03 Jun 2027 08:30:29.585   03 Jun 2027 08:30:34.107             4.522          2033.313
        45   03 Jun 2027 08:32:29.378   03 Jun 2027 08:32:34.450             5.072          2358.000
        46   03 Jun 2027 08:33:31.375   03 Jun 2027 08:33:33.789             2.414           535.687
        47   03 Jun 2027 08:33:37.037   03 Jun 2027 08:33:40.664             3.627            59.094
        48   03 Jun 2027 08:34:32.018   03 Jun 2027 08:34:36.195             4.177          1407.438
        49   03 Jun 2027 08:36:09.874   03 Jun 2027 08:36:16.738             6.864          2098.094
        50   03 Jun 2027 08:37:06.041   03 Jun 2027 08:37:09.211             3.170          1537.125
        51   03 Jun 2027 08:37:34.771   03 Jun 2027 08:37:39.475             4.704           749.625
        52   03 Jun 2027 10:06:58.132   03 Jun 2027 10:07:13.532            15.400          5255.688
        53   03 Jun 2027 10:09:45.584   03 Jun 2027 10:09:49.812             4.228           216.719
        54   03 Jun 2027 10:10:29.786   03 Jun 2027 10:10:31.852             2.066           671.906
        55   03 Jun 2027 10:11:20.052   03 Jun 2027 10:11:26.440             6.388          1176.562
        56   03 Jun 2027 10:12:12.814   03 Jun 2027 10:12:16.151             3.337           980.125
        57   03 Jun 2027 10:13:00.232   03 Jun 2027 10:13:04.698             4.466          1201.094
        58   03 Jun 2027 10:13:18.125   03 Jun 2027 10:13:21.243             3.118           416.750
        59   03 Jun 2027 11:45:15.930   03 Jun 2027 11:45:26.295            10.365          4791.906
        60   03 Jun 2027 11:47:23.133   03 Jun 2027 11:47:28.136             5.003          2117.937
        61   03 Jun 2027 11:48:27.297   03 Jun 2027 11:48:32.386             5.089           248.594
        62   03 Jun 2027 11:48:54.958   03 Jun 2027 11:48:55.788             0.830           364.562
        63   04 Jun 2027 03:56:25.467   04 Jun 2027 03:56:27.128             1.661           830.500
        64   04 Jun 2027 04:07:45.643   04 Jun 2027 04:09:26.400           100.757         50378.500
        65   04 Jun 2027 04:10:25.928   04 Jun 2027 04:10:29.754             3.826          1913.000
        66   04 Jun 2027 05:30:20.831   04 Jun 2027 05:31:25.094            64.263         32131.500
        67   04 Jun 2027 05:31:56.039   04 Jun 2027 05:32:35.192            39.153         19576.500
        68   04 Jun 2027 07:05:52.582   04 Jun 2027 07:06:43.351            50.769         25384.500
        69   04 Jun 2027 07:07:21.472   04 Jun 2027 07:08:11.916            50.444         24935.469
        70   04 Jun 2027 07:09:04.940   04 Jun 2027 07:09:08.086             3.146          1006.813
        71   04 Jun 2027 07:10:14.599   04 Jun 2027 07:10:16.631             2.032          1016.000
        72   04 Jun 2027 07:10:31.934   04 Jun 2027 07:10:37.123             5.189          1123.344
        73   04 Jun 2027 07:11:09.957   04 Jun 2027 07:11:12.166             2.209           887.781
        74   04 Jun 2027 07:11:28.125   04 Jun 2027 07:11:28.977             0.852            32.375
        75   04 Jun 2027 08:42:11.769   04 Jun 2027 08:42:16.485             4.716          1622.594
        76   04 Jun 2027 08:44:29.632   04 Jun 2027 08:44:39.577             9.945          2359.125
        77   04 Jun 2027 08:45:40.799   04 Jun 2027 08:45:45.811             5.012           475.750
        78   04 Jun 2027 08:45:51.730   04 Jun 2027 08:45:52.704             0.974           131.844
        79   04 Jun 2027 08:46:12.076   04 Jun 2027 08:46:13.494             1.418           316.937
        80   04 Jun 2027 08:47:09.033   04 Jun 2027 08:47:15.763             6.730           738.969
        81   04 Jun 2027 08:47:28.998   04 Jun 2027 08:47:39.269            10.271            97.469
        82   04 Jun 2027 08:48:29.510   04 Jun 2027 08:48:33.158             3.648           969.250
        83   04 Jun 2027 08:49:24.636   04 Jun 2027 08:49:26.711             2.075           888.531
        84   04 Jun 2027 10:19:18.695   04 Jun 2027 10:19:34.234            15.539          7437.094
        85   04 Jun 2027 10:21:56.238   04 Jun 2027 10:21:57.715             1.477           132.438
        86   04 Jun 2027 10:23:24.873   04 Jun 2027 10:23:29.701             4.828          1205.031
        87   04 Jun 2027 10:23:58.614   04 Jun 2027 10:24:01.192             2.578           676.125
        88   04 Jun 2027 10:24:29.807   04 Jun 2027 10:24:33.876             4.069           872.937
        89   04 Jun 2027 10:24:58.669   04 Jun 2027 10:25:00.670             2.001           258.188
        90   04 Jun 2027 10:25:36.218   04 Jun 2027 10:25:37.845             1.627           812.031
        91   04 Jun 2027 11:57:14.018   04 Jun 2027 11:57:25.774            11.756          5788.906
        92   04 Jun 2027 11:57:47.311   04 Jun 2027 11:57:48.437             1.126           178.875
        93   04 Jun 2027 11:59:22.599   04 Jun 2027 11:59:30.810             8.211          2152.188
        94   05 Jun 2027 04:08:04.780   05 Jun 2027 04:08:19.499            14.719          7359.500
        95   05 Jun 2027 04:19:48.767   05 Jun 2027 04:20:48.162            59.395         29697.500
        96   05 Jun 2027 05:42:03.831   05 Jun 2027 05:43:09.766            65.935         32967.500
        97   05 Jun 2027 05:43:59.452   05 Jun 2027 05:44:34.442            34.990         17495.000
        98   05 Jun 2027 05:46:03.717   05 Jun 2027 05:46:03.717             0.000             0.000
        99   05 Jun 2027 07:17:01.244   05 Jun 2027 07:18:56.722           115.478         57739.000
       100   05 Jun 2027 07:19:05.549   05 Jun 2027 07:19:29.634            24.085         11963.719
       101   05 Jun 2027 07:20:54.135   05 Jun 2027 07:21:00.545             6.410          2126.687
       102   05 Jun 2027 07:22:15.056   05 Jun 2027 07:22:15.056             0.000             0.000
       103   05 Jun 2027 07:23:12.522   05 Jun 2027 07:23:21.175             8.653          4032.438
       104   05 Jun 2027 07:23:32.083   05 Jun 2027 07:23:32.083             0.000             0.000
       105   05 Jun 2027 07:23:33.404   05 Jun 2027 07:23:39.561             6.157           255.562
       106   05 Jun 2027 07:24:15.174   05 Jun 2027 07:24:15.174             0.000             0.000
       107   05 Jun 2027 07:24:59.692   05 Jun 2027 07:25:04.488             4.796          1555.781
       108   05 Jun 2027 08:54:30.175   05 Jun 2027 08:54:35.374             5.199          2489.719
       109   05 Jun 2027 08:55:16.856   05 Jun 2027 08:55:21.291             4.435          1030.875
       110   05 Jun 2027 08:57:18.234   05 Jun 2027 08:57:21.423             3.189          1529.375
       111   05 Jun 2027 08:57:58.266   05 Jun 2027 08:58:00.068             1.802           805.156
       112   05 Jun 2027 08:58:44.905   05 Jun 2027 08:58:48.739             3.834          1182.719
       113   05 Jun 2027 08:59:01.705   05 Jun 2027 08:59:02.843             1.138            55.594
       114   05 Jun 2027 09:00:06.317   05 Jun 2027 09:00:14.189             7.872          1508.594
       115   05 Jun 2027 09:00:34.932   05 Jun 2027 09:00:39.311             4.379           383.000
       116   05 Jun 2027 09:01:10.265   05 Jun 2027 09:01:15.394             5.129           522.125
       117   05 Jun 2027 09:01:41.668   05 Jun 2027 09:01:42.120             0.452           202.375
       118   05 Jun 2027 10:31:14.774   05 Jun 2027 10:31:25.985            11.211          5576.125
       119   05 Jun 2027 10:34:00.518   05 Jun 2027 10:34:03.146             2.628            28.437
       120   05 Jun 2027 10:35:09.828   05 Jun 2027 10:35:15.071             5.243           475.125
       121   05 Jun 2027 10:35:31.360   05 Jun 2027 10:35:32.921             1.561           509.031
       122   05 Jun 2027 10:36:04.679   05 Jun 2027 10:36:06.797             2.118           935.094
       123   05 Jun 2027 10:36:33.659   05 Jun 2027 10:36:37.740             4.081           111.719
       124   05 Jun 2027 10:37:18.900   05 Jun 2027 10:37:22.880             3.980           569.187
       125   05 Jun 2027 10:37:25.372   05 Jun 2027 10:37:27.495             2.123            77.875
       126   06 Jun 2027 03:00:00.000   06 Jun 2027 03:00:03.657             3.657          1828.500
       127   06 Jun 2027 03:00:08.366   06 Jun 2027 03:00:45.425            37.059         18529.500
       128   06 Jun 2027 04:19:38.192   06 Jun 2027 04:20:22.192            44.000         22000.000
       129   06 Jun 2027 04:31:54.348   06 Jun 2027 04:32:21.819            27.471         13735.500
       130   06 Jun 2027 05:53:36.131   06 Jun 2027 05:54:55.966            79.835         39917.500
       131   06 Jun 2027 05:55:44.791   06 Jun 2027 05:56:23.501            38.710         19355.000
       132   06 Jun 2027 05:58:20.505   06 Jun 2027 05:58:31.435            10.930          5465.000
       133   06 Jun 2027 07:28:29.532   06 Jun 2027 07:30:05.277            95.745         47826.813
       134   06 Jun 2027 07:30:35.007   06 Jun 2027 07:30:35.878             0.871            77.500
       135   06 Jun 2027 07:31:20.826   06 Jun 2027 07:31:24.923             4.097          1232.687
       136   06 Jun 2027 07:32:02.789   06 Jun 2027 07:32:04.773             1.984           852.875
       137   06 Jun 2027 07:32:38.913   06 Jun 2027 07:32:40.774             1.861           885.875
       138   06 Jun 2027 07:33:28.064   06 Jun 2027 07:33:31.438             3.374          1053.781
       139   06 Jun 2027 07:34:59.777   06 Jun 2027 07:35:04.517             4.740          1663.844
       140   06 Jun 2027 07:35:25.373   06 Jun 2027 07:35:26.671             1.298           465.125
       141   06 Jun 2027 07:35:43.709   06 Jun 2027 07:35:47.971             4.262           199.938
       142   06 Jun 2027 07:36:18.586   06 Jun 2027 07:36:21.348             2.762           939.812
       143   06 Jun 2027 07:36:57.285   06 Jun 2027 07:37:00.648             3.363          1033.000
       144   06 Jun 2027 09:06:23.552   06 Jun 2027 09:06:34.935            11.383          4990.250
       145   06 Jun 2027 09:09:21.329   06 Jun 2027 09:09:25.425             4.096           254.844
       146   06 Jun 2027 09:10:39.145   06 Jun 2027 09:10:40.853             1.708           148.563
       147   06 Jun 2027 09:11:34.552   06 Jun 2027 09:11:40.543             5.991           816.406
       148   06 Jun 2027 09:11:58.274   06 Jun 2027 09:11:59.147             0.873           408.156
       149   06 Jun 2027 09:12:15.802   06 Jun 2027 09:12:18.383             2.581           399.031
       150   06 Jun 2027 09:13:11.628   06 Jun 2027 09:13:12.548             0.920           328.313
       151   06 Jun 2027 09:13:28.356   06 Jun 2027 09:13:28.592             0.236            94.187
       152   06 Jun 2027 10:43:07.603   06 Jun 2027 10:43:25.094            17.491          8017.281
       153   06 Jun 2027 10:43:42.175   06 Jun 2027 10:43:47.281             5.106           360.031
       154   06 Jun 2027 10:45:36.325   06 Jun 2027 10:45:44.283             7.958          1497.094
       155   06 Jun 2027 10:46:34.915   06 Jun 2027 10:46:37.462             2.547           849.406
       156   06 Jun 2027 10:47:10.416   06 Jun 2027 10:47:12.353             1.937           734.000
       157   06 Jun 2027 10:47:22.768   06 Jun 2027 10:47:23.084             0.316            75.906
       158   06 Jun 2027 10:47:37.894   06 Jun 2027 10:47:39.400             1.506           438.406
       159   06 Jun 2027 10:48:36.471   06 Jun 2027 10:48:40.905             4.434          1739.125
       160   06 Jun 2027 10:49:26.891   06 Jun 2027 10:49:41.188            14.297          1437.063
       161   07 Jun 2027 03:07:40.211   07 Jun 2027 03:08:17.016            36.805         18402.500
       162   07 Jun 2027 03:08:27.232   07 Jun 2027 03:08:33.045             5.813          2906.500
       163   07 Jun 2027 03:08:59.245   07 Jun 2027 03:09:07.034             7.789          3894.500
       164   07 Jun 2027 03:09:47.319   07 Jun 2027 03:09:49.089             1.770           885.000
       165   07 Jun 2027 03:09:58.507   07 Jun 2027 03:10:00.244             1.737           868.500
       166   07 Jun 2027 03:10:53.218   07 Jun 2027 03:11:22.480            29.262         14631.000
       167   07 Jun 2027 03:11:26.246   07 Jun 2027 03:11:30.449             4.203          2101.500
       168   07 Jun 2027 04:31:34.056   07 Jun 2027 04:32:17.596            43.540         21770.000
       169   07 Jun 2027 04:33:18.824   07 Jun 2027 04:33:35.253            16.429          8214.500
       170   07 Jun 2027 06:07:34.838   07 Jun 2027 06:10:29.017           174.179         86593.563
       171   07 Jun 2027 06:10:31.467   07 Jun 2027 06:10:31.467             0.000             0.000
       172   07 Jun 2027 06:10:33.414   07 Jun 2027 06:10:34.153             0.739           137.406
       173   07 Jun 2027 07:41:22.541   07 Jun 2027 07:41:30.631             8.090          3122.469
       174   07 Jun 2027 07:42:44.672   07 Jun 2027 07:42:46.690             2.018           358.406
       175   07 Jun 2027 07:43:53.171   07 Jun 2027 07:43:56.433             3.262           570.438
       176   07 Jun 2027 07:44:35.358   07 Jun 2027 07:44:37.998             2.640          1169.219
       177   07 Jun 2027 07:45:07.927   07 Jun 2027 07:45:11.552             3.625           840.375
       178   07 Jun 2027 07:45:58.378   07 Jun 2027 07:46:04.142             5.764           879.750
       179   07 Jun 2027 07:46:39.428   07 Jun 2027 07:46:39.428             0.000             0.000
       180   07 Jun 2027 07:46:50.780   07 Jun 2027 07:46:57.333             6.553          1139.625
       181   07 Jun 2027 07:47:46.746   07 Jun 2027 07:47:53.278             6.532          1427.938
       182   07 Jun 2027 07:48:39.242   07 Jun 2027 07:48:41.134             1.892           946.000
       183   07 Jun 2027 07:48:44.756   07 Jun 2027 07:48:46.124             1.368           291.094
       184   07 Jun 2027 07:49:13.046   07 Jun 2027 07:49:15.657             2.611           841.312
       185   07 Jun 2027 09:18:31.689   07 Jun 2027 09:18:41.269             9.580          4472.313
       186   07 Jun 2027 09:22:02.722   07 Jun 2027 09:22:07.564             4.842           420.281
       187   07 Jun 2027 09:22:36.486   07 Jun 2027 09:22:38.410             1.924           758.625
       188   07 Jun 2027 09:23:54.955   07 Jun 2027 09:23:56.606             1.651           700.156
       189   07 Jun 2027 09:24:01.473   07 Jun 2027 09:24:02.830             1.357           152.094
       190   07 Jun 2027 09:24:54.103   07 Jun 2027 09:24:58.666             4.563          1602.281
       191   07 Jun 2027 09:25:13.785   07 Jun 2027 09:25:19.999             6.214           420.062
       192   07 Jun 2027 10:55:46.231   07 Jun 2027 10:56:01.004            14.773          6637.500
       193   07 Jun 2027 10:57:40.060   07 Jun 2027 10:57:43.529             3.469           158.562
       194   07 Jun 2027 10:58:23.090   07 Jun 2027 10:58:24.796             1.706           595.031
       195   07 Jun 2027 10:59:05.224   07 Jun 2027 10:59:09.553             4.329           452.875
       196   07 Jun 2027 10:59:23.284   07 Jun 2027 10:59:24.255             0.971           429.094
       197   07 Jun 2027 10:59:39.820   07 Jun 2027 10:59:42.576             2.756           486.406
       198   07 Jun 2027 11:00:29.581   07 Jun 2027 11:00:33.038             3.457          1358.187
       199   07 Jun 2027 11:01:19.388   07 Jun 2027 11:01:21.821             2.433           865.156
       200   07 Jun 2027 11:01:32.769   07 Jun 2027 11:01:36.234             3.465           342.125
       201   08 Jun 2027 03:20:05.142   08 Jun 2027 03:23:36.192           211.050        105525.000
       202   08 Jun 2027 04:43:27.044   08 Jun 2027 04:44:03.691            36.647         18323.500
       203   08 Jun 2027 06:19:47.758   08 Jun 2027 06:21:09.168            81.410         40669.312
       204   08 Jun 2027 06:21:49.618   08 Jun 2027 06:21:51.277             1.659           277.094
       205   08 Jun 2027 06:22:10.401   08 Jun 2027 06:22:10.401             0.000             0.000
       206   08 Jun 2027 06:22:39.280   08 Jun 2027 06:22:42.884             3.604          1462.531
       207   08 Jun 2027 07:53:48.359   08 Jun 2027 07:53:57.949             9.590          2606.875
       208   08 Jun 2027 07:55:44.286   08 Jun 2027 07:55:45.936             1.650           241.687
       209   08 Jun 2027 07:55:52.131   08 Jun 2027 07:55:59.174             7.043            22.062
       210   08 Jun 2027 07:57:34.393   08 Jun 2027 07:57:37.343             2.950          1214.594
       211   08 Jun 2027 07:59:02.065   08 Jun 2027 07:59:09.256             7.191          2347.938
       212   08 Jun 2027 07:59:16.133   08 Jun 2027 07:59:17.372             1.239            99.063
       213   08 Jun 2027 08:00:46.843   08 Jun 2027 08:00:49.379             2.536          1001.063
       214   08 Jun 2027 08:01:36.394   08 Jun 2027 08:01:45.520             9.126          1438.094
       215   08 Jun 2027 08:01:49.192   08 Jun 2027 08:01:51.784             2.592           108.094
       216   08 Jun 2027 09:30:56.955   08 Jun 2027 09:31:15.607            18.652          6402.813
       217   08 Jun 2027 09:33:53.263   08 Jun 2027 09:33:56.952             3.689           546.563
       218   08 Jun 2027 09:34:36.991   08 Jun 2027 09:34:39.354             2.363           961.125
       219   08 Jun 2027 09:36:02.540   08 Jun 2027 09:36:06.545             4.005           465.906
       220   08 Jun 2027 09:37:02.073   08 Jun 2027 09:37:05.504             3.431          1228.906
       221   08 Jun 2027 11:07:55.418   08 Jun 2027 11:08:10.573            15.155          7200.406
       222   08 Jun 2027 11:11:03.307   08 Jun 2027 11:11:05.268             1.961           238.594
       223   08 Jun 2027 11:11:22.916   08 Jun 2027 11:11:25.369             2.453           398.187
       224   08 Jun 2027 11:11:36.441   08 Jun 2027 11:11:39.264             2.823           255.594
       225   08 Jun 2027 11:12:08.066   08 Jun 2027 11:12:10.310             2.244           695.656
       226   08 Jun 2027 11:12:38.232   08 Jun 2027 11:12:46.750             8.518           872.563
       227   08 Jun 2027 11:13:09.328   08 Jun 2027 11:13:10.934             1.606            95.000
       228   09 Jun 2027 03:32:23.177   09 Jun 2027 03:34:38.085           134.908         67454.000
       229   09 Jun 2027 03:35:26.817   09 Jun 2027 03:36:25.856            59.039         29519.500
       230   09 Jun 2027 04:55:23.854   09 Jun 2027 04:55:30.122             6.268          3134.000
       231   09 Jun 2027 04:56:35.675   09 Jun 2027 04:56:50.127            14.452          7226.000
       232   09 Jun 2027 04:57:41.144   09 Jun 2027 04:57:41.144             0.000             0.000
       233   09 Jun 2027 06:31:53.757   09 Jun 2027 06:33:25.706            91.949         45590.813
       234   09 Jun 2027 06:33:46.051   09 Jun 2027 06:33:47.112             1.061           213.531
       235   09 Jun 2027 06:34:15.232   09 Jun 2027 06:34:19.481             4.249           832.813
       236   09 Jun 2027 06:34:37.967   09 Jun 2027 06:34:38.682             0.715           347.062
       237   09 Jun 2027 06:35:07.098   09 Jun 2027 06:35:08.825             1.727           863.500
       238   09 Jun 2027 08:07:02.554   09 Jun 2027 08:07:07.816             5.262          2143.813
       239   09 Jun 2027 08:07:42.715   09 Jun 2027 08:07:44.666             1.951           158.656
       240   09 Jun 2027 08:08:44.413   09 Jun 2027 08:08:51.350             6.937           918.313
       241   09 Jun 2027 08:10:10.643   09 Jun 2027 08:10:14.002             3.359          1496.406
       242   09 Jun 2027 08:10:44.946   09 Jun 2027 08:10:49.162             4.216           864.781
       243   09 Jun 2027 08:11:15.043   09 Jun 2027 08:11:17.851             2.808           678.250
       244   09 Jun 2027 08:12:24.943   09 Jun 2027 08:12:25.558             0.615           256.094
       245   09 Jun 2027 08:13:01.298   09 Jun 2027 08:13:04.370             3.072          1070.187
       246   09 Jun 2027 08:13:37.324   09 Jun 2027 08:13:39.917             2.593            76.094
       247   09 Jun 2027 09:43:22.942   09 Jun 2027 09:43:33.078            10.136          4818.625
       248   09 Jun 2027 09:46:20.543   09 Jun 2027 09:46:22.232             1.689           692.656
       249   09 Jun 2027 09:46:40.755   09 Jun 2027 09:46:49.176             8.421            47.594
       250   09 Jun 2027 09:47:22.796   09 Jun 2027 09:47:27.246             4.450           938.750
       251   09 Jun 2027 09:48:01.433   09 Jun 2027 09:48:04.335             2.902          1068.344
       252   09 Jun 2027 09:48:53.429   09 Jun 2027 09:49:00.572             7.143          1490.906
       253   09 Jun 2027 11:20:56.979   09 Jun 2027 11:21:08.568            11.589          5501.344
       254   09 Jun 2027 11:22:24.440   09 Jun 2027 11:22:29.249             4.809          1418.812
       255   09 Jun 2027 11:22:56.190   09 Jun 2027 11:22:58.839             2.649           410.750
       256   09 Jun 2027 11:23:54.602   09 Jun 2027 11:24:02.282             7.680          1700.406
       257   09 Jun 2027 11:24:18.791   09 Jun 2027 11:24:19.808             1.017           503.406
       258   09 Jun 2027 11:25:06.449   09 Jun 2027 11:25:08.045             1.596           444.063
       259   10 Jun 2027 03:44:08.129   10 Jun 2027 03:44:42.488            34.359         17179.500
       260   10 Jun 2027 03:44:56.735   10 Jun 2027 03:46:47.726           110.991         55495.500
       261   10 Jun 2027 03:47:28.614   10 Jun 2027 03:47:56.691            28.077         14038.500
       262   10 Jun 2027 05:07:28.443   10 Jun 2027 05:08:32.677            64.234         32117.000
       263   10 Jun 2027 05:09:07.445   10 Jun 2027 05:09:10.433             2.988          1494.000
       264   10 Jun 2027 05:10:25.777   10 Jun 2027 05:10:36.040            10.263          5131.500
       265   10 Jun 2027 06:44:04.200   10 Jun 2027 06:45:02.155            57.955         28421.781
       266   10 Jun 2027 06:45:21.235   10 Jun 2027 06:45:22.686             1.451           401.469
       267   10 Jun 2027 06:45:31.004   10 Jun 2027 06:45:34.025             3.021           185.781
       268   10 Jun 2027 06:45:55.437   10 Jun 2027 06:45:57.147             1.710           669.125
       269   10 Jun 2027 06:46:28.464   10 Jun 2027 06:46:29.921             1.457           679.156
       270   10 Jun 2027 06:47:10.674   10 Jun 2027 06:47:10.674             0.000             0.000
       271   10 Jun 2027 08:19:14.467   10 Jun 2027 08:19:21.108             6.641          1991.250
       272   10 Jun 2027 08:20:36.919   10 Jun 2027 08:20:43.714             6.795          1988.563
       273   10 Jun 2027 08:21:00.192   10 Jun 2027 08:21:02.551             2.359           457.219
       274   10 Jun 2027 08:22:03.604   10 Jun 2027 08:22:07.321             3.717           914.156
       275   10 Jun 2027 08:22:23.654   10 Jun 2027 08:22:26.441             2.787           510.406
       276   10 Jun 2027 08:23:16.398   10 Jun 2027 08:23:19.515             3.117           905.875
       277   10 Jun 2027 08:23:53.281   10 Jun 2027 08:24:00.069             6.788           549.938
       278   10 Jun 2027 08:24:39.215   10 Jun 2027 08:24:43.987             4.772           899.500
       279   10 Jun 2027 08:24:54.183   10 Jun 2027 08:24:55.945             1.762            32.938
       280   10 Jun 2027 08:25:36.063   10 Jun 2027 08:25:36.797             0.734           215.031
       281   10 Jun 2027 09:55:34.350   10 Jun 2027 09:55:45.425            11.075          5335.656
       282   10 Jun 2027 09:58:26.596   10 Jun 2027 09:58:31.401             4.805           182.031
       283   10 Jun 2027 09:58:38.288   10 Jun 2027 09:58:38.752             0.464           171.156
       284   10 Jun 2027 09:59:43.231   10 Jun 2027 09:59:47.609             4.378          1729.063
       285   10 Jun 2027 10:00:10.810   10 Jun 2027 10:00:13.896             3.086           548.594
       286   10 Jun 2027 10:00:47.882   10 Jun 2027 10:00:49.467             1.585           150.469
       287   10 Jun 2027 10:01:07.085   10 Jun 2027 10:01:10.311             3.226           138.531
       288   10 Jun 2027 10:01:39.728   10 Jun 2027 10:01:42.579             2.851           591.688
       289   10 Jun 2027 11:33:00.769   10 Jun 2027 11:33:12.715            11.946          5613.938
       290   10 Jun 2027 11:33:30.126   10 Jun 2027 11:33:32.324             2.198           300.719
       291   10 Jun 2027 11:35:38.891   10 Jun 2027 11:35:42.944             4.053          1964.531
       292   10 Jun 2027 11:36:05.342   10 Jun 2027 11:36:06.469             1.127            95.281
       293   10 Jun 2027 11:36:45.230   10 Jun 2027 11:36:49.268             4.038           943.437
       294   10 Jun 2027 11:37:06.965   10 Jun 2027 11:37:07.920             0.955            97.937
       295   10 Jun 2027 11:37:25.458   10 Jun 2027 11:37:29.947             4.489           467.188
       296   11 Jun 2027 03:56:05.016   11 Jun 2027 03:56:45.216            40.200         20100.000
       297   11 Jun 2027 03:57:02.903   11 Jun 2027 03:58:55.608           112.705         56352.500
       298   11 Jun 2027 03:59:30.337   11 Jun 2027 03:59:30.337             0.000             0.000
       299   11 Jun 2027 05:20:02.363   11 Jun 2027 05:20:41.081            38.718         19359.000
       300   11 Jun 2027 05:21:13.917   11 Jun 2027 05:21:22.276             8.359          4179.500
       301   11 Jun 2027 05:22:13.140   11 Jun 2027 05:22:28.647            15.507          7753.500
       302   11 Jun 2027 06:55:50.923   11 Jun 2027 06:57:24.357            93.434         45960.499
       303   11 Jun 2027 06:57:53.778   11 Jun 2027 06:57:56.462             2.684           898.344
       304   11 Jun 2027 06:58:35.427   11 Jun 2027 06:58:38.166             2.739           493.031
       305   11 Jun 2027 06:59:42.868   11 Jun 2027 06:59:49.189             6.321          1821.656
       306   11 Jun 2027 08:30:43.805   11 Jun 2027 08:30:54.083            10.278          2915.688
       307   11 Jun 2027 08:31:31.284   11 Jun 2027 08:31:34.180             2.896           509.875
       308   11 Jun 2027 08:33:05.170   11 Jun 2027 08:33:08.142             2.972           590.344
       309   11 Jun 2027 08:33:48.924   11 Jun 2027 08:33:51.956             3.032           688.125
       310   11 Jun 2027 08:33:54.445   11 Jun 2027 08:33:57.069             2.624            74.531
       311   11 Jun 2027 08:34:49.630   11 Jun 2027 08:34:53.616             3.986          1466.844
       312   11 Jun 2027 08:35:20.823   11 Jun 2027 08:35:27.038             6.215           649.375
       313   11 Jun 2027 08:36:12.480   11 Jun 2027 08:36:15.141             2.661          1293.000
       314   11 Jun 2027 08:37:01.067   11 Jun 2027 08:37:03.877             2.810          1398.438
       315   11 Jun 2027 08:37:55.382   11 Jun 2027 08:37:59.174             3.792          1522.719
       316   11 Jun 2027 10:07:14.111   11 Jun 2027 10:07:28.072            13.961          6567.219
       317   11 Jun 2027 10:09:53.047   11 Jun 2027 10:09:53.958             0.911           209.750
       318   11 Jun 2027 10:10:12.016   11 Jun 2027 10:10:13.659             1.643           355.156
       319   11 Jun 2027 10:10:48.842   11 Jun 2027 10:10:50.528             1.686           788.781
       320   11 Jun 2027 10:10:58.585   11 Jun 2027 10:11:00.197             1.612           251.781
       321   11 Jun 2027 10:11:24.476   11 Jun 2027 10:11:26.508             2.032           742.875
       322   11 Jun 2027 10:11:36.938   11 Jun 2027 10:11:44.088             7.150           325.938
       323   11 Jun 2027 10:11:56.212   11 Jun 2027 10:12:01.856             5.644           244.688
       324   11 Jun 2027 10:12:21.323   11 Jun 2027 10:12:28.214             6.891           194.063
       325   11 Jun 2027 10:12:36.883   11 Jun 2027 10:12:38.224             1.341           270.906
       326   11 Jun 2027 10:13:28.679   11 Jun 2027 10:13:35.016             6.337          1350.813
       327   11 Jun 2027 11:45:32.061   11 Jun 2027 11:45:47.124            15.063          6580.750
       328   11 Jun 2027 11:47:39.100   11 Jun 2027 11:47:43.942             4.842          2104.500
       329   11 Jun 2027 11:48:35.520   11 Jun 2027 11:48:41.394             5.874          1466.375
       330   11 Jun 2027 11:48:58.205   11 Jun 2027 11:49:06.393             8.188           455.094
       331   11 Jun 2027 11:49:12.192   11 Jun 2027 11:49:13.466             1.274           181.219
       332   11 Jun 2027 11:49:15.211   11 Jun 2027 11:49:19.725             4.514            44.625
       333   12 Jun 2027 03:56:39.264   12 Jun 2027 03:56:59.777            20.513         10256.500
       334   12 Jun 2027 04:08:01.337   12 Jun 2027 04:09:41.904           100.567         50283.500
       335   12 Jun 2027 05:30:37.034   12 Jun 2027 05:31:40.242            63.208         31604.000
       336   12 Jun 2027 05:31:53.757   12 Jun 2027 05:32:16.825            23.068         11534.000
       337   12 Jun 2027 05:34:31.432   12 Jun 2027 05:34:52.624            21.192         10596.000
       338   12 Jun 2027 07:06:07.801   12 Jun 2027 07:06:58.622            50.821         25410.500
       339   12 Jun 2027 07:07:36.335   12 Jun 2027 07:08:24.110            47.775         22895.562
       340   12 Jun 2027 07:08:51.041   12 Jun 2027 07:08:58.698             7.657           841.594
       341   12 Jun 2027 07:10:20.194   12 Jun 2027 07:10:24.659             4.465          2179.625
       342   12 Jun 2027 07:11:12.803   12 Jun 2027 07:11:15.279             2.476          1238.000
       343   12 Jun 2027 07:11:43.125   12 Jun 2027 07:11:46.019             2.894           952.250
       344   12 Jun 2027 07:12:05.896   12 Jun 2027 07:12:07.627             1.731           185.719
       345   12 Jun 2027 08:42:27.963   12 Jun 2027 08:42:33.800             5.837          1717.156
       346   12 Jun 2027 08:44:46.494   12 Jun 2027 08:44:54.274             7.780          2337.156
       347   12 Jun 2027 08:45:56.420   12 Jun 2027 08:46:00.176             3.756           576.000
       348   12 Jun 2027 08:46:51.573   12 Jun 2027 08:46:51.573             0.000             0.000
       349   12 Jun 2027 08:47:03.462   12 Jun 2027 08:47:08.232             4.770          1775.219
       350   12 Jun 2027 08:47:43.159   12 Jun 2027 08:47:56.114            12.955          1066.250
       351   12 Jun 2027 08:48:48.866   12 Jun 2027 08:48:56.246             7.380          1098.469
       352   12 Jun 2027 08:49:17.334   12 Jun 2027 08:49:19.738             2.404           659.000
       353   12 Jun 2027 08:50:00.027   12 Jun 2027 08:50:00.083             0.056            28.000
       354   12 Jun 2027 10:19:34.034   12 Jun 2027 10:19:48.900            14.866          7025.344
       355   12 Jun 2027 10:22:10.194   12 Jun 2027 10:22:14.619             4.425          1922.031
       356   12 Jun 2027 10:23:04.995   12 Jun 2027 10:23:07.955             2.960          1111.313
       357   12 Jun 2027 10:23:13.046   12 Jun 2027 10:23:14.302             1.256            22.094
       358   12 Jun 2027 10:24:02.818   12 Jun 2027 10:24:06.794             3.976          1213.156
       359   12 Jun 2027 10:24:21.965   12 Jun 2027 10:24:25.054             3.089           253.094
       360   12 Jun 2027 10:25:34.095   12 Jun 2027 10:25:38.025             3.930          1965.000
       361   12 Jun 2027 10:25:40.330   12 Jun 2027 10:25:41.000             0.670           136.281
       362   12 Jun 2027 11:57:29.542   12 Jun 2027 11:57:41.472            11.930          5505.594
       363   12 Jun 2027 11:58:05.639   12 Jun 2027 11:58:10.520             4.881           188.187
       364   12 Jun 2027 11:59:54.135   12 Jun 2027 11:59:55.968             1.833           487.813
       365   13 Jun 2027 04:08:20.553   13 Jun 2027 04:08:44.363            23.810         11905.000
       366   13 Jun 2027 04:09:26.533   13 Jun 2027 04:09:47.220            20.687         10343.500
       367   13 Jun 2027 04:20:04.762   13 Jun 2027 04:20:43.145            38.383         19191.500
       368   13 Jun 2027 04:20:51.447   13 Jun 2027 04:21:03.433            11.986          5993.000
       369   13 Jun 2027 05:42:19.045   13 Jun 2027 05:43:25.244            66.199         33099.500
       370   13 Jun 2027 05:44:12.804   13 Jun 2027 05:44:46.975            34.171         17085.500
       371   13 Jun 2027 05:45:17.369   13 Jun 2027 05:45:17.369             0.000             0.000
       372   13 Jun 2027 07:17:15.398   13 Jun 2027 07:19:12.973           117.575         58787.500
       373   13 Jun 2027 07:19:20.909   13 Jun 2027 07:19:41.829            20.920         10208.343
       374   13 Jun 2027 07:21:11.020   13 Jun 2027 07:21:11.020             0.000             0.000
       375   13 Jun 2027 07:21:45.683   13 Jun 2027 07:21:53.695             8.012          3172.531
       376   13 Jun 2027 07:24:13.283   13 Jun 2027 07:24:20.155             6.872          3286.281
       377   13 Jun 2027 08:54:45.432   13 Jun 2027 08:54:50.087             4.655          2268.938
       378   13 Jun 2027 08:57:35.567   13 Jun 2027 08:57:39.072             3.505          1545.594
       379   13 Jun 2027 08:58:16.138   13 Jun 2027 08:58:18.579             2.441           879.156
       380   13 Jun 2027 08:59:00.319   13 Jun 2027 08:59:03.608             3.289          1204.750
       381   13 Jun 2027 08:59:17.424   13 Jun 2027 08:59:19.708             2.284            80.469
       382   13 Jun 2027 09:00:22.706   13 Jun 2027 09:00:25.816             3.110          1459.656
       383   13 Jun 2027 09:00:56.551   13 Jun 2027 09:00:59.392             2.841           490.813
       384   13 Jun 2027 09:01:18.276   13 Jun 2027 09:01:22.429             4.153           361.750
       385   13 Jun 2027 09:01:57.801   13 Jun 2027 09:02:00.093             2.292          1005.750
       386   13 Jun 2027 09:02:03.909   13 Jun 2027 09:02:04.319             0.410            66.938
       387   13 Jun 2027 10:31:30.186   13 Jun 2027 10:31:42.871            12.685          6064.531
       388   13 Jun 2027 10:35:17.891   13 Jun 2027 10:35:27.111             9.220          1234.469
       389   13 Jun 2027 10:35:31.573   13 Jun 2027 10:35:36.073             4.500            73.750
       390   13 Jun 2027 10:35:53.546   13 Jun 2027 10:35:57.006             3.460           248.594
       391   13 Jun 2027 10:37:15.258   13 Jun 2027 10:37:18.974             3.716          1774.875
       392   13 Jun 2027 10:38:00.763   13 Jun 2027 10:38:03.375             2.612           779.187
