uniorb/output/strategy_4/Camera/Camera_KinoSat_110204.txt

KinoSat_110204
-------------------------
    Access    *     Start Time (UTCG)     *     Stop Time (UTCG)  *   Duration (s) *   Data (Mbytes)
         1   01 Jun 2027 04:11:13.327   01 Jun 2027 04:13:18.886           125.559         62779.500
         2   01 Jun 2027 04:15:56.668   01 Jun 2027 04:16:31.538            34.870         17435.000
         3   01 Jun 2027 04:16:51.538   01 Jun 2027 04:17:09.703            18.165          9082.500
         4   01 Jun 2027 05:48:52.731   01 Jun 2027 05:52:22.153           209.422        104711.000
         5   01 Jun 2027 05:53:16.679   01 Jun 2027 05:53:21.633             4.954          2477.000
         6   01 Jun 2027 07:24:57.207   01 Jun 2027 07:27:39.541           162.334         81167.000
         7   01 Jun 2027 07:27:52.501   01 Jun 2027 07:27:53.890             1.389           694.500
         8   01 Jun 2027 07:28:12.219   01 Jun 2027 07:28:30.635            18.416          9208.000
         9   01 Jun 2027 07:29:28.214   01 Jun 2027 07:29:38.484            10.270          5135.000
        10   01 Jun 2027 09:03:41.016   01 Jun 2027 09:03:43.749             2.733          1366.500
        11   02 Jun 2027 04:23:49.390   02 Jun 2027 04:30:03.052           373.662        186831.000
        12   02 Jun 2027 06:01:06.906   02 Jun 2027 06:05:42.860           275.954        137977.000
        13   02 Jun 2027 07:37:19.433   02 Jun 2027 07:41:59.512           280.079        140039.500
        14   03 Jun 2027 03:00:00.000   03 Jun 2027 03:06:11.605           371.605        185802.500
        15   03 Jun 2027 04:35:22.049   03 Jun 2027 04:41:48.897           386.848        193424.000
        16   03 Jun 2027 06:13:24.766   03 Jun 2027 06:17:34.124           249.358        124679.000
        17   03 Jun 2027 07:49:15.175   03 Jun 2027 07:53:26.859           251.684        125842.000
        18   03 Jun 2027 07:54:13.935   03 Jun 2027 07:54:29.870            15.935          7967.500
        19   04 Jun 2027 03:10:43.244   04 Jun 2027 03:18:16.862           453.618        226809.000
        20   04 Jun 2027 04:47:43.517   04 Jun 2027 04:53:51.225           367.708        183854.000
        21   04 Jun 2027 06:25:44.770   04 Jun 2027 06:29:41.046           236.276        118138.000
        22   04 Jun 2027 07:59:07.005   04 Jun 2027 08:05:28.519           381.514        190757.000
        23   04 Jun 2027 08:05:56.606   04 Jun 2027 08:06:47.634            51.028         25514.000
        24   05 Jun 2027 03:22:51.593   05 Jun 2027 03:30:17.587           445.994        222997.000
        25   05 Jun 2027 04:59:48.963   05 Jun 2027 05:05:57.545           368.582        184291.000
        26   05 Jun 2027 06:37:41.949   05 Jun 2027 06:41:53.552           251.603        125801.500
        27   05 Jun 2027 08:11:40.681   05 Jun 2027 08:17:47.343           366.662        183331.000
        28   05 Jun 2027 08:18:22.874   05 Jun 2027 08:18:48.494            25.620         12810.000
        29   06 Jun 2027 03:34:53.061   06 Jun 2027 03:42:19.422           446.361        223180.500
        30   06 Jun 2027 05:11:41.199   06 Jun 2027 05:17:35.024           353.825        176912.500
        31   06 Jun 2027 05:17:50.147   06 Jun 2027 05:18:23.832            33.685         16842.500
        32   06 Jun 2027 06:49:43.574   06 Jun 2027 06:53:52.748           249.174        124587.000
        33   06 Jun 2027 08:23:45.793   06 Jun 2027 08:30:16.822           391.029        195514.500
        34   07 Jun 2027 03:46:56.340   07 Jun 2027 03:54:17.093           440.753        220376.500
        35   07 Jun 2027 05:23:51.211   07 Jun 2027 05:28:54.205           302.994        151497.000
        36   07 Jun 2027 05:29:05.530   07 Jun 2027 05:30:12.120            66.590         33295.000
        37   07 Jun 2027 07:01:21.249   07 Jun 2027 07:05:50.781           269.532        134766.000
        38   07 Jun 2027 08:36:01.602   07 Jun 2027 08:36:42.526            40.924         20462.000
        39   07 Jun 2027 08:37:43.023   07 Jun 2027 08:40:58.848           195.825         97912.500
        40   08 Jun 2027 03:59:22.061   08 Jun 2027 04:06:07.312           405.251        202625.500
        41   08 Jun 2027 05:36:18.539   08 Jun 2027 05:40:43.750           265.211        132605.500
        42   08 Jun 2027 05:41:13.331   08 Jun 2027 05:42:05.600            52.269         26134.500
        43   08 Jun 2027 07:13:20.824   08 Jun 2027 07:17:41.286           260.462        130231.000
        44   08 Jun 2027 08:50:45.617   08 Jun 2027 08:52:28.721           103.104         51552.000
        45   09 Jun 2027 04:11:28.371   09 Jun 2027 04:13:37.706           129.335         64667.500
        46   09 Jun 2027 04:13:59.465   09 Jun 2027 04:18:11.692           252.227        126113.500
        47   09 Jun 2027 05:49:08.916   09 Jun 2027 05:53:37.008           268.092        134046.000
        48   09 Jun 2027 07:25:31.910   09 Jun 2027 07:29:59.794           267.884        133942.000
        49   10 Jun 2027 04:24:04.431   10 Jun 2027 04:30:17.898           373.467        186733.500
        50   10 Jun 2027 06:01:21.012   10 Jun 2027 06:05:57.808           276.796        138398.000
        51   10 Jun 2027 07:38:04.131   10 Jun 2027 07:42:14.874           250.743        125371.500
        52   11 Jun 2027 03:00:00.000   11 Jun 2027 03:06:26.482           386.482        193241.000
        53   11 Jun 2027 04:35:36.734   11 Jun 2027 04:42:03.970           387.236        193618.000
        54   11 Jun 2027 06:13:51.710   11 Jun 2027 06:17:48.679           236.969        118484.500
        55   11 Jun 2027 07:49:30.199   11 Jun 2027 07:53:41.518           251.319        125659.500
        56   11 Jun 2027 07:54:28.656   11 Jun 2027 07:54:44.956            16.300          8150.000
        57   12 Jun 2027 03:10:57.810   12 Jun 2027 03:18:31.640           453.830        226915.000
        58   12 Jun 2027 04:47:58.500   12 Jun 2027 04:54:05.902           367.402        183701.000
        59   12 Jun 2027 06:26:01.019   12 Jun 2027 06:29:55.904           234.885        117442.500
        60   12 Jun 2027 07:59:13.118   12 Jun 2027 08:05:43.384           390.266        195133.000
        61   12 Jun 2027 08:06:11.712   12 Jun 2027 08:07:02.269            50.557         25278.500
        62   13 Jun 2027 03:23:06.553   13 Jun 2027 03:30:32.434           445.881        222940.500
        63   13 Jun 2027 05:00:03.939   13 Jun 2027 05:06:12.387           368.448        184224.000
        64   13 Jun 2027 06:37:56.822   13 Jun 2027 06:41:58.346           241.524        120762.000
        65   13 Jun 2027 08:11:25.588   13 Jun 2027 08:18:02.091           396.503        198251.500
        66   13 Jun 2027 08:18:37.591   13 Jun 2027 08:19:03.304            25.713         12856.500
