uniorb/output/strategy_4/Camera/Camera_KinoSat_110803.txt

KinoSat_110803
-------------------------
    Access    *     Start Time (UTCG)     *     Stop Time (UTCG)  *   Duration (s) *   Data (Mbytes)
         1   01 Jun 2027 03:52:59.609   01 Jun 2027 03:54:06.109            66.500         33250.000
         2   01 Jun 2027 03:54:54.983   01 Jun 2027 03:55:41.456            46.473         23236.500
         3   01 Jun 2027 03:57:31.173   01 Jun 2027 03:57:50.818            19.645          9822.500
         4   01 Jun 2027 05:27:53.293   01 Jun 2027 05:29:26.431            93.138         46569.000
         5   01 Jun 2027 05:29:44.999   01 Jun 2027 05:29:53.416             8.417          4208.500
         6   01 Jun 2027 05:30:23.870   01 Jun 2027 05:30:45.352            21.482         10741.000
         7   01 Jun 2027 05:31:32.511   01 Jun 2027 05:31:32.511             0.000             0.000
         8   01 Jun 2027 05:32:28.012   01 Jun 2027 05:32:44.561            16.549          8274.500
         9   01 Jun 2027 07:05:27.075   01 Jun 2027 07:07:21.406           114.331         57165.500
        10   01 Jun 2027 07:09:41.309   01 Jun 2027 07:09:47.460             6.151          3075.500
        11   01 Jun 2027 07:10:06.574   01 Jun 2027 07:10:15.749             9.175          4587.500
        12   01 Jun 2027 07:12:26.159   01 Jun 2027 07:12:47.818            21.659         10829.500
        13   01 Jun 2027 08:42:09.638   01 Jun 2027 08:44:06.887           117.249         58624.500
        14   01 Jun 2027 08:44:37.209   01 Jun 2027 08:45:31.711            54.502         27251.000
        15   01 Jun 2027 08:46:17.370   01 Jun 2027 08:46:21.097             3.727          1863.500
        16   01 Jun 2027 08:47:21.420   01 Jun 2027 08:47:48.655            27.235         13617.500
        17   01 Jun 2027 10:20:12.738   01 Jun 2027 10:22:16.923           124.185         62092.500
        18   01 Jun 2027 10:22:50.172   01 Jun 2027 10:22:57.945             7.773          3886.500
        19   01 Jun 2027 10:23:38.609   01 Jun 2027 10:23:50.913            12.304          6152.000
        20   01 Jun 2027 11:53:50.200   01 Jun 2027 11:55:11.721            81.521         40760.500
        21   01 Jun 2027 11:55:44.075   01 Jun 2027 11:55:55.694            11.619          5809.500
        22   01 Jun 2027 11:57:43.359   01 Jun 2027 11:57:52.376             9.017          4508.500
        23   01 Jun 2027 11:58:51.420   01 Jun 2027 11:58:53.892             2.472          1236.000
        24   01 Jun 2027 11:59:15.618   01 Jun 2027 11:59:23.143             7.525          3762.500
        25   02 Jun 2027 04:04:28.695   02 Jun 2027 04:04:54.014            25.319         12659.500
        26   02 Jun 2027 04:05:21.155   02 Jun 2027 04:05:22.402             1.247           623.500
        27   02 Jun 2027 04:06:56.078   02 Jun 2027 04:07:13.202            17.124          8562.000
        28   02 Jun 2027 05:39:24.005   02 Jun 2027 05:42:30.126           186.121         93060.500
        29   02 Jun 2027 05:45:42.986   02 Jun 2027 05:45:49.333             6.347          3173.500
        30   02 Jun 2027 05:48:18.540   02 Jun 2027 05:48:36.052            17.512          8756.000
        31   02 Jun 2027 07:17:20.998   02 Jun 2027 07:20:39.119           198.121         99060.500
        32   02 Jun 2027 07:22:50.560   02 Jun 2027 07:22:54.213             3.653          1826.500
        33   02 Jun 2027 07:23:06.847   02 Jun 2027 07:23:37.113            30.266         15133.000
        34   02 Jun 2027 07:23:59.534   02 Jun 2027 07:24:33.885            34.351         17175.500
        35   02 Jun 2027 08:54:15.390   02 Jun 2027 08:57:47.640           212.250        106125.000
        36   02 Jun 2027 09:00:23.822   02 Jun 2027 09:00:44.555            20.733          7810.187
        37   02 Jun 2027 10:31:59.046   02 Jun 2027 10:32:19.204            20.158          9829.781
        38   02 Jun 2027 10:32:33.883   02 Jun 2027 10:32:34.204             0.321            94.469
        39   02 Jun 2027 10:33:55.492   02 Jun 2027 10:34:00.562             5.070          1955.312
        40   02 Jun 2027 10:35:45.850   02 Jun 2027 10:35:49.091             3.241          1372.969
        41   02 Jun 2027 10:36:08.780   02 Jun 2027 10:36:11.609             2.829           518.312
        42   02 Jun 2027 10:36:19.327   02 Jun 2027 10:36:19.469             0.142            19.469
        43   03 Jun 2027 04:18:32.540   03 Jun 2027 04:19:14.734            42.194         21097.000
        44   03 Jun 2027 04:21:17.098   03 Jun 2027 04:21:20.339             3.241          1620.500
        45   03 Jun 2027 04:21:46.623   03 Jun 2027 04:21:50.167             3.544          1772.000
        46   03 Jun 2027 05:52:17.426   03 Jun 2027 05:55:16.982           179.556         89778.000
        47   03 Jun 2027 05:55:57.184   03 Jun 2027 05:56:40.813            43.629         21814.500
        48   03 Jun 2027 05:59:19.687   03 Jun 2027 05:59:29.006             9.319          4659.500
        49   03 Jun 2027 06:00:31.421   03 Jun 2027 06:00:38.548             7.127          3563.500
        50   03 Jun 2027 06:00:45.874   03 Jun 2027 06:00:51.405             5.531          2765.500
        51   03 Jun 2027 07:29:41.881   03 Jun 2027 07:30:13.761            31.880         15561.813
        52   03 Jun 2027 07:31:07.657   03 Jun 2027 07:31:08.570             0.913            98.063
        53   03 Jun 2027 07:31:41.715   03 Jun 2027 07:31:44.111             2.396          1035.781
        54   03 Jun 2027 07:32:50.171   03 Jun 2027 07:32:54.723             4.552          1866.281
        55   03 Jun 2027 07:32:58.842   03 Jun 2027 07:32:59.246             0.404            31.594
        56   03 Jun 2027 07:33:39.710   03 Jun 2027 07:33:40.768             1.058           155.969
        57   03 Jun 2027 07:35:01.871   03 Jun 2027 07:35:10.281             8.410          1757.250
        58   03 Jun 2027 07:35:33.826   03 Jun 2027 07:35:36.361             2.535           311.281
        59   03 Jun 2027 09:06:45.663   03 Jun 2027 09:07:00.067            14.404          5556.781
        60   03 Jun 2027 09:08:50.379   03 Jun 2027 09:08:51.614             1.235           563.219
        61   03 Jun 2027 09:09:35.431   03 Jun 2027 09:09:40.305             4.874           306.500
        62   03 Jun 2027 09:10:25.146   03 Jun 2027 09:10:26.324             1.178           470.000
        63   03 Jun 2027 09:11:09.485   03 Jun 2027 09:11:11.203             1.718           452.938
        64   03 Jun 2027 09:12:15.761   03 Jun 2027 09:12:19.788             4.027          1962.031
        65   03 Jun 2027 10:43:30.468   03 Jun 2027 10:43:46.779            16.311          8029.531
        66   03 Jun 2027 10:45:11.129   03 Jun 2027 10:45:19.500             8.371          1019.625
        67   03 Jun 2027 10:45:45.260   03 Jun 2027 10:45:50.866             5.606           798.844
        68   03 Jun 2027 10:46:38.320   03 Jun 2027 10:46:41.383             3.063          1204.688
        69   03 Jun 2027 10:47:52.373   03 Jun 2027 10:47:57.685             5.312          2218.437
        70   04 Jun 2027 04:30:46.831   04 Jun 2027 04:32:15.383            88.552         44276.000
        71   04 Jun 2027 04:34:15.646   04 Jun 2027 04:34:21.675             6.029          3014.500
        72   04 Jun 2027 06:04:50.834   04 Jun 2027 06:08:01.415           190.581         94929.406
        73   04 Jun 2027 06:08:30.229   04 Jun 2027 06:08:32.514             2.285           846.031
        74   04 Jun 2027 06:10:21.392   04 Jun 2027 06:10:27.806             6.414          2836.406
        75   04 Jun 2027 06:11:34.522   04 Jun 2027 06:11:34.522             0.000             0.000
        76   04 Jun 2027 06:11:39.664   04 Jun 2027 06:11:45.557             5.893          2219.250
        77   04 Jun 2027 06:12:40.857   04 Jun 2027 06:12:40.857             0.000             0.000
        78   04 Jun 2027 06:12:46.159   04 Jun 2027 06:12:48.743             2.584           906.031
        79   04 Jun 2027 07:41:55.404   04 Jun 2027 07:41:59.150             3.746          1107.906
        80   04 Jun 2027 07:44:58.220   04 Jun 2027 07:44:59.240             1.020           222.344
        81   04 Jun 2027 07:47:36.186   04 Jun 2027 07:47:37.964             1.778           223.375
        82   04 Jun 2027 07:48:19.913   04 Jun 2027 07:48:22.542             2.629          1310.906
        83   04 Jun 2027 09:18:51.220   04 Jun 2027 09:19:03.123            11.903          5378.906
        84   04 Jun 2027 09:22:03.962   04 Jun 2027 09:22:06.433             2.471           915.313
        85   04 Jun 2027 09:23:33.374   04 Jun 2027 09:23:39.259             5.885            27.687
        86   04 Jun 2027 10:55:37.726   04 Jun 2027 10:55:53.450            15.724          7372.500
        87   04 Jun 2027 10:57:51.981   04 Jun 2027 10:57:53.813             1.832           835.875
        88   04 Jun 2027 10:59:53.899   04 Jun 2027 10:59:57.051             3.152           713.687
        89   05 Jun 2027 03:07:01.962   05 Jun 2027 03:07:12.249            10.287          5143.500
        90   05 Jun 2027 03:08:49.841   05 Jun 2027 03:08:51.137             1.296           648.000
        91   05 Jun 2027 03:09:03.835   05 Jun 2027 03:09:07.862             4.027          2013.500
        92   05 Jun 2027 04:42:57.288   05 Jun 2027 04:45:56.648           179.360         89680.000
        93   05 Jun 2027 04:46:18.567   05 Jun 2027 04:46:27.204             8.637          4318.500
        94   05 Jun 2027 06:18:02.423   05 Jun 2027 06:19:37.049            94.626         46720.093
        95   05 Jun 2027 06:20:52.006   05 Jun 2027 06:20:55.569             3.563          1557.875
        96   05 Jun 2027 06:20:57.067   05 Jun 2027 06:20:57.067             0.000             0.000
        97   05 Jun 2027 06:21:26.761   05 Jun 2027 06:21:30.938             4.177           974.750
        98   05 Jun 2027 06:21:55.561   05 Jun 2027 06:21:57.729             2.168           553.187
        99   05 Jun 2027 06:22:57.143   05 Jun 2027 06:22:57.143             0.000             0.000
       100   05 Jun 2027 06:23:53.238   05 Jun 2027 06:23:58.881             5.643          2150.406
       101   05 Jun 2027 06:24:05.071   05 Jun 2027 06:24:05.460             0.389             2.094
       102   05 Jun 2027 06:24:40.423   05 Jun 2027 06:24:42.944             2.521           577.063
       103   05 Jun 2027 07:54:24.504   05 Jun 2027 07:54:29.208             4.704          1155.781
       104   05 Jun 2027 07:56:07.185   05 Jun 2027 07:56:08.067             0.882            33.937
       105   05 Jun 2027 07:56:22.086   05 Jun 2027 07:56:24.564             2.478           438.094
       106   05 Jun 2027 07:58:02.019   05 Jun 2027 07:58:07.583             5.564          1899.531
       107   05 Jun 2027 07:59:22.450   05 Jun 2027 07:59:27.148             4.698          1972.531
       108   05 Jun 2027 08:00:14.274   05 Jun 2027 08:00:20.271             5.997           920.875
       109   05 Jun 2027 08:00:34.239   05 Jun 2027 08:00:34.884             0.645           253.813
       110   05 Jun 2027 09:31:54.467   05 Jun 2027 09:32:09.093            14.626          6256.094
       111   05 Jun 2027 09:33:14.423   05 Jun 2027 09:33:14.888             0.465            14.313
       112   05 Jun 2027 09:35:41.265   05 Jun 2027 09:35:47.078             5.813            22.000
       113   05 Jun 2027 09:35:55.900   05 Jun 2027 09:35:57.039             1.139           211.875
       114   05 Jun 2027 11:07:59.213   05 Jun 2027 11:08:11.102            11.889          5703.156
       115   05 Jun 2027 11:11:05.633   05 Jun 2027 11:11:08.687             3.054           931.750
       116   06 Jun 2027 03:18:24.061   06 Jun 2027 03:18:48.578            24.517         12258.500
       117   06 Jun 2027 03:19:09.541   06 Jun 2027 03:19:13.326             3.785          1892.500
       118   06 Jun 2027 04:55:01.737   06 Jun 2027 04:58:16.635           194.898         97449.000
       119   06 Jun 2027 06:30:12.194   06 Jun 2027 06:31:38.825            86.631         41366.281
       120   06 Jun 2027 06:32:40.667   06 Jun 2027 06:32:44.588             3.921          1820.188
       121   06 Jun 2027 06:32:58.179   06 Jun 2027 06:32:58.179             0.000             0.000
       122   06 Jun 2027 06:33:00.203   06 Jun 2027 06:33:07.467             7.264           232.219
       123   06 Jun 2027 06:33:25.498   06 Jun 2027 06:33:25.498             0.000             0.000
       124   06 Jun 2027 06:34:44.627   06 Jun 2027 06:34:52.358             7.731          2919.594
       125   06 Jun 2027 06:35:54.984   06 Jun 2027 06:35:58.450             3.466          1711.594
       126   06 Jun 2027 06:36:09.904   06 Jun 2027 06:36:09.904             0.000             0.000
       127   06 Jun 2027 06:36:32.782   06 Jun 2027 06:36:37.395             4.613          1041.906
       128   06 Jun 2027 08:06:26.183   06 Jun 2027 08:06:30.622             4.439          1638.688
       129   06 Jun 2027 08:08:23.856   06 Jun 2027 08:08:33.405             9.549           971.594
       130   06 Jun 2027 08:08:51.545   06 Jun 2027 08:08:54.084             2.539            33.906
       131   06 Jun 2027 08:10:24.828   06 Jun 2027 08:10:28.796             3.968           147.844
       132   06 Jun 2027 08:11:43.389   06 Jun 2027 08:11:44.595             1.206           307.781
       133   06 Jun 2027 09:44:00.104   06 Jun 2027 09:44:12.111            12.007          5616.281
       134   06 Jun 2027 09:44:59.362   06 Jun 2027 09:45:03.581             4.219           438.500
       135   06 Jun 2027 09:45:09.492   06 Jun 2027 09:45:10.662             1.170            47.750
       136   06 Jun 2027 09:47:28.523   06 Jun 2027 09:47:29.758             1.235           434.063
       137   06 Jun 2027 09:47:59.285   06 Jun 2027 09:48:00.486             1.201            39.937
       138   06 Jun 2027 09:48:23.749   06 Jun 2027 09:48:24.467             0.718           328.844
       139   06 Jun 2027 11:20:01.410   06 Jun 2027 11:20:14.111            12.701          6322.250
       140   06 Jun 2027 11:22:09.658   06 Jun 2027 11:22:11.806             2.148           712.750
       141   06 Jun 2027 11:23:35.230   06 Jun 2027 11:23:37.441             2.211          1052.812
       142   07 Jun 2027 03:30:59.599   07 Jun 2027 03:31:04.338             4.739          2369.500
       143   07 Jun 2027 03:32:24.354   07 Jun 2027 03:32:50.901            26.547         13273.500
       144   07 Jun 2027 05:06:45.655   07 Jun 2027 05:10:11.776           206.121        103060.500
       145   07 Jun 2027 06:41:36.353   07 Jun 2027 06:42:51.524            75.171         37179.937
       146   07 Jun 2027 06:43:38.682   07 Jun 2027 06:43:40.539             1.857           772.813
       147   07 Jun 2027 06:45:00.409   07 Jun 2027 06:45:02.197             1.788           445.844
       148   07 Jun 2027 06:46:44.287   07 Jun 2027 06:46:55.109            10.822          3151.031
       149   07 Jun 2027 06:47:38.761   07 Jun 2027 06:47:41.168             2.407          1111.656
       150   07 Jun 2027 06:48:22.603   07 Jun 2027 06:48:27.402             4.799          1107.562
       151   07 Jun 2027 06:48:48.291   07 Jun 2027 06:48:51.279             2.988           285.344
       152   07 Jun 2027 08:18:12.295   07 Jun 2027 08:18:18.457             6.162          2533.125
       153   07 Jun 2027 08:19:40.541   07 Jun 2027 08:19:42.112             1.571           762.062
       154   07 Jun 2027 08:20:08.087   07 Jun 2027 08:20:08.923             0.836           128.000
       155   07 Jun 2027 08:21:05.996   07 Jun 2027 08:21:11.351             5.355           416.219
       156   07 Jun 2027 08:22:53.725   07 Jun 2027 08:22:56.741             3.016           756.156
       157   07 Jun 2027 08:23:40.606   07 Jun 2027 08:23:47.414             6.808           489.531
       158   07 Jun 2027 09:56:30.053   07 Jun 2027 09:56:47.642            17.589          7421.281
       159   07 Jun 2027 09:57:56.216   07 Jun 2027 09:58:00.372             4.156          1984.594
       160   07 Jun 2027 09:58:23.251   07 Jun 2027 09:58:23.673             0.422           105.562
       161   07 Jun 2027 10:00:11.454   07 Jun 2027 10:00:15.205             3.751          1064.437
       162   07 Jun 2027 11:29:50.391   07 Jun 2027 11:30:01.155            10.764          5382.000
       163   07 Jun 2027 11:31:49.858   07 Jun 2027 11:31:53.708             3.850          1312.375
       164   08 Jun 2027 03:41:38.664   08 Jun 2027 03:41:47.029             8.365          4182.500
       165   08 Jun 2027 03:43:55.789   08 Jun 2027 03:43:59.555             3.766          1883.000
       166   08 Jun 2027 03:45:29.612   08 Jun 2027 03:45:33.743             4.131          2065.500
       167   08 Jun 2027 03:46:06.078   08 Jun 2027 03:46:12.301             6.223          3111.500
       168   08 Jun 2027 05:16:56.166   08 Jun 2027 05:17:26.487            30.321         15160.500
       169   08 Jun 2027 05:17:56.920   08 Jun 2027 05:17:58.036             1.116           558.000
       170   08 Jun 2027 05:18:29.915   08 Jun 2027 05:20:03.013            93.098         46549.000
       171   08 Jun 2027 05:20:58.827   08 Jun 2027 05:21:43.796            44.969         22484.500
       172   08 Jun 2027 05:21:50.623   08 Jun 2027 05:22:43.308            52.685         26342.500
       173   08 Jun 2027 06:53:29.620   08 Jun 2027 06:54:36.808            67.188         33521.781
       174   08 Jun 2027 06:55:17.109   08 Jun 2027 06:55:18.717             1.608           602.094
       175   08 Jun 2027 06:56:17.148   08 Jun 2027 06:56:18.667             1.519           220.125
       176   08 Jun 2027 06:57:02.394   08 Jun 2027 06:57:05.436             3.042           753.156
       177   08 Jun 2027 06:57:30.332   08 Jun 2027 06:57:32.543             2.211           735.781
       178   08 Jun 2027 06:59:19.981   08 Jun 2027 06:59:22.420             2.439          1146.187
       179   08 Jun 2027 06:59:41.590   08 Jun 2027 06:59:42.850             1.260           539.750
       180   08 Jun 2027 07:00:17.606   08 Jun 2027 07:00:24.115             6.509          1075.563
       181   08 Jun 2027 07:00:49.072   08 Jun 2027 07:00:51.052             1.980           612.625
       182   08 Jun 2027 08:30:33.424   08 Jun 2027 08:30:44.851            11.427          3488.844
       183   08 Jun 2027 08:31:31.365   08 Jun 2027 08:31:36.451             5.086           673.437
       184   08 Jun 2027 08:32:14.461   08 Jun 2027 08:32:18.856             4.395           866.219
       185   08 Jun 2027 08:33:31.601   08 Jun 2027 08:33:37.345             5.744          1209.000
       186   08 Jun 2027 08:34:31.883   08 Jun 2027 08:34:33.463             1.580           573.437
       187   08 Jun 2027 08:34:46.279   08 Jun 2027 08:34:47.727             1.448           400.500
       188   08 Jun 2027 08:35:12.606   08 Jun 2027 08:35:18.110             5.504           732.156
       189   08 Jun 2027 08:36:02.765   08 Jun 2027 08:36:04.811             2.046           378.500
       190   08 Jun 2027 10:08:27.699   08 Jun 2027 10:08:43.456            15.757          6925.281
       191   08 Jun 2027 10:11:48.026   08 Jun 2027 10:11:51.682             3.656           700.156
       192   08 Jun 2027 10:12:04.562   08 Jun 2027 10:12:06.287             1.725            36.688
       193   08 Jun 2027 10:12:12.278   08 Jun 2027 10:12:12.641             0.363           148.781
       194   08 Jun 2027 11:41:40.304   08 Jun 2027 11:41:52.574            12.270          5623.719
       195   09 Jun 2027 03:53:14.368   09 Jun 2027 03:53:47.608            33.240         16620.000
       196   09 Jun 2027 03:56:50.668   09 Jun 2027 03:56:54.560             3.892          1946.000
       197   09 Jun 2027 05:28:07.635   09 Jun 2027 05:30:12.311           124.676         62338.000
       198   09 Jun 2027 05:30:17.553   09 Jun 2027 05:31:21.686            64.133         32066.500
       199   09 Jun 2027 05:31:47.297   09 Jun 2027 05:32:04.699            17.402          8701.000
       200   09 Jun 2027 05:36:13.584   09 Jun 2027 05:36:38.441            24.857         12428.500
       201   09 Jun 2027 07:05:41.756   09 Jun 2027 07:06:37.167            55.411         26956.656
       202   09 Jun 2027 07:07:20.176   09 Jun 2027 07:07:21.838             1.662           698.625
       203   09 Jun 2027 07:08:49.215   09 Jun 2027 07:09:01.099            11.884          2165.281
       204   09 Jun 2027 07:09:36.599   09 Jun 2027 07:09:38.704             2.105           826.656
       205   09 Jun 2027 07:09:56.959   09 Jun 2027 07:10:02.987             6.028            37.344
       206   09 Jun 2027 07:11:00.379   09 Jun 2027 07:11:03.180             2.801           942.344
       207   09 Jun 2027 07:11:08.744   09 Jun 2027 07:11:10.264             1.520           173.875
       208   09 Jun 2027 07:11:49.702   09 Jun 2027 07:11:51.470             1.768           355.469
       209   09 Jun 2027 07:12:40.791   09 Jun 2027 07:12:43.880             3.089          1470.156
       210   09 Jun 2027 08:42:24.513   09 Jun 2027 08:42:36.202            11.689          4829.719
       211   09 Jun 2027 08:43:20.388   09 Jun 2027 08:43:22.258             1.870           596.813
       212   09 Jun 2027 08:44:23.649   09 Jun 2027 08:44:30.927             7.278          1824.531
       213   09 Jun 2027 08:45:19.775   09 Jun 2027 08:45:22.854             3.079           367.344
       214   09 Jun 2027 08:45:50.472   09 Jun 2027 08:45:51.824             1.352           186.187
       215   09 Jun 2027 08:46:24.992   09 Jun 2027 08:46:27.502             2.510           367.031
       216   09 Jun 2027 08:46:36.629   09 Jun 2027 08:46:38.864             2.235           126.437
       217   09 Jun 2027 08:47:35.557   09 Jun 2027 08:47:36.910             1.353           656.531
       218   09 Jun 2027 10:20:27.529   09 Jun 2027 10:20:38.684            11.155          5500.562
       219   09 Jun 2027 10:23:54.571   09 Jun 2027 10:23:55.847             1.276           428.000
       220   09 Jun 2027 10:24:06.405   09 Jun 2027 10:24:09.095             2.690           324.000
       221   09 Jun 2027 10:24:25.579   09 Jun 2027 10:24:26.532             0.953           472.875
       222   09 Jun 2027 11:54:05.567   09 Jun 2027 11:54:08.860             3.293           696.031
       223   10 Jun 2027 04:04:43.132   10 Jun 2027 04:05:10.761            27.629         13814.500
       224   10 Jun 2027 04:05:14.559   10 Jun 2027 04:05:35.646            21.087         10543.500
       225   10 Jun 2027 04:09:17.880   10 Jun 2027 04:09:24.289             6.409          3204.500
       226   10 Jun 2027 05:39:38.277   10 Jun 2027 05:42:14.741           156.464         78232.000
       227   10 Jun 2027 05:42:27.065   10 Jun 2027 05:42:51.038            23.973         11986.500
       228   10 Jun 2027 05:43:25.128   10 Jun 2027 05:43:32.479             7.351          3675.500
       229   10 Jun 2027 05:47:19.533   10 Jun 2027 05:47:19.533             0.000             0.000
       230   10 Jun 2027 05:47:21.013   10 Jun 2027 05:47:34.936            13.923          6961.500
       231   10 Jun 2027 05:48:33.030   10 Jun 2027 05:48:36.605             3.575          1787.500
       232   10 Jun 2027 07:17:35.752   10 Jun 2027 07:19:05.700            89.948         43640.438
       233   10 Jun 2027 07:20:02.368   10 Jun 2027 07:20:09.854             7.486           649.656
       234   10 Jun 2027 07:21:29.336   10 Jun 2027 07:21:35.231             5.895          2180.125
       235   10 Jun 2027 07:22:38.884   10 Jun 2027 07:22:42.225             3.341          1666.406
       236   10 Jun 2027 07:23:11.261   10 Jun 2027 07:23:13.155             1.894           713.906
       237   10 Jun 2027 07:24:48.927   10 Jun 2027 07:24:49.850             0.923            12.969
       238   10 Jun 2027 08:54:30.574   10 Jun 2027 08:54:43.498            12.924          4825.625
       239   10 Jun 2027 08:55:38.567   10 Jun 2027 08:55:41.208             2.641           509.781
       240   10 Jun 2027 08:56:50.354   10 Jun 2027 08:56:52.490             2.136           585.188
       241   10 Jun 2027 08:57:54.420   10 Jun 2027 08:58:04.446            10.026          1935.313
       242   10 Jun 2027 08:58:25.735   10 Jun 2027 08:58:27.721             1.986           566.875
       243   10 Jun 2027 08:58:50.389   10 Jun 2027 08:58:56.164             5.775           708.375
       244   10 Jun 2027 08:59:19.779   10 Jun 2027 08:59:23.526             3.747           679.000
       245   10 Jun 2027 10:32:13.674   10 Jun 2027 10:32:25.072            11.398          5443.781
       246   10 Jun 2027 10:35:03.911   10 Jun 2027 10:35:08.918             5.007          1513.156
       247   10 Jun 2027 10:36:03.220   10 Jun 2027 10:36:06.938             3.718          1441.531
       248   11 Jun 2027 04:18:47.393   11 Jun 2027 04:19:41.321            53.928         26964.000
       249   11 Jun 2027 04:19:58.181   11 Jun 2027 04:19:59.366             1.185           592.500
       250   11 Jun 2027 04:20:39.178   11 Jun 2027 04:20:39.178             0.000             0.000
       251   11 Jun 2027 04:22:05.018   11 Jun 2027 04:22:30.424            25.406         12703.000
       252   11 Jun 2027 05:52:31.667   11 Jun 2027 05:54:11.828           100.161         50080.500
       253   11 Jun 2027 05:54:53.219   11 Jun 2027 05:56:12.503            79.284         39642.000
       254   11 Jun 2027 05:57:03.236   11 Jun 2027 05:57:06.827             3.591          1795.500
       255   11 Jun 2027 05:57:51.938   11 Jun 2027 05:57:51.938             0.000             0.000
       256   11 Jun 2027 05:58:50.475   11 Jun 2027 05:59:04.380            13.905          6952.500
       257   11 Jun 2027 06:00:47.070   11 Jun 2027 06:00:54.646             7.576          3788.000
       258   11 Jun 2027 06:01:05.174   11 Jun 2027 06:01:06.154             0.980           490.000
       259   11 Jun 2027 07:29:56.871   11 Jun 2027 07:30:29.151            32.280         16086.657
       260   11 Jun 2027 07:31:23.855   11 Jun 2027 07:31:24.244             0.389            72.375
       261   11 Jun 2027 07:33:16.838   11 Jun 2027 07:33:17.754             0.916            83.875
       262   11 Jun 2027 07:35:15.239   11 Jun 2027 07:35:20.397             5.158          1684.063
       263   11 Jun 2027 07:35:48.413   11 Jun 2027 07:35:52.143             3.730           244.188
       264   11 Jun 2027 09:07:00.448   11 Jun 2027 09:07:16.759            16.311          5924.062
       265   11 Jun 2027 09:08:07.862   11 Jun 2027 09:08:12.193             4.331          1420.875
       266   11 Jun 2027 09:09:04.113   11 Jun 2027 09:09:06.713             2.600           526.469
       267   11 Jun 2027 09:10:17.946   11 Jun 2027 09:10:20.597             2.651          1019.281
       268   11 Jun 2027 09:10:40.621   11 Jun 2027 09:10:41.836             1.215           493.219
       269   11 Jun 2027 09:11:28.454   11 Jun 2027 09:11:29.710             1.256           111.719
       270   11 Jun 2027 10:43:45.528   11 Jun 2027 10:44:01.531            16.003          7639.719
       271   11 Jun 2027 10:48:08.265   11 Jun 2027 10:48:18.025             9.760          2223.531
       272   12 Jun 2027 04:31:01.900   12 Jun 2027 04:32:27.930            86.030         43015.000
       273   12 Jun 2027 04:34:32.169   12 Jun 2027 04:34:36.806             4.637          2318.500
       274   12 Jun 2027 06:05:05.991   12 Jun 2027 06:08:23.793           197.802         97404.187
       275   12 Jun 2027 06:08:30.024   12 Jun 2027 06:08:30.689             0.665           163.719
       276   12 Jun 2027 06:10:26.580   12 Jun 2027 06:10:27.095             0.515           257.500
       277   12 Jun 2027 06:10:53.927   12 Jun 2027 06:10:53.927             0.000             0.000
       278   12 Jun 2027 06:11:03.484   12 Jun 2027 06:11:11.114             7.630          3815.000
       279   12 Jun 2027 06:11:49.863   12 Jun 2027 06:11:49.863             0.000             0.000
       280   12 Jun 2027 06:12:32.942   12 Jun 2027 06:12:42.103             9.161          2806.594
       281   12 Jun 2027 07:42:10.070   12 Jun 2027 07:42:15.862             5.792          2188.250
       282   12 Jun 2027 07:45:01.936   12 Jun 2027 07:45:05.201             3.265           126.594
       283   12 Jun 2027 07:45:39.815   12 Jun 2027 07:45:40.866             1.051           486.656
       284   12 Jun 2027 07:46:28.637   12 Jun 2027 07:46:29.918             1.281            92.969
       285   12 Jun 2027 07:48:13.285   12 Jun 2027 07:48:23.930            10.645          1309.125
       286   12 Jun 2027 07:48:44.443   12 Jun 2027 07:48:46.584             2.141           628.250
       287   12 Jun 2027 09:19:06.174   12 Jun 2027 09:19:17.794            11.620          5786.187
       288   12 Jun 2027 09:19:28.701   12 Jun 2027 09:19:30.297             1.596            91.344
       289   12 Jun 2027 09:19:57.604   12 Jun 2027 09:20:02.376             4.772           821.438
       290   12 Jun 2027 09:23:59.635   12 Jun 2027 09:24:03.802             4.167           589.719
       291   12 Jun 2027 10:55:52.515   12 Jun 2027 10:56:06.591            14.076          5446.344
       292   12 Jun 2027 11:00:15.557   12 Jun 2027 11:00:16.752             1.195           231.406
       293   13 Jun 2027 03:06:43.300   13 Jun 2027 03:07:02.174            18.874          9437.000
       294   13 Jun 2027 03:09:18.910   13 Jun 2027 03:09:22.988             4.078          2039.000
       295   13 Jun 2027 04:43:12.225   13 Jun 2027 04:46:32.987           200.762        100381.000
       296   13 Jun 2027 06:18:17.674   13 Jun 2027 06:19:40.141            82.467         39889.875
       297   13 Jun 2027 06:20:17.556   13 Jun 2027 06:20:19.508             1.952           891.813
       298   13 Jun 2027 06:21:12.166   13 Jun 2027 06:21:14.253             2.087           163.531
       299   13 Jun 2027 06:21:42.629   13 Jun 2027 06:21:45.569             2.940           861.469
       300   13 Jun 2027 06:22:09.622   13 Jun 2027 06:22:11.879             2.257           516.031
       301   13 Jun 2027 06:24:08.843   13 Jun 2027 06:24:13.367             4.524          2155.469
       302   13 Jun 2027 06:24:37.467   13 Jun 2027 06:24:39.160             1.693           530.438
       303   13 Jun 2027 07:54:39.819   13 Jun 2027 07:54:45.105             5.286          1217.094
       304   13 Jun 2027 07:56:22.955   13 Jun 2027 07:56:24.935             1.980           931.188
       305   13 Jun 2027 07:57:54.802   13 Jun 2027 07:57:56.072             1.270           378.219
       306   13 Jun 2027 07:59:36.987   13 Jun 2027 07:59:40.886             3.899          1938.094
       307   13 Jun 2027 08:00:28.646   13 Jun 2027 08:00:35.059             6.413           913.344
       308   13 Jun 2027 08:00:51.287   13 Jun 2027 08:00:52.738             1.451           330.844
       309   13 Jun 2027 09:32:08.472   13 Jun 2027 09:32:21.941            13.469          5902.094
       310   13 Jun 2027 09:33:33.248   13 Jun 2027 09:33:33.985             0.737           295.094
       311   13 Jun 2027 09:36:11.462   13 Jun 2027 09:36:13.049             1.587           227.875
       312   13 Jun 2027 09:36:33.194   13 Jun 2027 09:36:35.923             2.729           480.000
       313   13 Jun 2027 11:08:14.406   13 Jun 2027 11:08:25.634            11.228          5120.125
       314   13 Jun 2027 11:12:03.756   13 Jun 2027 11:12:07.224             3.468          1360.875
       315   13 Jun 2027 11:12:20.866   13 Jun 2027 11:12:26.237             5.371           426.312
