uniorb/output/strategy_4/Camera/Camera_KinoSat_111505.txt

KinoSat_111505
-------------------------
    Access    *     Start Time (UTCG)     *     Stop Time (UTCG)  *   Duration (s) *   Data (Mbytes)
         1   01 Jun 2027 03:18:11.691   01 Jun 2027 03:19:13.865            62.174         31087.000
         2   01 Jun 2027 03:19:20.371   01 Jun 2027 03:20:05.574            45.203         22601.500
         3   01 Jun 2027 03:20:10.098   01 Jun 2027 03:20:15.707             5.609          2804.500
         4   01 Jun 2027 03:20:32.304   01 Jun 2027 03:20:50.389            18.085          9042.500
         5   01 Jun 2027 03:21:40.344   01 Jun 2027 03:21:43.014             2.670          1335.000
         6   01 Jun 2027 03:22:37.858   01 Jun 2027 03:22:55.391            17.533          8766.500
         7   01 Jun 2027 03:24:25.654   01 Jun 2027 03:24:26.065             0.411           205.500
         8   01 Jun 2027 04:56:30.129   01 Jun 2027 04:57:02.076            31.947         15973.500
         9   01 Jun 2027 04:57:19.582   01 Jun 2027 04:58:03.210            43.628         21814.000
        10   01 Jun 2027 04:59:10.582   01 Jun 2027 04:59:16.627             6.045          3022.500
        11   01 Jun 2027 06:19:52.640   01 Jun 2027 06:21:06.628            73.988         36994.000
        12   01 Jun 2027 07:56:24.500   01 Jun 2027 07:58:51.927           147.427         73713.500
        13   01 Jun 2027 07:59:24.178   01 Jun 2027 07:59:24.178             0.000             0.000
        14   01 Jun 2027 09:31:34.894   01 Jun 2027 09:32:57.604            82.710         41355.000
        15   01 Jun 2027 09:33:50.726   01 Jun 2027 09:34:31.888            41.162         20581.000
        16   01 Jun 2027 09:38:00.161   01 Jun 2027 09:38:03.363             3.202          1601.000
        17   01 Jun 2027 09:38:09.792   01 Jun 2027 09:38:11.175             1.383           691.500
        18   01 Jun 2027 11:07:57.952   01 Jun 2027 11:11:07.685           189.733         94866.500
        19   01 Jun 2027 11:11:22.392   01 Jun 2027 11:11:22.635             0.243           121.500
        20   01 Jun 2027 11:12:14.157   01 Jun 2027 11:12:19.149             4.992          2496.000
        21   01 Jun 2027 11:12:23.349   01 Jun 2027 11:12:28.626             5.277          2638.500
        22   02 Jun 2027 03:31:18.310   02 Jun 2027 03:33:48.456           150.146         75073.000
        23   02 Jun 2027 03:34:13.614   02 Jun 2027 03:34:26.280            12.666          6333.000
        24   02 Jun 2027 03:34:51.633   02 Jun 2027 03:34:55.760             4.127          2063.500
        25   02 Jun 2027 03:38:06.682   02 Jun 2027 03:38:16.322             9.640          4820.000
        26   02 Jun 2027 05:08:26.833   02 Jun 2027 05:09:06.114            39.281         19640.500
        27   02 Jun 2027 05:09:27.275   02 Jun 2027 05:11:59.826           152.551         76275.500
        28   02 Jun 2027 06:32:22.419   02 Jun 2027 06:33:17.509            55.090         27545.000
        29   02 Jun 2027 06:34:36.912   02 Jun 2027 06:35:05.570            28.658         14329.000
        30   02 Jun 2027 08:08:17.179   02 Jun 2027 08:11:33.343           196.164         98082.000
        31   02 Jun 2027 09:43:12.638   02 Jun 2027 09:43:52.610            39.972         18777.749
        32   02 Jun 2027 09:45:25.558   02 Jun 2027 09:45:29.081             3.523           840.844
        33   02 Jun 2027 09:46:04.807   02 Jun 2027 09:46:06.168             1.361           400.937
        34   02 Jun 2027 09:48:46.050   02 Jun 2027 09:48:46.050             0.000             0.000
        35   02 Jun 2027 09:49:51.318   02 Jun 2027 09:50:06.807            15.489          6867.562
        36   02 Jun 2027 11:19:32.385   02 Jun 2027 11:19:44.975            12.590          5261.969
        37   02 Jun 2027 11:21:36.098   02 Jun 2027 11:21:40.925             4.827          1781.781
        38   02 Jun 2027 11:21:57.146   02 Jun 2027 11:21:59.613             2.467           468.344
        39   02 Jun 2027 11:22:24.647   02 Jun 2027 11:22:28.778             4.131           724.937
        40   02 Jun 2027 11:23:17.896   02 Jun 2027 11:23:22.300             4.404          1317.406
        41   02 Jun 2027 11:23:47.427   02 Jun 2027 11:23:52.030             4.603           657.469
        42   02 Jun 2027 11:24:44.297   02 Jun 2027 11:24:49.917             5.620          1388.781
        43   02 Jun 2027 11:25:01.330   02 Jun 2027 11:25:02.011             0.681           324.844
        44   02 Jun 2027 11:25:27.665   02 Jun 2027 11:25:34.239             6.574           647.750
        45   02 Jun 2027 11:25:47.192   02 Jun 2027 11:25:48.673             1.481           311.031
        46   03 Jun 2027 03:43:22.034   03 Jun 2027 03:46:59.088           217.054        108527.000
        47   03 Jun 2027 03:47:34.076   03 Jun 2027 03:47:38.292             4.216          2108.000
        48   03 Jun 2027 03:49:59.560   03 Jun 2027 03:50:01.725             2.165          1082.500
        49   03 Jun 2027 05:09:10.190   03 Jun 2027 05:09:15.341             5.151          2575.500
        50   03 Jun 2027 05:20:22.916   03 Jun 2027 05:21:57.486            94.570         47086.281
        51   03 Jun 2027 05:23:02.563   03 Jun 2027 05:23:05.604             3.041           405.844
        52   03 Jun 2027 06:42:59.716   03 Jun 2027 06:43:08.967             9.251          4421.188
        53   03 Jun 2027 06:43:36.338   03 Jun 2027 06:43:38.596             2.258           138.844
        54   03 Jun 2027 06:44:19.807   03 Jun 2027 06:44:29.053             9.246          1043.687
        55   03 Jun 2027 06:44:38.377   03 Jun 2027 06:44:40.365             1.988            47.062
        56   03 Jun 2027 06:44:54.446   03 Jun 2027 06:44:55.107             0.661            69.844
        57   03 Jun 2027 06:46:25.736   03 Jun 2027 06:46:34.789             9.053          2455.687
        58   03 Jun 2027 06:47:30.857   03 Jun 2027 06:47:35.026             4.169          1696.063
        59   03 Jun 2027 08:18:34.838   03 Jun 2027 08:18:35.705             0.867           433.500
        60   03 Jun 2027 08:19:00.332   03 Jun 2027 08:19:07.430             7.098          1842.875
        61   03 Jun 2027 08:20:01.826   03 Jun 2027 08:20:08.341             6.515           518.250
        62   03 Jun 2027 08:21:02.376   03 Jun 2027 08:21:06.690             4.314           666.750
        63   03 Jun 2027 08:22:40.325   03 Jun 2027 08:22:45.761             5.436          2417.250
        64   03 Jun 2027 08:22:54.504   03 Jun 2027 08:22:55.838             1.334           117.750
        65   03 Jun 2027 08:23:04.785   03 Jun 2027 08:23:04.785             0.000             0.000
        66   03 Jun 2027 08:23:58.025   03 Jun 2027 08:24:05.296             7.271          1893.937
        67   03 Jun 2027 08:24:16.317   03 Jun 2027 08:24:18.394             2.077           195.969
        68   03 Jun 2027 09:54:46.510   03 Jun 2027 09:54:55.333             8.823          3116.937
        69   03 Jun 2027 09:56:59.217   03 Jun 2027 09:57:06.212             6.995          3186.625
        70   03 Jun 2027 09:58:21.723   03 Jun 2027 09:58:23.413             1.690           740.875
        71   03 Jun 2027 09:59:25.656   03 Jun 2027 09:59:29.510             3.854           946.250
        72   03 Jun 2027 09:59:59.349   03 Jun 2027 10:00:03.346             3.997           845.687
        73   03 Jun 2027 10:00:20.762   03 Jun 2027 10:00:21.510             0.748           351.437
        74   03 Jun 2027 10:00:40.626   03 Jun 2027 10:00:44.370             3.744           537.375
        75   03 Jun 2027 10:01:39.335   03 Jun 2027 10:01:48.610             9.275          1698.250
        76   03 Jun 2027 10:02:18.082   03 Jun 2027 10:02:20.556             2.474           806.281
        77   03 Jun 2027 11:31:52.733   03 Jun 2027 11:32:04.079            11.346          5595.125
        78   03 Jun 2027 11:34:33.628   03 Jun 2027 11:34:36.200             2.572           934.281
        79   03 Jun 2027 11:34:56.709   03 Jun 2027 11:35:02.933             6.224           640.906
        80   03 Jun 2027 11:35:48.567   03 Jun 2027 11:35:52.467             3.900           598.875
        81   03 Jun 2027 11:36:13.734   03 Jun 2027 11:36:14.385             0.651           297.687
        82   03 Jun 2027 11:36:37.156   03 Jun 2027 11:36:40.327             3.171           646.031
        83   03 Jun 2027 11:37:48.595   03 Jun 2027 11:37:52.741             4.146          2008.750
        84   03 Jun 2027 11:38:14.045   03 Jun 2027 11:38:14.454             0.409            95.750
        85   04 Jun 2027 03:55:51.349   04 Jun 2027 03:58:56.115           184.766         92383.000
        86   04 Jun 2027 04:00:49.868   04 Jun 2027 04:00:57.050             7.182          3591.000
        87   04 Jun 2027 04:01:40.479   04 Jun 2027 04:02:25.850            45.371         22685.500
        88   04 Jun 2027 04:02:38.418   04 Jun 2027 04:02:59.513            21.095         10547.500
        89   04 Jun 2027 05:20:42.881   04 Jun 2027 05:20:43.201             0.320           160.000
        90   04 Jun 2027 05:21:05.857   04 Jun 2027 05:21:16.941            11.084          5542.000
        91   04 Jun 2027 05:32:25.630   04 Jun 2027 05:33:27.010            61.380         30690.000
        92   04 Jun 2027 06:54:40.169   04 Jun 2027 06:54:49.991             9.822          4911.000
        93   04 Jun 2027 06:55:08.400   04 Jun 2027 06:55:14.138             5.738          1991.062
        94   04 Jun 2027 06:55:33.500   04 Jun 2027 06:55:39.320             5.820           423.313
        95   04 Jun 2027 06:57:06.725   04 Jun 2027 06:57:11.486             4.761          1531.062
        96   04 Jun 2027 06:58:35.611   04 Jun 2027 06:58:41.986             6.375          2293.219
        97   04 Jun 2027 06:59:11.997   04 Jun 2027 06:59:12.989             0.992           453.063
        98   04 Jun 2027 06:59:33.436   04 Jun 2027 06:59:35.531             2.095           542.437
        99   04 Jun 2027 08:29:41.452   04 Jun 2027 08:29:44.739             3.287          1504.313
       100   04 Jun 2027 08:30:25.710   04 Jun 2027 08:30:27.003             1.293           520.094
       101   04 Jun 2027 08:32:02.296   04 Jun 2027 08:32:06.045             3.749          1354.656
       102   04 Jun 2027 08:33:05.163   04 Jun 2027 08:33:07.508             2.345           817.250
       103   04 Jun 2027 08:33:21.775   04 Jun 2027 08:33:22.395             0.620           254.937
       104   04 Jun 2027 08:33:34.939   04 Jun 2027 08:33:36.905             1.966           347.000
       105   04 Jun 2027 08:34:55.160   04 Jun 2027 08:35:00.079             4.919          2364.031
       106   04 Jun 2027 08:35:26.402   04 Jun 2027 08:35:33.773             7.371           350.281
       107   04 Jun 2027 10:07:06.586   04 Jun 2027 10:07:15.530             8.944          3933.594
       108   04 Jun 2027 10:10:35.719   04 Jun 2027 10:10:42.593             6.874           686.187
       109   04 Jun 2027 10:11:33.367   04 Jun 2027 10:11:37.721             4.354          1586.687
       110   04 Jun 2027 10:12:10.214   04 Jun 2027 10:12:17.750             7.536           947.563
       111   04 Jun 2027 10:12:48.853   04 Jun 2027 10:12:50.822             1.969           847.594
       112   04 Jun 2027 10:13:47.228   04 Jun 2027 10:13:51.678             4.450          1495.719
       113   04 Jun 2027 11:43:54.137   04 Jun 2027 11:44:05.147            11.010          4712.781
       114   04 Jun 2027 11:45:43.323   04 Jun 2027 11:45:46.118             2.795           531.938
       115   04 Jun 2027 11:46:41.083   04 Jun 2027 11:46:41.535             0.452            71.844
       116   04 Jun 2027 11:47:35.222   04 Jun 2027 11:47:36.559             1.337           458.125
       117   04 Jun 2027 11:47:57.086   04 Jun 2027 11:47:58.546             1.460           217.656
       118   04 Jun 2027 11:48:40.251   04 Jun 2027 11:48:50.577            10.326          1279.156
       119   04 Jun 2027 11:49:31.920   04 Jun 2027 11:49:37.082             5.162           711.719
       120   04 Jun 2027 11:49:46.201   04 Jun 2027 11:49:48.053             1.852           258.062
       121   04 Jun 2027 11:49:57.497   04 Jun 2027 11:50:00.952             3.455           295.125
       122   05 Jun 2027 04:07:52.969   05 Jun 2027 04:10:58.160           185.191         92595.500
       123   05 Jun 2027 04:11:50.393   05 Jun 2027 04:11:58.133             7.740          3870.000
       124   05 Jun 2027 04:14:02.050   05 Jun 2027 04:14:12.932            10.882          5441.000
       125   05 Jun 2027 04:14:51.319   05 Jun 2027 04:14:56.155             4.836          2418.000
       126   05 Jun 2027 05:32:14.658   05 Jun 2027 05:32:35.707            21.049         10524.500
       127   05 Jun 2027 05:44:27.674   05 Jun 2027 05:44:59.071            31.397         15698.500
       128   05 Jun 2027 07:06:21.883   05 Jun 2027 07:07:28.454            66.571         33202.906
       129   05 Jun 2027 07:08:39.253   05 Jun 2027 07:08:43.695             4.442          2009.000
       130   05 Jun 2027 07:09:01.140   05 Jun 2027 07:09:02.972             1.832           162.969
       131   05 Jun 2027 07:10:03.774   05 Jun 2027 07:10:09.661             5.887          1815.125
       132   05 Jun 2027 07:11:19.373   05 Jun 2027 07:11:24.345             4.972          2027.406
       133   05 Jun 2027 07:11:42.500   05 Jun 2027 07:11:44.133             1.633           387.406
       134   05 Jun 2027 08:41:10.272   05 Jun 2027 08:41:16.354             6.082          2653.156
       135   05 Jun 2027 08:42:59.674   05 Jun 2027 08:43:05.250             5.576          1913.062
       136   05 Jun 2027 08:43:12.171   05 Jun 2027 08:43:12.378             0.207           103.500
       137   05 Jun 2027 08:43:16.678   05 Jun 2027 08:43:17.620             0.942           139.781
       138   05 Jun 2027 08:45:24.325   05 Jun 2027 08:45:32.698             8.373          3310.844
       139   05 Jun 2027 08:46:55.301   05 Jun 2027 08:47:04.725             9.424          2345.625
       140   05 Jun 2027 08:47:54.528   05 Jun 2027 08:47:54.528             0.000             0.000
       141   05 Jun 2027 08:48:22.182   05 Jun 2027 08:48:27.794             5.612          1215.125
       142   05 Jun 2027 08:49:31.349   05 Jun 2027 08:49:35.448             4.099           865.844
       143   05 Jun 2027 10:19:00.722   05 Jun 2027 10:19:16.607            15.885          4446.500
       144   05 Jun 2027 10:20:38.345   05 Jun 2027 10:20:39.950             1.605            20.062
       145   05 Jun 2027 10:22:02.987   05 Jun 2027 10:22:10.432             7.445          2013.063
       146   05 Jun 2027 10:23:17.084   05 Jun 2027 10:23:18.719             1.635           100.438
       147   05 Jun 2027 10:24:01.870   05 Jun 2027 10:24:04.428             2.558           264.250
       148   05 Jun 2027 10:24:25.530   05 Jun 2027 10:24:26.572             1.042           244.094
       149   05 Jun 2027 10:24:58.517   05 Jun 2027 10:25:00.242             1.725           574.719
       150   05 Jun 2027 10:25:25.468   05 Jun 2027 10:25:25.682             0.214            98.094
       151   05 Jun 2027 10:25:32.056   05 Jun 2027 10:25:34.579             2.523           199.187
       152   05 Jun 2027 10:25:45.116   05 Jun 2027 10:25:48.671             3.555           308.437
       153   05 Jun 2027 10:26:01.378   05 Jun 2027 10:26:06.385             5.007           316.250
       154   05 Jun 2027 11:55:45.451   05 Jun 2027 11:55:58.032            12.581          6290.500
       155   05 Jun 2027 11:56:16.616   05 Jun 2027 11:56:21.566             4.950          2071.125
       156   05 Jun 2027 11:59:08.834   05 Jun 2027 11:59:23.232            14.398          1088.344
       157   05 Jun 2027 11:59:40.217   05 Jun 2027 11:59:45.316             5.099           337.031
       158   05 Jun 2027 11:59:51.871   05 Jun 2027 11:59:55.463             3.592           131.250
       159   06 Jun 2027 04:20:15.410   06 Jun 2027 04:21:52.107            96.697         48348.500
       160   06 Jun 2027 04:22:09.641   06 Jun 2027 04:22:19.439             9.798          4899.000
       161   06 Jun 2027 04:23:40.008   06 Jun 2027 04:24:09.443            29.435         14717.500
       162   06 Jun 2027 04:24:38.121   06 Jun 2027 04:24:43.311             5.190          2595.000
       163   06 Jun 2027 04:25:16.486   06 Jun 2027 04:25:16.486             0.000             0.000
       164   06 Jun 2027 05:44:12.740   06 Jun 2027 05:45:19.870            67.130         33565.000
       165   06 Jun 2027 07:20:09.901   06 Jun 2027 07:21:56.613           106.712         51912.313
       166   06 Jun 2027 07:23:19.900   06 Jun 2027 07:23:25.249             5.349          2075.406
       167   06 Jun 2027 08:53:58.607   06 Jun 2027 08:54:07.188             8.581          2830.875
       168   06 Jun 2027 08:57:24.357   06 Jun 2027 08:57:31.295             6.938          2351.687
       169   06 Jun 2027 08:58:54.829   06 Jun 2027 08:58:59.358             4.529          2229.500
       170   06 Jun 2027 09:00:32.367   06 Jun 2027 09:00:37.894             5.527          1134.094
       171   06 Jun 2027 09:00:39.251   06 Jun 2027 09:00:40.245             0.994            42.406
       172   06 Jun 2027 09:01:01.675   06 Jun 2027 09:01:06.110             4.435           669.687
       173   06 Jun 2027 09:01:46.645   06 Jun 2027 09:01:50.075             3.430          1189.625
       174   06 Jun 2027 10:31:08.084   06 Jun 2027 10:31:20.008            11.924          5766.063
       175   06 Jun 2027 10:33:21.757   06 Jun 2027 10:33:36.695            14.938          1303.125
       176   06 Jun 2027 10:34:51.255   06 Jun 2027 10:34:53.555             2.300           273.156
       177   06 Jun 2027 10:36:20.776   06 Jun 2027 10:36:26.059             5.283          2082.094
       178   06 Jun 2027 10:36:27.216   06 Jun 2027 10:36:27.754             0.538            36.156
       179   06 Jun 2027 10:37:16.634   06 Jun 2027 10:37:22.652             6.018          1527.500
       180   06 Jun 2027 10:37:44.921   06 Jun 2027 10:37:46.902             1.981           191.563
       181   06 Jun 2027 10:38:02.295   06 Jun 2027 10:38:04.242             1.947           481.031
       182   07 Jun 2027 03:00:00.000   07 Jun 2027 03:00:21.223            21.223         10611.500
       183   07 Jun 2027 04:32:44.108   07 Jun 2027 04:34:48.413           124.305         62152.500
       184   07 Jun 2027 04:35:29.186   07 Jun 2027 04:36:09.140            39.954         19977.000
       185   07 Jun 2027 05:56:05.664   07 Jun 2027 05:57:21.119            75.455         37727.500
       186   07 Jun 2027 07:32:28.112   07 Jun 2027 07:33:18.091            49.979         24611.719
       187   07 Jun 2027 07:33:34.933   07 Jun 2027 07:33:36.038             1.105           507.156
       188   07 Jun 2027 07:34:12.044   07 Jun 2027 07:34:13.495             1.451           718.156
       189   07 Jun 2027 07:34:27.463   07 Jun 2027 07:34:27.921             0.458           188.031
       190   07 Jun 2027 07:35:30.619   07 Jun 2027 07:35:32.234             1.615           798.750
       191   07 Jun 2027 09:06:19.743   07 Jun 2027 09:06:26.991             7.248          3313.875
       192   07 Jun 2027 09:08:31.477   07 Jun 2027 09:08:32.659             1.182           176.844
       193   07 Jun 2027 09:09:12.200   07 Jun 2027 09:09:20.900             8.700           278.656
       194   07 Jun 2027 09:10:53.639   07 Jun 2027 09:10:58.759             5.120          2010.000
       195   07 Jun 2027 09:13:02.857   07 Jun 2027 09:13:13.227            10.370          2458.375
       196   07 Jun 2027 09:13:58.449   07 Jun 2027 09:14:05.769             7.320          1254.688
       197   07 Jun 2027 10:43:34.896   07 Jun 2027 10:43:47.484            12.588          5264.250
       198   07 Jun 2027 10:46:31.914   07 Jun 2027 10:46:35.695             3.781          1359.281
       199   07 Jun 2027 10:47:14.389   07 Jun 2027 10:47:16.732             2.343           879.375
       200   07 Jun 2027 10:47:36.898   07 Jun 2027 10:47:37.703             0.805            92.844
       201   07 Jun 2027 10:49:03.473   07 Jun 2027 10:49:14.738            11.265          1951.156
       202   07 Jun 2027 10:49:38.243   07 Jun 2027 10:49:39.971             1.728           584.813
       203   07 Jun 2027 10:49:46.530   07 Jun 2027 10:49:48.557             2.027           183.344
       204   07 Jun 2027 10:50:06.340   07 Jun 2027 10:50:07.897             1.557           555.719
       205   07 Jun 2027 10:50:11.411   07 Jun 2027 10:50:12.974             1.563            84.313
       206   08 Jun 2027 03:06:20.014   08 Jun 2027 03:06:24.062             4.048          2024.000
       207   08 Jun 2027 03:06:49.004   08 Jun 2027 03:07:26.902            37.898         18949.000
       208   08 Jun 2027 03:08:07.117   08 Jun 2027 03:08:20.415            13.298          6649.000
       209   08 Jun 2027 03:08:42.161   08 Jun 2027 03:08:42.961             0.800           400.000
       210   08 Jun 2027 03:08:58.832   08 Jun 2027 03:09:04.477             5.645          2822.500
       211   08 Jun 2027 03:09:14.693   08 Jun 2027 03:09:19.737             5.044          2522.000
       212   08 Jun 2027 03:09:50.850   08 Jun 2027 03:10:00.793             9.943          4971.500
       213   08 Jun 2027 03:11:18.929   08 Jun 2027 03:11:32.901            13.972          6986.000
       214   08 Jun 2027 03:12:06.691   08 Jun 2027 03:12:14.379             7.688          3844.000
       215   08 Jun 2027 04:45:00.595   08 Jun 2027 04:48:19.394           198.799         99315.782
       216   08 Jun 2027 06:07:54.381   08 Jun 2027 06:08:18.800            24.419         11542.250
       217   08 Jun 2027 07:44:31.635   08 Jun 2027 07:44:41.797            10.162          4328.125
       218   08 Jun 2027 07:45:11.121   08 Jun 2027 07:45:12.543             1.422           381.594
       219   08 Jun 2027 07:45:35.926   08 Jun 2027 07:45:36.648             0.722           361.000
       220   08 Jun 2027 07:46:34.393   08 Jun 2027 07:46:39.754             5.361          2063.188
       221   08 Jun 2027 07:47:14.917   08 Jun 2027 07:47:16.892             1.975           243.344
       222   08 Jun 2027 07:47:56.717   08 Jun 2027 07:47:59.707             2.990          1159.219
       223   08 Jun 2027 09:19:37.536   08 Jun 2027 09:19:47.124             9.588          3646.188
       224   08 Jun 2027 09:20:36.219   08 Jun 2027 09:20:37.958             1.739           571.688
       225   08 Jun 2027 09:21:13.984   08 Jun 2027 09:21:16.762             2.778           685.688
       226   08 Jun 2027 09:22:33.666   08 Jun 2027 09:22:40.517             6.851          1119.187
       227   08 Jun 2027 09:23:27.796   08 Jun 2027 09:23:30.927             3.131          1131.469
       228   08 Jun 2027 09:25:03.596   08 Jun 2027 09:25:11.234             7.638          2737.750
       229   08 Jun 2027 09:25:42.038   08 Jun 2027 09:25:47.906             5.868           212.938
       230   08 Jun 2027 09:26:22.932   08 Jun 2027 09:26:26.413             3.481           291.344
       231   08 Jun 2027 10:55:58.346   08 Jun 2027 10:56:09.994            11.648          4681.750
       232   08 Jun 2027 10:57:52.786   08 Jun 2027 10:57:55.156             2.370           543.156
       233   08 Jun 2027 10:58:49.206   08 Jun 2027 10:58:52.917             3.711          1045.063
       234   08 Jun 2027 11:00:15.136   08 Jun 2027 11:00:20.653             5.517          1788.812
       235   08 Jun 2027 11:00:41.109   08 Jun 2027 11:00:42.195             1.086           492.656
       236   08 Jun 2027 11:01:40.114   08 Jun 2027 11:01:42.993             2.879           637.844
       237   08 Jun 2027 11:02:03.709   08 Jun 2027 11:02:05.068             1.359           647.375
       238   08 Jun 2027 11:02:13.110   08 Jun 2027 11:02:14.724             1.614           239.656
       239   09 Jun 2027 03:18:28.421   09 Jun 2027 03:19:30.228            61.807         30903.500
       240   09 Jun 2027 03:19:36.777   09 Jun 2027 03:21:05.391            88.614         44307.000
       241   09 Jun 2027 03:21:13.281   09 Jun 2027 03:21:15.293             2.012          1006.000
       242   09 Jun 2027 03:21:55.875   09 Jun 2027 03:21:57.941             2.066          1033.000
       243   09 Jun 2027 03:22:11.066   09 Jun 2027 03:22:46.679            35.613         17806.500
       244   09 Jun 2027 03:23:19.304   09 Jun 2027 03:23:26.749             7.445          3722.500
       245   09 Jun 2027 04:56:46.533   09 Jun 2027 04:57:19.558            33.025         16512.500
       246   09 Jun 2027 04:57:35.055   09 Jun 2027 04:58:45.120            70.065         34027.375
       247   09 Jun 2027 04:59:33.614   09 Jun 2027 04:59:38.274             4.660          1100.187
       248   09 Jun 2027 05:00:10.361   09 Jun 2027 05:00:13.951             3.590           941.063
       249   09 Jun 2027 06:20:08.436   09 Jun 2027 06:20:21.727            13.291          4782.719
       250   09 Jun 2027 06:21:22.923   09 Jun 2027 06:21:29.788             6.865          1912.375
       251   09 Jun 2027 06:21:45.484   09 Jun 2027 06:21:47.972             2.488           337.125
       252   09 Jun 2027 06:22:52.147   09 Jun 2027 06:22:52.380             0.233           116.500
       253   09 Jun 2027 06:23:04.894   09 Jun 2027 06:23:05.696             0.802           401.000
       254   09 Jun 2027 07:56:41.587   09 Jun 2027 07:56:48.613             7.026          3151.563
       255   09 Jun 2027 07:57:38.223   09 Jun 2027 07:57:44.831             6.608          1454.844
       256   09 Jun 2027 07:58:00.479   09 Jun 2027 07:58:04.513             4.034           173.531
       257   09 Jun 2027 07:58:21.654   09 Jun 2027 07:58:25.925             4.271           412.344
       258   09 Jun 2027 08:00:01.316   09 Jun 2027 08:00:06.940             5.624          2279.906
       259   09 Jun 2027 09:31:51.848   09 Jun 2027 09:32:01.400             9.552          2841.375
       260   09 Jun 2027 09:33:15.400   09 Jun 2027 09:33:19.614             4.214          2107.000
       261   09 Jun 2027 09:34:09.207   09 Jun 2027 09:34:13.231             4.024          1571.000
       262   09 Jun 2027 09:35:04.043   09 Jun 2027 09:35:07.525             3.482           485.812
       263   09 Jun 2027 09:37:03.815   09 Jun 2027 09:37:20.400            16.585          2738.281
       264   09 Jun 2027 09:38:06.262   09 Jun 2027 09:38:08.223             1.961           219.406
       265   09 Jun 2027 09:38:16.246   09 Jun 2027 09:38:18.453             2.207           209.156
       266   09 Jun 2027 09:38:26.761   09 Jun 2027 09:38:27.870             1.109           259.625
       267   09 Jun 2027 11:08:13.285   09 Jun 2027 11:08:23.262             9.977          4772.656
       268   09 Jun 2027 11:09:17.886   09 Jun 2027 11:09:35.485            17.599          1040.563
       269   09 Jun 2027 11:10:07.124   09 Jun 2027 11:10:09.339             2.215           452.937
       270   09 Jun 2027 11:10:41.705   09 Jun 2027 11:10:43.809             2.104           837.344
       271   09 Jun 2027 11:11:12.918   09 Jun 2027 11:11:16.190             3.272           909.656
       272   09 Jun 2027 11:11:41.030   09 Jun 2027 11:11:42.552             1.522           744.875
       273   09 Jun 2027 11:11:59.538   09 Jun 2027 11:12:03.368             3.830           124.500
       274   09 Jun 2027 11:12:24.150   09 Jun 2027 11:12:28.163             4.013           649.437
       275   09 Jun 2027 11:13:16.130   09 Jun 2027 11:13:19.244             3.114           926.281
       276   09 Jun 2027 11:13:40.123   09 Jun 2027 11:13:42.026             1.903           639.062
       277   09 Jun 2027 11:13:51.284   09 Jun 2027 11:13:53.310             2.026           289.313
       278   09 Jun 2027 11:14:02.404   09 Jun 2027 11:14:04.973             2.569           211.594
       279   09 Jun 2027 11:14:20.901   09 Jun 2027 11:14:22.986             2.085           497.750
       280   10 Jun 2027 03:31:34.943   10 Jun 2027 03:34:45.881           190.938         95469.000
       281   10 Jun 2027 03:36:39.534   10 Jun 2027 03:36:40.450             0.916           458.000
       282   10 Jun 2027 03:38:04.661   10 Jun 2027 03:38:48.027            43.366         21683.000
       283   10 Jun 2027 03:39:22.103   10 Jun 2027 03:39:31.814             9.711          4855.500
       284   10 Jun 2027 05:08:43.120   10 Jun 2027 05:09:22.879            39.759         19879.500
       285   10 Jun 2027 05:09:42.532   10 Jun 2027 05:10:18.352            35.820         17530.156
       286   10 Jun 2027 05:11:05.749   10 Jun 2027 05:11:14.372             8.623           617.281
       287   10 Jun 2027 05:11:47.446   10 Jun 2027 05:11:48.697             1.251           147.344
       288   10 Jun 2027 06:32:10.122   10 Jun 2027 06:32:18.070             7.948          3889.219
       289   10 Jun 2027 06:33:23.365   10 Jun 2027 06:33:28.674             5.309          1905.062
       290   10 Jun 2027 06:34:52.340   10 Jun 2027 06:34:57.661             5.321          2464.156
       291   10 Jun 2027 08:08:32.889   10 Jun 2027 08:08:40.950             8.061          2226.500
       292   10 Jun 2027 08:09:17.389   10 Jun 2027 08:09:19.086             1.697           591.750
       293   10 Jun 2027 08:10:28.220   10 Jun 2027 08:10:32.633             4.413          1519.312
       294   10 Jun 2027 08:10:49.151   10 Jun 2027 08:10:49.854             0.703           193.938
       295   10 Jun 2027 08:11:16.808   10 Jun 2027 08:11:16.808             0.000             0.000
       296   10 Jun 2027 08:11:51.421   10 Jun 2027 08:11:55.924             4.503          1456.406
       297   10 Jun 2027 09:43:26.317   10 Jun 2027 09:43:32.428             6.111          2956.781
       298   10 Jun 2027 09:45:16.403   10 Jun 2027 09:45:22.156             5.753          2613.562
       299   10 Jun 2027 09:46:11.284   10 Jun 2027 09:46:14.852             3.568           837.031
       300   10 Jun 2027 09:46:25.047   10 Jun 2027 09:46:27.172             2.125            47.156
       301   10 Jun 2027 09:47:38.895   10 Jun 2027 09:47:43.739             4.844          1712.062
       302   10 Jun 2027 09:48:05.177   10 Jun 2027 09:48:05.563             0.386           153.594
       303   10 Jun 2027 09:48:35.034   10 Jun 2027 09:48:36.732             1.698           798.937
       304   10 Jun 2027 09:48:58.392   10 Jun 2027 09:48:58.794             0.402            26.375
       305   10 Jun 2027 09:50:07.233   10 Jun 2027 09:50:12.184             4.951          1994.313
       306   10 Jun 2027 09:50:32.492   10 Jun 2027 09:50:35.666             3.174           585.281
       307   10 Jun 2027 11:19:50.013   10 Jun 2027 11:20:02.520            12.507          5917.156
       308   10 Jun 2027 11:21:25.221   10 Jun 2027 11:21:35.923            10.702           181.250
       309   10 Jun 2027 11:21:51.721   10 Jun 2027 11:21:52.840             1.119           253.531
       310   10 Jun 2027 11:22:41.780   10 Jun 2027 11:22:45.364             3.584          1529.375
       311   10 Jun 2027 11:23:57.685   10 Jun 2027 11:24:03.019             5.334          2260.031
       312   10 Jun 2027 11:24:51.075   10 Jun 2027 11:24:54.814             3.739          1501.750
       313   10 Jun 2027 11:25:07.033   10 Jun 2027 11:25:09.429             2.396           261.250
       314   10 Jun 2027 11:25:22.948   10 Jun 2027 11:25:24.378             1.430           283.375
       315   11 Jun 2027 03:43:38.929   11 Jun 2027 03:47:13.587           214.658        107329.000
       316   11 Jun 2027 03:50:16.532   11 Jun 2027 03:50:32.143            15.611          7805.500
       317   11 Jun 2027 03:50:41.080   11 Jun 2027 03:51:17.034            35.954         17977.000
       318   11 Jun 2027 05:10:21.123   11 Jun 2027 05:10:21.674             0.551           275.500
       319   11 Jun 2027 05:20:39.283   11 Jun 2027 05:22:02.917            83.634         40467.124
       320   11 Jun 2027 05:23:19.169   11 Jun 2027 05:23:20.231             1.062           416.531
       321   11 Jun 2027 06:43:15.684   11 Jun 2027 06:43:29.884            14.200          5551.594
       322   11 Jun 2027 06:43:53.106   11 Jun 2027 06:43:53.557             0.451           122.656
       323   11 Jun 2027 06:44:35.878   11 Jun 2027 06:44:44.224             8.346          1049.813
       324   11 Jun 2027 06:44:53.915   11 Jun 2027 06:44:53.915             0.000             0.000
       325   11 Jun 2027 06:45:08.602   11 Jun 2027 06:45:11.006             2.404           526.875
       326   11 Jun 2027 06:45:34.708   11 Jun 2027 06:45:36.721             2.013           695.281
       327   11 Jun 2027 06:46:40.885   11 Jun 2027 06:46:44.578             3.693          1737.344
       328   11 Jun 2027 06:47:11.731   11 Jun 2027 06:47:13.690             1.959           616.938
       329   11 Jun 2027 08:18:50.440   11 Jun 2027 08:18:54.629             4.189          1345.156
       330   11 Jun 2027 08:19:20.143   11 Jun 2027 08:19:22.094             1.951           797.313
       331   11 Jun 2027 08:20:16.861   11 Jun 2027 08:20:23.462             6.601           519.938
       332   11 Jun 2027 08:21:20.326   11 Jun 2027 08:21:24.569             4.243           722.187
       333   11 Jun 2027 08:22:59.456   11 Jun 2027 08:23:07.954             8.498          2459.969
       334   11 Jun 2027 08:23:11.434   11 Jun 2027 08:23:12.017             0.583           108.750
       335   11 Jun 2027 08:23:23.895   11 Jun 2027 08:23:26.249             2.354           308.063
       336   11 Jun 2027 08:24:02.765   11 Jun 2027 08:24:05.183             2.418           839.000
       337   11 Jun 2027 09:55:03.367   11 Jun 2027 09:55:10.850             7.483          3074.219
       338   11 Jun 2027 09:57:16.920   11 Jun 2027 09:57:25.133             8.213          3273.906
       339   11 Jun 2027 09:58:38.097   11 Jun 2027 09:58:41.020             2.923           650.313
       340   11 Jun 2027 09:59:15.563   11 Jun 2027 09:59:23.580             8.017          1079.469
       341   11 Jun 2027 10:01:02.290   11 Jun 2027 10:01:08.801             6.511          2441.156
       342   11 Jun 2027 10:01:49.312   11 Jun 2027 10:01:55.014             5.702          1255.688
       343   11 Jun 2027 10:02:13.117   11 Jun 2027 10:02:16.623             3.506           524.313
       344   11 Jun 2027 11:32:09.681   11 Jun 2027 11:32:20.553            10.872          4957.750
       345   11 Jun 2027 11:34:14.317   11 Jun 2027 11:34:18.384             4.067           423.156
       346   11 Jun 2027 11:34:49.883   11 Jun 2027 11:34:53.067             3.184           930.250
       347   11 Jun 2027 11:35:14.322   11 Jun 2027 11:35:21.058             6.736           664.219
       348   11 Jun 2027 11:36:04.200   11 Jun 2027 11:36:05.846             1.646           594.813
       349   11 Jun 2027 11:36:17.751   11 Jun 2027 11:36:20.028             2.277           372.031
       350   11 Jun 2027 11:36:27.862   11 Jun 2027 11:36:29.132             1.270           202.781
       351   11 Jun 2027 11:37:41.631   11 Jun 2027 11:37:46.146             4.515          2243.719
       352   11 Jun 2027 11:37:52.814   11 Jun 2027 11:37:55.637             2.823           208.375
       353   11 Jun 2027 11:38:09.555   11 Jun 2027 11:38:14.096             4.541           155.094
       354   11 Jun 2027 11:38:30.438   11 Jun 2027 11:38:31.665             1.227            27.281
       355   12 Jun 2027 03:56:08.111   12 Jun 2027 03:59:01.599           173.488         86744.000
       356   12 Jun 2027 03:59:16.663   12 Jun 2027 03:59:32.037            15.374          7687.000
       357   12 Jun 2027 04:01:56.243   12 Jun 2027 04:02:22.733            26.490         13245.000
       358   12 Jun 2027 04:02:47.069   12 Jun 2027 04:03:16.534            29.465         14732.500
       359   12 Jun 2027 05:20:59.072   12 Jun 2027 05:21:12.839            13.767          6883.500
       360   12 Jun 2027 05:22:30.227   12 Jun 2027 05:22:33.067             2.840          1420.000
       361   12 Jun 2027 05:32:42.506   12 Jun 2027 05:33:42.035            59.529         29764.500
       362   12 Jun 2027 06:54:58.068   12 Jun 2027 06:55:25.815            27.747         13873.500
       363   12 Jun 2027 06:56:55.078   12 Jun 2027 06:57:01.815             6.737          1933.469
       364   12 Jun 2027 06:57:15.791   12 Jun 2027 06:57:20.993             5.202           162.844
       365   12 Jun 2027 06:58:19.110   12 Jun 2027 06:58:22.642             3.532          1755.250
       366   12 Jun 2027 08:29:57.051   12 Jun 2027 08:30:07.452            10.401          3241.125
       367   12 Jun 2027 08:30:42.964   12 Jun 2027 08:30:45.575             2.611           580.844
       368   12 Jun 2027 08:32:17.498   12 Jun 2027 08:32:22.012             4.514          1298.500
       369   12 Jun 2027 08:33:23.094   12 Jun 2027 08:33:26.154             3.060           873.750
       370   12 Jun 2027 08:33:36.510   12 Jun 2027 08:33:37.368             0.858            84.781
       371   12 Jun 2027 08:34:42.140   12 Jun 2027 08:34:47.981             5.841          1893.031
       372   12 Jun 2027 08:35:34.608   12 Jun 2027 08:35:37.090             2.482           768.937
       373   12 Jun 2027 08:36:15.708   12 Jun 2027 08:36:23.985             8.277          1206.812
       374   12 Jun 2027 08:36:56.220   12 Jun 2027 08:36:58.490             2.270           976.125
       375   12 Jun 2027 08:37:54.739   12 Jun 2027 08:37:58.664             3.925          1101.844
       376   12 Jun 2027 10:07:23.541   12 Jun 2027 10:07:30.730             7.189          2673.000
       377   12 Jun 2027 10:09:27.576   12 Jun 2027 10:09:32.185             4.609           183.375
       378   12 Jun 2027 10:10:29.019   12 Jun 2027 10:10:29.968             0.949            91.875
       379   12 Jun 2027 10:10:55.384   12 Jun 2027 10:10:59.539             4.155           794.250
       380   12 Jun 2027 10:11:52.139   12 Jun 2027 10:11:56.769             4.630          1570.656
       381   12 Jun 2027 10:12:50.056   12 Jun 2027 10:12:56.542             6.486           949.469
       382   12 Jun 2027 10:13:38.053   12 Jun 2027 10:13:41.026             2.973          1179.938
       383   12 Jun 2027 10:14:13.492   12 Jun 2027 10:14:15.467             1.975           475.844
       384   12 Jun 2027 11:44:10.050   12 Jun 2027 11:44:22.948            12.898          5612.313
       385   12 Jun 2027 11:45:42.379   12 Jun 2027 11:45:50.575             8.196          1258.781
       386   12 Jun 2027 11:46:21.797   12 Jun 2027 11:46:23.209             1.412           288.062
       387   12 Jun 2027 11:46:58.813   12 Jun 2027 11:46:59.877             1.064           423.125
       388   12 Jun 2027 11:47:53.712   12 Jun 2027 11:47:54.539             0.827           400.000
       389   12 Jun 2027 11:48:11.658   12 Jun 2027 11:48:15.395             3.737           132.719
       390   12 Jun 2027 11:48:57.909   12 Jun 2027 11:49:01.114             3.205          1316.625
       391   12 Jun 2027 11:49:48.301   12 Jun 2027 11:49:51.118             2.817           719.812
       392   12 Jun 2027 11:50:02.349   12 Jun 2027 11:50:04.647             2.298           294.938
       393   12 Jun 2027 11:50:15.540   12 Jun 2027 11:50:21.067             5.527           340.406
       394   13 Jun 2027 04:08:10.218   13 Jun 2027 04:11:31.532           201.314        100657.000
       395   13 Jun 2027 04:15:08.602   13 Jun 2027 04:15:11.534             2.932          1466.000
       396   13 Jun 2027 05:32:31.624   13 Jun 2027 05:32:51.104            19.480          9740.000
       397   13 Jun 2027 05:44:48.209   13 Jun 2027 05:45:15.687            27.478         13739.000
       398   13 Jun 2027 07:06:36.247   13 Jun 2027 07:07:51.365            75.118         37559.000
       399   13 Jun 2027 07:08:40.697   13 Jun 2027 07:08:44.966             4.269          1426.062
       400   13 Jun 2027 07:09:12.280   13 Jun 2027 07:09:14.369             2.089           553.938
       401   13 Jun 2027 07:09:44.762   13 Jun 2027 07:09:46.688             1.926           800.406
       402   13 Jun 2027 07:10:18.652   13 Jun 2027 07:10:24.303             5.651           923.938
       403   13 Jun 2027 07:11:36.279   13 Jun 2027 07:11:45.022             8.743          2249.250
       404   13 Jun 2027 08:41:25.012   13 Jun 2027 08:41:30.291             5.279          2180.531
       405   13 Jun 2027 08:43:17.310   13 Jun 2027 08:43:23.673             6.363          1989.844
       406   13 Jun 2027 08:44:17.929   13 Jun 2027 08:44:22.337             4.408          1516.219
       407   13 Jun 2027 08:45:11.409   13 Jun 2027 08:45:15.380             3.971           605.656
       408   13 Jun 2027 08:45:57.847   13 Jun 2027 08:46:00.953             3.106          1005.781
       409   13 Jun 2027 08:48:06.808   13 Jun 2027 08:48:10.575             3.767          1708.000
       410   13 Jun 2027 08:48:14.275   13 Jun 2027 08:48:16.321             2.046           115.625
       411   13 Jun 2027 08:48:36.385   13 Jun 2027 08:48:36.385             0.000             0.000
       412   13 Jun 2027 08:49:17.681   13 Jun 2027 08:49:22.748             5.067          1787.312
       413   13 Jun 2027 08:50:20.725   13 Jun 2027 08:50:25.044             4.319          1662.156
       414   13 Jun 2027 10:19:17.889   13 Jun 2027 10:19:31.505            13.616          4838.000
       415   13 Jun 2027 10:20:54.711   13 Jun 2027 10:20:55.394             0.683            70.687
       416   13 Jun 2027 10:23:29.321   13 Jun 2027 10:23:33.274             3.953          1065.594
       417   13 Jun 2027 10:24:37.715   13 Jun 2027 10:24:42.582             4.867          2010.125
       418   13 Jun 2027 10:25:51.594   13 Jun 2027 10:25:58.486             6.892          1716.562
       419   13 Jun 2027 10:26:15.252   13 Jun 2027 10:26:16.367             1.115           472.219
       420   13 Jun 2027 10:26:27.100   13 Jun 2027 10:26:28.023             0.923           335.406
       421   13 Jun 2027 11:56:01.941   13 Jun 2027 11:56:12.616            10.675          5337.500
       422   13 Jun 2027 11:56:34.566   13 Jun 2027 11:56:38.697             4.131          1912.250
       423   13 Jun 2027 11:57:06.321   13 Jun 2027 11:57:14.455             8.134           830.281
       424   13 Jun 2027 11:58:26.041   13 Jun 2027 11:58:26.474             0.433            99.625
       425   13 Jun 2027 11:58:55.882   13 Jun 2027 11:58:58.858             2.976            34.156
       426   13 Jun 2027 11:59:44.629   13 Jun 2027 11:59:49.077             4.448          1135.281
