uniorb/output/strategy_4/Camera/Camera_KinoSat_110601.txt

KinoSat_110601
-------------------------
    Access    *     Start Time (UTCG)     *     Stop Time (UTCG)  *   Duration (s) *   Data (Mbytes)
         1   01 Jun 2027 04:19:46.789   01 Jun 2027 04:21:35.416           108.627         54313.500
         2   01 Jun 2027 04:22:37.746   01 Jun 2027 04:22:43.954             6.208          3104.000
         3   01 Jun 2027 04:24:22.622   01 Jun 2027 04:24:23.920             1.298           649.000
         4   01 Jun 2027 04:25:34.934   01 Jun 2027 04:25:38.608             3.674          1837.000
         5   01 Jun 2027 04:27:43.114   01 Jun 2027 04:27:48.975             5.861          2930.500
         6   01 Jun 2027 05:57:12.496   01 Jun 2027 05:59:35.708           143.212         71606.000
         7   01 Jun 2027 06:02:06.920   01 Jun 2027 06:02:23.899            16.979          8489.500
         8   01 Jun 2027 06:02:41.693   01 Jun 2027 06:02:41.693             0.000             0.000
         9   01 Jun 2027 06:03:24.584   01 Jun 2027 06:03:26.780             2.196          1098.000
        10   01 Jun 2027 06:04:30.977   01 Jun 2027 06:04:31.462             0.485           242.500
        11   01 Jun 2027 07:33:59.559   01 Jun 2027 07:36:09.878           130.319         65159.500
        12   01 Jun 2027 07:37:28.334   01 Jun 2027 07:38:06.758            38.424         19212.000
        13   01 Jun 2027 07:39:06.421   01 Jun 2027 07:39:19.110            12.689          6344.500
        14   01 Jun 2027 07:39:26.061   01 Jun 2027 07:39:27.876             1.815           907.500
        15   01 Jun 2027 09:11:57.449   01 Jun 2027 09:14:58.984           181.535         90767.500
        16   01 Jun 2027 09:15:14.314   01 Jun 2027 09:15:31.097            16.783          8391.500
        17   01 Jun 2027 10:45:34.728   01 Jun 2027 10:47:40.118           125.390         62695.000
        18   01 Jun 2027 10:48:36.882   01 Jun 2027 10:48:36.882             0.000             0.000
        19   01 Jun 2027 10:49:27.451   01 Jun 2027 10:49:33.113             5.662          2831.000
        20   01 Jun 2027 10:50:35.956   01 Jun 2027 10:50:46.370            10.414          5207.000
        21   01 Jun 2027 10:52:15.006   01 Jun 2027 10:52:28.338            13.332          6666.000
        22   02 Jun 2027 03:00:00.000   02 Jun 2027 03:00:04.636             4.636          2318.000
        23   02 Jun 2027 03:00:18.807   02 Jun 2027 03:00:26.923             8.116          4058.000
        24   02 Jun 2027 03:01:45.651   02 Jun 2027 03:02:10.894            25.243         12621.500
        25   02 Jun 2027 04:31:15.545   02 Jun 2027 04:32:42.025            86.480         43240.000
        26   02 Jun 2027 04:33:35.476   02 Jun 2027 04:34:07.808            32.332         16166.000
        27   02 Jun 2027 04:34:08.763   02 Jun 2027 04:34:09.894             1.131           565.500
        28   02 Jun 2027 04:35:15.359   02 Jun 2027 04:35:33.821            18.462          9231.000
        29   02 Jun 2027 04:36:23.414   02 Jun 2027 04:36:24.088             0.674           337.000
        30   02 Jun 2027 04:36:58.112   02 Jun 2027 04:37:06.469             8.357          4178.500
        31   02 Jun 2027 04:39:36.242   02 Jun 2027 04:39:50.097            13.855          6927.500
        32   02 Jun 2027 04:40:07.761   02 Jun 2027 04:40:21.884            14.123          7061.500
        33   02 Jun 2027 06:09:06.448   02 Jun 2027 06:12:08.412           181.964         90982.000
        34   02 Jun 2027 06:12:55.437   02 Jun 2027 06:13:22.737            27.300         13650.000
        35   02 Jun 2027 06:16:21.294   02 Jun 2027 06:16:31.290             9.996          4998.000
        36   02 Jun 2027 07:45:51.093   02 Jun 2027 07:49:01.315           190.222         95111.000
        37   02 Jun 2027 07:50:17.779   02 Jun 2027 07:50:45.021            27.242         13621.000
        38   02 Jun 2027 07:51:37.821   02 Jun 2027 07:51:42.939             5.118          2559.000
        39   02 Jun 2027 07:51:50.165   02 Jun 2027 07:52:34.820            44.655         22327.500
        40   02 Jun 2027 09:23:59.979   02 Jun 2027 09:24:35.513            35.534         15649.687
        41   02 Jun 2027 10:57:51.470   02 Jun 2027 10:57:56.072             4.602           700.437
        42   03 Jun 2027 03:10:15.764   03 Jun 2027 03:10:30.264            14.500          7250.000
        43   03 Jun 2027 03:11:24.130   03 Jun 2027 03:11:24.130             0.000             0.000
        44   03 Jun 2027 03:12:43.943   03 Jun 2027 03:12:46.360             2.417          1208.500
        45   03 Jun 2027 03:13:48.418   03 Jun 2027 03:14:00.086            11.668          5834.000
        46   03 Jun 2027 04:44:03.953   03 Jun 2027 04:47:04.163           180.210         90105.000
        47   03 Jun 2027 04:47:14.705   03 Jun 2027 04:47:21.978             7.273          3636.500
        48   03 Jun 2027 04:51:35.789   03 Jun 2027 04:52:16.087            40.298         20149.000
        49   03 Jun 2027 06:21:13.502   03 Jun 2027 06:22:15.241            61.739         30081.594
        50   03 Jun 2027 06:22:31.694   03 Jun 2027 06:22:34.947             3.253           457.906
        51   03 Jun 2027 06:23:40.691   03 Jun 2027 06:23:46.379             5.688           237.500
        52   03 Jun 2027 06:24:19.919   03 Jun 2027 06:24:22.381             2.462           886.281
        53   03 Jun 2027 06:25:39.820   03 Jun 2027 06:25:40.902             1.082           170.375
        54   03 Jun 2027 06:26:09.197   03 Jun 2027 06:26:12.356             3.159           884.219
        55   03 Jun 2027 06:28:28.459   03 Jun 2027 06:28:32.380             3.921           191.281
        56   03 Jun 2027 07:58:16.875   03 Jun 2027 07:58:20.931             4.056          1226.500
        57   03 Jun 2027 08:02:20.459   03 Jun 2027 08:02:22.937             2.478           656.281
        58   03 Jun 2027 08:03:10.783   03 Jun 2027 08:03:12.374             1.591           631.469
        59   03 Jun 2027 09:35:11.000   03 Jun 2027 09:35:18.141             7.141          2652.562
        60   03 Jun 2027 11:10:20.472   03 Jun 2027 11:10:21.446             0.974           158.875
        61   04 Jun 2027 03:22:32.834   04 Jun 2027 03:22:54.978            22.144         11072.000
        62   04 Jun 2027 04:56:24.998   04 Jun 2027 04:57:07.033            42.035         21017.500
        63   04 Jun 2027 05:00:16.158   04 Jun 2027 05:00:50.525            34.367         17183.500
        64   04 Jun 2027 05:00:56.122   04 Jun 2027 05:03:00.528           124.406         62203.000
        65   04 Jun 2027 05:03:39.461   04 Jun 2027 05:04:01.323            21.862         10931.000
        66   04 Jun 2027 05:04:18.724   04 Jun 2027 05:04:19.831             1.107           553.500
        67   04 Jun 2027 05:04:31.963   04 Jun 2027 05:04:34.369             2.406          1203.000
        68   04 Jun 2027 06:33:40.097   04 Jun 2027 06:34:48.579            68.482         33400.594
        69   04 Jun 2027 08:10:41.541   04 Jun 2027 08:10:47.405             5.864          1632.219
        70   04 Jun 2027 08:14:34.959   04 Jun 2027 08:14:42.150             7.191          1855.281
        71   04 Jun 2027 08:15:17.391   04 Jun 2027 08:15:22.413             5.022           227.063
        72   04 Jun 2027 09:47:25.530   04 Jun 2027 09:47:38.050            12.520          4480.031
        73   04 Jun 2027 11:25:34.546   04 Jun 2027 11:25:35.512             0.966           454.813
        74   05 Jun 2027 03:34:36.124   05 Jun 2027 03:34:48.449            12.325          6162.500
        75   05 Jun 2027 03:36:15.490   05 Jun 2027 03:36:15.490             0.000             0.000
        76   05 Jun 2027 03:37:34.548   05 Jun 2027 03:37:39.463             4.915          2457.500
        77   05 Jun 2027 03:37:53.804   05 Jun 2027 03:38:09.754            15.950          7975.000
        78   05 Jun 2027 05:09:42.673   05 Jun 2027 05:10:18.899            36.226         18113.000
        79   05 Jun 2027 05:11:04.965   05 Jun 2027 05:11:33.275            28.310         14155.000
        80   05 Jun 2027 05:11:43.760   05 Jun 2027 05:11:46.108             2.348          1174.000
        81   05 Jun 2027 05:12:47.151   05 Jun 2027 05:13:28.130            40.979         20489.500
        82   05 Jun 2027 05:13:34.967   05 Jun 2027 05:14:38.917            63.950         31975.000
        83   05 Jun 2027 05:15:34.855   05 Jun 2027 05:16:32.378            57.523         28761.500
        84   05 Jun 2027 06:46:03.328   05 Jun 2027 06:46:58.734            55.406         27478.938
        85   05 Jun 2027 08:23:33.366   05 Jun 2027 08:23:36.268             2.902          1101.312
        86   05 Jun 2027 08:24:46.496   05 Jun 2027 08:24:47.855             1.359           425.281
        87   05 Jun 2027 08:24:51.192   05 Jun 2027 08:24:51.844             0.652           104.281
        88   05 Jun 2027 08:25:16.293   05 Jun 2027 08:25:22.309             6.016           378.250
        89   05 Jun 2027 08:25:39.836   05 Jun 2027 08:25:44.015             4.179           486.281
        90   05 Jun 2027 08:25:56.690   05 Jun 2027 08:25:59.745             3.055            54.750
        91   05 Jun 2027 08:26:47.575   05 Jun 2027 08:26:52.168             4.593          1494.687
        92   05 Jun 2027 08:27:39.859   05 Jun 2027 08:27:42.613             2.754           367.188
        93   05 Jun 2027 09:59:37.779   05 Jun 2027 09:59:47.943            10.164          4946.094
        94   05 Jun 2027 10:00:58.277   05 Jun 2027 10:00:58.428             0.151            12.719
        95   05 Jun 2027 10:01:57.062   05 Jun 2027 10:02:00.666             3.604           605.969
        96   06 Jun 2027 03:46:46.736   06 Jun 2027 03:47:09.090            22.354         11177.000
        97   06 Jun 2027 05:21:56.463   06 Jun 2027 05:24:46.903           170.440         85220.000
        98   06 Jun 2027 05:28:05.152   06 Jun 2027 05:28:32.387            27.235         13617.500
        99   06 Jun 2027 06:58:17.894   06 Jun 2027 06:59:55.472            97.578         48250.875
       100   06 Jun 2027 07:01:01.360   06 Jun 2027 07:01:03.477             2.117           468.031
       101   06 Jun 2027 07:02:42.643   06 Jun 2027 07:02:44.278             1.635            84.938
       102   06 Jun 2027 08:35:36.151   06 Jun 2027 08:35:49.398            13.247          3932.312
       103   06 Jun 2027 08:37:28.927   06 Jun 2027 08:37:29.474             0.547           137.906
       104   06 Jun 2027 08:37:54.735   06 Jun 2027 08:37:56.027             1.292           394.031
       105   06 Jun 2027 08:38:20.735   06 Jun 2027 08:38:22.266             1.531           470.344
       106   06 Jun 2027 08:39:09.483   06 Jun 2027 08:39:11.057             1.574           106.844
       107   06 Jun 2027 10:11:48.043   06 Jun 2027 10:12:03.256            15.213          5390.281
       108   06 Jun 2027 10:13:48.362   06 Jun 2027 10:13:49.390             1.028           308.031
       109   07 Jun 2027 03:58:37.073   07 Jun 2027 03:59:01.865            24.792         12396.000
       110   07 Jun 2027 03:59:19.641   07 Jun 2027 03:59:19.641             0.000             0.000
       111   07 Jun 2027 05:33:30.901   07 Jun 2027 05:36:30.248           179.347         89673.500
       112   07 Jun 2027 05:36:49.872   07 Jun 2027 05:37:33.423            43.551         21775.500
       113   07 Jun 2027 05:38:22.457   07 Jun 2027 05:38:49.202            26.745         13372.500
       114   07 Jun 2027 05:40:10.270   07 Jun 2027 05:40:41.360            31.090         15545.000
       115   07 Jun 2027 07:09:54.211   07 Jun 2027 07:10:13.531            19.320          9587.187
       116   07 Jun 2027 07:13:21.435   07 Jun 2027 07:13:24.307             2.872           565.781
       117   07 Jun 2027 07:13:34.791   07 Jun 2027 07:13:36.887             2.096           327.625
       118   07 Jun 2027 07:14:16.981   07 Jun 2027 07:14:19.263             2.282           952.562
       119   07 Jun 2027 07:14:50.589   07 Jun 2027 07:14:57.121             6.532           391.188
       120   07 Jun 2027 07:15:53.301   07 Jun 2027 07:15:58.575             5.274          1406.687
       121   07 Jun 2027 08:48:10.732   07 Jun 2027 08:48:23.292            12.560          4957.875
       122   07 Jun 2027 08:48:37.735   07 Jun 2027 08:48:40.047             2.312            43.313
       123   07 Jun 2027 08:49:17.418   07 Jun 2027 08:49:24.388             6.970           384.688
       124   07 Jun 2027 08:49:29.445   07 Jun 2027 08:49:31.896             2.451           158.031
       125   07 Jun 2027 08:50:07.889   07 Jun 2027 08:50:13.263             5.374           504.281
       126   07 Jun 2027 08:51:02.784   07 Jun 2027 08:51:09.422             6.638           862.812
       127   07 Jun 2027 08:51:23.675   07 Jun 2027 08:51:24.866             1.191           445.406
       128   07 Jun 2027 10:23:33.653   07 Jun 2027 10:23:45.323            11.670          5757.156
       129   08 Jun 2027 04:08:54.609   08 Jun 2027 04:09:34.776            40.167         20083.500
       130   08 Jun 2027 04:10:21.004   08 Jun 2027 04:10:21.488             0.484           242.000
       131   08 Jun 2027 04:10:31.900   08 Jun 2027 04:10:39.812             7.912          3956.000
       132   08 Jun 2027 04:13:39.933   08 Jun 2027 04:13:41.056             1.123           561.500
       133   08 Jun 2027 04:14:01.123   08 Jun 2027 04:14:02.527             1.404           702.000
       134   08 Jun 2027 04:14:44.649   08 Jun 2027 04:14:48.140             3.491          1745.500
       135   08 Jun 2027 05:45:07.369   08 Jun 2027 05:47:35.615           148.246         74123.000
       136   08 Jun 2027 05:48:11.467   08 Jun 2027 05:48:47.340            35.873         17936.500
       137   08 Jun 2027 05:48:56.171   08 Jun 2027 05:49:11.202            15.031          7515.500
       138   08 Jun 2027 05:52:41.893   08 Jun 2027 05:52:42.074             0.181            90.500
       139   08 Jun 2027 07:22:13.744   08 Jun 2027 07:23:40.073            86.329         42505.469
       140   08 Jun 2027 07:24:00.824   08 Jun 2027 07:24:04.683             3.859           436.750
       141   08 Jun 2027 07:25:39.483   08 Jun 2027 07:25:48.206             8.723          2334.688
       142   08 Jun 2027 07:26:00.844   08 Jun 2027 07:26:03.805             2.961           247.531
       143   08 Jun 2027 07:26:51.032   08 Jun 2027 07:26:55.508             4.476           531.344
       144   08 Jun 2027 07:28:13.655   08 Jun 2027 07:28:20.762             7.107          2309.594
       145   08 Jun 2027 07:28:34.182   08 Jun 2027 07:28:35.772             1.590            18.438
       146   08 Jun 2027 09:00:11.658   08 Jun 2027 09:00:21.909            10.251          4585.812
       147   08 Jun 2027 09:01:23.842   08 Jun 2027 09:01:24.470             0.628             3.813
       148   08 Jun 2027 09:02:19.364   08 Jun 2027 09:02:21.619             2.255           867.125
       149   08 Jun 2027 09:03:12.290   08 Jun 2027 09:03:16.956             4.666           886.594
       150   08 Jun 2027 10:33:19.071   08 Jun 2027 10:33:34.502            15.431          5029.781
       151   09 Jun 2027 04:20:01.257   09 Jun 2027 04:21:31.312            90.055         45027.500
       152   09 Jun 2027 04:23:22.990   09 Jun 2027 04:23:28.164             5.174          2587.000
       153   09 Jun 2027 04:24:47.344   09 Jun 2027 04:25:10.194            22.850         11425.000
       154   09 Jun 2027 04:25:43.784   09 Jun 2027 04:25:46.418             2.634          1317.000
       155   09 Jun 2027 04:26:17.160   09 Jun 2027 04:26:17.160             0.000             0.000
       156   09 Jun 2027 04:26:43.075   09 Jun 2027 04:26:49.071             5.996          2998.000
       157   09 Jun 2027 04:27:57.633   09 Jun 2027 04:28:04.447             6.814          3407.000
       158   09 Jun 2027 05:57:27.215   09 Jun 2027 05:59:55.790           148.575         74287.500
       159   09 Jun 2027 06:00:02.520   09 Jun 2027 06:00:07.075             4.555          2277.500
       160   09 Jun 2027 06:00:23.244   09 Jun 2027 06:00:50.585            27.341         13670.500
       161   09 Jun 2027 06:03:40.444   09 Jun 2027 06:03:42.422             1.978           989.000
       162   09 Jun 2027 06:04:04.293   09 Jun 2027 06:04:21.189            16.896          8448.000
       163   09 Jun 2027 06:04:45.670   09 Jun 2027 06:04:46.148             0.478           239.000
       164   09 Jun 2027 07:34:14.065   09 Jun 2027 07:34:31.646            17.581          8491.438
       165   09 Jun 2027 07:37:54.522   09 Jun 2027 07:38:00.392             5.870          1530.187
       166   09 Jun 2027 07:38:50.163   09 Jun 2027 07:38:54.952             4.789          1463.563
       167   09 Jun 2027 07:40:29.511   09 Jun 2027 07:40:33.774             4.263          1597.594
       168   09 Jun 2027 09:12:12.119   09 Jun 2027 09:12:23.469            11.350          5651.938
       169   09 Jun 2027 09:14:29.151   09 Jun 2027 09:14:33.043             3.892            45.188
       170   09 Jun 2027 09:16:03.429   09 Jun 2027 09:16:03.529             0.100             3.062
       171   09 Jun 2027 10:45:49.616   09 Jun 2027 10:45:58.261             8.645          1889.938
       172   10 Jun 2027 03:00:00.000   10 Jun 2027 03:00:00.483             0.483           241.500
       173   10 Jun 2027 03:00:07.901   10 Jun 2027 03:00:09.725             1.824           912.000
       174   10 Jun 2027 03:00:20.388   10 Jun 2027 03:00:34.291            13.903          6951.500
       175   10 Jun 2027 04:31:29.798   10 Jun 2027 04:34:04.054           154.256         77128.000
       176   10 Jun 2027 04:34:45.140   10 Jun 2027 04:34:48.906             3.766          1883.000
       177   10 Jun 2027 04:35:29.911   10 Jun 2027 04:35:49.652            19.741          9870.500
       178   10 Jun 2027 04:36:02.290   10 Jun 2027 04:36:15.831            13.541          6770.500
       179   10 Jun 2027 04:40:22.188   10 Jun 2027 04:40:36.901            14.713          7356.500
       180   10 Jun 2027 06:09:21.223   10 Jun 2027 06:10:55.944            94.721         47289.937
       181   10 Jun 2027 06:11:07.946   10 Jun 2027 06:11:10.139             2.193           212.594
       182   10 Jun 2027 06:11:53.259   10 Jun 2027 06:11:58.041             4.782           564.594
       183   10 Jun 2027 06:12:18.891   10 Jun 2027 06:12:23.209             4.318           651.563
       184   10 Jun 2027 06:13:51.916   10 Jun 2027 06:13:55.863             3.947          1973.500
       185   10 Jun 2027 06:14:04.482   10 Jun 2027 06:14:07.835             3.353           914.437
       186   10 Jun 2027 06:14:53.194   10 Jun 2027 06:14:54.812             1.618           796.250
       187   10 Jun 2027 07:46:05.689   10 Jun 2027 07:46:08.001             2.312           815.781
       188   10 Jun 2027 07:46:36.350   10 Jun 2027 07:46:37.175             0.825             6.688
       189   10 Jun 2027 07:49:40.418   10 Jun 2027 07:49:44.833             4.415          1085.312
       190   10 Jun 2027 07:50:59.667   10 Jun 2027 07:51:04.592             4.925          1932.750
       191   10 Jun 2027 07:52:18.578   10 Jun 2027 07:52:22.643             4.065           823.906
       192   10 Jun 2027 09:24:14.903   10 Jun 2027 09:24:20.816             5.913          2707.469
       193   10 Jun 2027 10:58:06.582   10 Jun 2027 10:58:08.695             2.113           718.094
       194   11 Jun 2027 03:10:30.654   11 Jun 2027 03:10:46.825            16.171          8085.500
       195   11 Jun 2027 04:44:18.646   11 Jun 2027 04:47:32.870           194.224         97112.000
       196   11 Jun 2027 04:51:39.704   11 Jun 2027 04:51:44.159             4.455          2227.500
       197   11 Jun 2027 04:51:50.471   11 Jun 2027 04:52:31.164            40.693         20346.500
       198   11 Jun 2027 06:21:28.198   11 Jun 2027 06:22:18.946            50.748         24335.625
       199   11 Jun 2027 06:22:47.364   11 Jun 2027 06:22:52.020             4.656           450.906
       200   11 Jun 2027 06:23:45.942   11 Jun 2027 06:23:54.739             8.797          1647.594
       201   11 Jun 2027 06:23:56.187   11 Jun 2027 06:23:59.770             3.583            45.250
       202   11 Jun 2027 06:24:35.643   11 Jun 2027 06:24:37.871             2.228           832.813
       203   11 Jun 2027 06:25:58.906   11 Jun 2027 06:26:00.329             1.423           300.594
       204   11 Jun 2027 06:26:33.275   11 Jun 2027 06:26:33.926             0.651           235.937
       205   11 Jun 2027 06:28:44.484   11 Jun 2027 06:28:46.061             1.577           234.688
       206   11 Jun 2027 07:58:32.060   11 Jun 2027 07:58:35.447             3.387          1055.344
       207   11 Jun 2027 08:02:16.806   11 Jun 2027 08:02:17.597             0.791            26.406
       208   11 Jun 2027 08:04:17.384   11 Jun 2027 08:04:22.393             5.009          1775.469
       209   11 Jun 2027 09:35:25.408   11 Jun 2027 09:35:32.327             6.919          2978.781
       210   11 Jun 2027 09:36:59.471   11 Jun 2027 09:37:05.377             5.906          1861.344
       211   11 Jun 2027 11:10:35.935   11 Jun 2027 11:10:37.920             1.985           144.000
       212   12 Jun 2027 03:22:47.461   12 Jun 2027 03:23:09.613            22.152         11076.000
       213   12 Jun 2027 03:25:50.440   12 Jun 2027 03:26:05.459            15.019          7509.500
       214   12 Jun 2027 04:56:40.012   12 Jun 2027 04:57:20.108            40.096         20048.000
       215   12 Jun 2027 05:00:30.365   12 Jun 2027 05:01:05.102            34.737         17368.500
       216   12 Jun 2027 05:01:16.750   12 Jun 2027 05:03:14.872           118.122         59061.000
       217   12 Jun 2027 05:03:54.226   12 Jun 2027 05:04:27.712            33.486         16743.000
       218   12 Jun 2027 05:04:46.540   12 Jun 2027 05:04:49.027             2.487          1243.500
       219   12 Jun 2027 06:33:54.544   12 Jun 2027 06:34:58.820            64.276         28880.188
       220   12 Jun 2027 08:10:56.655   12 Jun 2027 08:11:03.340             6.685          1114.969
       221   12 Jun 2027 08:13:41.436   12 Jun 2027 08:13:45.666             4.230             7.375
       222   12 Jun 2027 08:14:49.990   12 Jun 2027 08:14:57.195             7.205          1855.469
       223   12 Jun 2027 08:15:32.493   12 Jun 2027 08:15:33.500             1.007           211.531
       224   12 Jun 2027 09:47:40.300   12 Jun 2027 09:47:52.904            12.604          4499.531
       225   12 Jun 2027 11:25:49.460   12 Jun 2027 11:25:51.932             2.472           315.313
       226   13 Jun 2027 03:34:50.678   13 Jun 2027 03:35:03.056            12.378          6189.000
       227   13 Jun 2027 03:36:05.738   13 Jun 2027 03:36:13.928             8.190          4095.000
       228   13 Jun 2027 05:09:57.713   13 Jun 2027 05:10:30.155            32.442         16221.000
       229   13 Jun 2027 05:11:19.668   13 Jun 2027 05:11:49.337            29.669         14834.500
       230   13 Jun 2027 05:11:58.024   13 Jun 2027 05:12:00.993             2.969          1484.500
       231   13 Jun 2027 05:13:01.767   13 Jun 2027 05:13:43.330            41.563         20781.500
       232   13 Jun 2027 05:13:57.992   13 Jun 2027 05:15:44.044           106.052         53026.000
       233   13 Jun 2027 05:15:46.536   13 Jun 2027 05:15:49.595             3.059          1529.500
       234   13 Jun 2027 05:16:18.298   13 Jun 2027 05:16:26.603             8.305          4152.500
       235   13 Jun 2027 05:16:41.231   13 Jun 2027 05:16:47.234             6.003          3001.500
       236   13 Jun 2027 06:46:18.200   13 Jun 2027 06:47:16.925            58.725         29244.781
       237   13 Jun 2027 08:23:48.547   13 Jun 2027 08:23:51.989             3.442          1711.500
       238   13 Jun 2027 08:26:10.558   13 Jun 2027 08:26:12.609             2.051           448.031
       239   13 Jun 2027 08:27:02.668   13 Jun 2027 08:27:07.413             4.745          1381.344
       240   13 Jun 2027 08:27:54.298   13 Jun 2027 08:27:57.071             2.773           350.906
       241   13 Jun 2027 09:59:53.415   13 Jun 2027 10:00:05.816            12.401          5012.656
       242   13 Jun 2027 10:01:13.530   13 Jun 2027 10:01:13.849             0.319            31.281
       243   13 Jun 2027 10:02:13.344   13 Jun 2027 10:02:15.352             2.008           656.844
