uniorb/output/strategy_4/Camera/Camera_KinoSat_111701.txt

KinoSat_111701
-------------------------
    Access    *     Start Time (UTCG)     *     Stop Time (UTCG)  *   Duration (s) *   Data (Mbytes)
         1   01 Jun 2027 03:48:59.135   01 Jun 2027 03:49:27.282            28.147         14073.500
         2   01 Jun 2027 03:49:31.256   01 Jun 2027 03:51:22.759           111.503         55751.500
         3   01 Jun 2027 03:52:19.985   01 Jun 2027 03:52:32.163            12.178          6089.000
         4   01 Jun 2027 03:53:42.087   01 Jun 2027 03:53:45.065             2.978          1489.000
         5   01 Jun 2027 05:26:59.781   01 Jun 2027 05:29:05.790           126.009         63004.500
         6   01 Jun 2027 05:30:05.645   01 Jun 2027 05:30:28.346            22.701         11350.500
         7   01 Jun 2027 06:50:40.600   01 Jun 2027 06:51:38.676            58.076         29038.000
         8   01 Jun 2027 06:52:53.941   01 Jun 2027 06:53:14.196            20.255         10127.500
         9   01 Jun 2027 08:27:07.240   01 Jun 2027 08:28:44.441            97.201         48600.500
        10   01 Jun 2027 09:59:17.857   01 Jun 2027 09:59:24.734             6.877          3438.500
        11   01 Jun 2027 10:01:12.665   01 Jun 2027 10:02:54.588           101.923         50961.500
        12   01 Jun 2027 10:05:27.155   01 Jun 2027 10:05:27.155             0.000             0.000
        13   01 Jun 2027 10:07:24.172   01 Jun 2027 10:07:27.439             3.267          1633.500
        14   01 Jun 2027 10:07:32.585   01 Jun 2027 10:08:02.666            30.081         15040.500
        15   01 Jun 2027 10:08:04.742   01 Jun 2027 10:08:19.964            15.222          7611.000
        16   01 Jun 2027 10:08:29.960   01 Jun 2027 10:08:29.960             0.000             0.000
        17   01 Jun 2027 10:09:03.741   01 Jun 2027 10:09:06.457             2.716          1358.000
        18   01 Jun 2027 11:38:10.751   01 Jun 2027 11:40:16.911           126.160         63080.000
        19   01 Jun 2027 11:40:52.355   01 Jun 2027 11:41:52.941            60.586         30293.000
        20   02 Jun 2027 04:01:05.174   02 Jun 2027 04:02:08.636            63.462         31731.000
        21   02 Jun 2027 04:02:15.936   02 Jun 2027 04:03:35.448            79.512         39756.000
        22   02 Jun 2027 04:04:04.562   02 Jun 2027 04:04:33.069            28.507         14253.500
        23   02 Jun 2027 04:05:52.003   02 Jun 2027 04:05:55.020             3.017          1508.500
        24   02 Jun 2027 04:06:22.672   02 Jun 2027 04:06:24.404             1.732           866.000
        25   02 Jun 2027 04:06:43.911   02 Jun 2027 04:06:47.302             3.391          1695.500
        26   02 Jun 2027 05:40:13.520   02 Jun 2027 05:43:46.722           213.202        106601.000
        27   02 Jun 2027 07:02:46.400   02 Jun 2027 07:04:01.816            75.416         37708.000
        28   02 Jun 2027 08:39:15.126   02 Jun 2027 08:41:53.642           158.516         79258.000
        29   02 Jun 2027 10:14:23.281   02 Jun 2027 10:15:34.559            71.278         35556.907
        30   02 Jun 2027 10:16:19.560   02 Jun 2027 10:16:24.083             4.523          1406.281
        31   02 Jun 2027 10:17:57.692   02 Jun 2027 10:17:57.692             0.000             0.000
        32   02 Jun 2027 10:19:24.982   02 Jun 2027 10:19:33.502             8.520          3753.313
        33   02 Jun 2027 10:20:26.920   02 Jun 2027 10:20:30.594             3.674          1669.313
        34   02 Jun 2027 10:20:46.234   02 Jun 2027 10:20:46.237             0.003             1.500
        35   02 Jun 2027 10:20:58.235   02 Jun 2027 10:21:00.359             2.124           658.875
        36   02 Jun 2027 11:50:44.957   02 Jun 2027 11:50:57.619            12.662          5200.656
        37   02 Jun 2027 11:52:52.345   02 Jun 2027 11:52:55.028             2.683          1118.750
        38   02 Jun 2027 11:53:57.980   02 Jun 2027 11:54:00.377             2.397          1062.781
        39   02 Jun 2027 11:54:21.333   02 Jun 2027 11:54:23.811             2.478           170.344
        40   02 Jun 2027 11:54:38.195   02 Jun 2027 11:54:39.102             0.907           223.406
        41   02 Jun 2027 11:55:45.795   02 Jun 2027 11:55:51.106             5.311          1978.188
        42   02 Jun 2027 11:56:00.137   02 Jun 2027 11:56:00.692             0.555           277.500
        43   03 Jun 2027 04:13:09.327   03 Jun 2027 04:13:50.725            41.398         20699.000
        44   03 Jun 2027 04:14:13.271   03 Jun 2027 04:15:24.579            71.308         35654.000
        45   03 Jun 2027 04:15:29.940   03 Jun 2027 04:15:47.301            17.361          8680.500
        46   03 Jun 2027 04:16:28.300   03 Jun 2027 04:16:38.901            10.601          5300.500
        47   03 Jun 2027 04:18:22.910   03 Jun 2027 04:18:23.822             0.912           456.000
        48   03 Jun 2027 04:18:41.591   03 Jun 2027 04:18:45.527             3.936          1968.000
        49   03 Jun 2027 05:51:22.607   03 Jun 2027 05:51:59.004            36.397         18198.500
        50   03 Jun 2027 05:52:16.965   03 Jun 2027 05:54:14.599           117.634         58817.000
        51   03 Jun 2027 05:54:44.489   03 Jun 2027 05:54:53.921             9.432          4716.000
        52   03 Jun 2027 07:14:49.452   03 Jun 2027 07:15:08.772            19.320          8878.938
        53   03 Jun 2027 07:15:32.068   03 Jun 2027 07:15:35.872             3.804           491.750
        54   03 Jun 2027 07:16:12.479   03 Jun 2027 07:16:16.291             3.812           885.938
        55   03 Jun 2027 07:17:23.732   03 Jun 2027 07:17:30.655             6.923          2107.531
        56   03 Jun 2027 08:51:18.166   03 Jun 2027 08:51:28.239            10.073          2487.063
        57   03 Jun 2027 08:52:43.777   03 Jun 2027 08:52:50.860             7.083          2360.562
        58   03 Jun 2027 08:53:09.463   03 Jun 2027 08:53:10.357             0.894           447.000
        59   03 Jun 2027 08:54:42.034   03 Jun 2027 08:54:42.034             0.000             0.000
        60   03 Jun 2027 10:26:30.341   03 Jun 2027 10:26:40.886            10.545          5108.250
        61   03 Jun 2027 10:27:59.689   03 Jun 2027 10:28:08.412             8.723          2462.594
        62   03 Jun 2027 10:28:31.124   03 Jun 2027 10:28:32.296             1.172           298.375
        63   03 Jun 2027 10:30:09.991   03 Jun 2027 10:30:15.930             5.939          2013.969
        64   03 Jun 2027 10:30:46.012   03 Jun 2027 10:30:48.114             2.102           646.688
        65   03 Jun 2027 10:31:02.698   03 Jun 2027 10:31:10.998             8.300           349.625
        66   03 Jun 2027 10:31:40.422   03 Jun 2027 10:31:45.705             5.283           878.781
        67   03 Jun 2027 10:32:42.989   03 Jun 2027 10:32:50.752             7.763          1508.969
        68   04 Jun 2027 04:26:13.993   04 Jun 2027 04:28:34.653           140.660         70330.000
        69   04 Jun 2027 04:32:53.822   04 Jun 2027 04:34:01.233            67.411         33705.500
        70   04 Jun 2027 05:52:26.775   04 Jun 2027 05:52:48.761            21.986         10993.000
        71   04 Jun 2027 06:03:18.324   04 Jun 2027 06:04:55.605            97.281         47514.063
        72   04 Jun 2027 06:06:02.474   04 Jun 2027 06:06:05.522             3.048          1524.000
        73   04 Jun 2027 06:06:21.632   04 Jun 2027 06:06:23.667             2.035           991.969
        74   04 Jun 2027 07:27:16.344   04 Jun 2027 07:27:29.936            13.592          4854.781
        75   04 Jun 2027 07:28:12.436   04 Jun 2027 07:28:18.651             6.215           968.312
        76   04 Jun 2027 07:29:17.984   04 Jun 2027 07:29:22.819             4.835          1307.219
        77   04 Jun 2027 09:03:19.413   04 Jun 2027 09:03:31.629            12.216          4259.906
        78   04 Jun 2027 09:04:23.431   04 Jun 2027 09:04:26.465             3.034          1438.094
        79   04 Jun 2027 09:05:32.394   04 Jun 2027 09:05:36.844             4.450          1789.656
        80   04 Jun 2027 09:07:13.221   04 Jun 2027 09:07:17.367             4.146          2073.000
        81   04 Jun 2027 10:37:44.859   04 Jun 2027 10:37:49.953             5.094          2265.937
        82   04 Jun 2027 10:40:29.568   04 Jun 2027 10:40:38.970             9.402          3922.406
        83   04 Jun 2027 10:41:16.682   04 Jun 2027 10:41:18.398             1.716           858.000
        84   04 Jun 2027 10:43:24.930   04 Jun 2027 10:43:35.521            10.591          4064.969
        85   04 Jun 2027 10:44:08.796   04 Jun 2027 10:44:10.807             2.011           704.531
        86   04 Jun 2027 10:44:27.982   04 Jun 2027 10:44:33.681             5.699           536.719
        87   05 Jun 2027 03:00:41.915   05 Jun 2027 03:00:48.603             6.688          3344.000
        88   05 Jun 2027 03:00:54.009   05 Jun 2027 03:01:12.807            18.798          9399.000
        89   05 Jun 2027 03:01:47.552   05 Jun 2027 03:01:56.221             8.669          4334.500
        90   05 Jun 2027 03:02:42.902   05 Jun 2027 03:03:03.400            20.498         10249.000
        91   05 Jun 2027 03:05:13.237   05 Jun 2027 03:05:35.416            22.179         11089.500
        92   05 Jun 2027 04:38:35.778   05 Jun 2027 04:39:24.658            48.880         24440.000
        93   05 Jun 2027 04:40:34.885   05 Jun 2027 04:41:50.151            75.266         37633.000
        94   05 Jun 2027 04:42:32.310   05 Jun 2027 04:43:28.803            56.493         28246.500
        95   05 Jun 2027 04:44:18.218   05 Jun 2027 04:44:30.975            12.757          6378.500
        96   05 Jun 2027 04:44:43.062   05 Jun 2027 04:45:41.923            58.861         28403.655
        97   05 Jun 2027 06:03:41.341   05 Jun 2027 06:04:09.344            28.003         14001.500
        98   05 Jun 2027 06:15:19.417   05 Jun 2027 06:15:38.153            18.736          9343.812
        99   05 Jun 2027 07:37:52.824   05 Jun 2027 07:38:03.185            10.361          4486.219
       100   05 Jun 2027 07:38:18.282   05 Jun 2027 07:38:19.441             1.159           411.281
       101   05 Jun 2027 07:39:32.526   05 Jun 2027 07:39:36.343             3.817          1425.156
       102   05 Jun 2027 07:40:14.872   05 Jun 2027 07:40:18.401             3.529           814.281
       103   05 Jun 2027 07:41:10.852   05 Jun 2027 07:41:13.458             2.606          1042.313
       104   05 Jun 2027 07:41:46.710   05 Jun 2027 07:41:57.930            11.220           726.063
       105   05 Jun 2027 07:42:30.284   05 Jun 2027 07:42:37.133             6.849           720.719
       106   05 Jun 2027 09:12:56.529   05 Jun 2027 09:13:03.206             6.677          1841.469
       107   05 Jun 2027 09:14:45.931   05 Jun 2027 09:14:47.863             1.932           572.156
       108   05 Jun 2027 09:16:19.729   05 Jun 2027 09:16:23.057             3.328          1369.312
       109   05 Jun 2027 09:17:39.052   05 Jun 2027 09:17:45.300             6.248          2293.844
       110   05 Jun 2027 09:17:59.450   05 Jun 2027 09:18:04.767             5.317           421.563
       111   05 Jun 2027 09:18:46.779   05 Jun 2027 09:18:48.544             1.765           788.562
       112   05 Jun 2027 09:19:35.144   05 Jun 2027 09:19:37.119             1.975           987.500
       113   05 Jun 2027 10:49:59.357   05 Jun 2027 10:49:59.357             0.000             0.000
       114   05 Jun 2027 10:50:11.406   05 Jun 2027 10:50:24.860            13.454          3638.813
       115   05 Jun 2027 10:53:00.660   05 Jun 2027 10:53:03.403             2.743          1371.500
       116   05 Jun 2027 10:54:32.086   05 Jun 2027 10:54:39.370             7.284          3346.625
       117   05 Jun 2027 10:54:44.364   05 Jun 2027 10:54:48.639             4.275           156.062
       118   05 Jun 2027 10:55:40.850   05 Jun 2027 10:55:44.640             3.790          1516.000
       119   05 Jun 2027 10:56:15.539   05 Jun 2027 10:56:23.237             7.698           624.094
       120   05 Jun 2027 10:56:51.912   05 Jun 2027 10:56:54.813             2.901           716.687
       121   06 Jun 2027 03:11:52.685   06 Jun 2027 03:13:16.887            84.202         42101.000
       122   06 Jun 2027 03:13:17.862   06 Jun 2027 03:13:59.312            41.450         20725.000
       123   06 Jun 2027 03:14:26.799   06 Jun 2027 03:14:35.593             8.794          4397.000
       124   06 Jun 2027 03:14:50.827   06 Jun 2027 03:15:09.074            18.247          9123.500
       125   06 Jun 2027 03:16:20.728   06 Jun 2027 03:16:43.285            22.557         11278.500
       126   06 Jun 2027 04:50:53.096   06 Jun 2027 04:52:58.935           125.839         62718.313
       127   06 Jun 2027 04:54:37.135   06 Jun 2027 04:54:45.612             8.477          2818.094
       128   06 Jun 2027 04:55:47.907   06 Jun 2027 04:55:53.266             5.359           438.219
       129   06 Jun 2027 04:56:00.877   06 Jun 2027 04:56:01.492             0.615           222.406
       130   06 Jun 2027 04:57:03.341   06 Jun 2027 04:57:09.129             5.788           773.469
       131   06 Jun 2027 04:57:22.322   06 Jun 2027 04:57:23.093             0.771           355.969
       132   06 Jun 2027 06:15:02.091   06 Jun 2027 06:15:13.383            11.292          5159.312
       133   06 Jun 2027 06:15:38.003   06 Jun 2027 06:15:46.408             8.405           738.906
       134   06 Jun 2027 06:17:03.212   06 Jun 2027 06:17:09.117             5.905          2391.344
       135   06 Jun 2027 06:27:16.745   06 Jun 2027 06:27:22.326             5.581          2648.344
       136   06 Jun 2027 07:49:22.916   06 Jun 2027 07:49:37.375            14.459          5846.625
       137   06 Jun 2027 07:50:31.417   06 Jun 2027 07:50:34.707             3.290          1137.625
       138   06 Jun 2027 07:52:02.263   06 Jun 2027 07:52:06.457             4.194          1339.781
       139   06 Jun 2027 07:52:28.589   06 Jun 2027 07:52:34.224             5.635           272.969
       140   06 Jun 2027 07:53:00.923   06 Jun 2027 07:53:02.649             1.726           628.344
       141   06 Jun 2027 07:53:48.631   06 Jun 2027 07:53:51.092             2.461           820.000
       142   06 Jun 2027 09:24:21.262   06 Jun 2027 09:24:30.884             9.622          3651.031
       143   06 Jun 2027 09:30:08.379   06 Jun 2027 09:30:19.497            11.118          4179.437
       144   06 Jun 2027 11:01:57.651   06 Jun 2027 11:02:12.575            14.924          5152.625
       145   06 Jun 2027 11:02:53.279   06 Jun 2027 11:02:53.996             0.717           287.031
       146   06 Jun 2027 11:04:03.143   06 Jun 2027 11:04:09.907             6.764           940.281
       147   06 Jun 2027 11:04:56.581   06 Jun 2027 11:05:01.194             4.613           119.250
       148   06 Jun 2027 11:05:24.524   06 Jun 2027 11:05:24.524             0.000             0.000
       149   06 Jun 2027 11:05:44.588   06 Jun 2027 11:05:48.555             3.967          1356.062
       150   06 Jun 2027 11:06:50.153   06 Jun 2027 11:06:53.985             3.832          1091.750
       151   06 Jun 2027 11:08:14.856   06 Jun 2027 11:08:20.241             5.385          2366.437
       152   06 Jun 2027 11:09:07.371   06 Jun 2027 11:09:11.981             4.610          1397.656
       153   07 Jun 2027 03:24:18.730   07 Jun 2027 03:24:24.915             6.185          3092.500
       154   07 Jun 2027 03:24:39.367   07 Jun 2027 03:25:22.029            42.662         21331.000
       155   07 Jun 2027 03:25:31.982   07 Jun 2027 03:28:03.716           151.734         75867.000
       156   07 Jun 2027 03:28:29.821   07 Jun 2027 03:28:42.189            12.368          6184.000
       157   07 Jun 2027 03:28:46.673   07 Jun 2027 03:28:54.401             7.728          3864.000
       158   07 Jun 2027 05:02:59.845   07 Jun 2027 05:04:29.288            89.443         44443.751
       159   07 Jun 2027 05:05:14.986   07 Jun 2027 05:05:17.494             2.508          1018.281
       160   07 Jun 2027 05:06:02.733   07 Jun 2027 05:06:03.546             0.813            16.219
       161   07 Jun 2027 05:06:53.421   07 Jun 2027 05:06:57.880             4.459          1468.031
       162   07 Jun 2027 05:07:35.974   07 Jun 2027 05:07:39.496             3.522           666.406
       163   07 Jun 2027 06:27:08.770   07 Jun 2027 06:27:21.613            12.843          6104.437
       164   07 Jun 2027 06:27:56.321   07 Jun 2027 06:28:02.989             6.668           695.813
       165   07 Jun 2027 06:29:03.261   07 Jun 2027 06:29:03.432             0.171            85.500
       166   07 Jun 2027 08:00:58.599   07 Jun 2027 08:01:07.792             9.193          4330.281
       167   07 Jun 2027 08:02:48.643   07 Jun 2027 08:02:52.244             3.601          1577.469
       168   07 Jun 2027 08:03:37.010   07 Jun 2027 08:03:41.800             4.790          1357.969
       169   07 Jun 2027 08:04:27.499   07 Jun 2027 08:04:30.239             2.740          1095.281
       170   07 Jun 2027 08:05:14.109   07 Jun 2027 08:05:16.865             2.756           872.719
       171   07 Jun 2027 08:05:52.372   07 Jun 2027 08:05:52.372             0.000             0.000
       172   07 Jun 2027 08:06:23.769   07 Jun 2027 08:06:30.153             6.384          1977.313
       173   07 Jun 2027 09:35:51.589   07 Jun 2027 09:35:54.686             3.097          1548.500
       174   07 Jun 2027 09:36:45.399   07 Jun 2027 09:36:51.524             6.125          3041.781
       175   07 Jun 2027 09:38:09.414   07 Jun 2027 09:38:10.172             0.758           340.375
       176   07 Jun 2027 09:38:57.002   07 Jun 2027 09:39:01.629             4.627          1111.437
       177   07 Jun 2027 09:39:34.833   07 Jun 2027 09:39:35.937             1.104           152.813
       178   07 Jun 2027 09:41:46.513   07 Jun 2027 09:42:02.705            16.192          2718.344
       179   07 Jun 2027 09:43:49.266   07 Jun 2027 09:43:59.077             9.811          2369.281
       180   07 Jun 2027 09:44:28.178   07 Jun 2027 09:44:31.362             3.184           713.406
       181   07 Jun 2027 11:13:55.907   07 Jun 2027 11:14:21.479            25.572          5150.219
       182   07 Jun 2027 11:16:49.034   07 Jun 2027 11:17:06.337            17.303          4611.094
       183   07 Jun 2027 11:17:49.661   07 Jun 2027 11:17:53.370             3.709           581.156
       184   07 Jun 2027 11:18:25.914   07 Jun 2027 11:18:28.575             2.661           937.937
       185   07 Jun 2027 11:19:18.900   07 Jun 2027 11:19:22.511             3.611          1463.469
       186   07 Jun 2027 11:20:16.821   07 Jun 2027 11:20:21.564             4.743          1488.125
       187   07 Jun 2027 11:20:47.891   07 Jun 2027 11:20:50.278             2.387           726.375
       188   08 Jun 2027 03:36:49.773   08 Jun 2027 03:36:56.430             6.657          3328.500
       189   08 Jun 2027 03:37:11.207   08 Jun 2027 03:38:11.954            60.747         30373.500
       190   08 Jun 2027 03:38:16.845   08 Jun 2027 03:40:37.309           140.464         70232.000
       191   08 Jun 2027 05:15:36.424   08 Jun 2027 05:16:24.252            47.828         23914.000
       192   08 Jun 2027 05:16:49.000   08 Jun 2027 05:17:43.657            54.657         27287.782
       193   08 Jun 2027 05:18:22.860   08 Jun 2027 05:18:28.756             5.896           347.125
       194   08 Jun 2027 05:19:31.811   08 Jun 2027 05:19:35.156             3.345          1672.500
       195   08 Jun 2027 05:19:57.956   08 Jun 2027 05:19:59.811             1.855           714.438
       196   08 Jun 2027 06:39:06.402   08 Jun 2027 06:39:22.226            15.824          6738.125
       197   08 Jun 2027 06:40:16.472   08 Jun 2027 06:40:19.627             3.155          1496.625
       198   08 Jun 2027 06:41:16.415   08 Jun 2027 06:41:19.990             3.575          1774.625
       199   08 Jun 2027 08:15:07.132   08 Jun 2027 08:15:19.497            12.365          5605.844
       200   08 Jun 2027 08:15:40.810   08 Jun 2027 08:15:43.486             2.676           569.594
       201   08 Jun 2027 08:15:53.760   08 Jun 2027 08:15:54.432             0.672           123.156
       202   08 Jun 2027 08:16:53.665   08 Jun 2027 08:16:57.681             4.016          1851.031
       203   08 Jun 2027 08:17:46.379   08 Jun 2027 08:17:48.248             1.869           902.719
       204   08 Jun 2027 08:18:24.101   08 Jun 2027 08:18:31.512             7.411           911.688
       205   08 Jun 2027 09:48:50.978   08 Jun 2027 09:48:55.962             4.984          2247.031
       206   08 Jun 2027 09:50:39.307   08 Jun 2027 09:50:43.305             3.998          1248.531
       207   08 Jun 2027 09:51:12.485   08 Jun 2027 09:51:14.827             2.342           911.875
       208   08 Jun 2027 09:51:24.988   08 Jun 2027 09:51:28.796             3.808           243.500
       209   08 Jun 2027 09:53:45.861   08 Jun 2027 09:53:53.428             7.567          2583.750
       210   08 Jun 2027 09:54:31.924   08 Jun 2027 09:54:34.167             2.243          1100.688
       211   08 Jun 2027 09:55:40.958   08 Jun 2027 09:55:40.958             0.000             0.000
       212   08 Jun 2027 09:55:47.097   08 Jun 2027 09:55:51.310             4.213          1907.844
       213   08 Jun 2027 09:57:24.608   08 Jun 2027 09:57:25.587             0.979           489.500
       214   08 Jun 2027 11:26:18.387   08 Jun 2027 11:26:32.692            14.305          5799.594
       215   08 Jun 2027 11:28:23.201   08 Jun 2027 11:28:27.208             4.007          1449.125
       216   08 Jun 2027 11:30:18.265   08 Jun 2027 11:30:26.676             8.411          3318.500
       217   08 Jun 2027 11:30:47.660   08 Jun 2027 11:30:48.805             1.145           363.625
       218   08 Jun 2027 11:31:14.979   08 Jun 2027 11:31:17.657             2.678           230.187
       219   08 Jun 2027 11:31:36.476   08 Jun 2027 11:31:43.306             6.830           359.437
       220   08 Jun 2027 11:32:36.341   08 Jun 2027 11:32:40.053             3.712          1300.656
       221   08 Jun 2027 11:32:51.311   08 Jun 2027 11:32:52.181             0.870           184.219
       222   08 Jun 2027 11:32:59.442   08 Jun 2027 11:33:00.553             1.111           226.906
       223   09 Jun 2027 03:49:16.049   09 Jun 2027 03:49:22.685             6.636          3318.000
       224   09 Jun 2027 03:51:21.091   09 Jun 2027 03:54:01.397           160.306         80153.000
       225   09 Jun 2027 03:54:38.506   09 Jun 2027 03:54:45.005             6.499          3249.500
       226   09 Jun 2027 03:54:58.152   09 Jun 2027 03:55:15.121            16.969          8484.500
       227   09 Jun 2027 05:27:17.030   09 Jun 2027 05:29:07.254           110.224         55033.063
       228   09 Jun 2027 05:29:48.354   09 Jun 2027 05:29:50.816             2.462           736.813
       229   09 Jun 2027 05:30:29.029   09 Jun 2027 05:30:31.276             2.247          1002.250
       230   09 Jun 2027 06:50:56.638   09 Jun 2027 06:51:08.727            12.089          5740.000
       231   09 Jun 2027 06:51:35.055   09 Jun 2027 06:51:38.143             3.088           552.594
       232   09 Jun 2027 06:52:22.192   09 Jun 2027 06:52:28.632             6.440           825.938
       233   09 Jun 2027 06:53:09.242   09 Jun 2027 06:53:09.242             0.000             0.000
       234   09 Jun 2027 06:53:32.009   09 Jun 2027 06:53:35.287             3.278          1437.250
       235   09 Jun 2027 08:27:23.589   09 Jun 2027 08:27:36.759            13.170          6422.844
       236   09 Jun 2027 08:28:14.528   09 Jun 2027 08:28:18.629             4.101           906.187
       237   09 Jun 2027 08:29:03.360   09 Jun 2027 08:29:05.114             1.754           877.000
       238   09 Jun 2027 08:29:13.571   09 Jun 2027 08:29:14.803             1.232           268.281
       239   09 Jun 2027 08:30:26.928   09 Jun 2027 08:30:34.156             7.228           927.344
       240   09 Jun 2027 09:59:33.002   09 Jun 2027 09:59:42.546             9.544          2162.812
       241   09 Jun 2027 10:01:30.209   09 Jun 2027 10:01:32.453             2.244           477.438
       242   09 Jun 2027 10:03:18.244   09 Jun 2027 10:03:18.244             0.000             0.000
       243   09 Jun 2027 10:03:31.211   09 Jun 2027 10:03:32.639             1.428           537.750
       244   09 Jun 2027 10:05:44.426   09 Jun 2027 10:05:49.406             4.980          2359.656
       245   09 Jun 2027 10:05:54.160   09 Jun 2027 10:05:55.347             1.187           148.563
       246   09 Jun 2027 10:06:47.583   09 Jun 2027 10:06:53.553             5.970          1404.125
       247   09 Jun 2027 10:07:52.610   09 Jun 2027 10:07:54.815             2.205           440.406
       248   09 Jun 2027 10:09:03.812   09 Jun 2027 10:09:08.763             4.951          2156.156
       249   09 Jun 2027 10:09:20.526   09 Jun 2027 10:09:23.147             2.621           332.594
       250   09 Jun 2027 11:38:28.316   09 Jun 2027 11:38:41.234            12.918          5967.469
       251   09 Jun 2027 11:41:08.628   09 Jun 2027 11:41:10.502             1.874           929.094
       252   09 Jun 2027 11:42:58.388   09 Jun 2027 11:43:07.239             8.851          1500.687
       253   09 Jun 2027 11:43:32.739   09 Jun 2027 11:43:34.851             2.112           562.906
       254   09 Jun 2027 11:44:11.021   09 Jun 2027 11:44:13.657             2.636           781.656
       255   09 Jun 2027 11:44:29.565   09 Jun 2027 11:44:30.586             1.021           355.438
       256   09 Jun 2027 11:44:35.172   09 Jun 2027 11:44:36.854             1.682           143.312
       257   10 Jun 2027 04:01:22.236   10 Jun 2027 04:02:24.665            62.429         31214.500
       258   10 Jun 2027 04:02:31.637   10 Jun 2027 04:02:49.275            17.638          8819.000
       259   10 Jun 2027 04:03:31.978   10 Jun 2027 04:05:51.824           139.846         69923.000
       260   10 Jun 2027 05:40:46.404   10 Jun 2027 05:42:30.944           104.540         51768.875
       261   10 Jun 2027 07:03:04.605   10 Jun 2027 07:03:24.582            19.977          5332.375
       262   10 Jun 2027 07:03:58.555   10 Jun 2027 07:03:58.555             0.000             0.000
       263   10 Jun 2027 07:04:31.277   10 Jun 2027 07:04:35.226             3.949          1796.906
       264   10 Jun 2027 07:05:20.126   10 Jun 2027 07:05:25.371             5.245           851.094
       265   10 Jun 2027 07:05:54.997   10 Jun 2027 07:05:59.009             4.012           496.750
       266   10 Jun 2027 07:06:01.781   10 Jun 2027 07:06:06.257             4.476            86.625
       267   10 Jun 2027 08:39:32.699   10 Jun 2027 08:39:37.263             4.564          2256.719
       268   10 Jun 2027 08:39:59.707   10 Jun 2027 08:40:03.872             4.165           271.469
       269   10 Jun 2027 08:40:37.477   10 Jun 2027 08:40:38.238             0.761           170.312
       270   10 Jun 2027 08:41:07.636   10 Jun 2027 08:41:09.957             2.321           402.094
       271   10 Jun 2027 08:42:10.989   10 Jun 2027 08:42:19.071             8.082          1739.000
       272   10 Jun 2027 10:14:43.580   10 Jun 2027 10:14:52.930             9.350          4521.625
       273   10 Jun 2027 10:15:53.409   10 Jun 2027 10:15:58.041             4.632          1383.656
       274   10 Jun 2027 10:18:12.814   10 Jun 2027 10:18:19.988             7.174          2949.437
       275   10 Jun 2027 10:18:42.516   10 Jun 2027 10:18:43.223             0.707           264.812
       276   10 Jun 2027 10:19:35.145   10 Jun 2027 10:19:38.474             3.329          1622.563
       277   10 Jun 2027 10:20:46.671   10 Jun 2027 10:20:50.759             4.088          1991.781
       278   10 Jun 2027 10:21:01.823   10 Jun 2027 10:21:05.519             3.696           345.750
       279   10 Jun 2027 10:21:14.884   10 Jun 2027 10:21:16.204             1.320           292.656
       280   10 Jun 2027 11:51:02.646   10 Jun 2027 11:51:13.823            11.177          5318.094
       281   10 Jun 2027 11:52:52.942   10 Jun 2027 11:52:58.651             5.709          2439.563
       282   10 Jun 2027 11:53:39.239   10 Jun 2027 11:53:41.604             2.365           930.562
       283   10 Jun 2027 11:54:15.663   10 Jun 2027 11:54:18.658             2.995          1064.344
       284   10 Jun 2027 11:54:36.297   10 Jun 2027 11:54:39.801             3.504           126.156
       285   10 Jun 2027 11:54:54.373   10 Jun 2027 11:54:57.770             3.397           173.563
       286   10 Jun 2027 11:55:08.116   10 Jun 2027 11:55:09.602             1.486           229.906
       287   10 Jun 2027 11:55:20.074   10 Jun 2027 11:55:20.929             0.855           327.250
       288   10 Jun 2027 11:56:17.826   10 Jun 2027 11:56:22.022             4.196          1778.031
       289   10 Jun 2027 11:56:37.136   10 Jun 2027 11:56:40.078             2.942           472.313
       290   11 Jun 2027 04:13:27.083   11 Jun 2027 04:14:08.331            41.248         20624.000
       291   11 Jun 2027 04:14:30.272   11 Jun 2027 04:16:45.424           135.152         67576.000
       292   11 Jun 2027 04:17:54.923   11 Jun 2027 04:18:01.895             6.972          3486.000
       293   11 Jun 2027 04:18:13.381   11 Jun 2027 04:18:13.449             0.068            34.000
       294   11 Jun 2027 05:51:39.454   11 Jun 2027 05:52:15.880            36.426         18213.000
       295   11 Jun 2027 05:52:44.489   11 Jun 2027 05:54:14.303            89.814         44907.000
       296   11 Jun 2027 05:55:01.808   11 Jun 2027 05:55:07.273             5.465          1753.125
       297   11 Jun 2027 07:15:06.246   11 Jun 2027 07:15:18.909            12.663          4792.937
       298   11 Jun 2027 07:15:48.268   11 Jun 2027 07:15:50.914             2.646           518.656
       299   11 Jun 2027 07:16:28.982   11 Jun 2027 07:16:32.434             3.452           868.625
       300   11 Jun 2027 07:17:38.868   11 Jun 2027 07:17:38.868             0.000             0.000
       301   11 Jun 2027 07:18:11.058   11 Jun 2027 07:18:15.329             4.271          2135.500
       302   11 Jun 2027 08:51:34.111   11 Jun 2027 08:51:38.822             4.711          1732.219
       303   11 Jun 2027 08:53:03.476   11 Jun 2027 08:53:07.895             4.419          2209.500
       304   11 Jun 2027 08:53:29.723   11 Jun 2027 08:53:29.723             0.000             0.000
       305   11 Jun 2027 08:54:09.770   11 Jun 2027 08:54:17.767             7.997          2190.281
       306   11 Jun 2027 10:26:56.747   11 Jun 2027 10:27:07.312            10.565          4326.156
       307   11 Jun 2027 10:28:41.981   11 Jun 2027 10:28:43.987             2.006           705.094
       308   11 Jun 2027 10:29:38.556   11 Jun 2027 10:29:43.214             4.658          1508.937
       309   11 Jun 2027 10:31:43.163   11 Jun 2027 10:31:43.163             0.000             0.000
       310   11 Jun 2027 10:33:07.223   11 Jun 2027 10:33:23.390            16.167          6375.281
       311   12 Jun 2027 04:26:31.624   12 Jun 2027 04:28:55.732           144.108         72054.000
       312   12 Jun 2027 04:30:40.009   12 Jun 2027 04:30:43.126             3.117          1558.500
       313   12 Jun 2027 04:30:53.139   12 Jun 2027 04:31:33.880            40.741         20370.500
       314   12 Jun 2027 04:32:41.679   12 Jun 2027 04:33:00.249            18.570          9285.000
       315   12 Jun 2027 04:33:24.204   12 Jun 2027 04:34:03.512            39.308         19654.000
       316   12 Jun 2027 05:52:40.736   12 Jun 2027 05:52:54.355            13.619          6809.500
       317   12 Jun 2027 06:03:35.202   12 Jun 2027 06:05:21.150           105.948         51638.344
       318   12 Jun 2027 06:06:17.370   12 Jun 2027 06:06:20.169             2.799          1194.875
       319   12 Jun 2027 06:06:28.054   12 Jun 2027 06:06:29.930             1.876           246.406
       320   12 Jun 2027 07:27:32.846   12 Jun 2027 07:27:51.640            18.794          7612.750
       321   12 Jun 2027 07:29:39.855   12 Jun 2027 07:29:47.383             7.528          3007.219
       322   12 Jun 2027 09:03:17.930   12 Jun 2027 09:03:24.350             6.420          2228.156
       323   12 Jun 2027 09:04:40.890   12 Jun 2027 09:04:50.541             9.651          1459.156
       324   12 Jun 2027 09:05:50.607   12 Jun 2027 09:05:55.009             4.402          1877.063
       325   12 Jun 2027 09:07:29.568   12 Jun 2027 09:07:35.266             5.698          2721.938
       326   12 Jun 2027 10:38:01.809   12 Jun 2027 10:38:10.672             8.863          2507.219
       327   12 Jun 2027 10:39:42.528   12 Jun 2027 10:39:47.718             5.190          1969.781
       328   12 Jun 2027 10:41:05.114   12 Jun 2027 10:41:10.082             4.968           597.375
       329   12 Jun 2027 10:41:33.626   12 Jun 2027 10:41:33.626             0.000             0.000
       330   12 Jun 2027 10:41:39.652   12 Jun 2027 10:41:44.242             4.590           549.000
       331   12 Jun 2027 10:42:48.520   12 Jun 2027 10:42:49.665             1.145            80.594
       332   12 Jun 2027 10:43:30.440   12 Jun 2027 10:43:40.277             9.837          1155.000
       333   12 Jun 2027 10:44:56.848   12 Jun 2027 10:45:04.693             7.845          2315.281
       334   13 Jun 2027 03:00:06.183   13 Jun 2027 03:00:24.282            18.099          9049.500
       335   13 Jun 2027 03:00:35.916   13 Jun 2027 03:00:56.749            20.833         10416.500
       336   13 Jun 2027 03:03:19.467   13 Jun 2027 03:03:19.872             0.405           202.500
       337   13 Jun 2027 03:04:24.172   13 Jun 2027 03:04:43.160            18.988          9494.000
       338   13 Jun 2027 03:05:30.671   13 Jun 2027 03:05:51.651            20.980         10490.000
       339   13 Jun 2027 04:38:54.433   13 Jun 2027 04:40:05.673            71.240         35620.000
       340   13 Jun 2027 04:40:49.886   13 Jun 2027 04:41:56.573            66.687         33343.500
       341   13 Jun 2027 04:42:05.612   13 Jun 2027 04:42:14.269             8.657          4328.500
       342   13 Jun 2027 04:42:44.675   13 Jun 2027 04:42:50.634             5.959          2979.500
       343   13 Jun 2027 04:44:42.885   13 Jun 2027 04:46:08.191            85.306         42653.000
       344   13 Jun 2027 06:03:56.781   13 Jun 2027 06:04:24.641            27.860         13930.000
       345   13 Jun 2027 06:04:39.504   13 Jun 2027 06:04:48.734             9.230          4615.000
       346   13 Jun 2027 06:15:36.420   13 Jun 2027 06:15:54.236            17.816          8753.749
       347   13 Jun 2027 07:38:07.869   13 Jun 2027 07:38:22.445            14.576          5554.469
       348   13 Jun 2027 07:38:54.227   13 Jun 2027 07:38:56.710             2.483           952.469
       349   13 Jun 2027 07:40:19.702   13 Jun 2027 07:40:23.364             3.662          1667.594
       350   13 Jun 2027 07:41:39.410   13 Jun 2027 07:41:46.423             7.013          2116.719
       351   13 Jun 2027 07:42:23.293   13 Jun 2027 07:42:26.591             3.298           590.344
       352   13 Jun 2027 09:13:10.954   13 Jun 2027 09:13:16.943             5.989          2511.813
       353   13 Jun 2027 09:14:23.727   13 Jun 2027 09:14:28.842             5.115          2087.000
       354   13 Jun 2027 09:15:02.092   13 Jun 2027 09:15:03.609             1.517           544.187
       355   13 Jun 2027 09:16:36.927   13 Jun 2027 09:16:39.713             2.786          1384.031
       356   13 Jun 2027 09:17:51.492   13 Jun 2027 09:17:56.367             4.875          2243.094
       357   13 Jun 2027 09:18:17.798   13 Jun 2027 09:18:19.447             1.649           448.250
       358   13 Jun 2027 09:19:05.089   13 Jun 2027 09:19:11.076             5.987           783.219
       359   13 Jun 2027 09:19:53.275   13 Jun 2027 09:19:55.090             1.815           907.500
       360   13 Jun 2027 10:50:10.007   13 Jun 2027 10:50:17.011             7.004          2903.750
       361   13 Jun 2027 10:53:23.145   13 Jun 2027 10:53:35.538            12.393          5554.219
       362   13 Jun 2027 10:54:38.113   13 Jun 2027 10:54:42.849             4.736          1723.000
       363   13 Jun 2027 10:55:17.836   13 Jun 2027 10:55:19.395             1.559           710.812
       364   13 Jun 2027 10:55:32.790   13 Jun 2027 10:55:35.235             2.445           418.594
       365   13 Jun 2027 10:56:46.955   13 Jun 2027 10:56:54.893             7.938          2111.563
       366   13 Jun 2027 10:57:31.515   13 Jun 2027 10:57:34.426             2.911           718.844
