uniorb/output/strategy_4/Camera/Camera_KinoSat_111310.txt

KinoSat_111310
-------------------------
    Access    *     Start Time (UTCG)     *     Stop Time (UTCG)  *   Duration (s) *   Data (Mbytes)
         1   01 Jun 2027 04:15:59.030   01 Jun 2027 04:16:35.769            36.739         18369.500
         2   01 Jun 2027 04:17:04.504   01 Jun 2027 04:18:46.545           102.041         51020.500
         3   01 Jun 2027 04:19:21.934   01 Jun 2027 04:19:31.175             9.241          4620.500
         4   01 Jun 2027 05:40:04.982   01 Jun 2027 05:42:08.944           123.962         61981.000
         5   01 Jun 2027 07:15:50.375   01 Jun 2027 07:17:54.797           124.422         62211.000
         6   01 Jun 2027 07:17:58.497   01 Jun 2027 07:18:02.507             4.010          2005.000
         7   01 Jun 2027 08:50:48.343   01 Jun 2027 08:52:12.515            84.172         42086.000
         8   01 Jun 2027 08:52:41.700   01 Jun 2027 08:53:14.323            32.623         16311.500
         9   01 Jun 2027 08:54:28.016   01 Jun 2027 08:54:34.924             6.908          3454.000
        10   01 Jun 2027 08:55:07.974   01 Jun 2027 08:55:57.553            49.579         24789.500
        11   01 Jun 2027 08:56:10.248   01 Jun 2027 08:56:20.886            10.638          5319.000
        12   01 Jun 2027 08:57:24.745   01 Jun 2027 08:57:48.176            23.431         11715.500
        13   01 Jun 2027 10:26:59.991   01 Jun 2027 10:29:02.162           122.171         61085.500
        14   01 Jun 2027 10:29:34.868   01 Jun 2027 10:29:39.266             4.398          2199.000
        15   01 Jun 2027 10:30:05.679   01 Jun 2027 10:30:07.356             1.677           838.500
        16   01 Jun 2027 10:31:28.927   01 Jun 2027 10:31:35.636             6.709          3354.500
        17   01 Jun 2027 10:32:24.462   01 Jun 2027 10:32:37.929            13.467          6733.500
        18   02 Jun 2027 04:16:52.904   02 Jun 2027 04:17:19.052            26.148         13074.000
        19   02 Jun 2027 04:27:54.801   02 Jun 2027 04:30:04.830           130.029         65014.500
        20   02 Jun 2027 04:30:23.228   02 Jun 2027 04:30:43.600            20.372         10186.000
        21   02 Jun 2027 05:50:54.835   02 Jun 2027 05:51:41.232            46.397         23198.500
        22   02 Jun 2027 05:53:32.788   02 Jun 2027 05:53:46.084            13.296          6648.000
        23   02 Jun 2027 07:26:26.540   02 Jun 2027 07:26:31.949             5.409          2704.500
        24   02 Jun 2027 07:27:35.730   02 Jun 2027 07:30:48.365           192.635         96317.500
        25   02 Jun 2027 07:31:45.806   02 Jun 2027 07:31:55.145             9.339          4669.500
        26   02 Jun 2027 09:02:21.882   02 Jun 2027 09:05:17.502           175.620         87810.000
        27   02 Jun 2027 09:05:52.904   02 Jun 2027 09:05:52.904             0.000             0.000
        28   02 Jun 2027 09:06:14.203   02 Jun 2027 09:06:37.085            22.882         11441.000
        29   02 Jun 2027 09:09:13.653   02 Jun 2027 09:09:54.634            40.981         20490.500
        30   02 Jun 2027 10:39:14.726   02 Jun 2027 10:39:36.271            21.545         10427.031
        31   02 Jun 2027 10:40:18.601   02 Jun 2027 10:40:20.568             1.967           918.031
        32   02 Jun 2027 10:41:20.048   02 Jun 2027 10:41:24.158             4.110           722.656
        33   02 Jun 2027 10:41:37.155   02 Jun 2027 10:41:39.088             1.933            20.563
        34   02 Jun 2027 10:41:44.534   02 Jun 2027 10:41:45.842             1.308            30.781
        35   02 Jun 2027 10:42:06.320   02 Jun 2027 10:42:11.773             5.453           475.219
        36   02 Jun 2027 10:42:41.971   02 Jun 2027 10:42:49.315             7.344           943.688
        37   02 Jun 2027 10:43:17.556   02 Jun 2027 10:43:19.721             2.165           600.719
        38   02 Jun 2027 10:43:40.534   02 Jun 2027 10:43:42.429             1.895           226.031
        39   02 Jun 2027 10:44:11.290   02 Jun 2027 10:44:13.134             1.844           291.219
        40   02 Jun 2027 10:44:17.284   02 Jun 2027 10:44:18.516             1.232             9.469
        41   02 Jun 2027 10:45:03.030   02 Jun 2027 10:45:04.833             1.803           882.281
        42   02 Jun 2027 10:45:27.569   02 Jun 2027 10:45:30.375             2.806            75.000
        43   03 Jun 2027 03:03:15.030   03 Jun 2027 03:03:40.814            25.784         12892.000
        44   03 Jun 2027 03:03:49.916   03 Jun 2027 03:04:03.788            13.872          6936.000
        45   03 Jun 2027 03:05:12.404   03 Jun 2027 03:05:26.980            14.576          7288.000
        46   03 Jun 2027 03:05:30.844   03 Jun 2027 03:05:31.780             0.936           468.000
        47   03 Jun 2027 03:06:23.990   03 Jun 2027 03:06:25.097             1.107           553.500
        48   03 Jun 2027 03:07:53.831   03 Jun 2027 03:08:08.461            14.630          7315.000
        49   03 Jun 2027 03:08:43.298   03 Jun 2027 03:08:50.256             6.958          3479.000
        50   03 Jun 2027 03:08:59.746   03 Jun 2027 03:09:07.650             7.904          3952.000
        51   03 Jun 2027 04:28:14.626   03 Jun 2027 04:29:15.529            60.903         30451.500
        52   03 Jun 2027 04:29:30.921   03 Jun 2027 04:29:33.675             2.754          1377.000
        53   03 Jun 2027 04:39:56.034   03 Jun 2027 04:41:16.744            80.710         40355.000
        54   03 Jun 2027 06:02:10.718   03 Jun 2027 06:03:26.000            75.282         37641.000
        55   03 Jun 2027 06:04:09.483   03 Jun 2027 06:04:12.004             2.521          1260.500
        56   03 Jun 2027 06:05:09.150   03 Jun 2027 06:05:35.281            26.131         12581.781
        57   03 Jun 2027 07:37:20.616   03 Jun 2027 07:37:36.185            15.569          7332.187
        58   03 Jun 2027 07:37:53.510   03 Jun 2027 07:37:55.500             1.990           379.531
        59   03 Jun 2027 07:38:13.886   03 Jun 2027 07:38:16.272             2.386           271.281
        60   03 Jun 2027 07:39:19.591   03 Jun 2027 07:39:24.155             4.564          1144.625
        61   03 Jun 2027 07:41:03.523   03 Jun 2027 07:41:09.423             5.900          2639.250
        62   03 Jun 2027 07:41:14.419   03 Jun 2027 07:41:17.256             2.837           156.125
        63   03 Jun 2027 07:42:24.505   03 Jun 2027 07:42:30.247             5.742          1461.500
        64   03 Jun 2027 07:42:56.328   03 Jun 2027 07:42:57.889             1.561           698.687
        65   03 Jun 2027 07:43:56.821   03 Jun 2027 07:44:03.393             6.572          1725.156
        66   03 Jun 2027 09:14:29.181   03 Jun 2027 09:14:38.537             9.356          2713.813
        67   03 Jun 2027 09:15:19.255   03 Jun 2027 09:15:22.023             2.768          1147.156
        68   03 Jun 2027 09:17:53.331   03 Jun 2027 09:17:54.719             1.388           222.156
        69   03 Jun 2027 09:18:56.460   03 Jun 2027 09:19:04.792             8.332          1658.844
        70   03 Jun 2027 09:19:43.186   03 Jun 2027 09:19:44.733             1.547           705.406
        71   03 Jun 2027 09:20:50.790   03 Jun 2027 09:20:54.667             3.877          1578.125
        72   03 Jun 2027 09:21:11.110   03 Jun 2027 09:21:13.572             2.462           444.469
        73   03 Jun 2027 10:51:26.787   03 Jun 2027 10:51:41.628            14.841          6181.875
        74   03 Jun 2027 10:54:00.194   03 Jun 2027 10:54:06.000             5.806          1867.094
        75   03 Jun 2027 10:55:05.340   03 Jun 2027 10:55:10.091             4.751          1854.375
        76   03 Jun 2027 10:55:45.030   03 Jun 2027 10:55:51.439             6.409           939.000
        77   03 Jun 2027 10:56:12.233   03 Jun 2027 10:56:13.345             1.112           512.062
        78   03 Jun 2027 10:56:42.822   03 Jun 2027 10:56:45.637             2.815           887.156
        79   03 Jun 2027 10:57:28.047   03 Jun 2027 10:57:31.415             3.368           718.031
        80   04 Jun 2027 03:15:33.298   04 Jun 2027 03:17:38.986           125.688         62844.000
        81   04 Jun 2027 03:18:21.360   04 Jun 2027 03:18:42.333            20.973         10486.500
        82   04 Jun 2027 03:19:16.852   04 Jun 2027 03:19:23.601             6.749          3374.500
        83   04 Jun 2027 03:19:35.694   04 Jun 2027 03:20:12.716            37.022         18511.000
        84   04 Jun 2027 03:20:45.489   04 Jun 2027 03:21:23.656            38.167         19083.500
        85   04 Jun 2027 04:40:04.044   04 Jun 2027 04:40:26.143            22.099         11049.500
        86   04 Jun 2027 04:51:53.064   04 Jun 2027 04:52:32.733            39.669         19834.500
        87   04 Jun 2027 06:13:55.719   04 Jun 2027 06:14:42.198            46.479         23239.500
        88   04 Jun 2027 06:15:58.840   04 Jun 2027 06:16:03.140             4.300          2050.032
        89   04 Jun 2027 06:17:10.956   04 Jun 2027 06:17:21.749            10.793          2070.438
        90   04 Jun 2027 06:18:27.033   04 Jun 2027 06:18:30.659             3.626          1813.000
        91   04 Jun 2027 06:18:33.219   04 Jun 2027 06:18:33.219             0.000             0.000
        92   04 Jun 2027 06:19:01.712   04 Jun 2027 06:19:06.126             4.414          1016.594
        93   04 Jun 2027 07:48:48.234   04 Jun 2027 07:48:53.242             5.008          1993.312
        94   04 Jun 2027 07:49:35.977   04 Jun 2027 07:49:42.479             6.502           980.594
        95   04 Jun 2027 07:50:27.808   04 Jun 2027 07:50:31.128             3.320          1413.625
        96   04 Jun 2027 07:50:43.149   04 Jun 2027 07:50:46.653             3.504           117.813
        97   04 Jun 2027 07:51:17.332   04 Jun 2027 07:51:19.251             1.919           958.719
        98   04 Jun 2027 07:52:10.161   04 Jun 2027 07:52:14.892             4.731          1367.500
        99   04 Jun 2027 07:52:41.334   04 Jun 2027 07:52:43.294             1.960           826.312
       100   04 Jun 2027 07:53:14.549   04 Jun 2027 07:53:20.292             5.743           845.812
       101   04 Jun 2027 07:54:38.888   04 Jun 2027 07:54:42.823             3.935           426.125
       102   04 Jun 2027 07:55:11.713   04 Jun 2027 07:55:13.263             1.550           265.000
       103   04 Jun 2027 07:56:10.189   04 Jun 2027 07:56:15.400             5.211          1563.594
       104   04 Jun 2027 07:57:05.481   04 Jun 2027 07:57:11.619             6.138           971.531
       105   04 Jun 2027 09:26:30.792   04 Jun 2027 09:26:39.921             9.129          4213.062
       106   04 Jun 2027 09:27:23.246   04 Jun 2027 09:27:23.246             0.000             0.000
       107   04 Jun 2027 09:28:38.357   04 Jun 2027 09:28:46.886             8.529          3545.562
       108   04 Jun 2027 09:29:57.476   04 Jun 2027 09:30:03.540             6.064          2119.844
       109   04 Jun 2027 09:30:30.503   04 Jun 2027 09:30:35.134             4.631           745.313
       110   04 Jun 2027 09:30:40.467   04 Jun 2027 09:30:43.047             2.580           141.250
       111   04 Jun 2027 09:30:53.840   04 Jun 2027 09:31:00.684             6.844           137.937
       112   04 Jun 2027 09:32:00.319   04 Jun 2027 09:32:02.849             2.530           237.969
       113   04 Jun 2027 09:33:08.699   04 Jun 2027 09:33:11.188             2.489            45.344
       114   04 Jun 2027 09:33:12.157   04 Jun 2027 09:33:13.320             1.163            30.281
       115   04 Jun 2027 09:33:28.499   04 Jun 2027 09:33:29.606             1.107            57.125
       116   04 Jun 2027 09:33:50.513   04 Jun 2027 09:33:54.996             4.483           653.344
       117   04 Jun 2027 11:03:18.962   04 Jun 2027 11:03:21.279             2.317          1158.500
       118   04 Jun 2027 11:03:32.136   04 Jun 2027 11:03:40.570             8.434          4019.281
       119   04 Jun 2027 11:04:27.894   04 Jun 2027 11:04:28.258             0.364           124.156
       120   04 Jun 2027 11:06:11.656   04 Jun 2027 11:06:14.236             2.580           961.906
       121   04 Jun 2027 11:07:31.236   04 Jun 2027 11:07:35.914             4.678          1321.125
       122   04 Jun 2027 11:08:10.271   04 Jun 2027 11:08:14.937             4.666           927.250
       123   04 Jun 2027 11:08:48.893   04 Jun 2027 11:08:53.624             4.731          1003.281
       124   04 Jun 2027 11:09:26.552   04 Jun 2027 11:09:28.830             2.278           802.500
       125   04 Jun 2027 11:09:51.698   04 Jun 2027 11:09:54.072             2.374           714.625
       126   05 Jun 2027 03:27:38.153   05 Jun 2027 03:29:40.567           122.414         61207.000
       127   05 Jun 2027 03:30:14.921   05 Jun 2027 03:31:48.647            93.726         46863.000
       128   05 Jun 2027 04:51:44.884   05 Jun 2027 04:52:28.763            43.879         21939.500
       129   05 Jun 2027 06:25:31.348   05 Jun 2027 06:26:44.370            73.022         35886.188
       130   05 Jun 2027 06:27:38.424   05 Jun 2027 06:27:41.563             3.139           981.031
       131   05 Jun 2027 06:28:12.068   05 Jun 2027 06:28:14.099             2.031           597.281
       132   05 Jun 2027 06:28:30.644   05 Jun 2027 06:28:36.290             5.646           445.562
       133   05 Jun 2027 06:29:12.743   05 Jun 2027 06:29:16.624             3.881          1097.750
       134   05 Jun 2027 06:29:46.372   05 Jun 2027 06:29:50.149             3.777           486.313
       135   05 Jun 2027 06:30:24.021   05 Jun 2027 06:30:24.981             0.960           240.875
       136   05 Jun 2027 06:30:33.764   05 Jun 2027 06:30:35.460             1.696            52.937
       137   05 Jun 2027 08:01:31.739   05 Jun 2027 08:01:44.627            12.888          3068.187
       138   05 Jun 2027 08:02:54.272   05 Jun 2027 08:02:55.939             1.667           319.781
       139   05 Jun 2027 08:04:04.239   05 Jun 2027 08:04:07.747             3.508          1309.062
       140   05 Jun 2027 08:05:17.167   05 Jun 2027 08:05:22.678             5.511           856.500
       141   05 Jun 2027 08:06:42.002   05 Jun 2027 08:06:45.624             3.622           535.219
       142   05 Jun 2027 08:08:26.013   05 Jun 2027 08:08:35.399             9.386          2542.063
       143   05 Jun 2027 08:09:14.162   05 Jun 2027 08:09:19.916             5.754          1194.719
       144   05 Jun 2027 09:38:34.258   05 Jun 2027 09:38:46.980            12.722          5606.781
       145   05 Jun 2027 09:41:22.835   05 Jun 2027 09:41:26.521             3.686          1435.781
       146   05 Jun 2027 09:42:30.488   05 Jun 2027 09:42:31.726             1.238           600.250
       147   05 Jun 2027 09:43:03.177   05 Jun 2027 09:43:10.217             7.040           674.813
       148   05 Jun 2027 09:44:02.650   05 Jun 2027 09:44:06.775             4.125          1188.188
       149   05 Jun 2027 09:44:30.759   05 Jun 2027 09:44:32.125             1.366           437.562
       150   05 Jun 2027 09:45:10.387   05 Jun 2027 09:45:12.842             2.455           812.344
       151   05 Jun 2027 09:45:29.617   05 Jun 2027 09:45:31.264             1.647            75.938
       152   05 Jun 2027 11:15:29.025   05 Jun 2027 11:15:46.033            17.008          7696.563
       153   05 Jun 2027 11:16:01.931   05 Jun 2027 11:16:02.957             1.026           496.813
       154   05 Jun 2027 11:18:15.050   05 Jun 2027 11:18:16.542             1.492           408.781
       155   05 Jun 2027 11:19:20.556   05 Jun 2027 11:19:24.466             3.910          1691.656
       156   05 Jun 2027 11:19:53.870   05 Jun 2027 11:19:58.071             4.201           418.625
       157   05 Jun 2027 11:20:18.315   05 Jun 2027 11:20:20.807             2.492           521.844
       158   05 Jun 2027 11:20:44.269   05 Jun 2027 11:20:49.203             4.934           511.406
       159   05 Jun 2027 11:20:58.473   05 Jun 2027 11:21:01.145             2.672            89.188
       160   05 Jun 2027 11:21:29.884   05 Jun 2027 11:21:31.234             1.350           645.344
       161   06 Jun 2027 03:40:14.933   06 Jun 2027 03:43:21.044           186.111         93055.500
       162   06 Jun 2027 03:44:43.227   06 Jun 2027 03:44:56.057            12.830          6415.000
       163   06 Jun 2027 05:03:39.711   06 Jun 2027 05:04:24.904            45.193         22596.500
       164   06 Jun 2027 06:39:58.879   06 Jun 2027 06:41:07.344            68.465         33010.437
       165   06 Jun 2027 06:41:26.146   06 Jun 2027 06:41:31.810             5.664           586.375
       166   06 Jun 2027 06:42:49.683   06 Jun 2027 06:42:54.122             4.439          1705.156
       167   06 Jun 2027 08:13:28.400   06 Jun 2027 08:13:32.232             3.832          1916.000
       168   06 Jun 2027 08:14:44.462   06 Jun 2027 08:14:56.929            12.467          2785.969
       169   06 Jun 2027 08:15:52.755   06 Jun 2027 08:15:55.368             2.613           866.000
       170   06 Jun 2027 08:16:00.474   06 Jun 2027 08:16:01.495             1.021           155.969
       171   06 Jun 2027 08:17:03.354   06 Jun 2027 08:17:06.061             2.707          1088.844
       172   06 Jun 2027 08:18:23.819   06 Jun 2027 08:18:30.100             6.281          1921.156
       173   06 Jun 2027 08:19:23.530   06 Jun 2027 08:19:27.517             3.987          1204.750
       174   06 Jun 2027 08:20:40.702   06 Jun 2027 08:20:42.964             2.262           726.125
       175   06 Jun 2027 08:20:56.342   06 Jun 2027 08:20:57.611             1.269           372.469
       176   06 Jun 2027 08:21:55.245   06 Jun 2027 08:21:58.440             3.195           924.312
       177   06 Jun 2027 09:51:00.418   06 Jun 2027 09:51:17.137            16.719          5827.531
       178   06 Jun 2027 09:54:40.166   06 Jun 2027 09:54:45.688             5.522          2619.500
       179   06 Jun 2027 09:55:54.394   06 Jun 2027 09:55:57.225             2.831           427.375
       180   06 Jun 2027 09:56:08.180   06 Jun 2027 09:56:09.382             1.202           342.344
       181   06 Jun 2027 09:57:11.239   06 Jun 2027 09:57:15.047             3.808          1805.125
       182   06 Jun 2027 09:57:18.254   06 Jun 2027 09:57:21.169             2.915            87.094
       183   06 Jun 2027 11:27:56.664   06 Jun 2027 11:28:09.506            12.842          6289.375
       184   06 Jun 2027 11:30:21.082   06 Jun 2027 11:30:23.705             2.623           724.719
       185   06 Jun 2027 11:31:01.497   06 Jun 2027 11:31:02.590             1.093            48.906
       186   06 Jun 2027 11:31:23.540   06 Jun 2027 11:31:24.755             1.215           495.125
       187   06 Jun 2027 11:32:00.763   06 Jun 2027 11:32:05.899             5.136           658.438
       188   06 Jun 2027 11:33:22.238   06 Jun 2027 11:33:31.189             8.951          2101.156
       189   07 Jun 2027 03:51:53.350   07 Jun 2027 03:53:53.313           119.963         59981.500
       190   07 Jun 2027 03:54:28.771   07 Jun 2027 03:54:59.184            30.413         15206.500
       191   07 Jun 2027 03:55:54.376   07 Jun 2027 03:55:56.609             2.233          1116.500
       192   07 Jun 2027 03:55:59.414   07 Jun 2027 03:56:35.226            35.812         17906.000
       193   07 Jun 2027 05:15:31.298   07 Jun 2027 05:16:34.414            63.116         31558.000
       194   07 Jun 2027 06:52:00.440   07 Jun 2027 06:53:02.263            61.823         29624.406
       195   07 Jun 2027 06:54:06.112   07 Jun 2027 06:54:09.282             3.170          1562.875
       196   07 Jun 2027 06:54:36.380   07 Jun 2027 06:54:38.870             2.490           694.531
       197   07 Jun 2027 08:26:08.160   07 Jun 2027 08:26:20.045            11.885          3053.062
       198   07 Jun 2027 08:26:49.284   07 Jun 2027 08:26:50.687             1.403           154.500
       199   07 Jun 2027 08:27:52.975   07 Jun 2027 08:27:53.643             0.668           249.750
       200   07 Jun 2027 08:28:14.829   07 Jun 2027 08:28:18.503             3.674           438.813
       201   07 Jun 2027 08:29:30.190   07 Jun 2027 08:29:36.096             5.906          1146.844
       202   07 Jun 2027 08:30:27.389   07 Jun 2027 08:30:28.508             1.119           170.062
       203   07 Jun 2027 08:31:07.578   07 Jun 2027 08:31:12.061             4.483           618.188
       204   07 Jun 2027 08:32:37.830   07 Jun 2027 08:32:43.821             5.991          2350.844
       205   07 Jun 2027 08:33:20.585   07 Jun 2027 08:33:25.090             4.505           753.125
       206   07 Jun 2027 08:33:30.387   07 Jun 2027 08:33:32.643             2.256           110.688
       207   07 Jun 2027 08:33:45.738   07 Jun 2027 08:33:48.905             3.167           174.656
       208   07 Jun 2027 10:03:06.642   07 Jun 2027 10:03:16.516             9.874          4456.500
       209   07 Jun 2027 10:05:13.891   07 Jun 2027 10:05:14.895             1.004           427.906
       210   07 Jun 2027 10:05:32.794   07 Jun 2027 10:05:34.650             1.856           253.062
       211   07 Jun 2027 10:06:23.819   07 Jun 2027 10:06:26.569             2.750           446.906
       212   07 Jun 2027 10:07:02.559   07 Jun 2027 10:07:05.562             3.003           482.750
       213   07 Jun 2027 10:07:35.250   07 Jun 2027 10:07:38.295             3.045            78.094
       214   07 Jun 2027 10:09:02.847   07 Jun 2027 10:09:07.151             4.304          2151.437
       215   07 Jun 2027 10:09:27.559   07 Jun 2027 10:09:31.767             4.208           637.750
       216   07 Jun 2027 10:09:34.169   07 Jun 2027 10:09:38.580             4.411            13.437
       217   07 Jun 2027 10:09:45.850   07 Jun 2027 10:09:47.884             2.034           227.187
       218   07 Jun 2027 11:40:45.714   07 Jun 2027 11:40:56.104            10.390          5195.000
       219   07 Jun 2027 11:41:14.130   07 Jun 2027 11:41:21.760             7.630           577.750
       220   07 Jun 2027 11:42:11.986   07 Jun 2027 11:42:15.789             3.803           831.875
       221   07 Jun 2027 11:42:57.024   07 Jun 2027 11:42:58.470             1.446           331.531
       222   07 Jun 2027 11:44:18.582   07 Jun 2027 11:44:25.198             6.616          2188.937
       223   07 Jun 2027 11:45:10.548   07 Jun 2027 11:45:13.316             2.768             2.406
       224   08 Jun 2027 04:04:20.978   08 Jun 2027 04:04:44.222            23.244         11622.000
       225   08 Jun 2027 04:05:06.595   08 Jun 2027 04:07:57.356           170.761         85380.500
       226   08 Jun 2027 05:27:40.208   08 Jun 2027 05:28:18.568            38.360         19180.000
       227   08 Jun 2027 07:04:10.691   08 Jun 2027 07:05:39.825            89.134         39910.594
       228   08 Jun 2027 07:05:44.530   08 Jun 2027 07:05:46.675             2.145           147.031
       229   08 Jun 2027 07:06:06.590   08 Jun 2027 07:06:06.590             0.000             0.000
       230   08 Jun 2027 07:06:13.283   08 Jun 2027 07:06:15.209             1.926           481.625
       231   08 Jun 2027 08:39:20.798   08 Jun 2027 08:39:28.645             7.847          3813.500
       232   08 Jun 2027 08:39:42.930   08 Jun 2027 08:39:44.487             1.557           107.875
       233   08 Jun 2027 08:40:54.844   08 Jun 2027 08:40:57.863             3.019           385.594
       234   08 Jun 2027 08:42:19.099   08 Jun 2027 08:42:19.099             0.000             0.000
       235   08 Jun 2027 08:42:44.656   08 Jun 2027 08:42:49.300             4.644          1995.094
       236   08 Jun 2027 08:43:22.922   08 Jun 2027 08:43:27.281             4.359          1015.781
       237   08 Jun 2027 08:44:02.908   08 Jun 2027 08:44:04.400             1.492           365.719
       238   08 Jun 2027 08:44:48.368   08 Jun 2027 08:44:50.820             2.452          1183.156
       239   08 Jun 2027 08:45:55.650   08 Jun 2027 08:45:57.751             2.101          1050.500
       240   08 Jun 2027 10:15:42.874   08 Jun 2027 10:15:52.278             9.404          4577.344
       241   08 Jun 2027 10:18:55.766   08 Jun 2027 10:18:59.436             3.670          1051.219
       242   08 Jun 2027 10:19:52.771   08 Jun 2027 10:19:55.846             3.075           379.750
       243   08 Jun 2027 10:21:00.554   08 Jun 2027 10:21:04.307             3.753          1270.312
       244   08 Jun 2027 10:21:23.683   08 Jun 2027 10:21:25.121             1.438           273.469
       245   08 Jun 2027 10:21:40.535   08 Jun 2027 10:21:41.778             1.243           367.875
       246   08 Jun 2027 11:53:00.375   08 Jun 2027 11:53:10.524            10.149          5048.750
       247   08 Jun 2027 11:53:47.388   08 Jun 2027 11:53:47.673             0.285           100.781
       248   08 Jun 2027 11:54:48.393   08 Jun 2027 11:54:58.249             9.856           710.281
       249   08 Jun 2027 11:56:17.128   08 Jun 2027 11:56:22.544             5.416          2183.687
       250   08 Jun 2027 11:57:09.160   08 Jun 2027 11:57:12.820             3.660          1162.531
       251   09 Jun 2027 04:16:14.622   09 Jun 2027 04:16:51.869            37.247         18623.500
       252   09 Jun 2027 04:17:21.548   09 Jun 2027 04:19:03.227           101.679         50839.500
       253   09 Jun 2027 04:19:24.462   09 Jun 2027 04:19:38.002            13.540          6770.000
       254   09 Jun 2027 05:40:20.174   09 Jun 2027 05:41:49.083            88.909         44454.500
       255   09 Jun 2027 07:16:05.802   09 Jun 2027 07:17:25.840            80.038         38757.781
       256   09 Jun 2027 07:18:39.604   09 Jun 2027 07:18:44.517             4.913          1931.625
       257   09 Jun 2027 07:19:31.093   09 Jun 2027 07:19:34.861             3.768          1384.813
       258   09 Jun 2027 08:51:03.068   09 Jun 2027 08:51:10.533             7.465          2108.094
       259   09 Jun 2027 08:51:36.304   09 Jun 2027 08:51:37.106             0.802           218.875
       260   09 Jun 2027 08:52:27.043   09 Jun 2027 08:52:30.087             3.044           266.344
       261   09 Jun 2027 08:52:57.069   09 Jun 2027 08:52:58.618             1.549           651.031
       262   09 Jun 2027 08:53:26.134   09 Jun 2027 08:53:29.760             3.626           859.875
       263   09 Jun 2027 08:53:54.366   09 Jun 2027 08:53:56.340             1.974           701.250
       264   09 Jun 2027 08:54:15.051   09 Jun 2027 08:54:15.556             0.505           225.750
       265   09 Jun 2027 08:54:36.873   09 Jun 2027 08:54:37.803             0.930           361.188
       266   09 Jun 2027 08:55:25.741   09 Jun 2027 08:55:28.910             3.169          1028.969
       267   09 Jun 2027 08:55:36.166   09 Jun 2027 08:55:36.934             0.768            34.406
       268   09 Jun 2027 08:55:53.692   09 Jun 2027 08:55:55.404             1.712           523.687
       269   09 Jun 2027 08:56:25.530   09 Jun 2027 08:56:27.507             1.977           389.594
       270   09 Jun 2027 08:57:26.899   09 Jun 2027 08:57:31.867             4.968          1537.375
       271   09 Jun 2027 10:27:15.591   09 Jun 2027 10:27:29.750            14.159          5524.062
       272   09 Jun 2027 10:30:23.288   09 Jun 2027 10:30:26.185             2.897            37.781
       273   09 Jun 2027 10:31:45.465   09 Jun 2027 10:31:50.570             5.105          1973.813
       274   09 Jun 2027 10:32:40.041   09 Jun 2027 10:32:45.428             5.387          1545.969
       275   09 Jun 2027 10:32:56.589   09 Jun 2027 10:32:57.068             0.479           142.000
       276   10 Jun 2027 04:17:06.893   10 Jun 2027 04:17:36.622            29.729         14864.500
       277   10 Jun 2027 04:28:10.633   10 Jun 2027 04:29:54.054           103.421         51710.500
       278   10 Jun 2027 04:30:05.096   10 Jun 2027 04:31:10.048            64.952         32476.000
       279   10 Jun 2027 05:51:09.498   10 Jun 2027 05:51:19.553            10.055          5027.500
       280   10 Jun 2027 05:53:24.658   10 Jun 2027 05:54:00.902            36.244         18122.000
       281   10 Jun 2027 07:26:41.852   10 Jun 2027 07:26:49.101             7.249          3624.500
       282   10 Jun 2027 07:27:51.699   10 Jun 2027 07:28:59.658            67.959         33897.812
       283   10 Jun 2027 07:29:33.337   10 Jun 2027 07:29:35.563             2.226           991.063
       284   10 Jun 2027 07:30:40.686   10 Jun 2027 07:30:46.267             5.581          1806.500
       285   10 Jun 2027 07:31:29.106   10 Jun 2027 07:31:32.327             3.221          1210.188
       286   10 Jun 2027 07:32:10.430   10 Jun 2027 07:32:12.461             2.031           838.906
       287   10 Jun 2027 07:32:17.379   10 Jun 2027 07:32:18.213             0.834           153.687
       288   10 Jun 2027 09:02:36.805   10 Jun 2027 09:02:44.436             7.631          3216.344
       289   10 Jun 2027 09:03:10.230   10 Jun 2027 09:03:12.483             2.253           378.594
       290   10 Jun 2027 09:04:56.261   10 Jun 2027 09:05:03.172             6.911          2523.250
       291   10 Jun 2027 09:06:09.498   10 Jun 2027 09:06:11.023             1.525           762.500
       292   10 Jun 2027 09:06:32.585   10 Jun 2027 09:06:34.742             2.157           971.906
       293   10 Jun 2027 09:07:22.023   10 Jun 2027 09:07:28.095             6.072           950.844
       294   10 Jun 2027 09:08:36.647   10 Jun 2027 09:08:41.101             4.454          2047.375
       295   10 Jun 2027 09:08:53.150   10 Jun 2027 09:08:55.031             1.881           329.125
       296   10 Jun 2027 09:10:06.550   10 Jun 2027 09:10:10.711             4.161          2051.719
       297   10 Jun 2027 10:39:37.376   10 Jun 2027 10:39:52.299            14.923          5675.312
       298   10 Jun 2027 10:41:36.543   10 Jun 2027 10:41:37.392             0.849            64.000
       299   10 Jun 2027 10:41:51.446   10 Jun 2027 10:41:52.934             1.488           234.563
       300   10 Jun 2027 10:42:27.392   10 Jun 2027 10:42:31.930             4.538          1076.812
       301   10 Jun 2027 10:43:47.215   10 Jun 2027 10:43:50.450             3.235          1438.500
       302   10 Jun 2027 10:44:28.410   10 Jun 2027 10:44:32.610             4.200           328.531
       303   10 Jun 2027 10:44:32.682   10 Jun 2027 10:44:33.200             0.518             2.250
       304   10 Jun 2027 10:45:18.801   10 Jun 2027 10:45:21.211             2.410           922.000
       305   10 Jun 2027 10:45:44.770   10 Jun 2027 10:45:45.634             0.864           129.938
       306   11 Jun 2027 03:03:31.832   11 Jun 2027 03:03:57.191            25.359         12679.500
       307   11 Jun 2027 03:04:04.944   11 Jun 2027 03:04:18.123            13.179          6589.500
       308   11 Jun 2027 03:04:37.546   11 Jun 2027 03:04:42.660             5.114          2557.000
       309   11 Jun 2027 03:05:46.344   11 Jun 2027 03:06:00.949            14.605          7302.500
       310   11 Jun 2027 03:06:43.862   11 Jun 2027 03:06:46.322             2.460          1230.000
       311   11 Jun 2027 03:07:03.143   11 Jun 2027 03:07:22.551            19.408          9704.000
       312   11 Jun 2027 03:09:45.831   11 Jun 2027 03:09:48.647             2.816          1408.000
       313   11 Jun 2027 03:09:56.478   11 Jun 2027 03:10:05.814             9.336          4668.000
       314   11 Jun 2027 03:10:21.546   11 Jun 2027 03:10:45.508            23.962         11981.000
       315   11 Jun 2027 04:28:30.065   11 Jun 2027 04:29:06.107            36.042         18021.000
       316   11 Jun 2027 04:29:32.678   11 Jun 2027 04:29:34.187             1.509           754.500
       317   11 Jun 2027 04:29:48.411   11 Jun 2027 04:29:48.411             0.000             0.000
       318   11 Jun 2027 04:40:12.273   11 Jun 2027 04:41:32.296            80.023         40011.500
       319   11 Jun 2027 06:02:25.675   11 Jun 2027 06:03:39.447            73.772         36886.000
       320   11 Jun 2027 06:04:26.695   11 Jun 2027 06:04:54.680            27.985         13992.500
       321   11 Jun 2027 06:05:28.790   11 Jun 2027 06:05:38.869            10.079          4525.781
       322   11 Jun 2027 07:37:33.411   11 Jun 2027 07:37:46.718            13.307          6095.219
       323   11 Jun 2027 07:38:47.708   11 Jun 2027 07:38:52.303             4.595          1477.187
       324   11 Jun 2027 07:39:35.064   11 Jun 2027 07:39:37.551             2.487          1078.344
       325   11 Jun 2027 07:40:04.780   11 Jun 2027 07:40:04.780             0.000             0.000
       326   11 Jun 2027 07:41:20.715   11 Jun 2027 07:41:30.245             9.530          2708.906
       327   11 Jun 2027 07:42:41.348   11 Jun 2027 07:42:46.852             5.504          2191.375
       328   11 Jun 2027 07:43:14.736   11 Jun 2027 07:43:19.446             4.710           705.688
       329   11 Jun 2027 07:44:15.267   11 Jun 2027 07:44:19.323             4.056          1744.406
       330   11 Jun 2027 09:14:45.601   11 Jun 2027 09:14:55.870            10.269          2550.281
       331   11 Jun 2027 09:15:37.192   11 Jun 2027 09:15:40.884             3.692          1140.812
       332   11 Jun 2027 09:18:11.677   11 Jun 2027 09:18:13.825             2.148           302.125
       333   11 Jun 2027 09:18:18.258   11 Jun 2027 09:18:21.598             3.340            13.500
       334   11 Jun 2027 09:19:39.210   11 Jun 2027 09:19:42.671             3.461          1325.688
       335   11 Jun 2027 09:20:34.753   11 Jun 2027 09:20:38.759             4.006          1233.750
       336   11 Jun 2027 09:21:12.446   11 Jun 2027 09:21:13.244             0.798            70.344
       337   11 Jun 2027 09:21:23.339   11 Jun 2027 09:21:26.596             3.257            56.094
       338   11 Jun 2027 09:21:56.580   11 Jun 2027 09:22:00.773             4.193           937.000
       339   11 Jun 2027 10:51:43.000   11 Jun 2027 10:51:54.107            11.107          5000.594
       340   11 Jun 2027 10:53:32.424   11 Jun 2027 10:53:33.471             1.047           462.594
       341   11 Jun 2027 10:53:59.637   11 Jun 2027 10:54:00.350             0.713           156.031
       342   11 Jun 2027 10:54:22.223   11 Jun 2027 10:54:26.802             4.579           111.781
       343   11 Jun 2027 10:55:31.826   11 Jun 2027 10:55:37.785             5.959           360.375
       344   11 Jun 2027 10:55:57.536   11 Jun 2027 10:55:57.968             0.432           120.656
       345   11 Jun 2027 10:56:31.501   11 Jun 2027 10:56:37.771             6.270           946.344
       346   11 Jun 2027 10:57:20.840   11 Jun 2027 10:57:25.059             4.219          1345.906
       347   11 Jun 2027 10:57:48.702   11 Jun 2027 10:57:51.508             2.806           187.625
       348   12 Jun 2027 03:15:50.502   12 Jun 2027 03:17:51.387           120.885         60442.500
       349   12 Jun 2027 03:18:36.020   12 Jun 2027 03:19:20.055            44.035         22017.500
       350   12 Jun 2027 03:20:28.517   12 Jun 2027 03:21:01.000            32.483         16241.500
       351   12 Jun 2027 03:21:38.315   12 Jun 2027 03:21:48.622            10.307          5153.500
       352   12 Jun 2027 03:22:03.091   12 Jun 2027 03:22:27.969            24.878         12439.000
       353   12 Jun 2027 04:40:18.585   12 Jun 2027 04:40:41.970            23.385         11692.500
       354   12 Jun 2027 04:52:09.112   12 Jun 2027 04:52:48.138            39.026         19513.000
       355   12 Jun 2027 06:14:10.875   12 Jun 2027 06:14:58.966            48.091         23252.750
       356   12 Jun 2027 06:16:14.290   12 Jun 2027 06:16:17.547             3.257          1559.656
       357   12 Jun 2027 06:16:21.987   12 Jun 2027 06:16:23.663             1.676             7.937
       358   12 Jun 2027 06:16:44.535   12 Jun 2027 06:16:45.041             0.506           253.000
       359   12 Jun 2027 06:16:57.456   12 Jun 2027 06:16:58.528             1.072           456.187
       360   12 Jun 2027 06:17:21.944   12 Jun 2027 06:17:28.256             6.312           731.750
       361   12 Jun 2027 06:17:57.046   12 Jun 2027 06:18:00.983             3.937           899.687
       362   12 Jun 2027 06:19:05.311   12 Jun 2027 06:19:10.306             4.995          1816.375
       363   12 Jun 2027 06:19:33.077   12 Jun 2027 06:19:35.137             2.060           484.938
       364   12 Jun 2027 07:49:03.023   12 Jun 2027 07:49:08.260             5.237          1735.469
       365   12 Jun 2027 07:49:20.778   12 Jun 2027 07:49:22.532             1.754           192.469
       366   12 Jun 2027 07:50:57.627   12 Jun 2027 07:50:59.787             2.160           411.344
       367   12 Jun 2027 07:51:13.709   12 Jun 2027 07:51:18.118             4.409           435.063
       368   12 Jun 2027 07:51:31.866   12 Jun 2027 07:51:32.684             0.818           185.000
       369   12 Jun 2027 07:52:25.703   12 Jun 2027 07:52:28.455             2.752          1325.281
       370   12 Jun 2027 07:52:55.512   12 Jun 2027 07:52:57.183             1.671           752.969
       371   12 Jun 2027 07:54:41.516   12 Jun 2027 07:54:49.955             8.439          3021.375
       372   12 Jun 2027 07:55:44.851   12 Jun 2027 07:55:50.895             6.044          1499.437
       373   12 Jun 2027 07:55:59.006   12 Jun 2027 07:55:59.657             0.651           197.531
       374   12 Jun 2027 07:56:51.381   12 Jun 2027 07:56:53.308             1.927           963.500
       375   12 Jun 2027 07:57:43.592   12 Jun 2027 07:57:50.644             7.052          1937.969
       376   12 Jun 2027 09:26:47.586   12 Jun 2027 09:26:58.501            10.915          4445.781
       377   12 Jun 2027 09:27:41.410   12 Jun 2027 09:27:44.557             3.147          1199.781
       378   12 Jun 2027 09:30:53.840   12 Jun 2027 09:30:58.265             4.425          1934.531
       379   12 Jun 2027 09:31:50.080   12 Jun 2027 09:31:57.611             7.531          1619.219
       380   12 Jun 2027 09:33:27.820   12 Jun 2027 09:33:32.419             4.599          2252.688
       381   12 Jun 2027 09:33:43.043   12 Jun 2027 09:33:45.170             2.127           129.969
       382   12 Jun 2027 09:34:03.407   12 Jun 2027 09:34:06.364             2.957           569.906
       383   12 Jun 2027 11:03:35.452   12 Jun 2027 11:03:47.761            12.309          4919.688
       384   12 Jun 2027 11:03:57.683   12 Jun 2027 11:04:03.634             5.951           310.062
       385   12 Jun 2027 11:06:27.312   12 Jun 2027 11:06:30.187             2.875           898.406
       386   12 Jun 2027 11:07:47.679   12 Jun 2027 11:07:52.805             5.126          1372.906
       387   12 Jun 2027 11:08:13.891   12 Jun 2027 11:08:17.618             3.727           653.969
       388   12 Jun 2027 11:09:01.521   12 Jun 2027 11:09:04.356             2.835          1369.531
       389   12 Jun 2027 11:09:38.091   12 Jun 2027 11:09:41.942             3.851           746.062
       390   12 Jun 2027 11:09:54.122   12 Jun 2027 11:09:55.746             1.624           380.625
       391   12 Jun 2027 11:10:11.021   12 Jun 2027 11:10:11.926             0.905           145.406
       392   13 Jun 2027 03:27:54.929   13 Jun 2027 03:30:54.344           179.415         89707.500
       393   13 Jun 2027 03:31:46.583   13 Jun 2027 03:31:53.097             6.514          3257.000
       394   13 Jun 2027 03:32:14.140   13 Jun 2027 03:32:30.261            16.121          8060.500
       395   13 Jun 2027 03:33:39.548   13 Jun 2027 03:33:55.962            16.414          8207.000
       396   13 Jun 2027 04:52:00.708   13 Jun 2027 04:52:11.738            11.030          5515.000
       397   13 Jun 2027 06:27:57.906   13 Jun 2027 06:29:19.357            81.451         40381.250
       398   13 Jun 2027 06:29:45.146   13 Jun 2027 06:29:47.071             1.925           472.188
       399   13 Jun 2027 06:31:05.816   13 Jun 2027 06:31:09.798             3.982          1938.875
       400   13 Jun 2027 08:01:47.649   13 Jun 2027 08:01:59.392            11.743          2970.937
       401   13 Jun 2027 08:02:43.219   13 Jun 2027 08:02:44.603             1.384           163.938
       402   13 Jun 2027 08:03:00.996   13 Jun 2027 08:03:01.510             0.514            10.906
       403   13 Jun 2027 08:04:22.918   13 Jun 2027 08:04:28.074             5.156          1307.719
       404   13 Jun 2027 08:05:34.311   13 Jun 2027 08:05:39.756             5.445           850.781
       405   13 Jun 2027 08:06:59.969   13 Jun 2027 08:07:02.646             2.677           589.687
       406   13 Jun 2027 08:08:44.858   13 Jun 2027 08:08:50.147             5.289          2574.938
       407   13 Jun 2027 08:09:31.353   13 Jun 2027 08:09:37.156             5.803          1201.875
       408   13 Jun 2027 09:38:50.767   13 Jun 2027 09:39:05.069            14.302          5268.781
       409   13 Jun 2027 09:41:38.219   13 Jun 2027 09:41:48.084             9.865          3867.344
       410   13 Jun 2027 09:43:22.061   13 Jun 2027 09:43:26.026             3.965           710.031
       411   13 Jun 2027 09:44:33.920   13 Jun 2027 09:44:39.255             5.335           485.406
       412   13 Jun 2027 09:45:23.496   13 Jun 2027 09:45:31.290             7.794          1235.500
       413   13 Jun 2027 09:45:45.835   13 Jun 2027 09:45:47.354             1.519            15.844
       414   13 Jun 2027 11:15:45.244   13 Jun 2027 11:16:07.645            22.401          7631.500
       415   13 Jun 2027 11:16:18.758   13 Jun 2027 11:16:19.694             0.936           347.281
       416   13 Jun 2027 11:18:40.949   13 Jun 2027 11:18:47.477             6.528           238.469
       417   13 Jun 2027 11:19:27.527   13 Jun 2027 11:19:31.189             3.662           852.594
       418   13 Jun 2027 11:20:18.899   13 Jun 2027 11:20:25.044             6.145          1301.438
       419   13 Jun 2027 11:21:40.278   13 Jun 2027 11:21:45.413             5.135          2281.906
       420   13 Jun 2027 11:22:04.144   13 Jun 2027 11:22:06.601             2.457           531.344
