uniorb/output/strategy_4/Camera/Camera_KinoSat_110504.txt

KinoSat_110504
-------------------------
    Access    *     Start Time (UTCG)     *     Stop Time (UTCG)  *   Duration (s) *   Data (Mbytes)
         1   01 Jun 2027 03:54:54.330   01 Jun 2027 03:56:38.112           103.782         51891.000
         2   01 Jun 2027 03:56:52.465   01 Jun 2027 03:56:59.315             6.850          3425.000
         3   01 Jun 2027 03:57:52.722   01 Jun 2027 03:58:34.989            42.267         21133.500
         4   01 Jun 2027 04:01:05.015   01 Jun 2027 04:01:06.645             1.630           815.000
         5   01 Jun 2027 04:01:58.770   01 Jun 2027 04:02:51.126            52.356         26178.000
         6   01 Jun 2027 04:03:46.191   01 Jun 2027 04:03:47.717             1.526           763.000
         7   01 Jun 2027 05:32:42.934   01 Jun 2027 05:35:07.403           144.469         72234.500
         8   01 Jun 2027 05:35:37.023   01 Jun 2027 05:35:37.692             0.669           334.500
         9   01 Jun 2027 05:36:33.405   01 Jun 2027 05:36:40.137             6.732          3366.000
        10   01 Jun 2027 05:37:05.967   01 Jun 2027 05:37:17.567            11.600          5800.000
        11   01 Jun 2027 05:38:08.425   01 Jun 2027 05:38:28.502            20.077         10038.500
        12   01 Jun 2027 05:38:41.224   01 Jun 2027 05:38:59.162            17.938          8969.000
        13   01 Jun 2027 05:39:26.831   01 Jun 2027 05:39:36.777             9.946          4973.000
        14   01 Jun 2027 07:09:27.391   01 Jun 2027 07:10:33.658            66.267         33133.500
        15   01 Jun 2027 07:11:12.544   01 Jun 2027 07:12:41.298            88.754         44377.000
        16   01 Jun 2027 07:13:32.171   01 Jun 2027 07:13:51.693            19.522          9761.000
        17   01 Jun 2027 07:14:00.952   01 Jun 2027 07:14:06.761             5.809          2904.500
        18   01 Jun 2027 07:14:34.245   01 Jun 2027 07:14:47.150            12.905          6452.500
        19   01 Jun 2027 07:15:02.269   01 Jun 2027 07:15:04.808             2.539          1269.500
        20   01 Jun 2027 07:15:38.775   01 Jun 2027 07:15:41.321             2.546          1273.000
        21   01 Jun 2027 07:16:11.737   01 Jun 2027 07:16:13.176             1.439           719.500
        22   01 Jun 2027 08:47:34.835   01 Jun 2027 08:50:36.111           181.276         90638.000
        23   01 Jun 2027 10:21:25.906   01 Jun 2027 10:24:52.848           206.942        103471.000
        24   01 Jun 2027 10:25:05.445   01 Jun 2027 10:25:05.445             0.000             0.000
        25   01 Jun 2027 10:25:47.226   01 Jun 2027 10:25:59.849            12.623          6311.500
        26   01 Jun 2027 10:26:32.931   01 Jun 2027 10:26:45.366            12.435          6217.500
        27   01 Jun 2027 10:27:37.421   01 Jun 2027 10:27:44.952             7.531          3765.500
        28   02 Jun 2027 04:07:42.726   02 Jun 2027 04:14:19.653           396.927        198463.500
        29   02 Jun 2027 04:15:12.482   02 Jun 2027 04:15:21.825             9.343          4671.500
        30   02 Jun 2027 04:15:27.750   02 Jun 2027 04:15:32.087             4.337          2168.500
        31   02 Jun 2027 05:44:49.340   02 Jun 2027 05:47:41.882           172.542         86271.000
        32   02 Jun 2027 05:48:38.770   02 Jun 2027 05:48:56.459            17.689          8844.500
        33   02 Jun 2027 05:49:16.293   02 Jun 2027 05:49:39.583            23.290         11645.000
        34   02 Jun 2027 05:50:02.458   02 Jun 2027 05:50:56.320            53.862         26931.000
        35   02 Jun 2027 07:21:51.654   02 Jun 2027 07:26:41.883           290.229        145114.500
        36   02 Jun 2027 07:27:09.529   02 Jun 2027 07:27:12.254             2.725          1362.500
        37   02 Jun 2027 07:27:52.360   02 Jun 2027 07:27:59.283             6.923          3461.500
        38   02 Jun 2027 08:58:48.891   02 Jun 2027 09:03:40.791           291.900        145950.000
        39   02 Jun 2027 10:34:10.651   02 Jun 2027 10:34:21.063            10.412          5206.000
        40   02 Jun 2027 10:35:33.652   02 Jun 2027 10:38:45.763           192.111         96055.500
        41   03 Jun 2027 04:19:41.234   03 Jun 2027 04:27:09.428           448.194        224097.000
        42   03 Jun 2027 04:27:10.613   03 Jun 2027 04:28:11.625            61.012         30506.000
        43   03 Jun 2027 05:57:15.113   03 Jun 2027 06:03:57.298           402.185        201092.500
        44   03 Jun 2027 07:35:01.871   03 Jun 2027 07:38:33.317           211.446        105723.000
        45   03 Jun 2027 07:38:35.801   03 Jun 2027 07:39:44.041            68.240         34120.000
        46   03 Jun 2027 09:11:03.158   03 Jun 2027 09:15:30.977           267.819        133909.500
        47   03 Jun 2027 10:48:44.748   03 Jun 2027 10:50:19.610            94.862         47431.000
        48   04 Jun 2027 03:00:00.000   04 Jun 2027 03:01:46.632           106.632         53316.000
        49   04 Jun 2027 04:33:09.904   04 Jun 2027 04:39:05.646           355.742        177871.000
        50   04 Jun 2027 04:39:09.242   04 Jun 2027 04:40:07.969            58.727         29363.500
        51   04 Jun 2027 06:09:22.492   04 Jun 2027 06:16:02.830           400.338        200169.000
        52   04 Jun 2027 07:47:29.038   04 Jun 2027 07:51:30.601           241.563        120781.500
        53   04 Jun 2027 09:23:12.076   04 Jun 2027 09:27:34.007           261.931        130965.500
        54   05 Jun 2027 03:10:22.381   05 Jun 2027 03:13:54.139           211.758        105879.000
        55   05 Jun 2027 04:45:32.428   05 Jun 2027 04:52:09.008           396.580        198290.000
        56   05 Jun 2027 06:21:57.729   05 Jun 2027 06:28:05.194           367.465        183732.500
        57   05 Jun 2027 07:59:22.450   05 Jun 2027 08:03:49.202           266.752        133376.000
        58   05 Jun 2027 09:35:49.120   05 Jun 2027 09:40:08.805           259.685        129842.500
        59   06 Jun 2027 03:22:15.293   06 Jun 2027 03:26:17.743           242.450        121225.000
        60   06 Jun 2027 04:57:11.433   06 Jun 2027 05:04:17.533           426.100        213050.000
        61   06 Jun 2027 06:33:30.203   06 Jun 2027 06:39:54.942           384.739        192369.500
        62   06 Jun 2027 08:11:59.764   06 Jun 2027 08:15:38.444           218.680        109340.000
        63   06 Jun 2027 09:47:28.523   06 Jun 2027 09:51:17.137           228.614        114307.000
        64   06 Jun 2027 09:51:47.240   06 Jun 2027 09:52:36.789            49.549         24774.500
        65   07 Jun 2027 03:32:33.962   07 Jun 2027 03:33:07.686            33.724         16862.000
        66   07 Jun 2027 03:33:59.181   07 Jun 2027 03:38:32.804           273.623        136811.500
        67   07 Jun 2027 05:08:44.771   07 Jun 2027 05:15:22.369           397.598        198799.000
        68   07 Jun 2027 05:15:55.610   07 Jun 2027 05:16:19.280            23.670         11835.000
        69   07 Jun 2027 06:46:16.636   07 Jun 2027 06:52:12.076           355.440        177720.000
        70   07 Jun 2027 08:24:08.424   07 Jun 2027 08:27:43.531           215.107        107553.500
        71   07 Jun 2027 09:56:57.493   07 Jun 2027 10:03:11.848           374.355        187177.500
        72   07 Jun 2027 10:03:21.299   07 Jun 2027 10:04:53.460            92.161         46080.500
        73   08 Jun 2027 03:43:40.498   08 Jun 2027 03:45:23.772           103.274         51637.000
        74   08 Jun 2027 03:45:43.581   08 Jun 2027 03:50:45.083           301.502        150751.000
        75   08 Jun 2027 05:21:02.430   08 Jun 2027 05:28:22.380           439.950        219975.000
        76   08 Jun 2027 06:57:51.014   08 Jun 2027 07:04:19.193           388.179        194089.500
        77   08 Jun 2027 08:36:15.963   08 Jun 2027 08:39:47.111           211.148        105574.000
        78   08 Jun 2027 10:09:24.945   08 Jun 2027 10:16:07.467           402.522        201261.000
        79   08 Jun 2027 10:16:23.144   08 Jun 2027 10:16:31.956             8.812          4406.000
        80   09 Jun 2027 03:55:08.699   09 Jun 2027 04:03:05.864           477.165        238582.500
        81   09 Jun 2027 04:03:52.932   09 Jun 2027 04:04:10.620            17.688          8844.000
        82   09 Jun 2027 05:32:57.552   09 Jun 2027 05:40:23.126           445.574        222787.000
        83   09 Jun 2027 07:09:55.764   09 Jun 2027 07:15:37.387           341.623        170811.500
        84   09 Jun 2027 07:16:20.864   09 Jun 2027 07:16:27.667             6.803          3401.500
        85   09 Jun 2027 08:47:49.670   09 Jun 2027 08:51:56.624           246.954        123477.000
        86   09 Jun 2027 10:21:40.669   09 Jun 2027 10:27:25.083           344.414        172207.000
        87   09 Jun 2027 10:27:52.586   09 Jun 2027 10:27:58.172             5.586          2793.000
        88   10 Jun 2027 04:07:57.181   10 Jun 2027 04:15:15.497           438.316        219158.000
        89   10 Jun 2027 04:15:29.432   10 Jun 2027 04:16:27.273            57.841         28920.500
        90   10 Jun 2027 05:45:03.951   10 Jun 2027 05:52:23.353           439.402        219701.000
        91   10 Jun 2027 07:22:06.515   10 Jun 2027 07:26:56.315           289.800        144900.000
        92   10 Jun 2027 07:27:03.465   10 Jun 2027 07:28:13.777            70.312         35156.000
        93   10 Jun 2027 08:59:15.535   10 Jun 2027 09:03:55.969           280.434        140217.000
        94   10 Jun 2027 10:34:26.389   10 Jun 2027 10:34:34.906             8.517          4258.500
        95   10 Jun 2027 10:35:48.819   10 Jun 2027 10:39:00.181           191.362         95681.000
        96   11 Jun 2027 04:18:36.395   11 Jun 2027 04:27:24.084           527.689        263844.500
        97   11 Jun 2027 04:27:25.288   11 Jun 2027 04:28:26.204            60.916         30458.000
        98   11 Jun 2027 05:57:29.917   11 Jun 2027 06:04:11.911           401.994        200997.000
        99   11 Jun 2027 07:35:15.239   11 Jun 2027 07:38:48.134           212.895        106447.500
       100   11 Jun 2027 07:38:50.497   11 Jun 2027 07:39:58.374            67.877         33938.500
       101   11 Jun 2027 09:11:18.066   11 Jun 2027 09:15:45.601           267.535        133767.500
       102   11 Jun 2027 10:48:57.328   11 Jun 2027 10:50:34.054            96.726         48363.000
       103   12 Jun 2027 03:00:00.000   12 Jun 2027 03:02:01.231           121.231         60615.500
       104   12 Jun 2027 04:33:24.829   12 Jun 2027 04:39:20.222           355.393        177696.500
       105   12 Jun 2027 04:39:23.785   12 Jun 2027 04:40:22.651            58.866         29433.000
       106   12 Jun 2027 06:09:37.294   12 Jun 2027 06:16:17.547           400.253        200126.500
       107   12 Jun 2027 07:47:43.603   12 Jun 2027 07:51:45.462           241.859        120929.500
       108   12 Jun 2027 09:23:27.173   12 Jun 2027 09:27:48.392           261.219        130609.500
       109   13 Jun 2027 03:10:36.988   13 Jun 2027 03:14:08.556           211.568        105784.000
       110   13 Jun 2027 04:45:47.113   13 Jun 2027 04:52:23.607           396.494        198247.000
       111   13 Jun 2027 06:22:11.879   13 Jun 2027 06:28:19.800           367.921        183960.500
       112   13 Jun 2027 07:59:36.987   13 Jun 2027 08:04:03.929           266.942        133471.000
       113   13 Jun 2027 09:36:04.170   13 Jun 2027 09:40:23.299           259.129        129564.500
