uniorb/output/strategy_4/Camera/Camera_KinoSat_111309.txt

KinoSat_111309
-------------------------
    Access    *     Start Time (UTCG)     *     Stop Time (UTCG)  *   Duration (s) *   Data (Mbytes)
         1   01 Jun 2027 04:14:35.621   01 Jun 2027 04:15:01.062            25.441         12720.500
         2   01 Jun 2027 04:25:30.032   01 Jun 2027 04:27:17.176           107.144         53572.000
         3   01 Jun 2027 04:27:39.347   01 Jun 2027 04:27:59.436            20.089         10044.500
         4   01 Jun 2027 05:49:27.424   01 Jun 2027 05:51:06.824            99.400         49700.000
         5   01 Jun 2027 07:25:12.219   01 Jun 2027 07:27:50.739           158.520         79260.000
         6   01 Jun 2027 08:59:55.874   01 Jun 2027 09:02:13.308           137.434         68717.000
         7   01 Jun 2027 09:03:23.555   01 Jun 2027 09:03:29.223             5.668          2834.000
         8   01 Jun 2027 09:06:39.508   01 Jun 2027 09:06:39.508             0.000             0.000
         9   01 Jun 2027 09:06:50.610   01 Jun 2027 09:07:28.376            37.766         18883.000
        10   01 Jun 2027 10:36:43.435   01 Jun 2027 10:37:51.737            68.302         34151.000
        11   01 Jun 2027 10:38:40.775   01 Jun 2027 10:39:40.635            59.860         29930.000
        12   01 Jun 2027 10:42:33.157   01 Jun 2027 10:42:50.894            17.737          8868.500
        13   01 Jun 2027 10:43:03.845   01 Jun 2027 10:43:04.928             1.083           541.500
        14   02 Jun 2027 03:00:45.722   02 Jun 2027 03:01:08.822            23.100         11550.000
        15   02 Jun 2027 03:01:46.473   02 Jun 2027 03:02:01.732            15.259          7629.500
        16   02 Jun 2027 03:03:02.802   02 Jun 2027 03:03:02.802             0.000             0.000
        17   02 Jun 2027 03:03:12.605   02 Jun 2027 03:03:12.671             0.066            33.000
        18   02 Jun 2027 03:03:29.098   02 Jun 2027 03:03:37.542             8.444          4222.000
        19   02 Jun 2027 03:04:11.552   02 Jun 2027 03:04:12.926             1.374           687.000
        20   02 Jun 2027 03:04:49.105   02 Jun 2027 03:04:51.186             2.081          1040.500
        21   02 Jun 2027 03:05:10.586   02 Jun 2027 03:05:28.201            17.615          8807.500
        22   02 Jun 2027 03:06:16.259   02 Jun 2027 03:06:23.726             7.467          3733.500
        23   02 Jun 2027 03:06:40.545   02 Jun 2027 03:06:51.704            11.159          5579.500
        24   02 Jun 2027 03:07:06.069   02 Jun 2027 03:07:18.081            12.012          6006.000
        25   02 Jun 2027 03:07:36.341   02 Jun 2027 03:08:06.580            30.239         15119.500
        26   02 Jun 2027 04:25:50.865   02 Jun 2027 04:26:24.481            33.616         16808.000
        27   02 Jun 2027 04:27:03.759   02 Jun 2027 04:27:14.575            10.816          5408.000
        28   02 Jun 2027 04:37:30.247   02 Jun 2027 04:38:30.177            59.930         29965.000
        29   02 Jun 2027 04:38:38.254   02 Jun 2027 04:38:56.487            18.233          9116.500
        30   02 Jun 2027 06:00:03.258   02 Jun 2027 06:01:03.530            60.272         30136.000
        31   02 Jun 2027 06:02:01.667   02 Jun 2027 06:02:14.906            13.239          6619.500
        32   02 Jun 2027 06:02:43.058   02 Jun 2027 06:03:43.818            60.760         30380.000
        33   02 Jun 2027 07:35:06.978   02 Jun 2027 07:36:28.065            81.087         40543.500
        34   02 Jun 2027 07:36:56.758   02 Jun 2027 07:37:47.973            51.215         25607.500
        35   02 Jun 2027 07:39:59.324   02 Jun 2027 07:40:23.590            24.266         12133.000
        36   02 Jun 2027 07:40:57.853   02 Jun 2027 07:41:40.195            42.342         21171.000
        37   02 Jun 2027 09:12:04.131   02 Jun 2027 09:14:13.387           129.256         64628.000
        38   02 Jun 2027 09:16:50.380   02 Jun 2027 09:16:50.380             0.000             0.000
        39   02 Jun 2027 09:17:52.822   02 Jun 2027 09:18:28.164            35.342         17360.281
        40   02 Jun 2027 09:18:38.379   02 Jun 2027 09:18:39.869             1.490           301.156
        41   02 Jun 2027 09:19:28.222   02 Jun 2027 09:19:28.607             0.385           192.500
        42   02 Jun 2027 10:49:02.849   02 Jun 2027 10:49:18.763            15.914          7416.469
        43   02 Jun 2027 10:49:56.944   02 Jun 2027 10:50:01.056             4.112          1180.219
        44   02 Jun 2027 10:51:13.014   02 Jun 2027 10:51:13.590             0.576           199.531
        45   02 Jun 2027 10:51:51.597   02 Jun 2027 10:51:56.263             4.666          1187.719
        46   02 Jun 2027 10:53:03.193   02 Jun 2027 10:53:07.942             4.749          1094.906
        47   02 Jun 2027 10:53:34.375   02 Jun 2027 10:53:39.282             4.907           736.469
        48   02 Jun 2027 10:55:01.782   02 Jun 2027 10:55:07.465             5.683          2325.031
        49   03 Jun 2027 03:13:01.594   03 Jun 2027 03:15:05.536           123.942         61971.000
        50   03 Jun 2027 03:16:06.497   03 Jun 2027 03:16:38.670            32.173         16086.500
        51   03 Jun 2027 03:18:12.388   03 Jun 2027 03:18:43.373            30.985         15492.500
        52   03 Jun 2027 03:19:55.662   03 Jun 2027 03:20:03.699             8.037          4018.500
        53   03 Jun 2027 04:37:39.733   03 Jun 2027 04:37:59.981            20.248         10124.000
        54   03 Jun 2027 04:38:10.921   03 Jun 2027 04:38:25.939            15.018          7509.000
        55   03 Jun 2027 04:49:28.024   03 Jun 2027 04:50:23.661            55.637         27818.500
        56   03 Jun 2027 06:11:29.500   03 Jun 2027 06:12:21.218            51.718         25368.750
        57   03 Jun 2027 06:13:40.446   03 Jun 2027 06:13:43.202             2.756           865.500
        58   03 Jun 2027 06:14:03.395   03 Jun 2027 06:14:06.813             3.418           442.906
        59   03 Jun 2027 06:14:14.698   03 Jun 2027 06:14:16.689             1.991           246.406
        60   03 Jun 2027 06:14:39.321   03 Jun 2027 06:14:41.244             1.923           503.813
        61   03 Jun 2027 06:15:30.476   03 Jun 2027 06:15:30.476             0.000             0.000
        62   03 Jun 2027 06:16:23.240   03 Jun 2027 06:16:33.062             9.822          3074.250
        63   03 Jun 2027 06:16:57.906   03 Jun 2027 06:16:57.906             0.000             0.000
        64   03 Jun 2027 07:46:31.835   03 Jun 2027 07:46:42.711            10.876          2386.219
        65   03 Jun 2027 07:47:11.190   03 Jun 2027 07:47:13.878             2.688           889.969
        66   03 Jun 2027 07:47:57.328   03 Jun 2027 07:48:03.968             6.640          1180.844
        67   03 Jun 2027 07:48:23.225   03 Jun 2027 07:48:31.903             8.678           190.656
        68   03 Jun 2027 07:48:57.092   03 Jun 2027 07:48:57.092             0.000             0.000
        69   03 Jun 2027 07:49:26.687   03 Jun 2027 07:49:32.199             5.512          1406.594
        70   03 Jun 2027 07:49:51.930   03 Jun 2027 07:49:55.479             3.549           208.000
        71   03 Jun 2027 07:50:22.625   03 Jun 2027 07:50:22.625             0.000             0.000
        72   03 Jun 2027 07:50:48.633   03 Jun 2027 07:50:56.442             7.809           855.437
        73   03 Jun 2027 07:52:12.457   03 Jun 2027 07:52:15.626             3.169           400.875
        74   03 Jun 2027 07:52:49.290   03 Jun 2027 07:52:54.417             5.127           379.781
        75   03 Jun 2027 07:53:11.830   03 Jun 2027 07:53:13.578             1.748           507.344
        76   03 Jun 2027 07:54:38.187   03 Jun 2027 07:54:45.781             7.594          1687.625
        77   03 Jun 2027 09:24:08.159   03 Jun 2027 09:24:15.632             7.473          3605.062
        78   03 Jun 2027 09:24:56.434   03 Jun 2027 09:25:01.764             5.330          1181.094
        79   03 Jun 2027 09:27:12.975   03 Jun 2027 09:27:19.225             6.250          1879.250
        80   03 Jun 2027 09:27:39.973   03 Jun 2027 09:27:44.048             4.075           207.750
        81   03 Jun 2027 09:28:25.017   03 Jun 2027 09:28:28.253             3.236          1103.469
        82   03 Jun 2027 09:29:25.156   03 Jun 2027 09:29:34.846             9.690          1617.281
        83   03 Jun 2027 09:30:41.630   03 Jun 2027 09:30:45.861             4.231          2087.000
        84   03 Jun 2027 11:00:52.054   03 Jun 2027 11:01:09.773            17.719          7463.188
        85   03 Jun 2027 11:03:40.184   03 Jun 2027 11:03:41.835             1.651           809.813
        86   03 Jun 2027 11:04:57.195   03 Jun 2027 11:04:58.377             1.182           515.438
        87   03 Jun 2027 11:05:08.106   03 Jun 2027 11:05:13.368             5.262            76.187
        88   03 Jun 2027 11:05:15.077   03 Jun 2027 11:05:16.250             1.173            24.000
        89   03 Jun 2027 11:05:22.027   03 Jun 2027 11:05:27.393             5.366           180.531
        90   03 Jun 2027 11:06:20.396   03 Jun 2027 11:06:25.713             5.317          1165.313
        91   03 Jun 2027 11:07:01.225   03 Jun 2027 11:07:07.094             5.869          1004.344
        92   04 Jun 2027 03:25:07.685   04 Jun 2027 03:28:07.540           179.855         89927.500
        93   04 Jun 2027 03:28:50.841   04 Jun 2027 03:29:00.027             9.186          4593.000
        94   04 Jun 2027 03:29:04.518   04 Jun 2027 03:29:14.274             9.756          4878.000
        95   04 Jun 2027 03:29:32.414   04 Jun 2027 03:30:22.066            49.652         24826.000
        96   04 Jun 2027 04:49:19.483   04 Jun 2027 04:50:02.844            43.361         21680.500
        97   04 Jun 2027 05:01:51.010   04 Jun 2027 05:01:55.202             4.192          2096.000
        98   04 Jun 2027 06:23:09.201   04 Jun 2027 06:24:07.580            58.379         27400.688
        99   04 Jun 2027 06:24:18.837   04 Jun 2027 06:24:23.059             4.222           318.906
       100   04 Jun 2027 06:24:47.017   04 Jun 2027 06:24:48.423             1.406           183.625
       101   04 Jun 2027 06:25:01.562   04 Jun 2027 06:25:02.175             0.613           256.906
       102   04 Jun 2027 06:25:52.554   04 Jun 2027 06:25:57.871             5.317          1542.906
       103   04 Jun 2027 06:26:10.858   04 Jun 2027 06:26:12.037             1.179           188.562
       104   04 Jun 2027 06:26:46.659   04 Jun 2027 06:26:48.994             2.335          1068.500
       105   04 Jun 2027 06:27:19.147   04 Jun 2027 06:27:21.783             2.636           266.969
       106   04 Jun 2027 06:27:55.208   04 Jun 2027 06:27:59.189             3.981           466.563
       107   04 Jun 2027 06:28:05.949   04 Jun 2027 06:28:06.948             0.999           210.375
       108   04 Jun 2027 06:28:30.612   04 Jun 2027 06:28:34.528             3.916           727.563
       109   04 Jun 2027 07:58:02.272   04 Jun 2027 07:58:08.870             6.598          2468.500
       110   04 Jun 2027 08:00:16.262   04 Jun 2027 08:00:20.863             4.601          2144.594
       111   04 Jun 2027 08:01:36.199   04 Jun 2027 08:01:40.204             4.005          1601.187
       112   04 Jun 2027 08:02:23.589   04 Jun 2027 08:02:27.522             3.933          1317.156
       113   04 Jun 2027 08:03:48.286   04 Jun 2027 08:03:53.455             5.169          2188.469
       114   04 Jun 2027 08:04:15.592   04 Jun 2027 08:04:16.706             1.114           506.719
       115   04 Jun 2027 08:05:15.572   04 Jun 2027 08:05:19.617             4.045          1154.844
       116   04 Jun 2027 08:05:56.761   04 Jun 2027 08:06:00.181             3.420          1160.750
       117   04 Jun 2027 08:06:46.489   04 Jun 2027 08:06:50.948             4.459          1141.750
       118   04 Jun 2027 09:36:06.764   04 Jun 2027 09:36:20.780            14.016          6468.156
       119   04 Jun 2027 09:37:02.493   04 Jun 2027 09:37:08.748             6.255           930.094
       120   04 Jun 2027 09:37:47.275   04 Jun 2027 09:37:50.716             3.441           559.656
       121   04 Jun 2027 09:40:09.357   04 Jun 2027 09:40:11.753             2.396           768.563
       122   04 Jun 2027 09:41:22.706   04 Jun 2027 09:41:26.864             4.158          1945.844
       123   04 Jun 2027 09:41:34.084   04 Jun 2027 09:41:36.372             2.288            13.219
       124   04 Jun 2027 09:42:49.024   04 Jun 2027 09:42:51.456             2.432          1038.094
       125   04 Jun 2027 09:43:01.762   04 Jun 2027 09:43:03.855             2.093           105.937
       126   04 Jun 2027 09:43:14.752   04 Jun 2027 09:43:18.151             3.399           246.000
       127   04 Jun 2027 11:12:59.947   04 Jun 2027 11:13:13.695            13.748          6748.500
       128   04 Jun 2027 11:15:36.994   04 Jun 2027 11:15:38.606             1.612           375.781
       129   04 Jun 2027 11:16:06.114   04 Jun 2027 11:16:11.864             5.750           569.000
       130   04 Jun 2027 11:16:49.174   04 Jun 2027 11:16:51.992             2.818          1096.094
       131   04 Jun 2027 11:17:30.342   04 Jun 2027 11:17:36.134             5.792          1048.844
       132   04 Jun 2027 11:17:52.383   04 Jun 2027 11:17:54.168             1.785           416.188
       133   04 Jun 2027 11:18:59.791   04 Jun 2027 11:19:03.926             4.135          2050.719
       134   04 Jun 2027 11:19:24.570   04 Jun 2027 11:19:27.402             2.832           645.125
       135   05 Jun 2027 03:37:32.952   05 Jun 2027 03:40:56.420           203.468        101734.000
       136   05 Jun 2027 03:41:47.440   05 Jun 2027 03:42:20.093            32.653         16326.500
       137   05 Jun 2027 05:01:16.976   05 Jun 2027 05:01:37.312            20.336         10168.000
       138   05 Jun 2027 06:37:28.125   05 Jun 2027 06:38:48.404            80.279         40048.125
       139   05 Jun 2027 06:39:27.442   05 Jun 2027 06:39:32.876             5.434          1219.937
       140   05 Jun 2027 06:39:55.284   05 Jun 2027 06:39:57.042             1.758           430.250
       141   05 Jun 2027 06:40:08.267   05 Jun 2027 06:40:08.267             0.000             0.000
       142   05 Jun 2027 06:40:10.541   05 Jun 2027 06:40:12.612             2.071           177.125
       143   05 Jun 2027 08:11:01.560   05 Jun 2027 08:11:08.369             6.809          2535.031
       144   05 Jun 2027 08:12:09.241   05 Jun 2027 08:12:16.081             6.840           290.125
       145   05 Jun 2027 08:12:52.820   05 Jun 2027 08:12:57.006             4.186          1064.375
       146   05 Jun 2027 08:13:28.891   05 Jun 2027 08:13:32.293             3.402            81.094
       147   05 Jun 2027 08:14:13.394   05 Jun 2027 08:14:17.262             3.868          1162.813
       148   05 Jun 2027 08:14:55.368   05 Jun 2027 08:14:58.060             2.692           928.250
       149   05 Jun 2027 08:16:18.596   05 Jun 2027 08:16:23.819             5.223           628.906
       150   05 Jun 2027 08:17:45.199   05 Jun 2027 08:17:50.213             5.014          2041.406
       151   05 Jun 2027 08:18:11.198   05 Jun 2027 08:18:12.416             1.218           428.687
       152   05 Jun 2027 08:18:15.624   05 Jun 2027 08:18:16.088             0.464            31.219
       153   05 Jun 2027 08:18:57.400   05 Jun 2027 08:19:00.074             2.674          1283.094
       154   05 Jun 2027 08:19:34.606   05 Jun 2027 08:19:35.620             1.014            76.344
       155   05 Jun 2027 09:48:29.074   05 Jun 2027 09:48:40.233            11.159          5046.469
       156   05 Jun 2027 09:50:42.780   05 Jun 2027 09:50:44.775             1.995           937.562
       157   05 Jun 2027 09:52:04.518   05 Jun 2027 09:52:10.634             6.116           491.719
       158   05 Jun 2027 09:52:44.254   05 Jun 2027 09:52:50.677             6.423           871.344
       159   05 Jun 2027 09:53:02.395   05 Jun 2027 09:53:03.737             1.342            89.531
       160   05 Jun 2027 09:54:43.452   05 Jun 2027 09:54:53.562            10.110          2330.531
       161   05 Jun 2027 09:55:12.047   05 Jun 2027 09:55:18.268             6.221           577.656
       162   05 Jun 2027 11:25:28.778   05 Jun 2027 11:25:43.831            15.053          6279.000
       163   05 Jun 2027 11:27:20.539   05 Jun 2027 11:27:21.415             0.876            65.313
       164   05 Jun 2027 11:27:47.160   05 Jun 2027 11:27:51.867             4.707           609.687
       165   05 Jun 2027 11:28:55.942   05 Jun 2027 11:28:59.718             3.776          1526.188
       166   05 Jun 2027 11:29:14.029   05 Jun 2027 11:29:19.804             5.775           428.938
       167   05 Jun 2027 11:30:40.197   05 Jun 2027 11:30:45.313             5.116          2081.500
       168   05 Jun 2027 11:31:05.181   05 Jun 2027 11:31:11.827             6.646           620.875
       169   06 Jun 2027 03:49:27.656   06 Jun 2027 03:51:17.092           109.436         54718.000
       170   06 Jun 2027 03:51:59.436   06 Jun 2027 03:53:27.335            87.899         43949.500
       171   06 Jun 2027 05:13:06.936   06 Jun 2027 05:14:08.314            61.378         30689.000
       172   06 Jun 2027 06:49:33.831   06 Jun 2027 06:50:28.408            54.577         26949.781
       173   06 Jun 2027 06:50:50.056   06 Jun 2027 06:50:50.056             0.000             0.000
       174   06 Jun 2027 06:51:30.122   06 Jun 2027 06:51:34.732             4.610          1928.563
       175   06 Jun 2027 06:52:23.830   06 Jun 2027 06:52:26.855             3.025          1433.375
       176   06 Jun 2027 08:21:43.796   06 Jun 2027 08:21:50.112             6.316          2340.438
       177   06 Jun 2027 08:23:40.625   06 Jun 2027 08:23:44.969             4.344          1446.125
       178   06 Jun 2027 08:25:20.651   06 Jun 2027 08:25:24.518             3.867          1807.000
       179   06 Jun 2027 08:25:29.121   06 Jun 2027 08:25:30.731             1.610            51.187
       180   06 Jun 2027 08:26:27.447   06 Jun 2027 08:26:33.685             6.238          1328.000
       181   06 Jun 2027 08:27:37.887   06 Jun 2027 08:27:43.864             5.977          1100.969
       182   06 Jun 2027 08:28:21.453   06 Jun 2027 08:28:24.418             2.965           771.062
       183   06 Jun 2027 08:28:57.099   06 Jun 2027 08:29:00.854             3.755           355.469
       184   06 Jun 2027 08:30:24.777   06 Jun 2027 08:30:26.383             1.606           398.375
       185   06 Jun 2027 08:31:03.059   06 Jun 2027 08:31:03.468             0.409           154.156
       186   06 Jun 2027 08:31:11.115   06 Jun 2027 08:31:12.140             1.025            88.281
       187   06 Jun 2027 08:31:30.301   06 Jun 2027 08:31:31.785             1.484           319.719
       188   06 Jun 2027 10:00:38.706   06 Jun 2027 10:00:49.236            10.530          4859.781
       189   06 Jun 2027 10:02:28.782   06 Jun 2027 10:02:29.572             0.790           180.844
       190   06 Jun 2027 10:03:18.309   06 Jun 2027 10:03:20.919             2.610          1025.156
       191   06 Jun 2027 10:03:31.079   06 Jun 2027 10:03:33.088             2.009           219.687
       192   06 Jun 2027 10:03:45.497   06 Jun 2027 10:03:47.336             1.839           168.469
       193   06 Jun 2027 10:04:20.746   06 Jun 2027 10:04:25.715             4.969           897.438
       194   06 Jun 2027 10:06:36.573   06 Jun 2027 10:06:43.237             6.664          2122.781
       195   06 Jun 2027 10:07:07.805   06 Jun 2027 10:07:09.756             1.951           767.750
       196   06 Jun 2027 11:37:56.298   06 Jun 2027 11:38:08.724            12.426          5252.125
       197   06 Jun 2027 11:39:27.812   06 Jun 2027 11:39:31.339             3.527          1294.094
       198   06 Jun 2027 11:40:43.460   06 Jun 2027 11:40:46.716             3.256          1373.656
       199   06 Jun 2027 11:41:13.590   06 Jun 2027 11:41:15.827             2.237           352.687
       200   06 Jun 2027 11:41:34.839   06 Jun 2027 11:41:36.126             1.287           409.219
       201   06 Jun 2027 11:42:00.665   06 Jun 2027 11:42:02.310             1.645           590.219
       202   07 Jun 2027 04:02:41.202   07 Jun 2027 04:05:10.216           149.014         74507.000
       203   07 Jun 2027 04:05:28.352   07 Jun 2027 04:05:31.418             3.066          1533.000
       204   07 Jun 2027 04:05:56.061   07 Jun 2027 04:06:11.372            15.311          7655.500
       205   07 Jun 2027 05:25:14.913   07 Jun 2027 05:25:58.415            43.502         21751.000
       206   07 Jun 2027 07:01:43.043   07 Jun 2027 07:03:23.769           100.726         48818.313
       207   07 Jun 2027 07:03:40.183   07 Jun 2027 07:03:41.293             1.110           364.500
       208   07 Jun 2027 07:04:12.183   07 Jun 2027 07:04:14.513             2.330           918.094
       209   07 Jun 2027 07:04:42.516   07 Jun 2027 07:04:44.926             2.410           791.219
       210   07 Jun 2027 08:36:53.834   07 Jun 2027 08:37:02.580             8.746          3384.875
       211   07 Jun 2027 08:37:19.660   07 Jun 2027 08:37:21.938             2.278           155.906
       212   07 Jun 2027 08:38:28.882   07 Jun 2027 08:38:33.029             4.147           656.469
       213   07 Jun 2027 08:39:54.147   07 Jun 2027 08:39:58.705             4.558          1295.438
       214   07 Jun 2027 08:40:56.909   07 Jun 2027 08:40:59.427             2.518          1024.813
       215   07 Jun 2027 08:41:43.483   07 Jun 2027 08:41:44.338             0.855           314.844
       216   07 Jun 2027 08:42:56.493   07 Jun 2027 08:42:59.677             3.184          1378.781
       217   07 Jun 2027 08:43:24.444   07 Jun 2027 08:43:28.221             3.777           446.906
       218   07 Jun 2027 10:13:12.881   07 Jun 2027 10:13:23.652            10.771          4469.062
       219   07 Jun 2027 10:15:18.673   07 Jun 2027 10:15:20.303             1.630            62.219
       220   07 Jun 2027 10:15:37.414   07 Jun 2027 10:15:38.808             1.394           491.438
       221   07 Jun 2027 10:16:07.763   07 Jun 2027 10:16:12.151             4.388           414.625
       222   07 Jun 2027 10:16:25.806   07 Jun 2027 10:16:29.042             3.236           381.594
       223   07 Jun 2027 10:17:13.932   07 Jun 2027 10:17:16.252             2.320          1140.156
       224   07 Jun 2027 10:17:53.154   07 Jun 2027 10:17:56.924             3.770           898.719
       225   07 Jun 2027 10:18:40.461   07 Jun 2027 10:18:46.019             5.558           139.312
       226   07 Jun 2027 10:18:52.891   07 Jun 2027 10:18:53.713             0.822           122.062
       227   07 Jun 2027 10:19:03.544   07 Jun 2027 10:19:03.693             0.149            65.375
       228   07 Jun 2027 10:19:14.637   07 Jun 2027 10:19:19.174             4.537           342.000
       229   07 Jun 2027 11:50:36.374   07 Jun 2027 11:50:48.030            11.656          5339.250
       230   07 Jun 2027 11:51:05.972   07 Jun 2027 11:51:08.122             2.150           257.312
       231   07 Jun 2027 11:52:04.085   07 Jun 2027 11:52:07.081             2.996          1366.375
       232   07 Jun 2027 11:52:27.688   07 Jun 2027 11:52:32.576             4.888            90.219
       233   07 Jun 2027 11:52:58.287   07 Jun 2027 11:52:59.507             1.220           599.562
       234   07 Jun 2027 11:53:13.547   07 Jun 2027 11:53:15.249             1.702           285.938
       235   07 Jun 2027 11:53:51.634   07 Jun 2027 11:53:56.127             4.493          1137.031
       236   07 Jun 2027 11:54:48.530   07 Jun 2027 11:54:53.103             4.573           559.969
       237   08 Jun 2027 04:13:48.965   08 Jun 2027 04:14:26.537            37.572         18786.000
       238   08 Jun 2027 04:14:55.288   08 Jun 2027 04:17:21.396           146.108         73054.000
       239   08 Jun 2027 05:37:16.290   08 Jun 2027 05:38:00.358            44.068         22034.000
       240   08 Jun 2027 05:38:22.626   08 Jun 2027 05:38:24.187             1.561           780.500
       241   08 Jun 2027 07:13:44.114   08 Jun 2027 07:15:14.577            90.463         45075.469
       242   08 Jun 2027 07:15:27.139   08 Jun 2027 07:15:29.123             1.984           311.500
       243   08 Jun 2027 07:15:48.616   08 Jun 2027 07:15:48.616             0.000             0.000
       244   08 Jun 2027 07:16:13.706   08 Jun 2027 07:16:20.223             6.517          1262.969
       245   08 Jun 2027 07:16:50.365   08 Jun 2027 07:16:52.934             2.569           941.938
       246   08 Jun 2027 08:48:56.706   08 Jun 2027 08:49:03.183             6.477          2720.031
       247   08 Jun 2027 08:49:11.000   08 Jun 2027 08:49:22.764            11.764           128.875
       248   08 Jun 2027 08:50:33.001   08 Jun 2027 08:50:34.351             1.350            96.406
       249   08 Jun 2027 08:51:25.628   08 Jun 2027 08:51:30.719             5.091           940.812
       250   08 Jun 2027 08:51:37.223   08 Jun 2027 08:51:40.684             3.461            40.656
       251   08 Jun 2027 08:51:51.652   08 Jun 2027 08:51:52.494             0.842            40.094
       252   08 Jun 2027 08:52:21.586   08 Jun 2027 08:52:26.567             4.981           667.312
       253   08 Jun 2027 08:52:59.201   08 Jun 2027 08:53:03.117             3.916          1019.812
       254   08 Jun 2027 08:53:08.257   08 Jun 2027 08:53:10.436             2.179            22.375
       255   08 Jun 2027 08:53:17.301   08 Jun 2027 08:53:18.323             1.022           149.531
       256   08 Jun 2027 08:53:55.099   08 Jun 2027 08:53:59.934             4.835           251.125
       257   08 Jun 2027 08:55:02.436   08 Jun 2027 08:55:05.939             3.503          1571.687
       258   08 Jun 2027 10:24:51.913   08 Jun 2027 10:25:06.416            14.503          5919.187
       259   08 Jun 2027 10:28:11.680   08 Jun 2027 10:28:12.870             1.190           268.187
       260   08 Jun 2027 10:29:17.154   08 Jun 2027 10:29:20.102             2.948          1338.813
       261   08 Jun 2027 10:30:16.585   08 Jun 2027 10:30:25.329             8.744           582.125
       262   09 Jun 2027 04:14:49.744   09 Jun 2027 04:15:17.642            27.898         13949.000
       263   09 Jun 2027 04:25:45.835   09 Jun 2027 04:27:54.931           129.096         64548.000
       264   09 Jun 2027 05:49:42.743   09 Jun 2027 05:50:30.912            48.169         24084.500
       265   09 Jun 2027 05:50:58.569   09 Jun 2027 05:50:58.569             0.000             0.000
       266   09 Jun 2027 05:52:08.069   09 Jun 2027 05:52:14.406             6.337          3168.500
       267   09 Jun 2027 07:25:27.901   09 Jun 2027 07:27:12.254           104.353         51514.594
       268   09 Jun 2027 07:28:12.318   09 Jun 2027 07:28:14.868             2.550          1275.000
       269   09 Jun 2027 07:28:23.914   09 Jun 2027 07:28:26.255             2.341           627.219
       270   09 Jun 2027 07:28:51.572   09 Jun 2027 07:28:51.572             0.000             0.000
       271   09 Jun 2027 07:29:36.275   09 Jun 2027 07:29:39.817             3.542          1626.875
       272   09 Jun 2027 09:00:11.793   09 Jun 2027 09:00:20.111             8.318          2672.656
       273   09 Jun 2027 09:00:45.760   09 Jun 2027 09:00:46.977             1.217           437.437
       274   09 Jun 2027 09:01:09.710   09 Jun 2027 09:01:11.378             1.668           642.781
       275   09 Jun 2027 09:02:12.491   09 Jun 2027 09:02:19.929             7.438           515.625
       276   09 Jun 2027 09:02:39.057   09 Jun 2027 09:02:40.875             1.818           267.687
       277   09 Jun 2027 09:03:41.626   09 Jun 2027 09:03:44.583             2.957          1202.000
       278   09 Jun 2027 09:03:53.423   09 Jun 2027 09:03:54.141             0.718           258.375
       279   09 Jun 2027 09:04:37.278   09 Jun 2027 09:04:41.022             3.744          1237.406
       280   09 Jun 2027 09:05:21.667   09 Jun 2027 09:05:26.635             4.968           713.313
       281   09 Jun 2027 09:05:48.985   09 Jun 2027 09:05:49.339             0.354            70.844
       282   09 Jun 2027 09:06:21.656   09 Jun 2027 09:06:23.225             1.569           382.531
       283   09 Jun 2027 09:07:39.985   09 Jun 2027 09:07:44.616             4.631          2078.344
       284   09 Jun 2027 10:37:01.419   09 Jun 2027 10:37:15.709            14.290          4925.281
       285   09 Jun 2027 10:40:15.994   09 Jun 2027 10:40:18.873             2.879           595.688
       286   09 Jun 2027 10:41:22.498   09 Jun 2027 10:41:31.849             9.351          1580.531
       287   09 Jun 2027 10:42:30.890   09 Jun 2027 10:42:33.518             2.628           903.250
       288   10 Jun 2027 03:01:02.233   10 Jun 2027 03:01:25.130            22.897         11448.500
       289   10 Jun 2027 03:01:58.748   10 Jun 2027 03:02:01.049             2.301          1150.500
       290   10 Jun 2027 03:02:04.116   10 Jun 2027 03:02:05.481             1.365           682.500
       291   10 Jun 2027 03:02:18.689   10 Jun 2027 03:02:23.164             4.475          2237.500
       292   10 Jun 2027 03:04:28.809   10 Jun 2027 03:04:38.192             9.383          4691.500
       293   10 Jun 2027 03:05:07.772   10 Jun 2027 03:05:11.750             3.978          1989.000
       294   10 Jun 2027 03:05:43.049   10 Jun 2027 03:06:11.716            28.667         14333.500
       295   10 Jun 2027 03:06:55.148   10 Jun 2027 03:07:03.568             8.420          4210.000
       296   10 Jun 2027 04:26:06.593   10 Jun 2027 04:27:06.938            60.345         30172.500
       297   10 Jun 2027 04:27:19.450   10 Jun 2027 04:27:29.324             9.874          4937.000
       298   10 Jun 2027 04:37:46.484   10 Jun 2027 04:39:11.872            85.388         42694.000
       299   10 Jun 2027 06:00:17.966   10 Jun 2027 06:01:19.007            61.041         30520.500
       300   10 Jun 2027 06:02:17.438   10 Jun 2027 06:02:28.592            11.154          5577.000
       301   10 Jun 2027 06:02:49.570   10 Jun 2027 06:03:00.363            10.793          5396.500
       302   10 Jun 2027 06:03:26.009   10 Jun 2027 06:03:45.142            19.133          8860.687
       303   10 Jun 2027 07:35:21.201   10 Jun 2027 07:35:33.599            12.398          5607.625
       304   10 Jun 2027 07:35:56.634   10 Jun 2027 07:35:57.904             1.270           146.344
       305   10 Jun 2027 07:38:03.570   10 Jun 2027 07:38:09.539             5.969          2527.188
       306   10 Jun 2027 07:38:36.086   10 Jun 2027 07:38:36.086             0.000             0.000
       307   10 Jun 2027 07:39:02.808   10 Jun 2027 07:39:05.781             2.973          1246.406
       308   10 Jun 2027 07:40:15.623   10 Jun 2027 07:40:19.278             3.655          1827.500
       309   10 Jun 2027 07:40:44.450   10 Jun 2027 07:40:46.747             2.297          1141.688
       310   10 Jun 2027 07:41:47.000   10 Jun 2027 07:41:50.450             3.450          1677.312
       311   10 Jun 2027 09:12:19.958   10 Jun 2027 09:12:28.312             8.354          3924.219
       312   10 Jun 2027 09:13:10.866   10 Jun 2027 09:13:13.734             2.868          1140.187
       313   10 Jun 2027 09:14:52.934   10 Jun 2027 09:14:54.581             1.647           625.375
       314   10 Jun 2027 09:15:10.285   10 Jun 2027 09:15:10.879             0.594           259.219
       315   10 Jun 2027 09:16:00.890   10 Jun 2027 09:16:02.843             1.953           709.656
       316   10 Jun 2027 09:17:09.693   10 Jun 2027 09:17:14.377             4.684          1219.656
       317   10 Jun 2027 09:17:32.967   10 Jun 2027 09:17:35.742             2.775           536.750
       318   10 Jun 2027 09:18:39.517   10 Jun 2027 09:18:43.693             4.176          1544.844
       319   10 Jun 2027 09:18:53.842   10 Jun 2027 09:18:55.473             1.631           298.812
       320   10 Jun 2027 09:19:44.397   10 Jun 2027 09:19:44.472             0.075            37.500
       321   10 Jun 2027 10:49:18.035   10 Jun 2027 10:49:33.124            15.089          6852.094
       322   10 Jun 2027 10:53:18.068   10 Jun 2027 10:53:22.651             4.583           967.375
       323   10 Jun 2027 10:54:05.234   10 Jun 2027 10:54:12.400             7.166           829.625
       324   10 Jun 2027 10:54:45.658   10 Jun 2027 10:54:50.183             4.525           954.812
       325   10 Jun 2027 10:55:19.418   10 Jun 2027 10:55:21.580             2.162           767.688
       326   10 Jun 2027 10:55:21.824   10 Jun 2027 10:55:26.353             4.529             7.625
       327   11 Jun 2027 03:13:18.489   11 Jun 2027 03:15:05.717           107.228         53614.000
       328   11 Jun 2027 03:15:53.375   11 Jun 2027 03:16:04.378            11.003          5501.500
       329   11 Jun 2027 03:16:20.268   11 Jun 2027 03:16:30.200             9.932          4966.000
       330   11 Jun 2027 03:16:34.175   11 Jun 2027 03:16:54.846            20.671         10335.500
       331   11 Jun 2027 03:18:02.351   11 Jun 2027 03:18:26.555            24.204         12102.000
       332   11 Jun 2027 03:19:16.057   11 Jun 2027 03:19:25.857             9.800          4900.000
       333   11 Jun 2027 04:37:27.594   11 Jun 2027 04:37:54.280            26.686         13343.000
       334   11 Jun 2027 04:49:43.848   11 Jun 2027 04:50:39.168            55.320         27660.000
       335   11 Jun 2027 06:11:42.511   11 Jun 2027 06:12:45.531            63.020         30873.907
       336   11 Jun 2027 06:13:03.709   11 Jun 2027 06:13:04.509             0.800           224.375
       337   11 Jun 2027 06:13:57.548   11 Jun 2027 06:14:00.850             3.302          1325.875
       338   11 Jun 2027 06:14:19.154   11 Jun 2027 06:14:21.354             2.200           453.063
       339   11 Jun 2027 06:14:32.135   11 Jun 2027 06:14:32.135             0.000             0.000
       340   11 Jun 2027 06:14:38.154   11 Jun 2027 06:14:40.482             2.328           525.000
       341   11 Jun 2027 06:15:08.584   11 Jun 2027 06:15:08.584             0.000             0.000
       342   11 Jun 2027 06:16:16.959   11 Jun 2027 06:16:22.254             5.295          2561.969
       343   11 Jun 2027 06:16:26.687   11 Jun 2027 06:16:28.073             1.386           138.531
       344   11 Jun 2027 07:46:45.474   11 Jun 2027 07:46:58.853            13.379          2757.563
       345   11 Jun 2027 07:47:28.004   11 Jun 2027 07:47:32.710             4.706           910.969
       346   11 Jun 2027 07:48:35.662   11 Jun 2027 07:48:38.769             3.107           764.219
       347   11 Jun 2027 07:50:00.828   11 Jun 2027 07:50:08.417             7.589          2564.344
       348   11 Jun 2027 07:50:36.882   11 Jun 2027 07:50:41.040             4.158           889.531
       349   11 Jun 2027 07:52:15.897   11 Jun 2027 07:52:22.579             6.682          2197.656
       350   11 Jun 2027 07:53:12.160   11 Jun 2027 07:53:15.280             3.120          1303.813
       351   11 Jun 2027 07:53:31.151   11 Jun 2027 07:53:33.482             2.331            80.031
       352   11 Jun 2027 07:54:53.857   11 Jun 2027 07:54:55.362             1.505           752.500
       353   11 Jun 2027 07:55:20.031   11 Jun 2027 07:55:23.626             3.595          1592.969
       354   11 Jun 2027 09:24:21.957   11 Jun 2027 09:24:30.651             8.694          3459.375
       355   11 Jun 2027 09:26:29.921   11 Jun 2027 09:26:38.277             8.356          3536.281
       356   11 Jun 2027 09:28:40.720   11 Jun 2027 09:28:42.968             2.248          1100.281
       357   11 Jun 2027 09:29:42.675   11 Jun 2027 09:29:50.270             7.595          1692.031
       358   11 Jun 2027 09:30:58.860   11 Jun 2027 09:31:07.870             9.010          2143.438
       359   11 Jun 2027 11:01:07.895   11 Jun 2027 11:01:09.804             1.909           954.500
       360   11 Jun 2027 11:01:13.433   11 Jun 2027 11:01:22.763             9.330          4399.219
       361   11 Jun 2027 11:03:30.002   11 Jun 2027 11:03:34.434             4.432          1624.750
       362   11 Jun 2027 11:03:59.158   11 Jun 2027 11:04:00.485             1.327           113.281
       363   11 Jun 2027 11:05:22.670   11 Jun 2027 11:05:30.734             8.064          1271.156
       364   11 Jun 2027 11:06:00.775   11 Jun 2027 11:06:02.680             1.905           937.812
       365   11 Jun 2027 11:06:38.714   11 Jun 2027 11:06:40.844             2.130           969.219
       366   11 Jun 2027 11:07:24.804   11 Jun 2027 11:07:27.357             2.553          1034.031
       367   12 Jun 2027 03:25:24.879   12 Jun 2027 03:28:35.947           191.068         95534.000
       368   12 Jun 2027 03:29:46.738   12 Jun 2027 03:30:07.256            20.518         10259.000
       369   12 Jun 2027 04:49:35.475   12 Jun 2027 04:50:18.667            43.192         21596.000
       370   12 Jun 2027 05:02:08.288   12 Jun 2027 05:02:10.699             2.411          1205.500
       371   12 Jun 2027 06:23:24.986   12 Jun 2027 06:24:24.341            59.355         29677.500
       372   12 Jun 2027 06:24:35.598   12 Jun 2027 06:24:40.913             5.315          1769.031
       373   12 Jun 2027 06:25:05.069   12 Jun 2027 06:25:05.069             0.000             0.000
       374   12 Jun 2027 06:25:23.994   12 Jun 2027 06:25:27.999             4.005           819.312
       375   12 Jun 2027 06:25:58.196   12 Jun 2027 06:25:58.196             0.000             0.000
       376   12 Jun 2027 06:26:08.183   12 Jun 2027 06:26:08.491             0.308           154.000
       377   12 Jun 2027 06:26:20.569   12 Jun 2027 06:26:26.370             5.801           734.000
       378   12 Jun 2027 06:26:35.380   12 Jun 2027 06:26:37.131             1.751           281.563
       379   12 Jun 2027 06:27:55.759   12 Jun 2027 06:27:59.387             3.628          1647.344
       380   12 Jun 2027 06:28:14.134   12 Jun 2027 06:28:17.002             2.868            95.406
       381   12 Jun 2027 06:28:25.330   12 Jun 2027 06:28:27.288             1.958            92.812
       382   12 Jun 2027 07:58:17.052   12 Jun 2027 07:58:20.852             3.800          1622.594
       383   12 Jun 2027 07:58:41.183   12 Jun 2027 07:58:43.285             2.102           635.344
       384   12 Jun 2027 08:00:06.177   12 Jun 2027 08:00:11.661             5.484          2578.375
       385   12 Jun 2027 08:00:39.755   12 Jun 2027 08:00:41.104             1.349           153.312
       386   12 Jun 2027 08:01:54.838   12 Jun 2027 08:01:59.288             4.450          1601.781
       387   12 Jun 2027 08:03:07.840   12 Jun 2027 08:03:11.151             3.311           841.187
       388   12 Jun 2027 08:04:33.563   12 Jun 2027 08:04:35.977             2.414           561.062
       389   12 Jun 2027 08:05:34.361   12 Jun 2027 08:05:38.285             3.924          1185.813
       390   12 Jun 2027 08:06:15.570   12 Jun 2027 08:06:19.026             3.456          1165.156
       391   12 Jun 2027 08:07:03.646   12 Jun 2027 08:07:12.447             8.801          1147.625
       392   12 Jun 2027 09:36:22.745   12 Jun 2027 09:36:38.874            16.129          5731.500
       393   12 Jun 2027 09:39:15.784   12 Jun 2027 09:39:20.033             4.249          1475.531
       394   12 Jun 2027 09:40:36.283   12 Jun 2027 09:40:38.141             1.858           361.562
       395   12 Jun 2027 09:41:35.028   12 Jun 2027 09:41:38.817             3.789           870.938
       396   12 Jun 2027 09:41:49.470   12 Jun 2027 09:41:51.095             1.625           317.500
       397   12 Jun 2027 09:42:28.842   12 Jun 2027 09:42:37.396             8.554          1179.594
       398   12 Jun 2027 09:43:17.077   12 Jun 2027 09:43:21.893             4.816           424.625
       399   12 Jun 2027 11:13:17.018   12 Jun 2027 11:13:23.794             6.776          3388.000
       400   12 Jun 2027 11:13:49.327   12 Jun 2027 11:13:55.116             5.789          2540.750
       401   12 Jun 2027 11:14:51.388   12 Jun 2027 11:14:58.834             7.446           905.625
       402   12 Jun 2027 11:15:53.094   12 Jun 2027 11:15:53.924             0.830           229.875
       403   12 Jun 2027 11:16:20.706   12 Jun 2027 11:16:23.161             2.455           453.469
       404   12 Jun 2027 11:17:03.955   12 Jun 2027 11:17:06.925             2.970          1060.687
       405   12 Jun 2027 11:17:15.117   12 Jun 2027 11:17:16.718             1.601           171.562
       406   12 Jun 2027 11:17:32.724   12 Jun 2027 11:17:33.741             1.017           500.187
       407   12 Jun 2027 11:18:01.210   12 Jun 2027 11:18:05.565             4.355           858.406
       408   12 Jun 2027 11:19:15.154   12 Jun 2027 11:19:19.776             4.622          2070.094
       409   12 Jun 2027 11:19:39.224   12 Jun 2027 11:19:41.625             2.401           563.844
       410   13 Jun 2027 03:38:02.437   13 Jun 2027 03:41:48.085           225.648        112824.000
       411   13 Jun 2027 05:01:39.229   13 Jun 2027 05:01:52.053            12.824          6412.000
       412   13 Jun 2027 06:37:44.341   13 Jun 2027 06:39:12.028            87.687         43606.844
       413   13 Jun 2027 06:39:57.529   13 Jun 2027 06:40:02.401             4.872          1363.656
       414   13 Jun 2027 06:40:24.663   13 Jun 2027 06:40:27.091             2.428           453.031
       415   13 Jun 2027 06:40:50.737   13 Jun 2027 06:40:52.663             1.926           693.344
       416   13 Jun 2027 08:11:17.631   13 Jun 2027 08:11:23.629             5.998          2367.906
       417   13 Jun 2027 08:12:35.342   13 Jun 2027 08:12:39.826             4.484          2241.031
       418   13 Jun 2027 08:13:43.480   13 Jun 2027 08:13:45.758             2.278          1053.250
       419   13 Jun 2027 08:13:51.618   13 Jun 2027 08:13:51.618             0.000             0.000
       420   13 Jun 2027 08:14:30.481   13 Jun 2027 08:14:33.850             3.369          1397.594
       421   13 Jun 2027 08:15:12.652   13 Jun 2027 08:15:16.395             3.743           927.438
       422   13 Jun 2027 08:16:36.552   13 Jun 2027 08:16:38.136             1.584           684.063
       423   13 Jun 2027 08:18:04.230   13 Jun 2027 08:18:10.954             6.724          2080.719
       424   13 Jun 2027 08:18:28.137   13 Jun 2027 08:18:29.625             1.488           422.250
       425   13 Jun 2027 08:19:14.730   13 Jun 2027 08:19:28.369            13.639          1293.781
       426   13 Jun 2027 08:19:50.393   13 Jun 2027 08:19:51.453             1.060            48.500
       427   13 Jun 2027 09:48:48.688   13 Jun 2027 09:49:02.697            14.009          6364.719
       428   13 Jun 2027 09:51:04.384   13 Jun 2027 09:51:11.858             7.474           150.500
       429   13 Jun 2027 09:52:04.193   13 Jun 2027 09:52:09.833             5.640          1053.281
       430   13 Jun 2027 09:52:34.979   13 Jun 2027 09:52:36.435             1.456           627.844
       431   13 Jun 2027 09:53:19.029   13 Jun 2027 09:53:19.825             0.796           123.938
       432   13 Jun 2027 09:53:47.557   13 Jun 2027 09:53:50.742             3.185           209.562
       433   13 Jun 2027 09:54:39.854   13 Jun 2027 09:54:42.785             2.931          1294.156
       434   13 Jun 2027 09:55:01.865   13 Jun 2027 09:55:09.422             7.557            24.875
       435   13 Jun 2027 09:55:30.536   13 Jun 2027 09:55:33.862             3.326           659.812
       436   13 Jun 2027 11:25:44.936   13 Jun 2027 11:25:58.294            13.358          6518.312
       437   13 Jun 2027 11:27:30.414   13 Jun 2027 11:27:34.389             3.975           522.219
       438   13 Jun 2027 11:28:46.611   13 Jun 2027 11:28:53.250             6.639          1967.563
       439   13 Jun 2027 11:29:00.574   13 Jun 2027 11:29:02.192             1.618           228.875
       440   13 Jun 2027 11:29:19.006   13 Jun 2027 11:29:21.170             2.164           423.219
       441   13 Jun 2027 11:29:50.258   13 Jun 2027 11:29:51.511             1.253           573.969
       442   13 Jun 2027 11:31:12.660   13 Jun 2027 11:31:17.514             4.854          2127.812
       443   13 Jun 2027 11:31:35.931   13 Jun 2027 11:31:36.363             0.432           216.000
