uniorb/output/strategy_4/Camera/Camera_KinoSat_110705.txt

KinoSat_110705
-------------------------
    Access    *     Start Time (UTCG)     *     Stop Time (UTCG)  *   Duration (s) *   Data (Mbytes)
         1   01 Jun 2027 03:37:20.091   01 Jun 2027 03:38:29.226            69.135         34567.500
         2   01 Jun 2027 03:38:49.485   01 Jun 2027 03:38:52.668             3.183          1591.500
         3   01 Jun 2027 03:39:33.572   01 Jun 2027 03:39:51.131            17.559          8779.500
         4   01 Jun 2027 05:12:12.488   01 Jun 2027 05:14:31.723           139.235         69617.500
         5   01 Jun 2027 05:15:27.486   01 Jun 2027 05:15:31.004             3.518          1759.000
         6   01 Jun 2027 05:15:45.480   01 Jun 2027 05:15:56.305            10.825          5412.500
         7   01 Jun 2027 05:16:18.481   01 Jun 2027 05:16:19.398             0.917           458.500
         8   01 Jun 2027 05:19:19.434   01 Jun 2027 05:19:19.434             0.000             0.000
         9   01 Jun 2027 05:21:00.502   01 Jun 2027 05:21:18.347            17.845          8922.500
        10   01 Jun 2027 06:50:48.021   01 Jun 2027 06:51:23.605            35.584         17792.000
        11   01 Jun 2027 06:52:31.023   01 Jun 2027 06:53:52.999            81.976         40988.000
        12   01 Jun 2027 06:54:27.682   01 Jun 2027 06:54:37.938            10.256          5128.000
        13   01 Jun 2027 06:54:49.992   01 Jun 2027 06:55:04.328            14.336          7168.000
        14   01 Jun 2027 08:27:17.056   01 Jun 2027 08:29:42.082           145.026         72513.000
        15   01 Jun 2027 08:30:59.844   01 Jun 2027 08:31:05.391             5.547          2773.500
        16   01 Jun 2027 08:31:53.693   01 Jun 2027 08:31:56.805             3.112          1556.000
        17   01 Jun 2027 08:32:16.988   01 Jun 2027 08:32:20.862             3.874          1937.000
        18   01 Jun 2027 10:04:23.597   01 Jun 2027 10:06:51.900           148.303         74151.500
        19   01 Jun 2027 10:08:34.116   01 Jun 2027 10:08:44.496            10.380          5190.000
        20   01 Jun 2027 10:09:14.721   01 Jun 2027 10:09:17.312             2.591          1295.500
        21   01 Jun 2027 11:39:21.800   01 Jun 2027 11:40:09.288            47.488         23744.000
        22   01 Jun 2027 11:41:05.952   01 Jun 2027 11:41:54.544            48.592         24296.000
        23   01 Jun 2027 11:42:02.898   01 Jun 2027 11:42:09.889             6.991          3495.500
        24   01 Jun 2027 11:43:25.345   01 Jun 2027 11:43:51.810            26.465         13232.500
        25   02 Jun 2027 03:51:46.851   02 Jun 2027 03:51:52.612             5.761          2880.500
        26   02 Jun 2027 03:52:14.606   02 Jun 2027 03:52:32.434            17.828          8914.000
        27   02 Jun 2027 03:53:34.866   02 Jun 2027 03:53:49.974            15.108          7554.000
        28   02 Jun 2027 05:25:16.150   02 Jun 2027 05:28:12.363           176.213         88106.500
        29   02 Jun 2027 05:31:47.507   02 Jun 2027 05:31:47.507             0.000             0.000
        30   02 Jun 2027 05:32:15.567   02 Jun 2027 05:32:59.553            43.986         21993.000
        31   02 Jun 2027 05:33:29.711   02 Jun 2027 05:33:48.787            19.076          9538.000
        32   02 Jun 2027 07:02:48.568   02 Jun 2027 07:04:30.717           102.149         51074.500
        33   02 Jun 2027 07:05:30.477   02 Jun 2027 07:06:13.464            42.987         21493.500
        34   02 Jun 2027 07:06:28.366   02 Jun 2027 07:06:29.218             0.852           426.000
        35   02 Jun 2027 07:08:34.988   02 Jun 2027 07:08:41.952             6.964          3482.000
        36   02 Jun 2027 08:39:43.805   02 Jun 2027 08:43:07.043           203.238        101619.000
        37   02 Jun 2027 08:43:25.033   02 Jun 2027 08:44:00.591            35.558         17779.000
        38   02 Jun 2027 08:44:51.202   02 Jun 2027 08:45:24.478            33.276         16458.687
        39   02 Jun 2027 10:16:35.327   02 Jun 2027 10:17:05.065            29.738         13937.031
        40   02 Jun 2027 10:18:47.992   02 Jun 2027 10:18:50.503             2.511           498.406
        41   02 Jun 2027 10:20:26.839   02 Jun 2027 10:20:29.284             2.445           626.969
        42   02 Jun 2027 10:21:06.403   02 Jun 2027 10:21:07.801             1.398           699.000
        43   02 Jun 2027 11:54:07.797   02 Jun 2027 11:54:08.932             1.135           291.219
        44   03 Jun 2027 04:03:47.972   03 Jun 2027 04:04:08.163            20.191         10095.500
        45   03 Jun 2027 05:36:03.437   03 Jun 2027 05:36:03.781             0.344           172.000
        46   03 Jun 2027 05:37:55.595   03 Jun 2027 05:40:45.516           169.921         84960.500
        47   03 Jun 2027 05:41:25.704   03 Jun 2027 05:41:45.804            20.100         10050.000
        48   03 Jun 2027 05:45:15.551   03 Jun 2027 05:45:15.551             0.000             0.000
        49   03 Jun 2027 05:45:42.237   03 Jun 2027 05:45:43.325             1.088           544.000
        50   03 Jun 2027 07:14:54.185   03 Jun 2027 07:16:51.583           117.398         57618.657
        51   03 Jun 2027 07:19:05.612   03 Jun 2027 07:19:06.892             1.280           331.969
        52   03 Jun 2027 08:52:30.407   03 Jun 2027 08:52:43.777            13.370          6355.344
        53   03 Jun 2027 08:54:32.327   03 Jun 2027 08:54:34.897             2.570            93.656
        54   03 Jun 2027 08:55:07.787   03 Jun 2027 08:55:09.676             1.889           841.969
        55   03 Jun 2027 08:55:43.470   03 Jun 2027 08:55:45.734             2.264           522.125
        56   03 Jun 2027 08:56:13.116   03 Jun 2027 08:56:16.988             3.872           626.156
        57   03 Jun 2027 08:56:58.238   03 Jun 2027 08:56:59.604             1.366            47.563
        58   03 Jun 2027 10:28:39.188   03 Jun 2027 10:28:51.525            12.337          6043.719
        59   03 Jun 2027 10:32:34.603   03 Jun 2027 10:32:36.175             1.572           167.031
        60   04 Jun 2027 04:15:58.300   04 Jun 2027 04:16:37.435            39.135         19567.500
        61   04 Jun 2027 04:18:19.804   04 Jun 2027 04:18:27.158             7.354          3677.000
        62   04 Jun 2027 04:19:20.000   04 Jun 2027 04:19:33.761            13.761          6880.500
        63   04 Jun 2027 05:51:08.486   04 Jun 2027 05:53:14.194           125.708         62854.000
        64   04 Jun 2027 05:53:41.228   04 Jun 2027 05:53:46.837             5.609          2804.500
        65   04 Jun 2027 05:54:01.285   04 Jun 2027 05:54:15.826            14.541          7270.500
        66   04 Jun 2027 05:56:21.586   04 Jun 2027 05:57:04.388            42.802         21401.000
        67   04 Jun 2027 05:57:13.275   04 Jun 2027 05:57:15.588             2.313          1156.500
        68   04 Jun 2027 05:57:27.414   04 Jun 2027 05:57:45.328            17.914          8957.000
        69   04 Jun 2027 07:27:29.936   04 Jun 2027 07:28:29.753            59.817         29552.937
        70   04 Jun 2027 07:31:07.651   04 Jun 2027 07:31:10.403             2.752           788.187
        71   04 Jun 2027 07:33:04.032   04 Jun 2027 07:33:05.465             1.433           218.562
        72   04 Jun 2027 09:04:48.694   04 Jun 2027 09:05:05.273            16.579          6184.438
        73   04 Jun 2027 09:06:14.165   04 Jun 2027 09:06:18.005             3.840           701.656
        74   04 Jun 2027 09:07:06.281   04 Jun 2027 09:07:07.597             1.316           227.875
        75   04 Jun 2027 09:07:17.788   04 Jun 2027 09:07:19.395             1.607           277.438
        76   04 Jun 2027 09:08:57.346   04 Jun 2027 09:08:58.885             1.539           612.437
        77   04 Jun 2027 10:41:00.443   04 Jun 2027 10:41:13.310            12.867          5703.781
        78   05 Jun 2027 04:27:53.683   05 Jun 2027 04:28:44.759            51.076         25538.000
        79   05 Jun 2027 04:29:29.215   05 Jun 2027 04:30:05.858            36.643         18321.500
        80   05 Jun 2027 04:30:29.504   05 Jun 2027 04:30:50.316            20.812         10406.000
        81   05 Jun 2027 04:31:24.578   05 Jun 2027 04:31:24.578             0.000             0.000
        82   05 Jun 2027 06:03:44.239   05 Jun 2027 06:07:10.382           206.143        102293.562
        83   05 Jun 2027 06:08:29.531   05 Jun 2027 06:08:29.531             0.000             0.000
        84   05 Jun 2027 06:09:19.466   05 Jun 2027 06:09:27.326             7.860          3644.688
        85   05 Jun 2027 07:39:03.505   05 Jun 2027 07:39:06.031             2.526           238.000
        86   05 Jun 2027 07:42:49.288   05 Jun 2027 07:42:51.084             1.796           613.781
        87   05 Jun 2027 07:44:08.919   05 Jun 2027 07:44:11.248             2.329           564.406
        88   05 Jun 2027 09:17:03.696   05 Jun 2027 09:17:24.976            21.280          6352.406
        89   05 Jun 2027 09:17:47.352   05 Jun 2027 09:17:47.444             0.092             8.531
        90   05 Jun 2027 09:19:28.028   05 Jun 2027 09:19:29.772             1.744           508.188
        91   05 Jun 2027 09:19:58.971   05 Jun 2027 09:20:00.922             1.951            26.406
        92   05 Jun 2027 10:52:44.992   05 Jun 2027 10:52:57.213            12.221          5069.531
        93   06 Jun 2027 03:03:15.830   06 Jun 2027 03:03:26.877            11.047          5523.500
        94   06 Jun 2027 03:03:43.132   06 Jun 2027 03:03:47.218             4.086          2043.000
        95   06 Jun 2027 03:06:01.911   06 Jun 2027 03:06:08.604             6.693          3346.500
        96   06 Jun 2027 04:38:29.771   06 Jun 2027 04:38:35.559             5.788          2894.000
        97   06 Jun 2027 04:39:39.227   06 Jun 2027 04:42:31.343           172.116         86058.000
        98   06 Jun 2027 04:43:34.317   06 Jun 2027 04:43:45.360            11.043          5521.500
        99   06 Jun 2027 06:14:25.243   06 Jun 2027 06:16:00.679            95.436         47640.812
       100   06 Jun 2027 06:17:03.212   06 Jun 2027 06:17:06.203             2.991           810.750
       101   06 Jun 2027 06:17:35.009   06 Jun 2027 06:17:36.534             1.525            64.719
       102   06 Jun 2027 06:18:01.218   06 Jun 2027 06:18:01.218             0.000             0.000
       103   06 Jun 2027 06:19:25.082   06 Jun 2027 06:19:34.715             9.633          3226.406
       104   06 Jun 2027 06:19:41.081   06 Jun 2027 06:19:42.052             0.971           198.938
       105   06 Jun 2027 06:20:38.282   06 Jun 2027 06:20:40.806             2.524           791.531
       106   06 Jun 2027 07:51:24.483   06 Jun 2027 07:51:25.960             1.477           361.375
       107   06 Jun 2027 07:52:34.224   06 Jun 2027 07:52:40.816             6.592           363.187
       108   06 Jun 2027 07:53:35.301   06 Jun 2027 07:53:36.868             1.567           506.562
       109   06 Jun 2027 07:55:11.316   06 Jun 2027 07:55:17.668             6.352          1488.281
       110   06 Jun 2027 07:56:00.157   06 Jun 2027 07:56:02.944             2.787           841.469
       111   06 Jun 2027 07:56:37.446   06 Jun 2027 07:56:40.890             3.444          1078.187
       112   06 Jun 2027 09:29:25.470   06 Jun 2027 09:29:38.320            12.850          5290.437
       113   06 Jun 2027 09:30:27.920   06 Jun 2027 09:30:31.038             3.118          1453.344
       114   06 Jun 2027 09:32:08.897   06 Jun 2027 09:32:15.114             6.217          1784.719
       115   06 Jun 2027 09:32:43.958   06 Jun 2027 09:32:45.650             1.692           792.906
       116   06 Jun 2027 09:33:19.246   06 Jun 2027 09:33:22.143             2.897           948.375
       117   06 Jun 2027 11:02:41.027   06 Jun 2027 11:02:53.014            11.987          4881.687
       118   07 Jun 2027 03:14:39.739   07 Jun 2027 03:15:18.915            39.176         19588.000
       119   07 Jun 2027 04:49:23.682   07 Jun 2027 04:50:49.647            85.965         42982.500
       120   07 Jun 2027 04:51:22.755   07 Jun 2027 04:53:29.466           126.711         63355.500
       121   07 Jun 2027 04:54:25.580   07 Jun 2027 04:54:34.612             9.032          4516.000
       122   07 Jun 2027 06:26:32.538   07 Jun 2027 06:27:32.075            59.537         29590.812
       123   07 Jun 2027 06:27:49.801   07 Jun 2027 06:27:50.792             0.991           442.094
       124   07 Jun 2027 06:29:03.849   07 Jun 2027 06:29:07.782             3.933           372.562
       125   07 Jun 2027 06:29:34.926   07 Jun 2027 06:29:36.487             1.561           198.812
       126   07 Jun 2027 06:30:04.365   07 Jun 2027 06:30:06.316             1.951           601.906
       127   07 Jun 2027 06:32:14.888   07 Jun 2027 06:32:18.079             3.191          1557.844
       128   07 Jun 2027 06:33:00.482   07 Jun 2027 06:33:02.372             1.890           288.094
       129   07 Jun 2027 08:03:30.054   07 Jun 2027 08:03:33.051             2.997           834.219
       130   07 Jun 2027 08:05:58.283   07 Jun 2027 08:06:03.646             5.363           421.812
       131   07 Jun 2027 08:07:15.197   07 Jun 2027 08:07:15.668             0.471           138.844
       132   07 Jun 2027 08:07:43.720   07 Jun 2027 08:07:45.470             1.750           802.906
       133   07 Jun 2027 08:08:38.615   07 Jun 2027 08:08:43.115             4.500          1602.750
       134   07 Jun 2027 08:09:02.378   07 Jun 2027 08:09:03.417             1.039           397.313
       135   07 Jun 2027 09:41:23.110   07 Jun 2027 09:41:36.750            13.640          5247.875
       136   07 Jun 2027 09:43:11.020   07 Jun 2027 09:43:13.407             2.387          1163.062
       137   07 Jun 2027 09:44:18.188   07 Jun 2027 09:44:19.532             1.344           468.531
       138   07 Jun 2027 09:44:46.366   07 Jun 2027 09:44:47.959             1.593            52.375
       139   07 Jun 2027 09:45:03.737   07 Jun 2027 09:45:04.528             0.791           349.875
       140   07 Jun 2027 11:14:50.191   07 Jun 2027 11:14:53.346             3.155          1193.312
       141   08 Jun 2027 03:25:58.857   08 Jun 2027 03:26:19.570            20.713         10356.500
       142   08 Jun 2027 05:00:51.519   08 Jun 2027 05:04:20.246           208.727        104363.500
       143   08 Jun 2027 05:05:52.011   08 Jun 2027 05:05:59.187             7.176          3588.000
       144   08 Jun 2027 05:09:40.773   08 Jun 2027 05:09:56.464            15.691          7845.500
       145   08 Jun 2027 06:38:33.918   08 Jun 2027 06:39:44.656            70.738         34168.969
       146   08 Jun 2027 06:41:19.990   08 Jun 2027 06:41:23.496             3.506          1162.000
       147   08 Jun 2027 06:43:23.260   08 Jun 2027 06:43:30.389             7.129          3331.500
       148   08 Jun 2027 06:43:40.233   08 Jun 2027 06:43:41.124             0.891           299.406
       149   08 Jun 2027 06:44:10.973   08 Jun 2027 06:44:13.080             2.107           917.750
       150   08 Jun 2027 06:44:38.490   08 Jun 2027 06:44:39.784             1.294           495.906
       151   08 Jun 2027 08:15:22.058   08 Jun 2027 08:15:24.942             2.884           263.812
       152   08 Jun 2027 08:19:00.222   08 Jun 2027 08:19:02.421             2.199           547.188
       153   08 Jun 2027 08:19:38.655   08 Jun 2027 08:19:43.460             4.805           635.031
       154   08 Jun 2027 08:20:28.293   08 Jun 2027 08:20:30.117             1.824           785.656
       155   08 Jun 2027 08:21:40.502   08 Jun 2027 08:21:43.963             3.461          1380.312
       156   08 Jun 2027 09:53:23.683   08 Jun 2027 09:53:34.111            10.428          5181.656
       157   08 Jun 2027 09:55:09.365   08 Jun 2027 09:55:17.220             7.855           945.031
       158   08 Jun 2027 09:56:48.116   08 Jun 2027 09:56:51.072             2.956           465.094
       159   08 Jun 2027 09:57:13.534   08 Jun 2027 09:57:16.357             2.823           200.281
       160   08 Jun 2027 11:27:16.477   08 Jun 2027 11:27:17.873             1.396           490.375
       161   09 Jun 2027 03:37:34.402   09 Jun 2027 03:37:42.758             8.356          4178.000
       162   09 Jun 2027 03:37:46.816   09 Jun 2027 03:38:01.338            14.522          7261.000
       163   09 Jun 2027 03:41:03.516   09 Jun 2027 03:41:07.385             3.869          1934.500
       164   09 Jun 2027 05:12:27.002   09 Jun 2027 05:15:25.458           178.456         89228.000
       165   09 Jun 2027 05:15:50.869   09 Jun 2027 05:15:50.869             0.000             0.000
       166   09 Jun 2027 05:17:53.679   09 Jun 2027 05:18:00.561             6.882          3441.000
       167   09 Jun 2027 05:19:49.072   09 Jun 2027 05:19:49.072             0.000             0.000
       168   09 Jun 2027 05:20:06.567   09 Jun 2027 05:20:18.601            12.034          6017.000
       169   09 Jun 2027 05:21:23.820   09 Jun 2027 05:21:35.770            11.950          5975.000
       170   09 Jun 2027 06:50:37.155   09 Jun 2027 06:52:12.653            95.498         47363.625
       171   09 Jun 2027 06:52:35.904   09 Jun 2027 06:52:36.959             1.055           428.500
       172   09 Jun 2027 06:53:30.019   09 Jun 2027 06:53:30.019             0.000             0.000
       173   09 Jun 2027 06:54:18.466   09 Jun 2027 06:54:25.167             6.701          2185.719
       174   09 Jun 2027 06:55:20.576   09 Jun 2027 06:55:24.852             4.276          1526.031
       175   09 Jun 2027 06:55:33.789   09 Jun 2027 06:55:34.431             0.642           229.938
       176   09 Jun 2027 06:56:31.140   09 Jun 2027 06:56:36.036             4.896          1772.156
       177   09 Jun 2027 08:27:31.900   09 Jun 2027 08:27:35.500             3.600          1726.813
       178   09 Jun 2027 08:30:02.607   09 Jun 2027 08:30:11.518             8.911          1908.188
       179   09 Jun 2027 08:30:34.861   09 Jun 2027 08:30:35.371             0.510            22.031
       180   09 Jun 2027 08:30:57.262   09 Jun 2027 08:30:59.403             2.141           684.094
       181   09 Jun 2027 08:31:28.729   09 Jun 2027 08:31:31.551             2.822           789.125
       182   09 Jun 2027 08:32:04.016   09 Jun 2027 08:32:06.868             2.852           761.750
       183   09 Jun 2027 08:33:02.118   09 Jun 2027 08:33:08.147             6.029          1726.563
       184   09 Jun 2027 10:04:38.288   09 Jun 2027 10:04:50.231            11.943          5576.656
       185   09 Jun 2027 10:06:14.991   09 Jun 2027 10:06:22.530             7.539           809.156
       186   09 Jun 2027 10:07:55.854   09 Jun 2027 10:07:59.322             3.468           482.812
       187   09 Jun 2027 10:08:49.343   09 Jun 2027 10:08:50.987             1.644           489.594
       188   09 Jun 2027 11:39:37.244   09 Jun 2027 11:39:42.161             4.917          1491.156
       189   10 Jun 2027 03:52:01.780   10 Jun 2027 03:52:08.101             6.321          3160.500
       190   10 Jun 2027 03:52:31.506   10 Jun 2027 03:52:47.809            16.303          8151.500
       191   10 Jun 2027 05:25:30.997   10 Jun 2027 05:28:12.478           161.481         80740.500
       192   10 Jun 2027 05:33:14.209   10 Jun 2027 05:34:03.476            49.267         24633.500
       193   10 Jun 2027 07:03:03.270   10 Jun 2027 07:04:43.508           100.238         48417.531
       194   10 Jun 2027 07:05:39.101   10 Jun 2027 07:05:39.101             0.000             0.000
       195   10 Jun 2027 07:05:54.997   10 Jun 2027 07:05:59.009             4.012          1089.719
       196   10 Jun 2027 07:07:04.451   10 Jun 2027 07:07:09.061             4.610          1515.656
       197   10 Jun 2027 07:08:27.508   10 Jun 2027 07:08:32.446             4.938          2055.250
       198   10 Jun 2027 08:39:59.085   10 Jun 2027 08:40:08.403             9.318          4285.969
       199   10 Jun 2027 08:44:42.672   10 Jun 2027 08:44:48.168             5.496          1970.719
       200   10 Jun 2027 08:45:24.728   10 Jun 2027 08:45:27.043             2.315           551.187
       201   10 Jun 2027 10:16:50.096   10 Jun 2027 10:17:01.801            11.705          5234.188
       202   10 Jun 2027 10:20:49.921   10 Jun 2027 10:20:50.759             0.838           302.219
       203   10 Jun 2027 11:54:23.196   10 Jun 2027 11:54:28.850             5.654           691.500
       204   11 Jun 2027 04:04:03.150   11 Jun 2027 04:04:09.545             6.395          3197.500
       205   11 Jun 2027 04:04:31.768   11 Jun 2027 04:04:48.445            16.677          8338.500
       206   11 Jun 2027 04:07:06.361   11 Jun 2027 04:07:12.543             6.182          3091.000
       207   11 Jun 2027 04:07:36.804   11 Jun 2027 04:07:37.997             1.193           596.500
       208   11 Jun 2027 05:38:10.583   11 Jun 2027 05:41:00.708           170.125         85062.500
       209   11 Jun 2027 05:41:41.818   11 Jun 2027 05:41:41.818             0.000             0.000
       210   11 Jun 2027 05:41:50.460   11 Jun 2027 05:42:00.596            10.136          5068.000
       211   11 Jun 2027 05:45:56.862   11 Jun 2027 05:45:58.243             1.381           690.500
       212   11 Jun 2027 07:15:09.108   11 Jun 2027 07:17:04.829           115.721         57419.594
       213   11 Jun 2027 07:19:23.718   11 Jun 2027 07:19:27.424             3.706           443.813
       214   11 Jun 2027 08:52:47.375   11 Jun 2027 08:53:00.559            13.184          5313.906
       215   11 Jun 2027 08:57:12.742   11 Jun 2027 08:57:17.309             4.567            22.094
       216   11 Jun 2027 10:28:53.399   11 Jun 2027 10:29:05.550            12.151          5908.750
       217   12 Jun 2027 04:16:13.162   12 Jun 2027 04:16:44.747            31.585         15792.500
       218   12 Jun 2027 04:17:05.039   12 Jun 2027 04:17:14.179             9.140          4570.000
       219   12 Jun 2027 04:19:36.767   12 Jun 2027 04:19:38.904             2.137          1068.500
       220   12 Jun 2027 05:51:23.253   12 Jun 2027 05:53:29.210           125.957         62978.500
       221   12 Jun 2027 05:53:57.171   12 Jun 2027 05:54:15.064            17.893          8946.500
       222   12 Jun 2027 05:55:54.248   12 Jun 2027 05:56:36.220            41.972         20986.000
       223   12 Jun 2027 05:57:19.024   12 Jun 2027 05:57:27.121             8.097          4048.500
       224   12 Jun 2027 05:57:58.503   12 Jun 2027 05:58:00.023             1.520           760.000
       225   12 Jun 2027 07:27:45.247   12 Jun 2027 07:29:09.259            84.012         41666.657
       226   12 Jun 2027 07:31:07.315   12 Jun 2027 07:31:08.352             1.037           323.875
       227   12 Jun 2027 07:32:12.084   12 Jun 2027 07:32:16.710             4.626          1448.219
       228   12 Jun 2027 07:32:39.078   12 Jun 2027 07:32:42.406             3.328           400.313
       229   12 Jun 2027 07:32:42.849   12 Jun 2027 07:32:45.163             2.314            13.844
       230   12 Jun 2027 07:33:20.793   12 Jun 2027 07:33:22.011             1.218           284.156
       231   12 Jun 2027 09:05:03.481   12 Jun 2027 09:05:21.495            18.014          6446.563
       232   12 Jun 2027 09:06:28.982   12 Jun 2027 09:06:30.527             1.545           708.719
       233   12 Jun 2027 09:06:33.401   12 Jun 2027 09:06:34.757             1.356            89.812
       234   12 Jun 2027 09:08:37.359   12 Jun 2027 09:08:39.335             1.976           175.719
       235   12 Jun 2027 09:08:56.748   12 Jun 2027 09:08:58.591             1.843           369.187
       236   12 Jun 2027 09:09:38.384   12 Jun 2027 09:09:38.741             0.357           178.500
       237   12 Jun 2027 10:41:15.223   12 Jun 2027 10:41:30.549            15.326          5871.406
       238   13 Jun 2027 04:28:08.214   13 Jun 2027 04:29:50.428           102.214         51107.000
       239   13 Jun 2027 04:30:13.890   13 Jun 2027 04:30:16.282             2.392          1196.000
       240   13 Jun 2027 04:31:19.953   13 Jun 2027 04:31:41.357            21.404         10702.000
       241   13 Jun 2027 06:03:05.795   13 Jun 2027 06:05:40.603           154.808         77404.000
       242   13 Jun 2027 06:05:49.122   13 Jun 2027 06:05:54.572             5.450          2725.000
       243   13 Jun 2027 06:06:16.233   13 Jun 2027 06:06:36.082            19.849          9924.500
       244   13 Jun 2027 06:07:08.863   13 Jun 2027 06:07:23.680            14.817          6878.031
       245   13 Jun 2027 06:09:41.881   13 Jun 2027 06:09:50.188             8.307          3777.938
       246   13 Jun 2027 07:40:49.751   13 Jun 2027 07:40:51.803             2.052           372.031
       247   13 Jun 2027 07:43:05.737   13 Jun 2027 07:43:07.224             1.487           674.031
       248   13 Jun 2027 07:44:23.441   13 Jun 2027 07:44:25.876             2.435           560.781
       249   13 Jun 2027 09:17:18.844   13 Jun 2027 09:17:30.625            11.781          5001.281
       250   13 Jun 2027 09:18:01.922   13 Jun 2027 09:18:03.454             1.532             1.719
       251   13 Jun 2027 09:19:11.076   13 Jun 2027 09:19:15.671             4.595          1613.406
       252   13 Jun 2027 09:19:21.997   13 Jun 2027 09:19:24.833             2.836           166.156
       253   13 Jun 2027 09:19:43.709   13 Jun 2027 09:19:45.237             1.528           534.469
       254   13 Jun 2027 09:20:15.460   13 Jun 2027 09:20:15.717             0.257            91.344
       255   13 Jun 2027 10:52:59.279   13 Jun 2027 10:53:15.007            15.728          7147.375
       256   13 Jun 2027 10:54:42.849   13 Jun 2027 10:54:44.061             1.212            77.250
