uniorb/output/strategy_4/Camera/Camera_KinoSat_111701.txt

KinoSat_111701
-------------------------
    Access    *     Start Time (UTCG)     *     Stop Time (UTCG)  *   Duration (s) *   Data (Mbytes)
         1   01 Jun 2027 03:48:59.135   01 Jun 2027 03:49:27.282            28.147         14073.500
         2   01 Jun 2027 03:49:31.256   01 Jun 2027 03:51:22.759           111.503         55751.500
         3   01 Jun 2027 03:52:19.985   01 Jun 2027 03:52:32.163            12.178          6089.000
         4   01 Jun 2027 03:53:42.087   01 Jun 2027 03:53:45.065             2.978          1489.000
         5   01 Jun 2027 05:26:59.781   01 Jun 2027 05:29:05.790           126.009         63004.500
         6   01 Jun 2027 05:30:05.645   01 Jun 2027 05:30:28.346            22.701         11350.500
         7   01 Jun 2027 06:50:40.600   01 Jun 2027 06:51:38.676            58.076         29038.000
         8   01 Jun 2027 06:52:53.941   01 Jun 2027 06:53:14.196            20.255         10127.500
         9   01 Jun 2027 08:27:07.240   01 Jun 2027 08:27:39.037            31.797         15898.500
        10   01 Jun 2027 08:28:15.709   01 Jun 2027 08:29:39.630            83.921         41960.500
        11   01 Jun 2027 09:59:17.857   01 Jun 2027 09:59:24.734             6.877          3438.500
        12   01 Jun 2027 10:01:12.665   01 Jun 2027 10:01:41.989            29.324         14662.000
        13   01 Jun 2027 10:02:54.588   01 Jun 2027 10:03:01.925             7.337          3668.500
        14   01 Jun 2027 10:04:08.135   01 Jun 2027 10:04:37.858            29.723         14861.500
        15   01 Jun 2027 10:07:32.585   01 Jun 2027 10:08:02.666            30.081         15040.500
        16   01 Jun 2027 10:08:04.742   01 Jun 2027 10:08:29.960            25.218         12609.000
        17   01 Jun 2027 10:08:56.126   01 Jun 2027 10:09:06.457            10.331          5165.500
        18   01 Jun 2027 11:38:10.751   01 Jun 2027 11:40:16.911           126.160         63080.000
        19   01 Jun 2027 11:41:52.941   01 Jun 2027 11:42:40.443            47.502         23751.000
        20   01 Jun 2027 11:42:59.771   01 Jun 2027 11:43:04.678             4.907          2453.500
        21   01 Jun 2027 11:44:16.368   01 Jun 2027 11:44:18.168             1.800           900.000
        22   02 Jun 2027 04:01:05.174   02 Jun 2027 04:01:35.043            29.869         14934.500
        23   02 Jun 2027 04:02:35.918   02 Jun 2027 04:03:45.195            69.277         34638.500
        24   02 Jun 2027 04:04:27.201   02 Jun 2027 04:04:39.937            12.736          6368.000
        25   02 Jun 2027 04:04:54.412   02 Jun 2027 04:05:03.304             8.892          4446.000
        26   02 Jun 2027 04:05:55.020   02 Jun 2027 04:06:22.672            27.652         13826.000
        27   02 Jun 2027 05:40:13.520   02 Jun 2027 05:43:46.722           213.202        106601.000
        28   02 Jun 2027 07:02:46.400   02 Jun 2027 07:03:48.198            61.798         30899.000
        29   02 Jun 2027 07:04:14.914   02 Jun 2027 07:04:14.914             0.000             0.000
        30   02 Jun 2027 08:39:15.126   02 Jun 2027 08:41:41.714           146.588         73294.000
        31   02 Jun 2027 10:14:23.281   02 Jun 2027 10:16:39.784           136.503         67972.125
        32   02 Jun 2027 10:18:10.166   02 Jun 2027 10:18:15.047             4.881          1415.313
        33   02 Jun 2027 10:18:27.486   02 Jun 2027 10:18:32.043             4.557           267.750
        34   02 Jun 2027 10:20:06.200   02 Jun 2027 10:20:12.498             6.298          2265.250
        35   02 Jun 2027 10:20:46.237   02 Jun 2027 10:20:46.237             0.000             0.000
        36   02 Jun 2027 10:20:58.235   02 Jun 2027 10:21:00.359             2.124           978.594
        37   02 Jun 2027 11:50:44.957   02 Jun 2027 11:50:57.619            12.662          5086.250
        38   02 Jun 2027 11:52:02.954   02 Jun 2027 11:52:06.279             3.325          1401.250
        39   02 Jun 2027 11:52:36.372   02 Jun 2027 11:52:37.458             1.086             4.719
        40   02 Jun 2027 11:53:00.087   02 Jun 2027 11:53:04.231             4.144           707.156
        41   02 Jun 2027 11:53:57.980   02 Jun 2027 11:54:00.377             2.397          1062.781
        42   02 Jun 2027 11:54:21.333   02 Jun 2027 11:54:23.811             2.478           170.344
        43   02 Jun 2027 11:54:38.195   02 Jun 2027 11:54:39.102             0.907           223.406
        44   02 Jun 2027 11:55:45.795   02 Jun 2027 11:55:51.106             5.311          1978.188
        45   02 Jun 2027 11:56:08.642   02 Jun 2027 11:56:11.496             2.854           265.781
        46   02 Jun 2027 11:56:54.956   02 Jun 2027 11:56:57.845             2.889          1088.406
        47   03 Jun 2027 04:13:09.327   03 Jun 2027 04:13:50.725            41.398         20699.000
        48   03 Jun 2027 04:14:13.271   03 Jun 2027 04:15:47.301            94.030         47015.000
        49   03 Jun 2027 04:18:23.822   03 Jun 2027 04:18:25.966             2.144          1072.000
        50   03 Jun 2027 05:51:22.607   03 Jun 2027 05:51:59.004            36.397         18198.500
        51   03 Jun 2027 05:52:16.965   03 Jun 2027 05:53:06.621            49.656         24828.000
        52   03 Jun 2027 05:53:59.714   03 Jun 2027 05:54:53.921            54.207         27103.500
        53   03 Jun 2027 07:14:49.452   03 Jun 2027 07:15:30.011            40.559         19586.031
        54   03 Jun 2027 07:15:44.129   03 Jun 2027 07:15:46.969             2.840           376.906
        55   03 Jun 2027 07:17:31.642   03 Jun 2027 07:17:38.125             6.483          2783.812
        56   03 Jun 2027 08:51:18.166   03 Jun 2027 08:51:28.239            10.073          2877.156
        57   03 Jun 2027 08:52:43.777   03 Jun 2027 08:52:50.860             7.083          2360.562
        58   03 Jun 2027 08:53:43.504   03 Jun 2027 08:53:50.776             7.272          1645.125
        59   03 Jun 2027 10:26:30.341   03 Jun 2027 10:26:40.886            10.545          3657.281
        60   03 Jun 2027 10:27:59.689   03 Jun 2027 10:28:08.412             8.723          2462.594
        61   03 Jun 2027 10:28:31.124   03 Jun 2027 10:28:32.296             1.172           298.375
        62   03 Jun 2027 10:29:28.961   03 Jun 2027 10:29:30.291             1.330           233.844
        63   03 Jun 2027 10:30:25.318   03 Jun 2027 10:30:28.989             3.671           432.125
        64   03 Jun 2027 10:31:12.301   03 Jun 2027 10:31:18.140             5.839           821.531
        65   03 Jun 2027 10:32:50.752   03 Jun 2027 10:33:01.138            10.386          2671.438
        66   04 Jun 2027 04:26:13.993   04 Jun 2027 04:27:52.271            98.278         49139.000
        67   04 Jun 2027 04:28:34.132   04 Jun 2027 04:28:53.232            19.100          9550.000
        68   04 Jun 2027 04:32:53.822   04 Jun 2027 04:33:47.658            53.836         26918.000
        69   04 Jun 2027 05:52:26.775   04 Jun 2027 05:52:48.761            21.986         10993.000
        70   04 Jun 2027 06:03:18.324   04 Jun 2027 06:05:35.608           137.284         67619.469
        71   04 Jun 2027 06:06:05.522   04 Jun 2027 06:06:08.824             3.302           934.813
        72   04 Jun 2027 06:06:21.632   04 Jun 2027 06:06:23.667             2.035           350.563
        73   04 Jun 2027 07:27:16.344   04 Jun 2027 07:27:29.936            13.592          4854.781
        74   04 Jun 2027 07:27:46.585   04 Jun 2027 07:27:48.003             1.418           160.469
        75   04 Jun 2027 07:29:17.984   04 Jun 2027 07:29:22.819             4.835          2345.063
        76   04 Jun 2027 07:29:43.659   04 Jun 2027 07:29:45.318             1.659           617.781
        77   04 Jun 2027 09:03:01.825   04 Jun 2027 09:03:06.158             4.333          2003.281
        78   04 Jun 2027 09:05:12.808   04 Jun 2027 09:05:25.476            12.668          3543.594
        79   04 Jun 2027 09:05:40.871   04 Jun 2027 09:05:44.933             4.062           433.062
        80   04 Jun 2027 09:07:13.221   04 Jun 2027 09:07:17.367             4.146          2073.000
        81   04 Jun 2027 10:37:44.859   04 Jun 2027 10:37:52.754             7.895          3494.031
        82   04 Jun 2027 10:38:38.079   04 Jun 2027 10:38:41.642             3.563           885.000
        83   04 Jun 2027 10:40:29.568   04 Jun 2027 10:40:33.915             4.347          1812.281
        84   04 Jun 2027 10:41:02.236   04 Jun 2027 10:41:03.305             1.069           517.406
        85   04 Jun 2027 10:41:13.310   04 Jun 2027 10:41:14.752             1.442           312.656
        86   04 Jun 2027 10:43:24.930   04 Jun 2027 10:43:35.521            10.591          4007.750
        87   04 Jun 2027 10:44:08.796   04 Jun 2027 10:44:10.807             2.011           704.531
        88   04 Jun 2027 10:44:27.982   04 Jun 2027 10:44:33.681             5.699           536.719
        89   05 Jun 2027 03:00:41.915   05 Jun 2027 03:00:54.009            12.094          6047.000
        90   05 Jun 2027 03:01:50.273   05 Jun 2027 03:01:56.221             5.948          2974.000
        91   05 Jun 2027 03:02:27.122   05 Jun 2027 03:02:41.597            14.475          7237.500
        92   05 Jun 2027 03:03:09.991   05 Jun 2027 03:03:38.933            28.942         14471.000
        93   05 Jun 2027 03:04:37.588   05 Jun 2027 03:04:37.693             0.105            52.500
        94   05 Jun 2027 03:04:54.399   05 Jun 2027 03:05:04.012             9.613          4806.500
        95   05 Jun 2027 04:38:35.778   05 Jun 2027 04:40:34.230           118.452         59226.000
        96   05 Jun 2027 04:42:26.145   05 Jun 2027 04:43:28.803            62.658         31329.000
        97   05 Jun 2027 04:44:30.975   05 Jun 2027 04:44:43.062            12.087          6043.500
        98   05 Jun 2027 06:03:41.341   05 Jun 2027 06:04:24.026            42.685         21342.500
        99   05 Jun 2027 06:15:19.417   05 Jun 2027 06:16:12.332            52.915         23852.843
       100   05 Jun 2027 07:37:52.824   05 Jun 2027 07:38:03.185            10.361          4785.906
       101   05 Jun 2027 07:38:18.282   05 Jun 2027 07:38:19.441             1.159           411.281
       102   05 Jun 2027 07:39:32.526   05 Jun 2027 07:39:36.343             3.817           888.938
       103   05 Jun 2027 07:40:14.872   05 Jun 2027 07:40:18.401             3.529           814.281
       104   05 Jun 2027 07:41:10.852   05 Jun 2027 07:41:13.458             2.606          1042.313
       105   05 Jun 2027 07:41:46.710   05 Jun 2027 07:41:57.930            11.220           726.063
       106   05 Jun 2027 07:42:30.284   05 Jun 2027 07:42:37.133             6.849           720.719
       107   05 Jun 2027 09:12:56.529   05 Jun 2027 09:13:03.206             6.677          1841.469
       108   05 Jun 2027 09:14:45.931   05 Jun 2027 09:14:47.863             1.932           572.156
       109   05 Jun 2027 09:16:19.729   05 Jun 2027 09:16:23.057             3.328          1369.312
       110   05 Jun 2027 09:17:59.450   05 Jun 2027 09:18:04.767             5.317           421.563
       111   05 Jun 2027 09:18:46.779   05 Jun 2027 09:18:48.544             1.765           788.562
       112   05 Jun 2027 09:19:35.144   05 Jun 2027 09:19:37.119             1.975           987.500
       113   05 Jun 2027 10:49:52.818   05 Jun 2027 10:49:59.357             6.539          3269.500
       114   05 Jun 2027 10:53:03.403   05 Jun 2027 10:53:20.090            16.687          6147.156
       115   05 Jun 2027 10:54:21.625   05 Jun 2027 10:54:25.754             4.129          1657.688
       116   05 Jun 2027 10:55:01.104   05 Jun 2027 10:55:02.593             1.489           744.500
       117   05 Jun 2027 10:55:16.154   05 Jun 2027 10:55:18.861             2.707           586.094
       118   05 Jun 2027 10:56:31.829   05 Jun 2027 10:56:39.580             7.751          2272.406
       119   06 Jun 2027 03:11:52.685   06 Jun 2027 03:13:16.887            84.202         42101.000
       120   06 Jun 2027 03:13:17.862   06 Jun 2027 03:13:27.643             9.781          4890.500
       121   06 Jun 2027 03:13:43.830   06 Jun 2027 03:14:35.593            51.763         25881.500
       122   06 Jun 2027 03:14:37.219   06 Jun 2027 03:14:43.343             6.124          3062.000
       123   06 Jun 2027 03:16:20.728   06 Jun 2027 03:16:46.351            25.623         12811.500
       124   06 Jun 2027 03:17:32.466   06 Jun 2027 03:17:38.622             6.156          3078.000
       125   06 Jun 2027 04:50:53.096   06 Jun 2027 04:52:37.155           104.059         52029.500
       126   06 Jun 2027 04:54:37.135   06 Jun 2027 04:55:11.063            33.928         14704.531
       127   06 Jun 2027 04:55:55.319   06 Jun 2027 04:55:57.052             1.733           443.469
       128   06 Jun 2027 04:56:42.366   06 Jun 2027 04:56:43.618             1.252           118.000
       129   06 Jun 2027 06:15:02.091   06 Jun 2027 06:15:14.358            12.267          6133.500
       130   06 Jun 2027 06:15:35.891   06 Jun 2027 06:15:38.003             2.112          1056.000
       131   06 Jun 2027 06:16:13.455   06 Jun 2027 06:16:13.455             0.000             0.000
       132   06 Jun 2027 06:16:36.731   06 Jun 2027 06:16:41.346             4.615          2044.282
       133   06 Jun 2027 06:27:16.745   06 Jun 2027 06:27:22.326             5.581          2042.750
       134   06 Jun 2027 07:49:22.916   06 Jun 2027 07:49:37.375            14.459          5462.437
       135   06 Jun 2027 07:49:55.013   06 Jun 2027 07:49:56.370             1.357           402.875
       136   06 Jun 2027 07:50:19.950   06 Jun 2027 07:50:25.258             5.308           199.688
       137   06 Jun 2027 07:51:26.340   06 Jun 2027 07:51:30.522             4.182          1696.938
       138   06 Jun 2027 07:52:19.854   06 Jun 2027 07:52:22.397             2.543           908.531
       139   06 Jun 2027 07:53:22.391   06 Jun 2027 07:53:29.279             6.888          1681.313
       140   06 Jun 2027 07:54:25.853   06 Jun 2027 07:54:29.391             3.538          1163.188
       141   06 Jun 2027 09:24:21.262   06 Jun 2027 09:24:27.581             6.319          2834.156
       142   06 Jun 2027 09:25:35.178   06 Jun 2027 09:25:41.504             6.326          1182.187
       143   06 Jun 2027 09:26:04.644   06 Jun 2027 09:26:06.623             1.979           722.375
       144   06 Jun 2027 09:27:33.491   06 Jun 2027 09:27:36.643             3.152          1529.594
       145   06 Jun 2027 09:28:22.023   06 Jun 2027 09:28:22.262             0.239           113.031
       146   06 Jun 2027 09:29:46.514   06 Jun 2027 09:29:51.274             4.760           333.344
       147   06 Jun 2027 09:31:03.477   06 Jun 2027 09:31:05.807             2.330          1022.531
       148   06 Jun 2027 09:31:37.389   06 Jun 2027 09:31:39.060             1.671           489.062
       149   06 Jun 2027 09:31:50.243   06 Jun 2027 09:31:51.542             1.299           174.094
       150   06 Jun 2027 09:32:42.047   06 Jun 2027 09:32:43.958             1.911           837.344
       151   06 Jun 2027 11:01:57.651   06 Jun 2027 11:02:12.575            14.924          3876.563
       152   06 Jun 2027 11:04:03.143   06 Jun 2027 11:04:09.907             6.764           940.281
       153   06 Jun 2027 11:05:25.986   06 Jun 2027 11:05:29.747             3.761           918.906
       154   06 Jun 2027 11:07:21.913   06 Jun 2027 11:07:28.360             6.447          3041.406
       155   06 Jun 2027 11:08:08.569   06 Jun 2027 11:08:10.876             2.307          1087.313
       156   06 Jun 2027 11:08:30.225   06 Jun 2027 11:08:38.099             7.874           480.281
       157   06 Jun 2027 11:09:11.981   06 Jun 2027 11:09:19.842             7.861           593.688
       158   07 Jun 2027 03:24:18.730   07 Jun 2027 03:24:24.915             6.185          3092.500
       159   07 Jun 2027 03:24:39.367   07 Jun 2027 03:28:03.716           204.349        102174.500
       160   07 Jun 2027 03:28:29.821   07 Jun 2027 03:28:42.189            12.368          6184.000
       161   07 Jun 2027 03:29:11.602   07 Jun 2027 03:29:24.871            13.269          6634.500
       162   07 Jun 2027 03:30:00.655   07 Jun 2027 03:30:03.849             3.194          1597.000
       163   07 Jun 2027 05:02:59.845   07 Jun 2027 05:04:16.161            76.316         37931.188
       164   07 Jun 2027 05:04:43.267   07 Jun 2027 05:04:47.631             4.364           528.813
       165   07 Jun 2027 05:05:04.856   07 Jun 2027 05:05:06.867             2.011           531.156
       166   07 Jun 2027 05:05:26.635   07 Jun 2027 05:05:30.679             4.044           364.031
       167   07 Jun 2027 05:06:06.444   07 Jun 2027 05:06:06.710             0.266           115.969
       168   07 Jun 2027 05:06:23.404   07 Jun 2027 05:06:25.173             1.769           521.688
       169   07 Jun 2027 05:07:35.974   07 Jun 2027 05:07:39.496             3.522           666.406
       170   07 Jun 2027 06:27:08.770   07 Jun 2027 06:27:21.613            12.843          6104.437
       171   07 Jun 2027 06:27:48.057   07 Jun 2027 06:27:49.801             1.744           437.562
       172   07 Jun 2027 06:28:50.654   07 Jun 2027 06:28:54.926             4.272          1901.656
       173   07 Jun 2027 08:00:58.599   07 Jun 2027 08:01:09.137            10.538          5154.719
       174   07 Jun 2027 08:02:48.643   07 Jun 2027 08:02:52.244             3.601          1577.469
       175   07 Jun 2027 08:03:37.010   07 Jun 2027 08:03:41.800             4.790          1357.969
       176   07 Jun 2027 08:04:27.499   07 Jun 2027 08:04:30.239             2.740          1095.281
       177   07 Jun 2027 08:06:11.031   07 Jun 2027 08:06:21.877            10.846          2651.531
       178   07 Jun 2027 08:06:30.153   07 Jun 2027 08:06:38.906             8.753           199.500
       179   07 Jun 2027 09:35:51.589   07 Jun 2027 09:35:56.067             4.478          2191.906
       180   07 Jun 2027 09:37:58.522   07 Jun 2027 09:38:03.432             4.910          2285.094
       181   07 Jun 2027 09:38:57.002   07 Jun 2027 09:39:01.629             4.627          1111.437
       182   07 Jun 2027 09:39:34.833   07 Jun 2027 09:39:35.937             1.104           152.813
       183   07 Jun 2027 09:41:46.513   07 Jun 2027 09:42:02.705            16.192          2718.344
       184   07 Jun 2027 09:43:07.110   07 Jun 2027 09:43:08.920             1.810           342.469
       185   07 Jun 2027 09:43:39.346   07 Jun 2027 09:43:44.745             5.399           495.656
       186   07 Jun 2027 09:44:28.178   07 Jun 2027 09:44:31.362             3.184           713.406
       187   07 Jun 2027 11:13:55.907   07 Jun 2027 11:14:21.479            25.572          5150.219
       188   07 Jun 2027 11:15:45.908   07 Jun 2027 11:15:47.440             1.532           343.969
       189   07 Jun 2027 11:16:11.366   07 Jun 2027 11:16:17.088             5.722           747.687
       190   07 Jun 2027 11:18:32.069   07 Jun 2027 11:18:39.859             7.790          3219.844
       191   07 Jun 2027 11:19:16.420   07 Jun 2027 11:19:18.506             2.086           529.531
       192   07 Jun 2027 11:19:36.868   07 Jun 2027 11:19:38.875             2.007           561.500
       193   07 Jun 2027 11:19:55.138   07 Jun 2027 11:19:56.280             1.142           276.500
       194   07 Jun 2027 11:20:25.519   07 Jun 2027 11:20:27.757             2.238           462.594
       195   07 Jun 2027 11:20:55.474   07 Jun 2027 11:20:59.298             3.824           743.187
       196   07 Jun 2027 11:21:21.436   07 Jun 2027 11:21:23.102             1.666           546.094
       197   08 Jun 2027 03:36:49.773   08 Jun 2027 03:36:56.430             6.657          3328.500
       198   08 Jun 2027 03:37:11.207   08 Jun 2027 03:38:11.954            60.747         30373.500
       199   08 Jun 2027 03:38:16.845   08 Jun 2027 03:40:43.325           146.480         73240.000
       200   08 Jun 2027 03:41:38.175   08 Jun 2027 03:41:50.200            12.025          6012.500
       201   08 Jun 2027 03:42:13.035   08 Jun 2027 03:42:20.319             7.284          3642.000
       202   08 Jun 2027 05:15:36.424   08 Jun 2027 05:17:08.250            91.826         45838.219
       203   08 Jun 2027 05:18:39.934   08 Jun 2027 05:18:48.303             8.369          2371.562
       204   08 Jun 2027 06:39:06.402   08 Jun 2027 06:39:22.226            15.824          6509.125
       205   08 Jun 2027 06:40:26.077   08 Jun 2027 06:40:31.140             5.063          1796.781
       206   08 Jun 2027 06:40:42.806   08 Jun 2027 06:40:45.066             2.260            22.469
       207   08 Jun 2027 08:15:07.132   08 Jun 2027 08:15:19.497            12.365          6009.188
       208   08 Jun 2027 08:15:40.810   08 Jun 2027 08:15:43.486             2.676           569.594
       209   08 Jun 2027 08:15:53.760   08 Jun 2027 08:15:54.432             0.672           123.156
       210   08 Jun 2027 08:16:25.043   08 Jun 2027 08:16:27.455             2.412           956.594
       211   08 Jun 2027 08:17:17.492   08 Jun 2027 08:17:17.628             0.136            68.000
       212   08 Jun 2027 08:17:46.379   08 Jun 2027 08:17:50.540             4.161          2067.531
       213   08 Jun 2027 08:18:24.101   08 Jun 2027 08:18:31.512             7.411           911.688
       214   08 Jun 2027 09:48:50.978   08 Jun 2027 09:48:57.275             6.297          2691.313
       215   08 Jun 2027 09:50:39.307   08 Jun 2027 09:50:43.305             3.998          1248.531
       216   08 Jun 2027 09:51:12.485   08 Jun 2027 09:51:14.827             2.342           911.875
       217   08 Jun 2027 09:51:24.988   08 Jun 2027 09:51:28.796             3.808           243.500
       218   08 Jun 2027 09:53:45.861   08 Jun 2027 09:53:53.428             7.567          2583.750
       219   08 Jun 2027 09:55:40.958   08 Jun 2027 09:55:45.728             4.770          1716.000
       220   08 Jun 2027 09:55:49.552   08 Jun 2027 09:55:50.463             0.911            76.719
       221   08 Jun 2027 09:57:24.608   08 Jun 2027 09:57:25.587             0.979           489.500
       222   08 Jun 2027 11:26:18.387   08 Jun 2027 11:26:32.692            14.305          6912.375
       223   08 Jun 2027 11:28:23.201   08 Jun 2027 11:28:27.208             4.007          1449.125
       224   08 Jun 2027 11:30:18.265   08 Jun 2027 11:30:26.676             8.411          3318.500
       225   08 Jun 2027 11:31:17.657   08 Jun 2027 11:31:23.319             5.662           937.406
       226   08 Jun 2027 11:31:36.476   08 Jun 2027 11:31:43.306             6.830           359.437
       227   08 Jun 2027 11:32:36.341   08 Jun 2027 11:32:40.053             3.712          1300.656
       228   08 Jun 2027 11:32:57.558   08 Jun 2027 11:32:59.442             1.884           336.844
       229   09 Jun 2027 03:49:16.049   09 Jun 2027 03:49:43.220            27.171         13585.500
       230   09 Jun 2027 03:49:47.125   09 Jun 2027 03:52:29.783           162.658         81329.000
       231   09 Jun 2027 03:54:38.506   09 Jun 2027 03:54:45.005             6.499          3249.500
       232   09 Jun 2027 03:54:58.152   09 Jun 2027 03:54:59.825             1.673           836.500
       233   09 Jun 2027 05:27:17.030   09 Jun 2027 05:27:49.585            32.555         16277.500
       234   09 Jun 2027 05:28:52.204   09 Jun 2027 05:30:03.341            71.137         35568.500
       235   09 Jun 2027 05:30:42.974   09 Jun 2027 05:31:15.681            32.707         15963.531
       236   09 Jun 2027 05:31:37.585   09 Jun 2027 05:31:38.218             0.633           189.719
       237   09 Jun 2027 06:50:56.638   09 Jun 2027 06:51:17.372            20.734          7058.250
       238   09 Jun 2027 06:52:22.192   09 Jun 2027 06:52:28.632             6.440          2025.625
       239   09 Jun 2027 06:53:08.523   09 Jun 2027 06:53:09.242             0.719           359.500
       240   09 Jun 2027 08:27:23.589   09 Jun 2027 08:27:35.500            11.911          5820.938
       241   09 Jun 2027 08:28:14.528   09 Jun 2027 08:28:18.629             4.101           906.187
       242   09 Jun 2027 08:28:51.228   09 Jun 2027 08:28:52.380             1.152           351.813
       243   09 Jun 2027 08:30:11.518   09 Jun 2027 08:30:11.518             0.000             0.000
       244   09 Jun 2027 09:59:33.002   09 Jun 2027 09:59:42.546             9.544          4343.656
       245   09 Jun 2027 10:01:59.673   09 Jun 2027 10:02:08.007             8.334          3587.781
       246   09 Jun 2027 10:03:18.244   09 Jun 2027 10:03:18.883             0.639           132.531
       247   09 Jun 2027 10:04:28.917   09 Jun 2027 10:04:34.239             5.322          1803.312
       248   09 Jun 2027 10:05:47.428   09 Jun 2027 10:05:49.098             1.670           569.563
       249   09 Jun 2027 10:07:42.172   09 Jun 2027 10:07:51.892             9.720          2184.844
       250   09 Jun 2027 10:07:54.815   09 Jun 2027 10:07:55.854             1.039            68.906
       251   09 Jun 2027 10:08:39.894   09 Jun 2027 10:08:42.566             2.672           788.531
       252   09 Jun 2027 10:08:46.766   09 Jun 2027 10:08:46.993             0.227            97.719
       253   09 Jun 2027 10:09:09.883   09 Jun 2027 10:09:16.570             6.687           653.813
       254   09 Jun 2027 10:09:16.906   09 Jun 2027 10:09:18.512             1.606            10.500
       255   09 Jun 2027 11:38:28.316   09 Jun 2027 11:38:39.102            10.786          5178.562
       256   09 Jun 2027 11:40:32.316   09 Jun 2027 11:40:36.620             4.304           639.750
       257   09 Jun 2027 11:41:08.628   09 Jun 2027 11:41:10.502             1.874           929.094
       258   09 Jun 2027 11:42:10.366   09 Jun 2027 11:42:18.024             7.658           984.094
       259   09 Jun 2027 11:42:36.423   09 Jun 2027 11:42:37.638             1.215           112.000
       260   09 Jun 2027 11:43:12.280   09 Jun 2027 11:43:14.726             2.446           434.125
       261   09 Jun 2027 11:43:32.739   09 Jun 2027 11:43:34.851             2.112           562.906
       262   09 Jun 2027 11:44:11.021   09 Jun 2027 11:44:13.657             2.636           781.656
       263   09 Jun 2027 11:44:29.565   09 Jun 2027 11:44:30.586             1.021           355.438
       264   09 Jun 2027 11:44:35.172   09 Jun 2027 11:44:36.854             1.682           143.312
       265   10 Jun 2027 04:01:22.236   10 Jun 2027 04:02:24.665            62.429         31214.500
       266   10 Jun 2027 04:02:31.637   10 Jun 2027 04:03:33.116            61.479         30739.500
       267   10 Jun 2027 04:04:18.750   10 Jun 2027 04:04:48.285            29.535         14767.500
       268   10 Jun 2027 04:05:12.152   10 Jun 2027 04:05:29.102            16.950          8475.000
       269   10 Jun 2027 04:05:51.824   10 Jun 2027 04:05:57.953             6.129          3064.500
       270   10 Jun 2027 04:06:37.514   10 Jun 2027 04:06:39.025             1.511           755.500
       271   10 Jun 2027 04:07:01.651   10 Jun 2027 04:07:07.053             5.402          2701.000
       272   10 Jun 2027 05:40:30.447   10 Jun 2027 05:42:48.436           137.989         68917.000
       273   10 Jun 2027 07:03:04.605   10 Jun 2027 07:03:24.582            19.977          6408.438
       274   10 Jun 2027 07:03:58.555   10 Jun 2027 07:04:01.061             2.506           774.344
       275   10 Jun 2027 07:04:52.891   10 Jun 2027 07:04:52.891             0.000             0.000
       276   10 Jun 2027 07:05:20.126   10 Jun 2027 07:05:25.371             5.245          2371.687
       277   10 Jun 2027 07:05:54.997   10 Jun 2027 07:05:55.144             0.147            73.500
       278   10 Jun 2027 08:39:32.699   10 Jun 2027 08:39:41.703             9.004          3226.594
       279   10 Jun 2027 08:39:59.707   10 Jun 2027 08:40:03.872             4.165           271.469
       280   10 Jun 2027 08:40:37.477   10 Jun 2027 08:40:38.238             0.761           170.312
       281   10 Jun 2027 08:41:07.636   10 Jun 2027 08:41:09.957             2.321           402.094
       282   10 Jun 2027 08:42:10.989   10 Jun 2027 08:42:19.071             8.082          1739.000
       283   10 Jun 2027 10:14:43.580   10 Jun 2027 10:14:52.930             9.350          3861.250
       284   10 Jun 2027 10:15:53.409   10 Jun 2027 10:15:58.041             4.632          1383.656
       285   10 Jun 2027 10:17:42.061   10 Jun 2027 10:17:46.641             4.580          1988.406
       286   10 Jun 2027 10:19:35.145   10 Jun 2027 10:19:41.056             5.911          2572.844
       287   10 Jun 2027 10:20:46.671   10 Jun 2027 10:20:50.759             4.088          1991.781
       288   10 Jun 2027 10:21:01.823   10 Jun 2027 10:21:05.519             3.696           345.750
       289   10 Jun 2027 10:21:14.884   10 Jun 2027 10:21:16.204             1.320           292.656
       290   10 Jun 2027 11:51:02.646   10 Jun 2027 11:51:13.823            11.177          5264.000
       291   10 Jun 2027 11:52:18.161   10 Jun 2027 11:52:21.502             3.341          1352.656
       292   10 Jun 2027 11:52:58.789   10 Jun 2027 11:53:00.277             1.488           138.594
       293   10 Jun 2027 11:54:15.663   10 Jun 2027 11:54:18.658             2.995          1064.344
       294   10 Jun 2027 11:54:48.819   10 Jun 2027 11:54:51.543             2.724           391.313
       295   10 Jun 2027 11:55:09.602   10 Jun 2027 11:55:17.395             7.793           475.906
       296   10 Jun 2027 11:56:17.826   10 Jun 2027 11:56:22.022             4.196          1778.031
       297   10 Jun 2027 11:56:37.136   10 Jun 2027 11:56:40.078             2.942           472.313
       298   11 Jun 2027 04:13:27.083   11 Jun 2027 04:14:08.331            41.248         20624.000
       299   11 Jun 2027 04:14:30.272   11 Jun 2027 04:16:03.402            93.130         46565.000
       300   11 Jun 2027 04:18:38.668   11 Jun 2027 04:18:41.718             3.050          1525.000
       301   11 Jun 2027 05:51:39.454   11 Jun 2027 05:52:15.880            36.426         18213.000
       302   11 Jun 2027 05:52:44.489   11 Jun 2027 05:53:21.135            36.646         18323.000
       303   11 Jun 2027 05:54:14.303   11 Jun 2027 05:54:23.324             9.021          4510.500
       304   11 Jun 2027 05:54:30.772   11 Jun 2027 05:55:10.710            39.938         19969.000
       305   11 Jun 2027 07:15:06.246   11 Jun 2027 07:16:05.861            59.615         29340.562
       306   11 Jun 2027 07:16:54.493   11 Jun 2027 07:16:54.493             0.000             0.000
       307   11 Jun 2027 07:17:38.868   11 Jun 2027 07:17:39.725             0.857           428.500
       308   11 Jun 2027 07:17:58.224   11 Jun 2027 07:18:08.900            10.676          2631.219
       309   11 Jun 2027 08:51:34.111   11 Jun 2027 08:51:44.558            10.447          2741.625
       310   11 Jun 2027 08:53:03.476   11 Jun 2027 08:53:07.895             4.419          2209.500
       311   11 Jun 2027 08:53:29.723   11 Jun 2027 08:53:32.640             2.917           938.812
       312   11 Jun 2027 08:54:40.403   11 Jun 2027 08:54:44.365             3.962          1229.125
       313   11 Jun 2027 10:26:46.494   11 Jun 2027 10:26:56.747            10.253          3833.844
       314   11 Jun 2027 10:28:41.981   11 Jun 2027 10:28:43.987             2.006           705.094
       315   11 Jun 2027 10:29:38.556   11 Jun 2027 10:29:38.556             0.000             0.000
       316   11 Jun 2027 10:29:43.214   11 Jun 2027 10:29:48.192             4.978          1654.500
       317   11 Jun 2027 10:30:32.360   11 Jun 2027 10:30:35.246             2.886            42.219
       318   11 Jun 2027 10:31:02.034   11 Jun 2027 10:31:04.420             2.386           635.844
       319   11 Jun 2027 10:31:56.923   11 Jun 2027 10:31:59.990             3.067           871.250
       320   11 Jun 2027 10:32:58.520   11 Jun 2027 10:33:04.514             5.994          1551.063
       321   12 Jun 2027 04:26:31.624   12 Jun 2027 04:28:34.884           123.260         61630.000
       322   12 Jun 2027 04:30:40.009   12 Jun 2027 04:30:41.754             1.745           872.500
       323   12 Jun 2027 04:32:07.174   12 Jun 2027 04:32:08.692             1.518           759.000
       324   12 Jun 2027 04:32:41.045   12 Jun 2027 04:33:05.248            24.203         12101.500
       325   12 Jun 2027 04:33:18.854   12 Jun 2027 04:33:24.204             5.350          2675.000
       326   12 Jun 2027 04:34:03.512   12 Jun 2027 04:34:18.450            14.938          7469.000
       327   12 Jun 2027 05:52:40.736   12 Jun 2027 05:53:07.333            26.597         13298.500
       328   12 Jun 2027 06:03:35.202   12 Jun 2027 06:05:39.134           123.932         61966.000
       329   12 Jun 2027 06:06:17.370   12 Jun 2027 06:06:20.169             2.799          1399.500
       330   12 Jun 2027 06:06:28.054   12 Jun 2027 06:06:29.930             1.876           873.250
       331   12 Jun 2027 07:27:32.846   12 Jun 2027 07:27:45.247            12.401          5641.938
       332   12 Jun 2027 07:28:03.624   12 Jun 2027 07:28:09.125             5.501           256.375
       333   12 Jun 2027 07:28:54.105   12 Jun 2027 07:28:54.105             0.000             0.000
       334   12 Jun 2027 07:29:33.643   12 Jun 2027 07:29:38.468             4.825          2307.344
       335   12 Jun 2027 07:30:01.365   12 Jun 2027 07:30:03.335             1.970           672.188
       336   12 Jun 2027 09:03:17.930   12 Jun 2027 09:03:24.350             6.420          2025.875
       337   12 Jun 2027 09:04:40.890   12 Jun 2027 09:04:50.541             9.651          1459.156
       338   12 Jun 2027 09:05:50.458   12 Jun 2027 09:05:55.009             4.551          1872.406
       339   12 Jun 2027 10:38:01.809   12 Jun 2027 10:38:10.672             8.863          3965.906
       340   12 Jun 2027 10:41:33.626   12 Jun 2027 10:41:34.564             0.938           360.687
       341   12 Jun 2027 10:43:42.759   12 Jun 2027 10:43:52.583             9.824          3847.094
       342   12 Jun 2027 10:44:22.122   12 Jun 2027 10:44:26.299             4.177           599.687
       343   12 Jun 2027 10:44:44.919   12 Jun 2027 10:44:48.837             3.918           581.875
       344   12 Jun 2027 10:44:51.587   12 Jun 2027 10:44:53.674             2.087            85.937
       345   12 Jun 2027 10:45:29.783   12 Jun 2027 10:45:32.325             2.542          1128.406
       346   13 Jun 2027 03:00:06.183   13 Jun 2027 03:00:24.282            18.099          9049.500
       347   13 Jun 2027 03:00:35.916   13 Jun 2027 03:01:00.196            24.280         12140.000
       348   13 Jun 2027 03:03:50.585   13 Jun 2027 03:04:13.700            23.115         11557.500
       349   13 Jun 2027 03:06:11.306   13 Jun 2027 03:06:13.950             2.644          1322.000
       350   13 Jun 2027 04:38:54.433   13 Jun 2027 04:40:49.421           114.988         57494.000
       351   13 Jun 2027 04:42:40.618   13 Jun 2027 04:42:44.675             4.057          2028.500
       352   13 Jun 2027 04:43:46.114   13 Jun 2027 04:43:46.811             0.697           348.500
       353   13 Jun 2027 04:43:54.355   13 Jun 2027 04:44:08.811            14.456          7228.000
       354   13 Jun 2027 04:44:42.885   13 Jun 2027 04:46:08.191            85.306         42653.000
       355   13 Jun 2027 06:03:56.781   13 Jun 2027 06:04:39.504            42.723         21361.500
       356   13 Jun 2027 06:15:36.420   13 Jun 2027 06:16:19.757            43.337         21578.250
       357   13 Jun 2027 07:38:07.869   13 Jun 2027 07:38:22.445            14.576          5291.875
       358   13 Jun 2027 07:38:36.115   13 Jun 2027 07:38:37.194             1.079           395.719
       359   13 Jun 2027 07:39:50.067   13 Jun 2027 07:39:52.096             2.029           885.969
       360   13 Jun 2027 07:40:31.675   13 Jun 2027 07:40:37.597             5.922           807.656
       361   13 Jun 2027 07:41:26.400   13 Jun 2027 07:41:30.982             4.582           961.531
       362   13 Jun 2027 07:42:04.402   13 Jun 2027 07:42:14.144             9.742           781.000
       363   13 Jun 2027 07:42:47.032   13 Jun 2027 07:42:52.416             5.384           741.844
       364   13 Jun 2027 09:13:10.954   13 Jun 2027 09:13:16.943             5.989          2059.281
       365   13 Jun 2027 09:14:23.727   13 Jun 2027 09:14:28.842             5.115          2087.000
       366   13 Jun 2027 09:16:36.927   13 Jun 2027 09:16:39.713             2.786          1384.031
       367   13 Jun 2027 09:18:17.798   13 Jun 2027 09:18:19.447             1.649           448.250
       368   13 Jun 2027 09:19:05.089   13 Jun 2027 09:19:11.076             5.987           783.219
       369   13 Jun 2027 09:19:53.275   13 Jun 2027 09:19:55.090             1.815           907.500
       370   13 Jun 2027 10:50:10.007   13 Jun 2027 10:50:17.011             7.004          2674.219
       371   13 Jun 2027 10:53:16.473   13 Jun 2027 10:53:20.320             3.847          1916.906
       372   13 Jun 2027 10:55:17.836   13 Jun 2027 10:55:27.145             9.309          3584.094
       373   13 Jun 2027 10:55:39.385   13 Jun 2027 10:55:40.310             0.925           324.531
       374   13 Jun 2027 10:56:42.607   13 Jun 2027 10:56:46.955             4.348          1906.063
       375   13 Jun 2027 10:56:56.447   13 Jun 2027 10:56:57.391             0.944           296.625
       376   13 Jun 2027 10:57:31.515   13 Jun 2027 10:57:34.426             2.911           718.844
