uniorb/output/strategy_4/Camera/Camera_KinoSat_111607.txt

KinoSat_111607
-------------------------
    Access    *     Start Time (UTCG)     *     Stop Time (UTCG)  *   Duration (s) *   Data (Mbytes)
         1   01 Jun 2027 03:00:00.000   01 Jun 2027 03:00:00.511             0.511           255.500
         2   01 Jun 2027 04:32:47.092   01 Jun 2027 04:35:06.428           139.336         69668.000
         3   01 Jun 2027 04:35:20.959   01 Jun 2027 04:35:20.959             0.000             0.000
         4   01 Jun 2027 04:36:04.842   01 Jun 2027 04:36:04.842             0.000             0.000
         5   01 Jun 2027 04:36:34.856   01 Jun 2027 04:36:40.207             5.351          2675.500
         6   01 Jun 2027 04:37:26.968   01 Jun 2027 04:37:58.431            31.463         15731.500
         7   01 Jun 2027 04:39:45.345   01 Jun 2027 04:39:49.046             3.701          1850.500
         8   01 Jun 2027 05:57:08.449   01 Jun 2027 05:58:55.576           107.127         53563.500
         9   01 Jun 2027 06:09:21.590   01 Jun 2027 06:09:43.925            22.335         11167.500
        10   01 Jun 2027 07:31:15.336   01 Jun 2027 07:32:28.955            73.619         36809.500
        11   01 Jun 2027 07:33:18.623   01 Jun 2027 07:33:59.792            41.169         20584.500
        12   01 Jun 2027 07:34:13.553   01 Jun 2027 07:34:44.993            31.440         15720.000
        13   01 Jun 2027 09:06:03.413   01 Jun 2027 09:08:06.980           123.567         61783.500
        14   01 Jun 2027 09:14:58.932   01 Jun 2027 09:15:00.516             1.584           792.000
        15   01 Jun 2027 10:43:54.490   01 Jun 2027 10:45:41.650           107.160         53580.000
        16   01 Jun 2027 10:49:51.985   01 Jun 2027 10:51:20.268            88.283         44141.500
        17   02 Jun 2027 03:06:43.297   02 Jun 2027 03:07:02.969            19.672          9836.000
        18   02 Jun 2027 03:07:08.288   02 Jun 2027 03:08:07.468            59.180         29590.000
        19   02 Jun 2027 03:08:53.423   02 Jun 2027 03:09:01.509             8.086          4043.000
        20   02 Jun 2027 03:11:55.017   02 Jun 2027 03:12:10.492            15.475          7737.500
        21   02 Jun 2027 04:45:10.588   02 Jun 2027 04:47:50.843           160.255         80127.500
        22   02 Jun 2027 04:48:54.374   02 Jun 2027 04:49:34.166            39.792         19896.000
        23   02 Jun 2027 04:50:02.182   02 Jun 2027 04:50:17.891            15.709          7854.500
        24   02 Jun 2027 06:09:06.437   02 Jun 2027 06:10:19.624            73.187         36593.500
        25   02 Jun 2027 06:11:16.108   02 Jun 2027 06:11:19.772             3.664          1832.000
        26   02 Jun 2027 07:45:03.757   02 Jun 2027 07:48:12.388           188.631         94315.500
        27   02 Jun 2027 09:18:52.283   02 Jun 2027 09:21:03.935           131.652         65826.000
        28   02 Jun 2027 09:22:56.023   02 Jun 2027 09:23:14.898            18.875          8877.563
        29   02 Jun 2027 09:26:40.416   02 Jun 2027 09:26:53.503            13.087          5857.469
        30   02 Jun 2027 10:56:01.865   02 Jun 2027 10:56:18.668            16.803          6104.750
        31   02 Jun 2027 10:57:34.219   02 Jun 2027 10:57:37.265             3.046           908.156
        32   02 Jun 2027 10:58:41.032   02 Jun 2027 10:58:41.032             0.000             0.000
        33   02 Jun 2027 11:00:17.734   02 Jun 2027 11:00:27.691             9.957          4915.125
        34   02 Jun 2027 11:01:08.920   02 Jun 2027 11:01:10.562             1.642           638.281
        35   02 Jun 2027 11:01:14.060   02 Jun 2027 11:01:14.783             0.723            20.687
        36   02 Jun 2027 11:01:27.803   02 Jun 2027 11:01:28.922             1.119           406.875
        37   02 Jun 2027 11:02:12.488   02 Jun 2027 11:02:19.267             6.779          1220.625
        38   02 Jun 2027 11:02:26.806   02 Jun 2027 11:02:30.715             3.909           148.844
        39   02 Jun 2027 11:02:50.801   02 Jun 2027 11:02:53.159             2.358           627.687
        40   02 Jun 2027 11:03:19.535   02 Jun 2027 11:03:20.137             0.602           301.000
        41   03 Jun 2027 03:19:28.455   03 Jun 2027 03:19:48.453            19.998          9999.000
        42   03 Jun 2027 03:20:05.394   03 Jun 2027 03:20:56.178            50.784         25392.000
        43   03 Jun 2027 03:20:58.037   03 Jun 2027 03:22:15.384            77.347         38673.500
        44   03 Jun 2027 03:22:22.217   03 Jun 2027 03:22:31.195             8.978          4489.000
        45   03 Jun 2027 03:22:48.995   03 Jun 2027 03:22:53.991             4.996          2498.000
        46   03 Jun 2027 03:24:43.264   03 Jun 2027 03:24:48.446             5.182          2591.000
        47   03 Jun 2027 04:57:36.591   03 Jun 2027 04:59:44.924           128.333         62911.812
        48   03 Jun 2027 05:00:17.596   03 Jun 2027 05:00:19.997             2.401          1021.000
        49   03 Jun 2027 05:01:07.961   03 Jun 2027 05:01:11.009             3.048          1370.906
        50   03 Jun 2027 05:01:48.065   03 Jun 2027 05:01:49.349             1.284           504.406
        51   03 Jun 2027 06:20:59.241   03 Jun 2027 06:21:12.804            13.563          6481.125
        52   03 Jun 2027 06:22:15.241   03 Jun 2027 06:22:15.241             0.000             0.000
        53   03 Jun 2027 06:22:20.925   03 Jun 2027 06:22:25.159             4.234          1545.500
        54   03 Jun 2027 07:57:21.554   03 Jun 2027 07:57:28.421             6.867          3377.156
        55   03 Jun 2027 07:57:51.846   03 Jun 2027 07:57:52.330             0.484            65.094
        56   03 Jun 2027 07:58:35.735   03 Jun 2027 07:58:41.086             5.351          1353.906
        57   03 Jun 2027 07:59:16.021   03 Jun 2027 07:59:18.934             2.913          1048.969
        58   03 Jun 2027 07:59:57.409   03 Jun 2027 07:59:59.466             2.057          1014.656
        59   03 Jun 2027 09:31:13.990   03 Jun 2027 09:31:18.640             4.650          2239.094
        60   03 Jun 2027 09:33:19.869   03 Jun 2027 09:33:19.869             0.000             0.000
        61   03 Jun 2027 09:33:23.766   03 Jun 2027 09:33:25.625             1.859           926.313
        62   03 Jun 2027 09:33:54.563   03 Jun 2027 09:33:59.369             4.806            80.469
        63   03 Jun 2027 09:35:46.169   03 Jun 2027 09:35:50.916             4.747          2216.687
        64   03 Jun 2027 09:37:49.633   03 Jun 2027 09:37:53.483             3.850          1925.000
        65   03 Jun 2027 09:38:09.227   03 Jun 2027 09:38:11.951             2.724           816.500
        66   03 Jun 2027 09:38:47.710   03 Jun 2027 09:38:54.302             6.592          1117.469
        67   03 Jun 2027 11:08:28.557   03 Jun 2027 11:08:41.661            13.104          6113.781
        68   03 Jun 2027 11:09:57.918   03 Jun 2027 11:09:59.684             1.766           742.625
        69   03 Jun 2027 11:10:38.424   03 Jun 2027 11:10:39.135             0.711           301.125
        70   03 Jun 2027 11:11:10.684   03 Jun 2027 11:11:21.262            10.578           717.844
        71   03 Jun 2027 11:12:08.157   03 Jun 2027 11:12:17.060             8.903           924.031
        72   03 Jun 2027 11:13:11.960   03 Jun 2027 11:13:18.030             6.070          1430.375
        73   03 Jun 2027 11:13:45.438   03 Jun 2027 11:13:47.913             2.475           772.250
        74   03 Jun 2027 11:14:36.003   03 Jun 2027 11:14:37.328             1.325           328.625
        75   04 Jun 2027 03:31:15.148   04 Jun 2027 03:31:16.561             1.413           706.500
        76   04 Jun 2027 03:31:37.244   04 Jun 2027 03:32:27.722            50.478         25239.000
        77   04 Jun 2027 03:32:34.057   04 Jun 2027 03:34:58.766           144.709         72354.500
        78   04 Jun 2027 03:35:27.250   04 Jun 2027 03:36:05.860            38.610         19305.000
        79   04 Jun 2027 03:36:31.013   04 Jun 2027 03:36:44.199            13.186          6593.000
        80   04 Jun 2027 05:09:54.440   04 Jun 2027 05:11:03.867            69.427         33075.813
        81   04 Jun 2027 05:11:31.364   04 Jun 2027 05:11:33.762             2.398           859.281
        82   04 Jun 2027 05:12:06.292   04 Jun 2027 05:12:08.947             2.655          1016.562
        83   04 Jun 2027 05:12:24.737   04 Jun 2027 05:12:31.088             6.351            82.813
        84   04 Jun 2027 05:13:26.147   04 Jun 2027 05:13:31.616             5.469          1703.531
        85   04 Jun 2027 06:32:48.274   04 Jun 2027 06:32:59.682            11.408          4830.813
        86   04 Jun 2027 06:33:21.725   04 Jun 2027 06:33:21.725             0.000             0.000
        87   04 Jun 2027 06:34:16.328   04 Jun 2027 06:34:21.925             5.597          2300.344
        88   04 Jun 2027 06:35:04.430   04 Jun 2027 06:35:04.430             0.000             0.000
        89   04 Jun 2027 08:09:25.099   04 Jun 2027 08:09:29.956             4.857          2392.719
        90   04 Jun 2027 08:10:11.179   04 Jun 2027 08:10:13.057             1.878           617.531
        91   04 Jun 2027 08:11:19.569   04 Jun 2027 08:11:23.913             4.344          1888.031
        92   04 Jun 2027 08:11:59.544   04 Jun 2027 08:12:02.702             3.158           792.188
        93   04 Jun 2027 09:44:31.919   04 Jun 2027 09:44:42.169            10.250          2413.938
        94   04 Jun 2027 09:45:31.457   04 Jun 2027 09:45:33.417             1.960           608.875
        95   04 Jun 2027 09:45:56.469   04 Jun 2027 09:46:00.341             3.872           378.219
        96   04 Jun 2027 09:47:20.517   04 Jun 2027 09:47:25.530             5.013          1158.781
        97   04 Jun 2027 09:48:21.286   04 Jun 2027 09:48:26.014             4.728          1159.406
        98   04 Jun 2027 09:49:26.952   04 Jun 2027 09:49:28.200             1.248           142.469
        99   04 Jun 2027 09:50:29.774   04 Jun 2027 09:50:32.398             2.624          1227.719
       100   04 Jun 2027 09:51:03.072   04 Jun 2027 09:51:06.104             3.032           809.406
       101   04 Jun 2027 09:51:10.944   04 Jun 2027 09:51:11.491             0.547           118.594
       102   04 Jun 2027 11:20:52.523   04 Jun 2027 11:21:04.097            11.574          5245.125
       103   04 Jun 2027 11:23:41.611   04 Jun 2027 11:23:44.744             3.133          1153.687
       104   04 Jun 2027 11:24:30.472   04 Jun 2027 11:24:35.397             4.925           637.875
       105   04 Jun 2027 11:24:59.163   04 Jun 2027 11:25:04.263             5.100           309.219
       106   04 Jun 2027 11:25:27.127   04 Jun 2027 11:25:28.219             1.092           300.719
       107   04 Jun 2027 11:25:38.693   04 Jun 2027 11:25:44.582             5.889           301.875
       108   04 Jun 2027 11:26:15.439   04 Jun 2027 11:26:17.881             2.442           439.281
       109   04 Jun 2027 11:26:32.926   04 Jun 2027 11:26:34.252             1.326           356.250
       110   04 Jun 2027 11:26:48.381   04 Jun 2027 11:26:51.215             2.834           441.531
       111   04 Jun 2027 11:27:03.025   04 Jun 2027 11:27:04.157             1.132           291.125
       112   05 Jun 2027 03:43:22.139   05 Jun 2027 03:44:23.569            61.430         30715.000
       113   05 Jun 2027 03:44:30.300   05 Jun 2027 03:46:07.690            97.390         48695.000
       114   05 Jun 2027 03:46:22.684   05 Jun 2027 03:46:44.595            21.911         10955.500
       115   05 Jun 2027 05:21:39.633   05 Jun 2027 05:22:13.895            34.262         17131.000
       116   05 Jun 2027 05:22:28.288   05 Jun 2027 05:23:53.329            85.041         42449.844
       117   05 Jun 2027 05:24:33.761   05 Jun 2027 05:24:37.081             3.320          1103.375
       118   05 Jun 2027 05:25:19.114   05 Jun 2027 05:25:22.127             3.013           549.594
       119   05 Jun 2027 06:45:01.991   05 Jun 2027 06:45:16.404            14.413          6537.000
       120   05 Jun 2027 06:45:47.968   05 Jun 2027 06:45:48.676             0.708           225.469
       121   05 Jun 2027 06:45:58.054   05 Jun 2027 06:46:00.793             2.739            63.719
       122   05 Jun 2027 06:46:24.096   05 Jun 2027 06:46:24.096             0.000             0.000
       123   05 Jun 2027 06:47:36.259   05 Jun 2027 06:47:40.894             4.635          2317.500
       124   05 Jun 2027 06:47:57.996   05 Jun 2027 06:47:58.444             0.448           224.000
       125   05 Jun 2027 08:21:35.940   05 Jun 2027 08:21:45.898             9.958          3714.625
       126   05 Jun 2027 08:22:20.808   05 Jun 2027 08:22:27.506             6.698          1090.937
       127   05 Jun 2027 08:23:33.246   05 Jun 2027 08:23:33.246             0.000             0.000
       128   05 Jun 2027 08:24:11.280   05 Jun 2027 08:24:19.962             8.682          2533.781
       129   05 Jun 2027 08:25:03.286   05 Jun 2027 08:25:06.140             2.854          1095.719
       130   05 Jun 2027 09:56:45.592   05 Jun 2027 09:56:55.252             9.660          2795.313
       131   05 Jun 2027 09:58:08.618   05 Jun 2027 09:58:14.154             5.536          2103.250
       132   05 Jun 2027 09:58:54.436   05 Jun 2027 09:59:01.072             6.636          1228.625
       133   05 Jun 2027 09:59:57.538   05 Jun 2027 10:00:00.393             2.855           512.000
       134   05 Jun 2027 10:00:43.705   05 Jun 2027 10:00:45.111             1.406           306.844
       135   05 Jun 2027 10:01:25.799   05 Jun 2027 10:01:28.720             2.921           532.500
       136   05 Jun 2027 10:03:04.293   05 Jun 2027 10:03:09.609             5.316          2295.656
       137   05 Jun 2027 11:33:06.923   05 Jun 2027 11:33:16.487             9.564          4765.563
       138   05 Jun 2027 11:34:26.267   05 Jun 2027 11:34:29.859             3.592          1054.812
       139   05 Jun 2027 11:34:59.673   05 Jun 2027 11:35:02.053             2.380           757.250
       140   05 Jun 2027 11:36:01.911   05 Jun 2027 11:36:09.761             7.850          1382.719
       141   05 Jun 2027 11:36:33.421   05 Jun 2027 11:36:35.904             2.483           456.312
       142   05 Jun 2027 11:36:54.312   05 Jun 2027 11:36:54.898             0.586            27.625
       143   05 Jun 2027 11:37:53.358   05 Jun 2027 11:37:57.894             4.536          1019.281
       144   05 Jun 2027 11:38:09.739   05 Jun 2027 11:38:10.882             1.143           239.625
       145   06 Jun 2027 03:56:28.774   06 Jun 2027 03:59:07.531           158.757         79378.500
       146   06 Jun 2027 04:00:08.540   06 Jun 2027 04:00:51.804            43.264         21632.000
       147   06 Jun 2027 04:03:18.820   06 Jun 2027 04:03:37.012            18.192          9096.000
       148   06 Jun 2027 05:33:36.602   06 Jun 2027 05:34:16.836            40.234         20117.000
       149   06 Jun 2027 05:34:34.727   06 Jun 2027 05:35:18.021            43.294         21647.000
       150   06 Jun 2027 05:35:48.451   06 Jun 2027 05:36:12.623            24.172         11792.188
       151   06 Jun 2027 05:36:56.691   06 Jun 2027 05:36:59.011             2.320           896.500
       152   06 Jun 2027 06:57:31.936   06 Jun 2027 06:57:46.439            14.503          6137.688
       153   06 Jun 2027 06:58:00.532   06 Jun 2027 06:58:03.334             2.802           293.656
       154   06 Jun 2027 06:58:12.599   06 Jun 2027 06:58:16.031             3.432           144.344
       155   06 Jun 2027 06:58:25.885   06 Jun 2027 06:58:25.885             0.000             0.000
       156   06 Jun 2027 06:59:37.174   06 Jun 2027 06:59:41.190             4.016          2008.000
       157   06 Jun 2027 07:00:01.125   06 Jun 2027 07:00:05.601             4.476          1100.531
       158   06 Jun 2027 08:33:26.338   06 Jun 2027 08:33:32.286             5.948          2257.625
       159   06 Jun 2027 08:35:20.590   06 Jun 2027 08:35:27.325             6.735          3199.750
       160   06 Jun 2027 08:35:36.603   06 Jun 2027 08:35:36.603             0.000             0.000
       161   06 Jun 2027 08:36:02.899   06 Jun 2027 08:36:09.104             6.205           917.250
       162   06 Jun 2027 08:36:45.131   06 Jun 2027 08:36:47.432             2.301          1111.875
       163   06 Jun 2027 10:08:19.444   06 Jun 2027 10:08:27.143             7.699          2275.781
       164   06 Jun 2027 10:09:59.168   06 Jun 2027 10:10:04.727             5.559          2264.125
       165   06 Jun 2027 10:11:07.145   06 Jun 2027 10:11:12.397             5.252           945.094
       166   06 Jun 2027 10:11:36.832   06 Jun 2027 10:11:36.832             0.000             0.000
       167   06 Jun 2027 10:13:50.570   06 Jun 2027 10:14:08.526            17.956          4753.281
       168   06 Jun 2027 10:15:26.373   06 Jun 2027 10:15:30.275             3.902           826.219
       169   06 Jun 2027 11:44:43.906   06 Jun 2027 11:44:54.458            10.552          5194.531
       170   06 Jun 2027 11:46:27.206   06 Jun 2027 11:46:29.806             2.600           644.219
       171   06 Jun 2027 11:46:44.274   06 Jun 2027 11:46:45.784             1.510           240.094
       172   06 Jun 2027 11:47:38.787   06 Jun 2027 11:47:43.296             4.509           835.531
       173   06 Jun 2027 11:48:25.678   06 Jun 2027 11:48:28.715             3.037          1264.844
       174   06 Jun 2027 11:48:56.457   06 Jun 2027 11:49:01.351             4.894           845.531
       175   06 Jun 2027 11:49:25.166   06 Jun 2027 11:49:30.360             5.194           491.344
       176   06 Jun 2027 11:50:15.909   06 Jun 2027 11:50:24.985             9.076          1202.781
       177   06 Jun 2027 11:50:38.301   06 Jun 2027 11:50:40.891             2.590           178.562
       178   06 Jun 2027 11:50:47.733   06 Jun 2027 11:50:48.483             0.750           188.344
       179   06 Jun 2027 11:50:57.233   06 Jun 2027 11:50:58.494             1.261           263.906
       180   07 Jun 2027 04:08:32.784   07 Jun 2027 04:10:17.774           104.990         52495.000
       181   07 Jun 2027 04:11:11.180   07 Jun 2027 04:11:30.796            19.616          9808.000
       182   07 Jun 2027 04:13:58.125   07 Jun 2027 04:14:08.673            10.548          5274.000
       183   07 Jun 2027 04:15:35.547   07 Jun 2027 04:16:10.703            35.156         17578.000
       184   07 Jun 2027 05:34:17.054   07 Jun 2027 05:35:16.242            59.188         29594.000
       185   07 Jun 2027 05:45:33.109   07 Jun 2027 05:46:00.639            27.530         13765.000
       186   07 Jun 2027 05:46:28.067   07 Jun 2027 05:47:13.800            45.733         22866.500
       187   07 Jun 2027 05:48:14.324   07 Jun 2027 05:48:16.309             1.985           992.500
       188   07 Jun 2027 07:08:09.055   07 Jun 2027 07:09:08.315            59.260         28866.219
       189   07 Jun 2027 07:10:17.719   07 Jun 2027 07:10:22.237             4.518          1672.531
       190   07 Jun 2027 07:11:02.685   07 Jun 2027 07:11:02.685             0.000             0.000
       191   07 Jun 2027 07:11:30.789   07 Jun 2027 07:11:36.297             5.508          1969.469
       192   07 Jun 2027 07:12:36.373   07 Jun 2027 07:12:45.964             9.591          1731.969
       193   07 Jun 2027 08:43:43.518   07 Jun 2027 08:43:51.497             7.979          2588.375
       194   07 Jun 2027 08:44:27.872   07 Jun 2027 08:44:29.194             1.322           430.344
       195   07 Jun 2027 08:45:51.456   07 Jun 2027 08:45:56.114             4.658          1900.469
       196   07 Jun 2027 08:46:44.252   07 Jun 2027 08:46:47.148             2.896          1303.563
       197   07 Jun 2027 08:48:06.848   07 Jun 2027 08:48:08.160             1.312           468.219
       198   07 Jun 2027 08:48:15.017   07 Jun 2027 08:48:16.386             1.369           214.281
       199   07 Jun 2027 08:48:57.022   07 Jun 2027 08:49:05.108             8.086          1171.406
       200   07 Jun 2027 08:49:34.299   07 Jun 2027 08:49:34.859             0.560           271.000
       201   07 Jun 2027 10:19:57.845   07 Jun 2027 10:20:03.625             5.780          2115.375
       202   07 Jun 2027 10:21:59.850   07 Jun 2027 10:22:07.951             8.101          2934.594
       203   07 Jun 2027 10:23:19.044   07 Jun 2027 10:23:21.390             2.346           582.062
       204   07 Jun 2027 10:23:30.888   07 Jun 2027 10:23:32.723             1.835           168.906
       205   07 Jun 2027 10:23:59.754   07 Jun 2027 10:24:01.506             1.752           732.594
       206   07 Jun 2027 10:25:49.602   07 Jun 2027 10:25:55.808             6.206          3051.188
       207   07 Jun 2027 10:26:37.246   07 Jun 2027 10:26:43.461             6.215           955.000
       208   07 Jun 2027 10:27:31.339   07 Jun 2027 10:27:32.775             1.436           718.000
       209   07 Jun 2027 11:57:03.863   07 Jun 2027 11:57:15.117            11.254          5166.625
       210   07 Jun 2027 11:58:58.948   07 Jun 2027 11:59:02.238             3.290           416.656
       211   07 Jun 2027 11:59:43.390   07 Jun 2027 11:59:45.656             2.266           907.687
       212   08 Jun 2027 04:21:02.607   08 Jun 2027 04:23:17.953           135.346         67673.000
       213   08 Jun 2027 04:23:30.784   08 Jun 2027 04:23:31.976             1.192           596.000
       214   08 Jun 2027 04:24:17.779   08 Jun 2027 04:24:20.847             3.068          1534.000
       215   08 Jun 2027 04:25:30.434   08 Jun 2027 04:25:46.881            16.447          8223.500
       216   08 Jun 2027 04:26:37.694   08 Jun 2027 04:26:47.830            10.136          5068.000
       217   08 Jun 2027 04:27:50.254   08 Jun 2027 04:28:10.595            20.341         10170.500
       218   08 Jun 2027 05:45:52.897   08 Jun 2027 05:46:27.577            34.680         17340.000
       219   08 Jun 2027 05:57:34.994   08 Jun 2027 05:58:35.347            60.353         30176.500
       220   08 Jun 2027 07:19:51.973   08 Jun 2027 07:20:58.159            66.186         32294.656
       221   08 Jun 2027 07:22:17.300   08 Jun 2027 07:22:23.066             5.766          1715.906
       222   08 Jun 2027 07:24:28.118   08 Jun 2027 07:24:38.240            10.122          3700.469
       223   08 Jun 2027 07:24:57.912   08 Jun 2027 07:24:58.844             0.932           449.594
       224   08 Jun 2027 08:54:50.467   08 Jun 2027 08:55:00.247             9.780          3202.000
       225   08 Jun 2027 08:55:49.130   08 Jun 2027 08:55:49.130             0.000             0.000
       226   08 Jun 2027 08:57:11.616   08 Jun 2027 08:57:19.037             7.421          2905.781
       227   08 Jun 2027 08:58:27.714   08 Jun 2027 08:58:31.216             3.502          1197.188
       228   08 Jun 2027 09:00:04.698   08 Jun 2027 09:00:11.658             6.960          2521.344
       229   08 Jun 2027 09:00:29.673   08 Jun 2027 09:00:30.882             1.209            81.719
       230   08 Jun 2027 09:00:37.307   08 Jun 2027 09:00:43.045             5.738           198.094
       231   08 Jun 2027 09:01:14.960   08 Jun 2027 09:01:14.960             0.000             0.000
       232   08 Jun 2027 09:02:02.559   08 Jun 2027 09:02:06.451             3.892          1568.344
       233   08 Jun 2027 10:32:18.051   08 Jun 2027 10:32:24.350             6.299          2904.125
       234   08 Jun 2027 10:35:22.829   08 Jun 2027 10:35:28.088             5.259          2588.875
       235   08 Jun 2027 10:36:32.943   08 Jun 2027 10:36:37.388             4.445          1577.781
       236   08 Jun 2027 10:37:14.002   08 Jun 2027 10:37:15.767             1.765           880.594
       237   08 Jun 2027 10:37:55.025   08 Jun 2027 10:38:02.378             7.353          1226.813
       238   08 Jun 2027 10:38:56.825   08 Jun 2027 10:39:03.094             6.269          1699.219
       239   09 Jun 2027 03:00:00.000   09 Jun 2027 03:00:18.178            18.178          9089.000
       240   09 Jun 2027 04:33:04.795   09 Jun 2027 04:35:18.809           134.014         67007.000
       241   09 Jun 2027 04:35:48.256   09 Jun 2027 04:35:48.457             0.201           100.500
       242   09 Jun 2027 04:37:51.178   09 Jun 2027 04:38:13.158            21.980         10990.000
       243   09 Jun 2027 04:40:03.018   09 Jun 2027 04:40:04.065             1.047           523.500
       244   09 Jun 2027 05:57:25.795   09 Jun 2027 05:57:58.696            32.901         16450.500
       245   09 Jun 2027 05:58:29.145   09 Jun 2027 05:58:36.595             7.450          3725.000
       246   09 Jun 2027 06:09:41.865   09 Jun 2027 06:10:09.564            27.699         13849.500
       247   09 Jun 2027 07:31:29.205   09 Jun 2027 07:32:45.368            76.163         38081.500
       248   09 Jun 2027 07:33:34.232   09 Jun 2027 07:33:49.751            15.519          7759.500
       249   09 Jun 2027 07:34:16.263   09 Jun 2027 07:34:28.854            12.591          1227.593
       250   09 Jun 2027 07:34:53.926   09 Jun 2027 07:34:55.369             1.443           696.250
       251   09 Jun 2027 07:35:10.559   09 Jun 2027 07:35:10.559             0.000             0.000
       252   09 Jun 2027 07:36:29.010   09 Jun 2027 07:36:36.946             7.936          2485.031
       253   09 Jun 2027 07:37:13.390   09 Jun 2027 07:37:15.737             2.347          1029.781
       254   09 Jun 2027 09:06:18.329   09 Jun 2027 09:06:24.932             6.603          2546.625
       255   09 Jun 2027 09:08:19.690   09 Jun 2027 09:08:21.261             1.571           102.156
       256   09 Jun 2027 09:09:26.002   09 Jun 2027 09:09:30.987             4.985          1226.281
       257   09 Jun 2027 09:10:03.749   09 Jun 2027 09:10:08.056             4.307           544.625
       258   09 Jun 2027 09:10:44.651   09 Jun 2027 09:10:51.736             7.085          1143.594
       259   09 Jun 2027 09:13:04.928   09 Jun 2027 09:13:06.760             1.832           916.000
       260   09 Jun 2027 09:14:14.951   09 Jun 2027 09:14:20.079             5.128          2564.000
       261   09 Jun 2027 09:14:41.496   09 Jun 2027 09:14:44.028             2.532           528.250
       262   09 Jun 2027 10:44:11.634   09 Jun 2027 10:44:21.222             9.588          3976.906
       263   09 Jun 2027 10:45:15.604   09 Jun 2027 10:45:16.305             0.701           333.531
       264   09 Jun 2027 10:45:49.018   09 Jun 2027 10:45:49.616             0.598           179.812
       265   09 Jun 2027 10:47:11.894   09 Jun 2027 10:47:23.445            11.551          2263.250
       266   09 Jun 2027 10:48:19.623   09 Jun 2027 10:48:23.891             4.268           995.719
       267   09 Jun 2027 10:49:23.513   09 Jun 2027 10:49:28.529             5.016          1759.594
       268   09 Jun 2027 10:50:19.296   09 Jun 2027 10:50:24.049             4.753          1501.469
       269   09 Jun 2027 10:50:34.657   09 Jun 2027 10:50:36.502             1.845            44.187
       270   09 Jun 2027 10:51:28.450   09 Jun 2027 10:51:36.905             8.455           861.313
       271   10 Jun 2027 03:07:00.807   10 Jun 2027 03:07:16.596            15.789          7894.500
       272   10 Jun 2027 03:07:24.925   10 Jun 2027 03:07:50.119            25.194         12597.000
       273   10 Jun 2027 03:08:22.844   10 Jun 2027 03:08:37.161            14.317          7158.500
       274   10 Jun 2027 03:09:11.317   10 Jun 2027 03:09:26.048            14.731          7365.500
       275   10 Jun 2027 03:09:39.632   10 Jun 2027 03:10:10.071            30.439         15219.500
       276   10 Jun 2027 03:12:26.376   10 Jun 2027 03:12:32.812             6.436          3218.000
       277   10 Jun 2027 04:45:29.733   10 Jun 2027 04:47:36.274           126.541         63270.500
       278   10 Jun 2027 04:48:05.546   10 Jun 2027 04:48:41.352            35.806         17903.000
       279   10 Jun 2027 04:49:06.761   10 Jun 2027 04:49:12.566             5.805          2902.500
       280   10 Jun 2027 04:49:13.315   10 Jun 2027 04:49:46.757            33.442         16670.937
       281   10 Jun 2027 06:09:22.489   10 Jun 2027 06:09:53.528            31.039         15519.500
       282   10 Jun 2027 06:10:27.756   10 Jun 2027 06:10:30.593             2.837          1404.875
       283   10 Jun 2027 06:10:41.528   10 Jun 2027 06:10:45.847             4.319           341.719
       284   10 Jun 2027 06:11:07.946   10 Jun 2027 06:11:07.946             0.000             0.000
       285   10 Jun 2027 06:11:35.192   10 Jun 2027 06:11:37.624             2.432          1064.031
       286   10 Jun 2027 07:45:21.980   10 Jun 2027 07:45:35.633            13.653          6555.844
       287   10 Jun 2027 07:46:06.207   10 Jun 2027 07:46:08.001             1.794           897.000
       288   10 Jun 2027 07:46:47.482   10 Jun 2027 07:46:51.075             3.593          1285.000
       289   10 Jun 2027 07:48:29.564   10 Jun 2027 07:48:38.155             8.591          3077.781
       290   10 Jun 2027 09:19:10.286   10 Jun 2027 09:19:18.921             8.635          3499.656
       291   10 Jun 2027 09:21:41.960   10 Jun 2027 09:21:44.731             2.771           551.500
       292   10 Jun 2027 09:22:47.801   10 Jun 2027 09:22:51.738             3.937          1165.812
       293   10 Jun 2027 09:23:49.404   10 Jun 2027 09:23:52.589             3.185          1162.469
       294   10 Jun 2027 09:25:05.196   10 Jun 2027 09:25:09.412             4.216          1900.156
       295   10 Jun 2027 09:25:29.834   10 Jun 2027 09:25:31.429             1.595           129.688
       296   10 Jun 2027 09:25:52.971   10 Jun 2027 09:26:00.812             7.841           266.156
       297   10 Jun 2027 09:26:53.717   10 Jun 2027 09:26:57.967             4.250          1486.125
       298   10 Jun 2027 10:56:19.087   10 Jun 2027 10:56:32.120            13.033          6059.125
       299   10 Jun 2027 10:57:42.468   10 Jun 2027 10:57:45.809             3.341           794.156
       300   10 Jun 2027 11:00:38.081   10 Jun 2027 11:00:51.812            13.731          5226.469
       301   10 Jun 2027 11:01:24.531   10 Jun 2027 11:01:25.902             1.371           630.937
       302   10 Jun 2027 11:01:31.790   10 Jun 2027 11:01:33.112             1.322            48.187
       303   10 Jun 2027 11:02:31.273   10 Jun 2027 11:02:36.036             4.763          1314.625
       304   10 Jun 2027 11:02:42.044   10 Jun 2027 11:02:42.591             0.547           149.187
       305   10 Jun 2027 11:03:08.571   10 Jun 2027 11:03:12.045             3.474           662.000
       306   11 Jun 2027 03:19:45.122   11 Jun 2027 03:20:04.298            19.176          9588.000
       307   11 Jun 2027 03:20:18.287   11 Jun 2027 03:21:13.170            54.883         27441.500
       308   11 Jun 2027 03:21:14.563   11 Jun 2027 03:22:32.351            77.788         38894.000
       309   11 Jun 2027 03:22:37.179   11 Jun 2027 03:22:38.575             1.396           698.000
       310   11 Jun 2027 03:23:41.656   11 Jun 2027 03:23:53.914            12.258          6129.000
       311   11 Jun 2027 03:24:36.268   11 Jun 2027 03:24:56.862            20.594         10297.000
       312   11 Jun 2027 04:57:52.674   11 Jun 2027 04:58:21.159            28.485         14242.500
       313   11 Jun 2027 04:58:38.415   11 Jun 2027 04:59:59.359            80.944         39955.188
       314   11 Jun 2027 05:00:31.576   11 Jun 2027 05:00:32.137             0.561           280.500
       315   11 Jun 2027 05:00:41.287   11 Jun 2027 05:00:46.904             5.617          1002.437
       316   11 Jun 2027 05:02:02.984   11 Jun 2027 05:02:05.640             2.656          1275.312
       317   11 Jun 2027 06:21:15.917   11 Jun 2027 06:21:29.965            14.048          6424.375
       318   11 Jun 2027 06:22:38.979   11 Jun 2027 06:22:42.612             3.633          1642.656
       319   11 Jun 2027 06:22:53.219   11 Jun 2027 06:22:59.518             6.299           182.969
       320   11 Jun 2027 06:23:27.126   11 Jun 2027 06:23:29.319             2.193           114.188
       321   11 Jun 2027 07:57:38.469   11 Jun 2027 07:57:45.323             6.854          2826.687
       322   11 Jun 2027 07:58:09.033   11 Jun 2027 07:58:10.054             1.021            13.687
       323   11 Jun 2027 07:58:20.514   11 Jun 2027 07:58:20.514             0.000             0.000
       324   11 Jun 2027 07:58:26.535   11 Jun 2027 07:58:28.084             1.549           464.000
       325   11 Jun 2027 07:59:26.854   11 Jun 2027 07:59:31.169             4.315          1606.469
       326   11 Jun 2027 07:59:38.739   11 Jun 2027 07:59:39.316             0.577           202.062
       327   11 Jun 2027 08:00:41.475   11 Jun 2027 08:00:43.242             1.767           835.250
       328   11 Jun 2027 09:31:33.897   11 Jun 2027 09:31:40.310             6.413          2871.750
       329   11 Jun 2027 09:33:36.000   11 Jun 2027 09:33:37.533             1.533           724.531
       330   11 Jun 2027 09:34:11.313   11 Jun 2027 09:34:13.432             2.119           904.625
       331   11 Jun 2027 09:36:53.143   11 Jun 2027 09:36:57.930             4.787          1560.719
       332   11 Jun 2027 09:38:11.340   11 Jun 2027 09:38:15.712             4.372           239.438
       333   11 Jun 2027 09:38:30.924   11 Jun 2027 09:38:34.041             3.117           378.875
       334   11 Jun 2027 09:39:38.224   11 Jun 2027 09:39:40.712             2.488           997.844
       335   11 Jun 2027 11:08:44.892   11 Jun 2027 11:08:56.073            11.181          5542.250
       336   11 Jun 2027 11:10:15.006   11 Jun 2027 11:10:18.830             3.824           758.844
       337   11 Jun 2027 11:11:37.356   11 Jun 2027 11:11:43.427             6.071          1364.937
       338   11 Jun 2027 11:12:44.440   11 Jun 2027 11:12:49.373             4.933          1906.656
       339   11 Jun 2027 11:13:12.455   11 Jun 2027 11:13:13.248             0.793            71.844
       340   11 Jun 2027 11:13:39.029   11 Jun 2027 11:13:40.470             1.441           342.250
       341   11 Jun 2027 11:14:43.777   11 Jun 2027 11:14:48.908             5.131          1929.875
       342   11 Jun 2027 11:15:04.203   11 Jun 2027 11:15:06.982             2.779           472.281
       343   11 Jun 2027 11:15:16.816   11 Jun 2027 11:15:21.542             4.726           301.500
       344   12 Jun 2027 03:31:50.042   12 Jun 2027 03:32:44.932            54.890         27445.000
       345   12 Jun 2027 03:32:50.688   12 Jun 2027 03:34:57.084           126.396         63198.000
       346   12 Jun 2027 03:35:16.104   12 Jun 2027 03:35:38.354            22.250         11125.000
       347   12 Jun 2027 03:36:59.688   12 Jun 2027 03:37:03.859             4.171          2085.500
       348   12 Jun 2027 05:10:12.429   12 Jun 2027 05:10:23.350            10.921          5460.500
       349   12 Jun 2027 05:11:03.788   12 Jun 2027 05:12:31.923            88.135         43654.844
       350   12 Jun 2027 05:12:57.903   12 Jun 2027 05:13:04.664             6.761           622.000
       351   12 Jun 2027 06:33:08.197   12 Jun 2027 06:33:16.810             8.613          3680.750
       352   12 Jun 2027 06:34:40.495   12 Jun 2027 06:34:40.495             0.000             0.000
       353   12 Jun 2027 06:35:21.306   12 Jun 2027 06:35:22.771             1.465           732.500
       354   12 Jun 2027 08:09:42.001   12 Jun 2027 08:09:49.525             7.524          3586.125
       355   12 Jun 2027 08:10:30.002   12 Jun 2027 08:10:32.286             2.284           697.812
       356   12 Jun 2027 08:11:38.369   12 Jun 2027 08:11:47.134             8.765          1911.031
       357   12 Jun 2027 08:12:16.854   12 Jun 2027 08:12:26.949            10.095           802.437
       358   12 Jun 2027 09:44:50.928   12 Jun 2027 09:44:57.471             6.543          2553.875
       359   12 Jun 2027 09:45:50.497   12 Jun 2027 09:45:54.715             4.218           704.375
       360   12 Jun 2027 09:46:14.536   12 Jun 2027 09:46:16.866             2.330           353.438
       361   12 Jun 2027 09:47:42.055   12 Jun 2027 09:47:47.016             4.961          1252.469
       362   12 Jun 2027 09:48:36.471   12 Jun 2027 09:48:41.902             5.431          1104.187
       363   12 Jun 2027 09:50:06.248   12 Jun 2027 09:50:08.018             1.770           742.594
       364   12 Jun 2027 09:50:48.843   12 Jun 2027 09:50:51.756             2.913          1269.531
       365   12 Jun 2027 09:51:27.000   12 Jun 2027 09:51:27.000             0.000             0.000
       366   12 Jun 2027 09:51:33.212   12 Jun 2027 09:51:37.438             4.226           353.313
       367   12 Jun 2027 11:21:10.948   12 Jun 2027 11:21:24.132            13.184          6568.531
       368   12 Jun 2027 11:23:58.972   12 Jun 2027 11:24:02.938             3.966          1184.531
       369   12 Jun 2027 11:25:24.541   12 Jun 2027 11:25:31.792             7.251          1734.562
       370   12 Jun 2027 11:25:45.350   12 Jun 2027 11:25:46.771             1.421           423.688
       371   12 Jun 2027 11:26:31.760   12 Jun 2027 11:26:32.461             0.701            49.781
       372   12 Jun 2027 11:26:51.425   12 Jun 2027 11:26:53.204             1.779           434.781
       373   12 Jun 2027 11:27:23.135   12 Jun 2027 11:27:24.422             1.287           528.000
       374   13 Jun 2027 03:43:39.216   13 Jun 2027 03:44:38.941            59.725         29862.500
       375   13 Jun 2027 03:44:46.700   13 Jun 2027 03:47:01.439           134.739         67369.500
       376   13 Jun 2027 05:21:56.237   13 Jun 2027 05:22:31.203            34.966         17483.000
       377   13 Jun 2027 05:22:44.855   13 Jun 2027 05:24:02.927            78.072         38193.594
       378   13 Jun 2027 05:24:43.355   13 Jun 2027 05:24:45.390             2.035           955.156
       379   13 Jun 2027 05:25:16.242   13 Jun 2027 05:25:19.155             2.913           695.594
       380   13 Jun 2027 06:45:17.798   13 Jun 2027 06:45:32.781            14.983          6346.938
       381   13 Jun 2027 06:46:06.206   13 Jun 2027 06:46:08.380             2.174           322.813
       382   13 Jun 2027 06:46:14.793   13 Jun 2027 06:46:15.336             0.543            87.625
       383   13 Jun 2027 06:46:42.174   13 Jun 2027 06:46:42.174             0.000             0.000
       384   13 Jun 2027 06:47:20.177   13 Jun 2027 06:47:24.557             4.380          1450.937
       385   13 Jun 2027 08:21:52.825   13 Jun 2027 08:21:58.198             5.373          2127.125
       386   13 Jun 2027 08:22:38.854   13 Jun 2027 08:22:42.698             3.844          1150.625
       387   13 Jun 2027 08:23:52.263   13 Jun 2027 08:23:52.263             0.000             0.000
       388   13 Jun 2027 08:24:28.315   13 Jun 2027 08:24:35.089             6.774          2468.812
       389   13 Jun 2027 08:25:07.002   13 Jun 2027 08:25:08.282             1.280           562.719
       390   13 Jun 2027 09:57:02.903   13 Jun 2027 09:57:09.984             7.081          2186.656
       391   13 Jun 2027 09:58:16.047   13 Jun 2027 09:58:21.400             5.353          1842.375
       392   13 Jun 2027 09:58:34.597   13 Jun 2027 09:58:38.780             4.183           213.437
       393   13 Jun 2027 09:59:58.016   13 Jun 2027 10:00:02.246             4.230          1399.438
       394   13 Jun 2027 10:02:08.510   13 Jun 2027 10:02:23.805            15.295          3635.531
       395   13 Jun 2027 10:03:19.576   13 Jun 2027 10:03:23.076             3.500          1185.281
       396   13 Jun 2027 10:03:26.396   13 Jun 2027 10:03:37.904            11.508            83.750
       397   13 Jun 2027 11:33:23.766   13 Jun 2027 11:33:38.311            14.545          5206.625
       398   13 Jun 2027 11:35:07.921   13 Jun 2027 11:35:12.546             4.625          1378.219
       399   13 Jun 2027 11:35:42.698   13 Jun 2027 11:35:46.261             3.563           517.375
       400   13 Jun 2027 11:36:36.300   13 Jun 2027 11:36:40.352             4.052          1099.344
       401   13 Jun 2027 11:37:22.131   13 Jun 2027 11:37:26.297             4.166           562.469
       402   13 Jun 2027 11:38:09.669   13 Jun 2027 11:38:13.938             4.269           996.750
       403   13 Jun 2027 11:38:25.907   13 Jun 2027 11:38:29.037             3.130           287.469
