uniorb/output/strategy_4/Camera/Camera_KinoSat_111903.txt

KinoSat_111903
-------------------------
    Access    *     Start Time (UTCG)     *     Stop Time (UTCG)  *   Duration (s) *   Data (Mbytes)
         1   01 Jun 2027 03:20:00.432   01 Jun 2027 03:22:12.552           132.120         66060.000
         2   01 Jun 2027 03:23:45.783   01 Jun 2027 03:23:49.250             3.467          1733.500
         3   01 Jun 2027 03:24:31.186   01 Jun 2027 03:24:32.517             1.331           665.500
         4   01 Jun 2027 03:25:47.434   01 Jun 2027 03:26:13.193            25.759         12879.500
         5   01 Jun 2027 04:58:08.455   01 Jun 2027 04:59:10.388            61.933         30966.500
         6   01 Jun 2027 04:59:16.876   01 Jun 2027 04:59:41.370            24.494         12247.000
         7   01 Jun 2027 05:03:09.118   01 Jun 2027 05:03:19.710            10.592          5296.000
         8   01 Jun 2027 06:36:27.026   01 Jun 2027 06:36:59.241            32.215         16107.500
         9   01 Jun 2027 06:37:16.080   01 Jun 2027 06:38:17.602            61.522         30761.000
        10   01 Jun 2027 06:38:47.278   01 Jun 2027 06:38:54.661             7.383          3691.500
        11   01 Jun 2027 07:59:49.511   01 Jun 2027 08:02:19.292           149.781         74890.500
        12   01 Jun 2027 09:36:21.440   01 Jun 2027 09:36:39.703            18.263          9131.500
        13   01 Jun 2027 09:38:37.476   01 Jun 2027 09:39:55.000            77.524         38762.000
        14   01 Jun 2027 11:11:31.326   01 Jun 2027 11:13:09.113            97.787         48893.500
        15   01 Jun 2027 11:17:58.175   01 Jun 2027 11:18:07.675             9.500          4750.000
        16   02 Jun 2027 03:31:57.786   02 Jun 2027 03:34:51.633           173.847         86923.500
        17   02 Jun 2027 03:37:28.790   02 Jun 2027 03:37:29.710             0.920           460.000
        18   02 Jun 2027 05:11:15.141   02 Jun 2027 05:14:55.076           219.935        109967.500
        19   02 Jun 2027 05:18:14.690   02 Jun 2027 05:19:12.465            57.775         28887.500
        20   02 Jun 2027 06:48:23.427   02 Jun 2027 06:49:03.043            39.616         19808.000
        21   02 Jun 2027 06:49:23.244   02 Jun 2027 06:51:47.388           144.144         72072.000
        22   02 Jun 2027 08:12:25.318   02 Jun 2027 08:13:23.630            58.312         29156.000
        23   02 Jun 2027 09:48:14.649   02 Jun 2027 09:49:21.923            67.274         32241.188
        24   02 Jun 2027 09:50:48.575   02 Jun 2027 09:50:52.482             3.907          1905.375
        25   02 Jun 2027 09:51:41.154   02 Jun 2027 09:51:43.836             2.682           936.969
        26   02 Jun 2027 11:23:10.673   02 Jun 2027 11:23:17.896             7.223          3183.719
        27   02 Jun 2027 11:26:01.494   02 Jun 2027 11:26:11.165             9.671          4409.125
        28   02 Jun 2027 11:29:49.684   02 Jun 2027 11:30:04.056            14.372          6828.719
        29   03 Jun 2027 03:44:38.171   03 Jun 2027 03:46:55.976           137.805         68902.500
        30   03 Jun 2027 05:23:19.250   03 Jun 2027 05:25:34.573           135.323         67661.500
        31   03 Jun 2027 05:26:20.064   03 Jun 2027 05:26:57.860            37.796         18898.000
        32   03 Jun 2027 05:29:31.452   03 Jun 2027 05:29:46.454            15.002          7273.907
        33   03 Jun 2027 06:49:10.941   03 Jun 2027 06:49:22.409            11.468          5465.250
        34   03 Jun 2027 06:49:53.035   03 Jun 2027 06:49:53.035             0.000             0.000
        35   03 Jun 2027 07:00:19.653   03 Jun 2027 07:00:26.333             6.680          2378.438
        36   03 Jun 2027 07:01:58.587   03 Jun 2027 07:02:00.574             1.987           483.719
        37   03 Jun 2027 08:22:58.391   03 Jun 2027 08:23:10.817            12.426          6103.969
        38   03 Jun 2027 08:24:10.046   03 Jun 2027 08:24:16.317             6.271           771.406
        39   03 Jun 2027 08:24:56.006   03 Jun 2027 08:24:58.169             2.163           906.031
        40   03 Jun 2027 08:26:26.296   03 Jun 2027 08:26:32.489             6.193          2341.219
        41   03 Jun 2027 08:26:40.173   03 Jun 2027 08:26:43.403             3.230           128.250
        42   03 Jun 2027 09:58:33.473   03 Jun 2027 09:58:39.560             6.087          2427.031
        43   03 Jun 2027 10:01:39.335   03 Jun 2027 10:01:48.610             9.275          1698.250
        44   03 Jun 2027 10:04:00.399   03 Jun 2027 10:04:07.206             6.807          3207.938
        45   03 Jun 2027 11:37:35.025   03 Jun 2027 11:38:02.275            27.250         12679.156
        46   03 Jun 2027 11:39:06.794   03 Jun 2027 11:39:12.893             6.099          1741.375
        47   03 Jun 2027 11:40:01.429   03 Jun 2027 11:40:03.869             2.440           989.812
        48   03 Jun 2027 11:40:29.908   03 Jun 2027 11:40:33.097             3.189            81.500
        49   03 Jun 2027 11:41:05.346   03 Jun 2027 11:41:14.086             8.740           486.500
        50   03 Jun 2027 11:41:38.109   03 Jun 2027 11:41:41.444             3.335           700.375
        51   03 Jun 2027 11:42:17.231   03 Jun 2027 11:42:21.151             3.920          1034.156
        52   04 Jun 2027 03:56:44.226   04 Jun 2027 03:59:16.354           152.128         76064.000
        53   04 Jun 2027 03:59:45.611   04 Jun 2027 04:00:24.515            38.904         19452.000
        54   04 Jun 2027 04:01:11.861   04 Jun 2027 04:01:16.283             4.422          2211.000
        55   04 Jun 2027 05:35:48.546   04 Jun 2027 05:37:46.151           117.605         58802.500
        56   04 Jun 2027 05:38:12.666   04 Jun 2027 05:38:15.836             3.170          1010.562
        57   04 Jun 2027 05:41:15.283   04 Jun 2027 05:41:36.016            20.733          3990.000
        58   04 Jun 2027 07:00:40.620   04 Jun 2027 07:00:51.264            10.644          4192.062
        59   04 Jun 2027 07:01:25.532   04 Jun 2027 07:01:27.993             2.461          1008.000
        60   04 Jun 2027 07:12:22.976   04 Jun 2027 07:12:29.887             6.911          1867.906
        61   04 Jun 2027 08:34:36.522   04 Jun 2027 08:34:53.485            16.963          8481.500
        62   04 Jun 2027 08:35:15.193   04 Jun 2027 08:35:18.519             3.326          1527.031
        63   04 Jun 2027 08:37:11.115   04 Jun 2027 08:37:20.553             9.438          3164.562
        64   04 Jun 2027 08:38:35.323   04 Jun 2027 08:38:43.281             7.958          2055.781
        65   04 Jun 2027 08:39:30.831   04 Jun 2027 08:39:35.052             4.221          1485.937
        66   04 Jun 2027 10:09:39.635   04 Jun 2027 10:09:47.151             7.516          2983.938
        67   04 Jun 2027 10:12:25.241   04 Jun 2027 10:12:34.725             9.484          1621.063
        68   04 Jun 2027 10:13:22.736   04 Jun 2027 10:13:25.943             3.207          1239.344
        69   04 Jun 2027 10:15:31.568   04 Jun 2027 10:15:35.730             4.162          1545.562
        70   04 Jun 2027 10:15:57.097   04 Jun 2027 10:15:59.868             2.771           637.875
        71   04 Jun 2027 10:16:17.660   04 Jun 2027 10:16:17.660             0.000             0.000
        72   04 Jun 2027 11:50:11.352   04 Jun 2027 11:50:37.834            26.482         12593.344
        73   04 Jun 2027 11:51:36.430   04 Jun 2027 11:51:51.187            14.757           432.563
        74   04 Jun 2027 11:53:18.773   04 Jun 2027 11:53:23.566             4.793          2178.063
        75   04 Jun 2027 11:53:53.999   04 Jun 2027 11:53:55.862             1.863           776.437
        76   05 Jun 2027 04:09:04.695   05 Jun 2027 04:09:31.122            26.427         13213.500
        77   05 Jun 2027 04:09:35.988   05 Jun 2027 04:10:10.986            34.998         17499.000
        78   05 Jun 2027 04:10:14.421   05 Jun 2027 04:11:50.393            95.972         47986.000
        79   05 Jun 2027 04:12:12.969   05 Jun 2027 04:12:59.984            47.015         23507.500
        80   05 Jun 2027 04:13:39.790   05 Jun 2027 04:13:42.087             2.297          1148.500
        81   05 Jun 2027 04:14:12.932   05 Jun 2027 04:14:20.954             8.022          4011.000
        82   05 Jun 2027 04:15:00.963   05 Jun 2027 04:15:01.203             0.240           120.000
        83   05 Jun 2027 05:47:50.811   05 Jun 2027 05:48:54.310            63.499         31749.500
        84   05 Jun 2027 05:50:05.646   05 Jun 2027 05:50:51.311            45.665         22422.593
        85   05 Jun 2027 05:52:41.000   05 Jun 2027 05:52:48.555             7.555          3110.812
        86   05 Jun 2027 05:53:30.556   05 Jun 2027 05:53:32.426             1.870           503.281
        87   05 Jun 2027 07:12:11.311   05 Jun 2027 07:12:26.958            15.647          7823.500
        88   05 Jun 2027 07:12:41.477   05 Jun 2027 07:12:44.556             3.079          1446.281
        89   05 Jun 2027 07:13:12.978   05 Jun 2027 07:13:14.552             1.574           513.781
        90   05 Jun 2027 07:13:32.956   05 Jun 2027 07:13:37.232             4.276           318.875
        91   05 Jun 2027 07:14:15.325   05 Jun 2027 07:14:15.969             0.644           258.562
        92   05 Jun 2027 07:24:25.352   05 Jun 2027 07:24:30.853             5.501          2707.469
        93   05 Jun 2027 08:46:20.285   05 Jun 2027 08:46:36.182            15.897          6855.563
        94   05 Jun 2027 08:48:23.453   05 Jun 2027 08:48:27.794             4.341          1730.125
        95   05 Jun 2027 08:49:27.806   05 Jun 2027 08:49:30.539             2.733           865.844
        96   05 Jun 2027 08:50:33.812   05 Jun 2027 08:50:38.351             4.539          1794.344
        97   05 Jun 2027 08:51:21.779   05 Jun 2027 08:51:24.157             2.378          1110.344
        98   05 Jun 2027 10:21:08.210   05 Jun 2027 10:21:19.999            11.789          3899.625
        99   05 Jun 2027 10:23:06.815   05 Jun 2027 10:23:12.068             5.253          1994.625
       100   05 Jun 2027 10:23:43.857   05 Jun 2027 10:23:46.825             2.968           750.687
       101   05 Jun 2027 10:24:58.517   05 Jun 2027 10:24:58.517             0.000             0.000
       102   05 Jun 2027 10:26:42.597   05 Jun 2027 10:26:51.033             8.436          3827.219
       103   05 Jun 2027 10:28:15.407   05 Jun 2027 10:28:15.407             0.000             0.000
       104   05 Jun 2027 10:29:29.350   05 Jun 2027 10:29:34.295             4.945          2471.437
       105   06 Jun 2027 04:21:47.289   06 Jun 2027 04:23:24.549            97.260         48630.000
       106   06 Jun 2027 04:23:51.452   06 Jun 2027 04:24:38.121            46.669         23334.500
       107   06 Jun 2027 04:24:43.311   06 Jun 2027 04:24:51.557             8.246          4123.000
       108   06 Jun 2027 04:25:12.485   06 Jun 2027 04:25:16.486             4.001          2000.500
       109   06 Jun 2027 04:26:00.094   06 Jun 2027 04:26:00.094             0.000             0.000
       110   06 Jun 2027 04:26:54.380   06 Jun 2027 04:27:02.343             7.963          3981.500
       111   06 Jun 2027 06:00:14.682   06 Jun 2027 06:02:47.274           152.592         76296.000
       112   06 Jun 2027 06:03:43.378   06 Jun 2027 06:03:51.182             7.804          3263.625
       113   06 Jun 2027 06:04:03.334   06 Jun 2027 06:04:04.251             0.917           217.438
       114   06 Jun 2027 06:04:45.690   06 Jun 2027 06:04:47.813             2.123           799.625
       115   06 Jun 2027 07:24:10.364   06 Jun 2027 07:24:28.025            17.661          8117.406
       116   06 Jun 2027 07:25:10.944   06 Jun 2027 07:25:15.689             4.745          1062.125
       117   06 Jun 2027 07:26:23.626   06 Jun 2027 07:26:26.556             2.930          1465.000
       118   06 Jun 2027 09:00:07.055   06 Jun 2027 09:00:30.088            23.033         11516.375
       119   06 Jun 2027 09:00:40.245   06 Jun 2027 09:00:42.585             2.340           246.187
       120   06 Jun 2027 09:01:08.577   06 Jun 2027 09:01:10.606             2.029           812.250
       121   06 Jun 2027 09:02:31.390   06 Jun 2027 09:02:35.796             4.406          1419.031
       122   06 Jun 2027 09:03:02.848   06 Jun 2027 09:03:02.848             0.000             0.000
       123   06 Jun 2027 09:03:26.656   06 Jun 2027 09:03:31.304             4.648          1175.625
       124   06 Jun 2027 10:33:56.724   06 Jun 2027 10:34:02.250             5.526          1903.875
       125   06 Jun 2027 10:35:57.279   06 Jun 2027 10:35:59.928             2.649           694.188
       126   06 Jun 2027 10:36:18.174   06 Jun 2027 10:36:20.776             2.602           178.344
       127   06 Jun 2027 10:40:01.954   06 Jun 2027 10:40:20.656            18.702          6439.500
       128   06 Jun 2027 10:40:46.720   06 Jun 2027 10:40:46.720             0.000             0.000
       129   07 Jun 2027 03:00:00.000   07 Jun 2027 03:00:22.162            22.162         11081.000
       130   07 Jun 2027 03:00:29.175   07 Jun 2027 03:00:29.175             0.000             0.000
       131   07 Jun 2027 03:00:46.798   07 Jun 2027 03:00:54.508             7.710          3855.000
       132   07 Jun 2027 03:01:03.257   07 Jun 2027 03:01:09.563             6.306          3153.000
       133   07 Jun 2027 04:34:32.128   07 Jun 2027 04:34:51.838            19.710          9855.000
       134   07 Jun 2027 04:35:07.135   07 Jun 2027 04:36:00.043            52.908         26454.000
       135   07 Jun 2027 04:36:01.838   07 Jun 2027 04:37:10.811            68.973         34486.500
       136   07 Jun 2027 04:37:42.500   07 Jun 2027 04:38:33.973            51.473         25736.500
       137   07 Jun 2027 04:38:47.435   07 Jun 2027 04:38:55.216             7.781          3890.500
       138   07 Jun 2027 06:12:40.264   07 Jun 2027 06:14:23.209           102.945         50822.125
       139   07 Jun 2027 06:16:32.795   07 Jun 2027 06:16:40.509             7.714           569.937
       140   07 Jun 2027 06:16:56.303   07 Jun 2027 06:16:59.020             2.717           458.656
       141   07 Jun 2027 07:36:04.969   07 Jun 2027 07:36:22.244            17.275          7377.437
       142   07 Jun 2027 07:37:49.845   07 Jun 2027 07:37:54.871             5.026          2474.281
       143   07 Jun 2027 07:38:13.457   07 Jun 2027 07:38:14.787             1.330           390.125
       144   07 Jun 2027 09:12:29.070   07 Jun 2027 09:12:49.990            20.920          8679.250
       145   07 Jun 2027 09:13:05.955   07 Jun 2027 09:13:13.227             7.272           305.219
       146   07 Jun 2027 09:13:31.026   07 Jun 2027 09:13:32.247             1.221           480.500
       147   07 Jun 2027 09:15:02.217   07 Jun 2027 09:15:07.805             5.588          2794.000
       148   07 Jun 2027 09:15:20.710   07 Jun 2027 09:15:26.901             6.191           420.844
       149   07 Jun 2027 10:46:17.182   07 Jun 2027 10:46:31.914            14.732          4157.344
       150   07 Jun 2027 10:49:18.290   07 Jun 2027 10:49:36.156            17.866          2201.187
       151   07 Jun 2027 10:49:48.557   07 Jun 2027 10:49:52.293             3.736           319.625
       152   07 Jun 2027 10:50:08.713   07 Jun 2027 10:50:10.304             1.591           513.125
       153   07 Jun 2027 10:51:05.892   07 Jun 2027 10:51:08.971             3.079          1393.250
       154   07 Jun 2027 10:52:08.838   07 Jun 2027 10:52:10.738             1.900           725.156
       155   07 Jun 2027 10:53:08.782   07 Jun 2027 10:53:09.477             0.695           347.500
       156   07 Jun 2027 10:53:17.359   07 Jun 2027 10:53:22.730             5.371           378.906
       157   07 Jun 2027 10:53:51.935   07 Jun 2027 10:53:55.209             3.274           860.719
       158   08 Jun 2027 03:08:17.000   08 Jun 2027 03:08:31.363            14.363          7181.500
       159   08 Jun 2027 03:09:46.174   08 Jun 2027 03:11:02.613            76.439         38219.500
       160   08 Jun 2027 03:12:22.839   08 Jun 2027 03:12:23.501             0.662           331.000
       161   08 Jun 2027 03:13:42.204   08 Jun 2027 03:13:51.719             9.515          4757.500
       162   08 Jun 2027 03:14:05.139   08 Jun 2027 03:14:17.167            12.028          6014.000
       163   08 Jun 2027 03:15:01.207   08 Jun 2027 03:15:10.189             8.982          4491.000
       164   08 Jun 2027 03:15:21.221   08 Jun 2027 03:15:27.295             6.074          3037.000
       165   08 Jun 2027 04:46:40.318   08 Jun 2027 04:47:31.744            51.426         25713.000
       166   08 Jun 2027 04:47:37.875   08 Jun 2027 04:49:10.735            92.860         46430.000
       167   08 Jun 2027 04:49:27.502   08 Jun 2027 04:50:30.017            62.515         27716.719
       168   08 Jun 2027 06:24:58.447   08 Jun 2027 06:25:19.326            20.879          9535.750
       169   08 Jun 2027 06:28:19.918   08 Jun 2027 06:28:21.358             1.440           319.000
       170   08 Jun 2027 07:47:52.337   08 Jun 2027 07:48:14.844            22.507          7249.156
       171   08 Jun 2027 07:49:27.030   08 Jun 2027 07:49:36.374             9.344          2034.031
       172   08 Jun 2027 07:49:49.990   08 Jun 2027 07:49:50.362             0.372           174.719
       173   08 Jun 2027 09:24:32.554   08 Jun 2027 09:24:41.821             9.267          3342.938
       174   08 Jun 2027 09:25:35.224   08 Jun 2027 09:25:40.820             5.596           988.375
       175   08 Jun 2027 09:26:13.609   08 Jun 2027 09:26:15.306             1.697           848.500
       176   08 Jun 2027 09:27:13.066   08 Jun 2027 09:27:19.544             6.478          1943.094
       177   08 Jun 2027 10:59:31.837   08 Jun 2027 10:59:39.514             7.677          3833.688
       178   08 Jun 2027 11:03:02.309   08 Jun 2027 11:03:14.606            12.297          5007.000
       179   08 Jun 2027 11:05:32.383   08 Jun 2027 11:05:40.288             7.905          3746.344
       180   08 Jun 2027 11:06:18.288   08 Jun 2027 11:06:18.549             0.261           130.500
       181   08 Jun 2027 11:06:21.601   08 Jun 2027 11:06:23.516             1.915           737.750
       182   09 Jun 2027 03:20:17.888   09 Jun 2027 03:21:05.714            47.826         23913.000
       183   09 Jun 2027 03:21:14.773   09 Jun 2027 03:23:39.475           144.702         72351.000
       184   09 Jun 2027 03:26:05.964   09 Jun 2027 03:26:28.031            22.067         11033.500
       185   09 Jun 2027 04:58:26.198   09 Jun 2027 04:59:27.355            61.157         30578.500
       186   09 Jun 2027 04:59:34.071   09 Jun 2027 05:00:26.717            52.646         25901.875
       187   09 Jun 2027 05:00:33.428   09 Jun 2027 05:00:34.477             1.049           135.812
       188   09 Jun 2027 05:01:57.794   09 Jun 2027 05:02:09.772            11.978          1839.906
       189   09 Jun 2027 05:03:57.777   09 Jun 2027 05:04:01.869             4.092          1730.094
       190   09 Jun 2027 06:36:43.571   09 Jun 2027 06:36:54.033            10.462          3730.000
       191   09 Jun 2027 06:38:32.264   09 Jun 2027 06:38:34.900             2.636          1194.813
       192   09 Jun 2027 06:40:07.176   09 Jun 2027 06:40:09.062             1.886            51.469
       193   09 Jun 2027 08:00:06.940   09 Jun 2027 08:00:20.900            13.960          4020.062
       194   09 Jun 2027 08:00:43.916   09 Jun 2027 08:00:45.656             1.740           181.031
       195   09 Jun 2027 08:01:08.595   09 Jun 2027 08:01:14.561             5.966           414.062
       196   09 Jun 2027 08:02:44.343   09 Jun 2027 08:02:51.001             6.658          2386.344
       197   09 Jun 2027 09:36:39.183   09 Jun 2027 09:36:48.435             9.252          2707.969
       198   09 Jun 2027 09:38:09.553   09 Jun 2027 09:38:15.004             5.451          2054.313
       199   09 Jun 2027 09:38:56.027   09 Jun 2027 09:39:03.845             7.818          1243.156
       200   09 Jun 2027 09:39:07.502   09 Jun 2027 09:39:18.517            11.015            11.344
       201   09 Jun 2027 09:39:39.067   09 Jun 2027 09:39:41.753             2.686           454.438
       202   09 Jun 2027 11:11:49.768   09 Jun 2027 11:11:59.538             9.770          4764.000
       203   09 Jun 2027 11:14:37.527   09 Jun 2027 11:14:48.303            10.776          4570.375
       204   09 Jun 2027 11:18:06.837   09 Jun 2027 11:18:20.806            13.969          5614.250
       205   10 Jun 2027 03:32:15.174   10 Jun 2027 03:35:24.990           189.816         94908.000
       206   10 Jun 2027 03:36:06.266   10 Jun 2027 03:36:35.477            29.211         14605.500
       207   10 Jun 2027 03:37:50.561   10 Jun 2027 03:37:52.758             2.197          1098.500
       208   10 Jun 2027 03:38:24.321   10 Jun 2027 03:38:30.703             6.382          3191.000
       209   10 Jun 2027 03:38:48.027   10 Jun 2027 03:39:08.965            20.938         10469.000
       210   10 Jun 2027 05:11:32.925   10 Jun 2027 05:12:48.953            76.028         37366.219
       211   10 Jun 2027 05:15:07.252   10 Jun 2027 05:15:09.298             2.046           449.625
       212   10 Jun 2027 05:18:11.339   10 Jun 2027 05:18:22.836            11.497          5616.219
       213   10 Jun 2027 05:19:12.068   10 Jun 2027 05:19:17.721             5.653          1521.094
       214   10 Jun 2027 06:48:40.545   10 Jun 2027 06:48:51.232            10.687          4837.656
       215   10 Jun 2027 06:52:06.014   10 Jun 2027 06:52:07.430             1.416           125.875
       216   10 Jun 2027 08:12:08.556   10 Jun 2027 08:12:24.530            15.974          7613.844
       217   10 Jun 2027 08:12:40.027   10 Jun 2027 08:12:40.924             0.897           136.750
       218   10 Jun 2027 08:13:13.881   10 Jun 2027 08:13:15.928             2.047            83.125
       219   10 Jun 2027 08:14:48.778   10 Jun 2027 08:14:54.736             5.958          2505.750
       220   10 Jun 2027 09:48:31.517   10 Jun 2027 09:48:38.671             7.154          2620.875
       221   10 Jun 2027 09:50:07.233   10 Jun 2027 09:50:08.201             0.968           484.000
       222   10 Jun 2027 09:51:03.469   10 Jun 2027 09:51:11.799             8.330          3237.438
       223   10 Jun 2027 11:23:25.336   10 Jun 2027 11:23:34.293             8.957          2189.781
       224   10 Jun 2027 11:24:03.019   10 Jun 2027 11:24:04.483             1.464           589.094
       225   10 Jun 2027 11:28:50.402   10 Jun 2027 11:28:50.402             0.000             0.000
       226   10 Jun 2027 11:29:46.374   10 Jun 2027 11:30:03.274            16.900          8187.375
       227   10 Jun 2027 11:30:21.127   10 Jun 2027 11:30:22.798             1.671           482.719
       228   11 Jun 2027 03:44:56.503   11 Jun 2027 03:48:45.982           229.479        114739.500
       229   11 Jun 2027 05:23:37.157   11 Jun 2027 05:25:22.891           105.734         51334.281
       230   11 Jun 2027 05:25:40.179   11 Jun 2027 05:25:42.312             2.133           259.094
       231   11 Jun 2027 05:26:50.289   11 Jun 2027 05:26:52.508             2.219           920.375
       232   11 Jun 2027 05:27:20.924   11 Jun 2027 05:27:23.839             2.915           573.437
       233   11 Jun 2027 05:29:02.488   11 Jun 2027 05:29:12.871            10.383          3023.781
       234   11 Jun 2027 05:29:30.499   11 Jun 2027 05:29:30.807             0.308           112.906
       235   11 Jun 2027 05:29:49.183   11 Jun 2027 05:29:51.927             2.744           115.344
       236   11 Jun 2027 06:49:24.474   11 Jun 2027 06:49:35.205            10.731          4852.406
       237   11 Jun 2027 06:50:10.724   11 Jun 2027 06:50:14.211             3.487          1060.125
       238   11 Jun 2027 07:00:37.389   11 Jun 2027 07:00:42.639             5.250          2018.812
       239   11 Jun 2027 07:02:14.020   11 Jun 2027 07:02:16.188             2.168           507.750
       240   11 Jun 2027 08:23:14.218   11 Jun 2027 08:23:26.249            12.031          5937.719
       241   11 Jun 2027 08:24:26.798   11 Jun 2027 08:24:32.085             5.287           751.031
       242   11 Jun 2027 08:24:41.024   11 Jun 2027 08:24:43.585             2.561           279.344
       243   11 Jun 2027 08:25:42.710   11 Jun 2027 08:25:42.710             0.000             0.000
       244   11 Jun 2027 08:26:52.608   11 Jun 2027 08:27:00.906             8.298          3092.875
       245   11 Jun 2027 09:58:48.749   11 Jun 2027 09:58:55.197             6.448          2074.969
       246   11 Jun 2027 10:01:55.014   11 Jun 2027 10:01:58.422             3.408          1647.625
       247   11 Jun 2027 10:03:00.612   11 Jun 2027 10:03:03.507             2.895           685.437
       248   11 Jun 2027 10:03:42.152   11 Jun 2027 10:03:44.858             2.706          1207.656
       249   11 Jun 2027 10:04:14.689   11 Jun 2027 10:04:15.836             1.147           562.844
       250   11 Jun 2027 11:35:01.449   11 Jun 2027 11:35:11.237             9.788          4118.531
       251   11 Jun 2027 11:37:56.124   11 Jun 2027 11:38:05.107             8.983          4411.531
       252   11 Jun 2027 11:41:36.397   11 Jun 2027 11:41:52.074            15.677          5875.656
       253   11 Jun 2027 11:41:54.129   11 Jun 2027 11:41:54.542             0.413            64.219
       254   11 Jun 2027 11:42:35.353   11 Jun 2027 11:42:38.296             2.943          1103.688
       255   12 Jun 2027 03:57:02.601   12 Jun 2027 03:59:39.250           156.649         78324.500
       256   12 Jun 2027 04:01:31.035   12 Jun 2027 04:01:35.991             4.956          2478.000
       257   12 Jun 2027 04:02:31.279   12 Jun 2027 04:02:52.557            21.278         10639.000
       258   12 Jun 2027 05:36:07.367   12 Jun 2027 05:38:00.805           113.438         56719.000
       259   12 Jun 2027 05:38:27.896   12 Jun 2027 05:38:45.545            17.649          8548.687
       260   12 Jun 2027 05:41:30.119   12 Jun 2027 05:41:38.042             7.923          3961.500
       261   12 Jun 2027 05:42:02.736   12 Jun 2027 05:42:05.306             2.570           804.812
       262   12 Jun 2027 07:00:57.701   12 Jun 2027 07:01:10.964            13.263          6419.812
       263   12 Jun 2027 07:01:41.676   12 Jun 2027 07:01:44.156             2.480           958.469
       264   12 Jun 2027 07:12:38.050   12 Jun 2027 07:12:45.706             7.656          3781.969
       265   12 Jun 2027 08:34:56.456   12 Jun 2027 08:35:17.655            21.199          9764.063
       266   12 Jun 2027 08:35:37.090   12 Jun 2027 08:35:38.784             1.694           252.875
       267   12 Jun 2027 08:37:28.482   12 Jun 2027 08:37:35.421             6.939          3210.375
       268   12 Jun 2027 08:39:48.131   12 Jun 2027 08:39:57.144             9.013          3781.469
       269   12 Jun 2027 10:09:55.595   12 Jun 2027 10:10:04.429             8.834          3884.344
       270   12 Jun 2027 10:11:01.878   12 Jun 2027 10:11:06.105             4.227           202.937
       271   12 Jun 2027 10:12:48.145   12 Jun 2027 10:12:56.542             8.397          1750.187
       272   12 Jun 2027 10:13:38.053   12 Jun 2027 10:13:41.026             2.973          1179.938
       273   12 Jun 2027 10:15:52.664   12 Jun 2027 10:15:58.519             5.855          1687.125
       274   12 Jun 2027 10:16:33.413   12 Jun 2027 10:16:34.363             0.950           475.000
       275   12 Jun 2027 11:50:32.967   12 Jun 2027 11:50:57.861            24.894         11294.563
       276   12 Jun 2027 11:51:38.053   12 Jun 2027 11:51:41.496             3.443           540.031
       277   12 Jun 2027 11:52:08.704   12 Jun 2027 11:52:10.728             2.024           477.219
       278   12 Jun 2027 11:52:39.817   12 Jun 2027 11:52:41.929             2.112           846.281
       279   12 Jun 2027 11:52:48.478   12 Jun 2027 11:52:49.694             1.216            91.844
       280   12 Jun 2027 11:53:37.934   12 Jun 2027 11:53:39.975             2.041           281.813
       281   12 Jun 2027 11:53:55.394   12 Jun 2027 11:53:56.290             0.896           173.344
       282   12 Jun 2027 11:54:39.736   12 Jun 2027 11:54:39.975             0.239           119.500
       283   13 Jun 2027 04:09:22.813   13 Jun 2027 04:09:32.721             9.908          4954.000
       284   13 Jun 2027 04:13:04.182   13 Jun 2027 04:13:41.283            37.101         18550.500
       285   13 Jun 2027 04:14:09.669   13 Jun 2027 04:14:27.757            18.088          9044.000
       286   13 Jun 2027 05:48:09.625   13 Jun 2027 05:51:16.191           186.566         93283.000
       287   13 Jun 2027 05:52:55.558   13 Jun 2027 05:54:08.902            73.344         34773.062
       288   13 Jun 2027 07:12:30.004   13 Jun 2027 07:12:39.423             9.419          4709.500
       289   13 Jun 2027 07:13:40.319   13 Jun 2027 07:13:46.598             6.279          2406.875
       290   13 Jun 2027 07:14:29.168   13 Jun 2027 07:14:31.884             2.716          1212.000
       291   13 Jun 2027 07:24:46.200   13 Jun 2027 07:24:59.498            13.298          3915.250
       292   13 Jun 2027 08:46:36.459   13 Jun 2027 08:46:53.631            17.172          7659.594
       293   13 Jun 2027 08:48:39.737   13 Jun 2027 08:48:41.464             1.727           863.500
       294   13 Jun 2027 08:49:27.536   13 Jun 2027 08:49:32.582             5.046          2306.969
       295   13 Jun 2027 08:49:54.181   13 Jun 2027 08:49:55.673             1.492           251.875
       296   13 Jun 2027 10:21:23.716   13 Jun 2027 10:21:36.340            12.624          4732.219
       297   13 Jun 2027 10:23:26.414   13 Jun 2027 10:23:33.274             6.860          2107.969
       298   13 Jun 2027 10:24:02.897   13 Jun 2027 10:24:04.746             1.849           715.469
       299   13 Jun 2027 10:27:00.512   13 Jun 2027 10:27:00.512             0.000             0.000
       300   13 Jun 2027 10:28:26.296   13 Jun 2027 10:28:39.779            13.483          6532.844
