uniorb/output/strategy_4/Camera/Camera_KinoSat_111504.txt

KinoSat_111504
-------------------------
    Access    *     Start Time (UTCG)     *     Stop Time (UTCG)  *   Duration (s) *   Data (Mbytes)
         1   01 Jun 2027 03:27:50.362   01 Jun 2027 03:28:04.085            13.723          6861.500
         2   01 Jun 2027 03:28:52.698   01 Jun 2027 03:30:47.189           114.491         57245.500
         3   01 Jun 2027 03:31:00.066   01 Jun 2027 03:31:07.748             7.682          3841.000
         4   01 Jun 2027 03:33:57.976   01 Jun 2027 03:33:58.932             0.956           478.000
         5   01 Jun 2027 03:35:59.479   01 Jun 2027 03:36:40.428            40.949         20474.500
         6   01 Jun 2027 05:06:01.420   01 Jun 2027 05:06:39.491            38.071         19035.500
         7   01 Jun 2027 05:07:08.816   01 Jun 2027 05:07:39.051            30.235         15117.500
         8   01 Jun 2027 05:08:14.968   01 Jun 2027 05:08:21.116             6.148          3074.000
         9   01 Jun 2027 05:08:52.352   01 Jun 2027 05:09:02.777            10.425          5212.500
        10   01 Jun 2027 06:30:07.416   01 Jun 2027 06:30:59.431            52.015         26007.500
        11   01 Jun 2027 06:31:31.589   01 Jun 2027 06:31:48.512            16.923          8461.500
        12   01 Jun 2027 06:31:55.895   01 Jun 2027 06:32:07.888            11.993          5996.500
        13   01 Jun 2027 08:05:52.859   01 Jun 2027 08:07:37.688           104.829         52414.500
        14   01 Jun 2027 08:09:15.236   01 Jun 2027 08:09:22.046             6.810          3405.000
        15   01 Jun 2027 09:40:50.165   01 Jun 2027 09:42:53.739           123.574         61787.000
        16   01 Jun 2027 09:43:15.036   01 Jun 2027 09:43:35.876            20.840         10420.000
        17   01 Jun 2027 09:46:20.433   01 Jun 2027 09:47:15.430            54.997         27498.500
        18   01 Jun 2027 09:47:48.894   01 Jun 2027 09:47:51.956             3.062          1531.000
        19   01 Jun 2027 11:17:02.808   01 Jun 2027 11:19:12.213           129.405         64702.500
        20   01 Jun 2027 11:22:43.147   01 Jun 2027 11:23:11.574            28.427         14213.500
        21   02 Jun 2027 03:40:55.750   02 Jun 2027 03:43:24.374           148.624         74312.000
        22   02 Jun 2027 03:43:47.298   02 Jun 2027 03:43:55.510             8.212          4106.000
        23   02 Jun 2027 03:47:52.261   02 Jun 2027 03:47:52.261             0.000             0.000
        24   02 Jun 2027 03:47:54.595   02 Jun 2027 03:48:34.605            40.010         20005.000
        25   02 Jun 2027 05:06:53.591   02 Jun 2027 05:07:34.416            40.825         20412.500
        26   02 Jun 2027 05:17:57.625   02 Jun 2027 05:19:39.776           102.151         51075.500
        27   02 Jun 2027 05:19:56.681   02 Jun 2027 05:21:16.734            80.053         40026.500
        28   02 Jun 2027 06:40:56.076   02 Jun 2027 06:41:46.344            50.268         25134.000
        29   02 Jun 2027 06:44:51.434   02 Jun 2027 06:44:51.434             0.000             0.000
        30   02 Jun 2027 08:16:28.360   02 Jun 2027 08:16:38.897            10.537          5268.500
        31   02 Jun 2027 08:17:38.838   02 Jun 2027 08:20:43.150           184.312         92156.000
        32   02 Jun 2027 08:21:16.985   02 Jun 2027 08:21:30.238            13.253          6626.500
        33   02 Jun 2027 09:52:23.671   02 Jun 2027 09:53:27.755            64.084         31533.562
        34   02 Jun 2027 09:54:36.676   02 Jun 2027 09:54:36.864             0.188            94.000
        35   02 Jun 2027 09:55:25.209   02 Jun 2027 09:55:30.653             5.444          2292.375
        36   02 Jun 2027 09:55:59.502   02 Jun 2027 09:56:02.405             2.903           310.875
        37   02 Jun 2027 09:56:58.593   02 Jun 2027 09:57:02.435             3.842          1351.250
        38   02 Jun 2027 09:57:47.613   02 Jun 2027 09:57:50.417             2.804           515.562
        39   02 Jun 2027 09:57:54.859   02 Jun 2027 09:57:57.125             2.266           138.812
        40   02 Jun 2027 09:58:31.857   02 Jun 2027 09:58:35.587             3.730          1085.375
        41   02 Jun 2027 09:59:44.592   02 Jun 2027 09:59:46.643             2.051           889.531
        42   02 Jun 2027 11:29:25.061   02 Jun 2027 11:29:38.378            13.317          6539.187
        43   02 Jun 2027 11:30:59.668   02 Jun 2027 11:31:00.294             0.626           172.562
        44   02 Jun 2027 11:31:18.845   02 Jun 2027 11:31:21.823             2.978           102.125
        45   02 Jun 2027 11:32:06.889   02 Jun 2027 11:32:10.495             3.606           912.812
        46   02 Jun 2027 11:32:24.001   02 Jun 2027 11:32:25.152             1.151           422.063
        47   02 Jun 2027 11:33:14.634   02 Jun 2027 11:33:16.138             1.504           363.594
        48   02 Jun 2027 11:33:55.558   02 Jun 2027 11:33:58.005             2.447           559.344
        49   02 Jun 2027 11:34:10.669   02 Jun 2027 11:34:14.840             4.171            92.250
        50   02 Jun 2027 11:34:19.795   02 Jun 2027 11:34:31.967            12.172            97.125
        51   03 Jun 2027 03:53:21.974   03 Jun 2027 03:55:29.597           127.623         63811.500
        52   03 Jun 2027 03:56:24.763   03 Jun 2027 03:56:32.058             7.295          3647.500
        53   03 Jun 2027 03:58:20.273   03 Jun 2027 03:58:33.278            13.005          6502.500
        54   03 Jun 2027 04:00:09.859   03 Jun 2027 04:00:32.746            22.887         11443.500
        55   03 Jun 2027 05:18:17.331   03 Jun 2027 05:18:37.957            20.626         10313.000
        56   03 Jun 2027 05:30:00.218   03 Jun 2027 05:31:18.185            77.967         38983.500
        57   03 Jun 2027 06:52:12.708   03 Jun 2027 06:53:24.850            72.142         34207.437
        58   03 Jun 2027 06:54:41.230   03 Jun 2027 06:54:46.503             5.273          1450.875
        59   03 Jun 2027 06:56:10.323   03 Jun 2027 06:56:17.169             6.846          2332.375
        60   03 Jun 2027 06:56:31.229   03 Jun 2027 06:56:31.229             0.000             0.000
        61   03 Jun 2027 06:56:50.022   03 Jun 2027 06:56:52.614             2.592           663.125
        62   03 Jun 2027 08:27:20.077   03 Jun 2027 08:27:25.394             5.317          2544.375
        63   03 Jun 2027 08:27:52.183   03 Jun 2027 08:27:53.054             0.871           214.875
        64   03 Jun 2027 08:29:40.340   03 Jun 2027 08:29:46.372             6.032          2458.313
        65   03 Jun 2027 08:30:18.024   03 Jun 2027 08:30:18.638             0.614           129.563
        66   03 Jun 2027 08:31:13.922   03 Jun 2027 08:31:15.260             1.338           429.469
        67   03 Jun 2027 08:32:28.732   03 Jun 2027 08:32:32.466             3.734          1572.500
        68   03 Jun 2027 08:33:32.193   03 Jun 2027 08:33:37.037             4.844          1570.219
        69   03 Jun 2027 08:33:46.980   03 Jun 2027 08:33:46.980             0.000             0.000
        70   03 Jun 2027 10:04:33.425   03 Jun 2027 10:04:42.866             9.441          3857.875
        71   03 Jun 2027 10:07:49.921   03 Jun 2027 10:07:57.044             7.123          2387.937
        72   03 Jun 2027 10:08:59.110   03 Jun 2027 10:09:05.116             6.006          1665.313
        73   03 Jun 2027 10:09:36.836   03 Jun 2027 10:09:40.431             3.595           986.594
        74   03 Jun 2027 10:09:56.007   03 Jun 2027 10:09:58.938             2.931           427.219
        75   03 Jun 2027 10:10:21.605   03 Jun 2027 10:10:24.660             3.055           708.344
        76   03 Jun 2027 10:10:42.402   03 Jun 2027 10:10:45.563             3.161           383.469
        77   03 Jun 2027 10:11:08.138   03 Jun 2027 10:11:11.180             3.042           704.125
        78   03 Jun 2027 10:11:20.744   03 Jun 2027 10:11:26.440             5.696           298.875
        79   03 Jun 2027 10:11:46.789   03 Jun 2027 10:11:58.290            11.501           471.781
        80   03 Jun 2027 11:41:29.662   03 Jun 2027 11:41:41.444            11.782          5526.156
        81   03 Jun 2027 11:43:06.085   03 Jun 2027 11:43:08.098             2.013           536.875
        82   03 Jun 2027 11:44:02.564   03 Jun 2027 11:44:05.696             3.132           720.188
        83   03 Jun 2027 11:45:09.329   03 Jun 2027 11:45:15.930             6.601          1738.344
        84   03 Jun 2027 11:45:36.858   03 Jun 2027 11:45:38.225             1.367           522.813
        85   03 Jun 2027 11:45:55.276   03 Jun 2027 11:45:56.429             1.153           426.562
        86   03 Jun 2027 11:46:46.057   03 Jun 2027 11:46:48.081             2.024          1004.031
        87   03 Jun 2027 11:47:12.467   03 Jun 2027 11:47:15.009             2.542           206.875
        88   03 Jun 2027 11:47:22.128   03 Jun 2027 11:47:23.133             1.005           182.438
        89   03 Jun 2027 11:47:30.657   03 Jun 2027 11:47:35.154             4.497           235.125
        90   04 Jun 2027 04:05:35.531   04 Jun 2027 04:07:11.179            95.648         47824.000
        91   04 Jun 2027 04:07:53.876   04 Jun 2027 04:08:22.780            28.904         14452.000
        92   04 Jun 2027 04:09:33.235   04 Jun 2027 04:09:45.129            11.894          5947.000
        93   04 Jun 2027 04:10:24.422   04 Jun 2027 04:10:45.552            21.130         10565.000
        94   04 Jun 2027 04:12:23.163   04 Jun 2027 04:12:34.984            11.821          5910.500
        95   04 Jun 2027 05:29:45.252   04 Jun 2027 05:30:52.536            67.284         33642.000
        96   04 Jun 2027 05:41:57.473   04 Jun 2027 05:42:34.259            36.786         18393.000
        97   04 Jun 2027 07:03:58.343   04 Jun 2027 07:04:57.231            58.888         29061.656
        98   04 Jun 2027 07:06:10.522   04 Jun 2027 07:06:14.570             4.048          1923.813
        99   04 Jun 2027 07:06:34.664   04 Jun 2027 07:06:40.067             5.403           146.750
       100   04 Jun 2027 07:08:53.534   04 Jun 2027 07:09:04.940            11.406          4162.531
       101   04 Jun 2027 07:09:21.443   04 Jun 2027 07:09:24.253             2.810           515.719
       102   04 Jun 2027 08:38:49.534   04 Jun 2027 08:39:01.650            12.116          2866.562
       103   04 Jun 2027 08:40:28.904   04 Jun 2027 08:40:33.772             4.868          1674.437
       104   04 Jun 2027 08:40:46.219   04 Jun 2027 08:40:50.539             4.320           388.969
       105   04 Jun 2027 08:41:18.740   04 Jun 2027 08:41:24.611             5.871           850.750
       106   04 Jun 2027 08:42:11.064   04 Jun 2027 08:42:16.485             5.421          1221.844
       107   04 Jun 2027 08:43:14.140   04 Jun 2027 08:43:19.827             5.687          1021.344
       108   04 Jun 2027 08:45:20.385   04 Jun 2027 08:45:25.394             5.009          1586.031
       109   04 Jun 2027 08:46:33.988   04 Jun 2027 08:46:40.913             6.925          2137.906
       110   04 Jun 2027 10:16:35.479   04 Jun 2027 10:16:45.098             9.619          4416.687
       111   04 Jun 2027 10:19:39.811   04 Jun 2027 10:19:44.143             4.332          2088.031
       112   04 Jun 2027 10:20:53.259   04 Jun 2027 10:20:54.050             0.791            26.250
       113   04 Jun 2027 10:22:15.096   04 Jun 2027 10:22:21.578             6.482          1858.281
       114   04 Jun 2027 10:22:52.582   04 Jun 2027 10:22:54.075             1.493            19.719
       115   04 Jun 2027 10:23:09.151   04 Jun 2027 10:23:19.240            10.089           388.813
       116   04 Jun 2027 10:23:26.943   04 Jun 2027 10:23:29.701             2.758           240.719
       117   04 Jun 2027 10:23:44.268   04 Jun 2027 10:23:46.880             2.612           348.969
       118   04 Jun 2027 11:53:23.092   04 Jun 2027 11:53:35.092            12.000          5387.750
       119   04 Jun 2027 11:53:46.130   04 Jun 2027 11:53:47.432             1.302           286.406
       120   04 Jun 2027 11:56:23.699   04 Jun 2027 11:56:28.296             4.597          1342.281
       121   04 Jun 2027 11:57:05.212   04 Jun 2027 11:57:07.378             2.166           133.813
       122   04 Jun 2027 11:57:41.587   04 Jun 2027 11:57:45.097             3.510           605.937
       123   04 Jun 2027 11:58:13.729   04 Jun 2027 11:58:16.385             2.656           894.750
       124   04 Jun 2027 11:58:52.513   04 Jun 2027 11:58:56.002             3.489          1129.000
       125   04 Jun 2027 11:59:12.098   04 Jun 2027 11:59:15.666             3.568           126.969
       126   04 Jun 2027 11:59:41.004   04 Jun 2027 11:59:47.436             6.432           652.562
       127   04 Jun 2027 11:59:58.551   04 Jun 2027 12:00:00.000             1.449           148.563
       128   05 Jun 2027 04:17:45.151   05 Jun 2027 04:19:02.194            77.043         38521.500
       129   05 Jun 2027 04:21:16.527   05 Jun 2027 04:21:17.294             0.767           383.500
       130   05 Jun 2027 04:21:24.972   05 Jun 2027 04:21:34.072             9.100          4550.000
       131   05 Jun 2027 04:21:43.803   05 Jun 2027 04:22:14.695            30.892         15446.000
       132   05 Jun 2027 04:22:19.198   05 Jun 2027 04:22:50.146            30.948         15474.000
       133   05 Jun 2027 05:41:48.220   05 Jun 2027 05:42:29.516            41.296         20648.000
       134   05 Jun 2027 07:17:45.422   05 Jun 2027 07:20:05.461           140.039         69724.156
       135   05 Jun 2027 07:20:17.441   05 Jun 2027 07:20:21.740             4.299           348.031
       136   05 Jun 2027 07:21:03.484   05 Jun 2027 07:21:03.484             0.000             0.000
       137   05 Jun 2027 08:51:35.293   05 Jun 2027 08:51:42.230             6.937          3078.531
       138   05 Jun 2027 08:52:55.554   05 Jun 2027 08:52:56.846             1.292           261.563
       139   05 Jun 2027 08:54:43.868   05 Jun 2027 08:54:47.579             3.711          1150.562
       140   05 Jun 2027 08:56:29.294   05 Jun 2027 08:56:37.442             8.148          2263.688
       141   05 Jun 2027 08:57:32.501   05 Jun 2027 08:57:38.798             6.297           445.844
       142   05 Jun 2027 08:58:03.804   05 Jun 2027 08:58:05.554             1.750           527.062
       143   05 Jun 2027 08:58:08.602   05 Jun 2027 08:58:09.829             1.227            80.437
       144   05 Jun 2027 08:59:18.042   05 Jun 2027 08:59:22.944             4.902          2131.656
       145   05 Jun 2027 10:28:38.793   05 Jun 2027 10:29:00.625            21.832          5705.750
       146   05 Jun 2027 10:31:25.985   05 Jun 2027 10:31:29.933             3.948          1695.406
       147   05 Jun 2027 10:32:48.839   05 Jun 2027 10:32:52.393             3.554           590.406
       148   05 Jun 2027 10:33:28.431   05 Jun 2027 10:33:31.240             2.809           792.063
       149   05 Jun 2027 10:34:03.146   05 Jun 2027 10:34:09.146             6.000           878.500
       150   05 Jun 2027 10:34:59.437   05 Jun 2027 10:35:01.981             2.544          1141.563
       151   05 Jun 2027 10:35:15.071   05 Jun 2027 10:35:20.045             4.974           163.844
       152   05 Jun 2027 10:35:30.893   05 Jun 2027 10:35:31.360             0.467            74.063
       153   05 Jun 2027 10:35:34.756   05 Jun 2027 10:35:35.323             0.567           106.125
       154   06 Jun 2027 04:30:18.993   06 Jun 2027 04:33:01.295           162.302         81151.000
       155   06 Jun 2027 04:34:13.118   06 Jun 2027 04:34:36.054            22.936         11468.000
       156   06 Jun 2027 05:53:42.449   06 Jun 2027 05:54:24.490            42.041         21020.500
       157   06 Jun 2027 07:30:04.093   06 Jun 2027 07:31:46.336           102.243         50941.969
       158   06 Jun 2027 07:32:54.343   06 Jun 2027 07:32:58.823             4.480          1856.531
       159   06 Jun 2027 09:03:33.538   06 Jun 2027 09:03:38.663             5.125          2204.500
       160   06 Jun 2027 09:05:26.530   06 Jun 2027 09:05:29.745             3.215          1214.219
       161   06 Jun 2027 09:06:23.392   06 Jun 2027 09:06:27.146             3.754           669.625
       162   06 Jun 2027 09:07:22.139   06 Jun 2027 09:07:24.510             2.371          1128.750
       163   06 Jun 2027 09:09:13.174   06 Jun 2027 09:09:17.181             4.007          1403.344
       164   06 Jun 2027 09:10:34.433   06 Jun 2027 09:10:39.145             4.712          2284.500
       165   06 Jun 2027 09:11:29.899   06 Jun 2027 09:11:34.552             4.653          1476.594
       166   06 Jun 2027 09:11:59.147   06 Jun 2027 09:11:59.740             0.593           193.000
       167   06 Jun 2027 10:41:05.323   06 Jun 2027 10:41:18.321            12.998          5580.750
       168   06 Jun 2027 10:44:48.418   06 Jun 2027 10:44:52.294             3.876           892.719
       169   06 Jun 2027 10:45:10.916   06 Jun 2027 10:45:12.409             1.493            26.188
       170   06 Jun 2027 10:45:36.170   06 Jun 2027 10:45:38.052             1.882           102.469
       171   06 Jun 2027 10:46:07.734   06 Jun 2027 10:46:10.464             2.730           442.438
       172   06 Jun 2027 10:47:12.353   06 Jun 2027 10:47:17.721             5.368          1815.375
       173   06 Jun 2027 10:47:23.865   06 Jun 2027 10:47:27.700             3.835           154.844
       174   07 Jun 2027 03:03:53.951   07 Jun 2027 03:04:00.691             6.740          3370.000
       175   07 Jun 2027 03:04:10.150   07 Jun 2027 03:04:27.169            17.019          8509.500
       176   07 Jun 2027 03:05:19.462   07 Jun 2027 03:05:38.836            19.374          9687.000
       177   07 Jun 2027 03:07:32.845   07 Jun 2027 03:07:39.374             6.529          3264.500
       178   07 Jun 2027 03:08:33.045   07 Jun 2027 03:08:46.826            13.781          6890.500
       179   07 Jun 2027 03:09:40.311   07 Jun 2027 03:09:46.897             6.586          3293.000
       180   07 Jun 2027 04:41:57.551   07 Jun 2027 04:44:26.762           149.211         74605.500
       181   07 Jun 2027 04:45:53.041   07 Jun 2027 04:46:04.448            11.407          5703.500
       182   07 Jun 2027 04:46:15.112   07 Jun 2027 04:46:35.417            20.305         10152.500
       183   07 Jun 2027 06:05:33.620   07 Jun 2027 06:06:35.171            61.551         30775.500
       184   07 Jun 2027 06:07:53.831   07 Jun 2027 06:08:13.728            19.897          8927.000
       185   07 Jun 2027 07:42:05.977   07 Jun 2027 07:42:18.760            12.783          4210.438
       186   07 Jun 2027 07:42:43.062   07 Jun 2027 07:42:43.889             0.827           329.687
       187   07 Jun 2027 07:43:03.474   07 Jun 2027 07:43:05.165             1.691           587.562
       188   07 Jun 2027 07:43:10.532   07 Jun 2027 07:43:12.250             1.718           156.250
       189   07 Jun 2027 07:43:53.171   07 Jun 2027 07:43:56.433             3.262           570.438
       190   07 Jun 2027 07:44:35.358   07 Jun 2027 07:44:37.998             2.640          1169.219
       191   07 Jun 2027 07:45:07.927   07 Jun 2027 07:45:11.552             3.625           840.375
       192   07 Jun 2027 09:16:35.439   07 Jun 2027 09:16:41.152             5.713          2615.937
       193   07 Jun 2027 09:18:02.503   07 Jun 2027 09:18:04.071             1.568           262.031
       194   07 Jun 2027 09:18:47.872   07 Jun 2027 09:18:57.168             9.296           814.344
       195   07 Jun 2027 09:19:45.377   07 Jun 2027 09:19:47.549             2.172           477.219
       196   07 Jun 2027 09:21:06.027   07 Jun 2027 09:21:10.087             4.060          1238.156
       197   07 Jun 2027 09:22:37.740   07 Jun 2027 09:22:43.428             5.688          2727.406
       198   07 Jun 2027 09:23:31.204   07 Jun 2027 09:23:35.727             4.523           878.094
       199   07 Jun 2027 09:23:58.419   07 Jun 2027 09:23:59.140             0.721           360.500
       200   07 Jun 2027 10:53:12.879   07 Jun 2027 10:53:22.730             9.851          3754.625
       201   07 Jun 2027 10:55:52.979   07 Jun 2027 10:55:53.124             0.145            20.219
       202   07 Jun 2027 10:56:22.971   07 Jun 2027 10:56:30.379             7.408           932.719
       203   07 Jun 2027 10:57:50.372   07 Jun 2027 10:57:57.539             7.167          1847.719
       204   07 Jun 2027 10:58:04.049   07 Jun 2027 10:58:07.003             2.954           119.188
       205   07 Jun 2027 10:58:14.140   07 Jun 2027 10:58:16.073             1.933           223.031
       206   07 Jun 2027 10:59:14.110   07 Jun 2027 10:59:18.215             4.105           839.687
       207   07 Jun 2027 10:59:24.801   07 Jun 2027 10:59:27.010             2.209           153.250
       208   08 Jun 2027 03:16:02.359   08 Jun 2027 03:17:02.095            59.736         29868.000
       209   08 Jun 2027 03:17:11.657   08 Jun 2027 03:17:47.436            35.779         17889.500
       210   08 Jun 2027 03:18:28.874   08 Jun 2027 03:19:20.482            51.608         25804.000
       211   08 Jun 2027 03:20:20.618   08 Jun 2027 03:20:56.662            36.044         18022.000
       212   08 Jun 2027 03:21:36.116   08 Jun 2027 03:21:41.711             5.595          2797.500
       213   08 Jun 2027 03:21:54.551   08 Jun 2027 03:21:56.610             2.059          1029.500
       214   08 Jun 2027 04:54:21.080   08 Jun 2027 04:54:50.919            29.839         14919.500
       215   08 Jun 2027 04:55:09.820   08 Jun 2027 04:56:30.769            80.949         40474.500
       216   08 Jun 2027 04:57:07.610   08 Jun 2027 04:57:13.339             5.729          2003.531
       217   08 Jun 2027 04:57:25.593   08 Jun 2027 04:57:29.904             4.311           382.937
       218   08 Jun 2027 06:17:43.955   08 Jun 2027 06:17:55.318            11.363          5583.531
       219   08 Jun 2027 06:18:57.164   08 Jun 2027 06:19:03.080             5.916          1789.438
       220   08 Jun 2027 06:20:18.663   08 Jun 2027 06:20:23.064             4.401          1972.687
       221   08 Jun 2027 06:20:39.359   08 Jun 2027 06:20:40.378             1.019           401.688
       222   08 Jun 2027 07:54:27.340   08 Jun 2027 07:54:38.568            11.228          3695.000
       223   08 Jun 2027 07:55:36.552   08 Jun 2027 07:55:43.566             7.014          1521.000
       224   08 Jun 2027 07:55:51.425   08 Jun 2027 07:55:52.131             0.706           223.094
       225   08 Jun 2027 07:56:42.887   08 Jun 2027 07:56:48.471             5.584          1586.125
       226   08 Jun 2027 07:56:55.526   08 Jun 2027 07:56:59.521             3.995            72.969
       227   08 Jun 2027 09:29:24.627   08 Jun 2027 09:29:30.507             5.880          2029.281
       228   08 Jun 2027 09:30:44.485   08 Jun 2027 09:30:49.138             4.653          1886.094
       229   08 Jun 2027 09:31:40.860   08 Jun 2027 09:31:49.883             9.023          1609.125
       230   08 Jun 2027 09:32:44.149   08 Jun 2027 09:32:49.305             5.156           643.844
       231   08 Jun 2027 09:34:38.075   08 Jun 2027 09:34:55.189            17.114          2747.563
       232   08 Jun 2027 09:35:53.693   08 Jun 2027 09:35:56.723             3.030          1124.750
       233   08 Jun 2027 11:05:48.251   08 Jun 2027 11:05:57.093             8.842          4411.969
       234   08 Jun 2027 11:09:37.452   08 Jun 2027 11:09:45.277             7.825           700.500
       235   08 Jun 2027 11:10:57.652   08 Jun 2027 11:11:02.301             4.649          2254.687
       236   08 Jun 2027 11:11:45.805   08 Jun 2027 11:11:49.290             3.485          1328.062
       237   09 Jun 2027 03:28:07.331   09 Jun 2027 03:28:18.446            11.115          5557.500
       238   09 Jun 2027 03:29:09.207   09 Jun 2027 03:32:05.429           176.222         88111.000
       239   09 Jun 2027 03:32:22.893   09 Jun 2027 03:32:59.823            36.930         18465.000
       240   09 Jun 2027 03:35:54.958   09 Jun 2027 03:35:56.554             1.596           798.000
       241   09 Jun 2027 05:06:17.866   09 Jun 2027 05:06:56.521            38.655         19327.500
       242   09 Jun 2027 05:07:22.842   09 Jun 2027 05:08:17.109            54.267         27104.468
       243   09 Jun 2027 05:08:38.766   09 Jun 2027 05:08:47.756             8.990           668.969
       244   09 Jun 2027 05:09:48.401   09 Jun 2027 05:09:51.743             3.342          1219.719
       245   09 Jun 2027 06:30:21.824   09 Jun 2027 06:30:31.165             9.341          3924.812
       246   09 Jun 2027 06:30:42.768   09 Jun 2027 06:30:47.598             4.830            77.906
       247   09 Jun 2027 06:31:07.945   09 Jun 2027 06:31:11.272             3.327           635.844
       248   09 Jun 2027 06:32:23.124   09 Jun 2027 06:32:26.800             3.676          1838.000
       249   09 Jun 2027 06:32:42.445   09 Jun 2027 06:32:47.878             5.433           708.344
       250   09 Jun 2027 08:06:08.847   09 Jun 2027 08:06:16.836             7.989          3091.406
       251   09 Jun 2027 08:06:50.987   09 Jun 2027 08:06:53.025             2.038           562.469
       252   09 Jun 2027 08:08:35.437   09 Jun 2027 08:08:42.901             7.464          2558.500
       253   09 Jun 2027 08:09:22.758   09 Jun 2027 08:09:28.538             5.780          1198.281
       254   09 Jun 2027 08:09:40.633   09 Jun 2027 08:09:40.633             0.000             0.000
       255   09 Jun 2027 09:41:06.285   09 Jun 2027 09:41:20.540            14.255          2891.656
       256   09 Jun 2027 09:42:50.463   09 Jun 2027 09:42:56.400             5.937          2497.875
       257   09 Jun 2027 09:43:34.222   09 Jun 2027 09:43:38.667             4.445           675.125
       258   09 Jun 2027 09:44:09.562   09 Jun 2027 09:44:14.789             5.227           468.969
       259   09 Jun 2027 09:45:12.327   09 Jun 2027 09:45:16.998             4.671          1652.344
       260   09 Jun 2027 09:45:39.465   09 Jun 2027 09:45:39.804             0.339            62.281
       261   09 Jun 2027 09:45:56.457   09 Jun 2027 09:45:58.378             1.921           257.969
       262   09 Jun 2027 09:46:39.232   09 Jun 2027 09:46:49.176             9.944           945.563
       263   09 Jun 2027 09:47:08.784   09 Jun 2027 09:47:11.834             3.050           612.750
       264   09 Jun 2027 09:47:28.489   09 Jun 2027 09:47:31.345             2.856           177.906
       265   09 Jun 2027 11:17:20.329   09 Jun 2027 11:17:33.141            12.812          5594.625
       266   09 Jun 2027 11:19:20.146   09 Jun 2027 11:19:26.493             6.347           868.500
       267   09 Jun 2027 11:19:32.809   09 Jun 2027 11:19:35.677             2.868           154.625
       268   09 Jun 2027 11:20:02.171   09 Jun 2027 11:20:04.139             1.968           399.406
       269   09 Jun 2027 11:20:26.788   09 Jun 2027 11:20:28.001             1.213           516.594
       270   09 Jun 2027 11:20:45.728   09 Jun 2027 11:20:47.279             1.551           538.656
       271   09 Jun 2027 11:21:07.108   09 Jun 2027 11:21:08.568             1.460            83.469
       272   09 Jun 2027 11:21:38.514   09 Jun 2027 11:21:50.416            11.902           668.656
       273   09 Jun 2027 11:22:02.481   09 Jun 2027 11:22:04.815             2.334           176.813
       274   09 Jun 2027 11:22:31.559   09 Jun 2027 11:22:35.968             4.409           222.469
       275   09 Jun 2027 11:22:43.046   09 Jun 2027 11:22:50.705             7.659           156.625
       276   09 Jun 2027 11:23:17.997   09 Jun 2027 11:23:19.843             1.846           754.594
       277   09 Jun 2027 11:23:39.115   09 Jun 2027 11:23:41.995             2.880           391.906
       278   10 Jun 2027 03:41:12.629   10 Jun 2027 03:44:50.476           217.847        108923.500
       279   10 Jun 2027 03:45:24.799   10 Jun 2027 03:45:34.713             9.914          4957.000
       280   10 Jun 2027 03:47:50.587   10 Jun 2027 03:47:50.587             0.000             0.000
       281   10 Jun 2027 03:48:12.136   10 Jun 2027 03:48:51.961            39.825         19912.500
       282   10 Jun 2027 05:07:07.491   10 Jun 2027 05:07:26.833            19.342          9671.000
       283   10 Jun 2027 05:18:14.267   10 Jun 2027 05:19:21.871            67.604         33720.344
       284   10 Jun 2027 05:20:22.682   10 Jun 2027 05:20:26.423             3.741          1664.531
       285   10 Jun 2027 05:20:43.656   10 Jun 2027 05:20:44.636             0.980           272.500
       286   10 Jun 2027 05:21:11.696   10 Jun 2027 05:21:13.871             2.175           579.375
       287   10 Jun 2027 06:41:11.360   10 Jun 2027 06:41:23.115            11.755          4431.062
       288   10 Jun 2027 06:42:03.893   10 Jun 2027 06:42:06.575             2.682          1274.313
       289   10 Jun 2027 06:42:27.263   10 Jun 2027 06:42:29.231             1.968           456.531
       290   10 Jun 2027 06:42:42.537   10 Jun 2027 06:42:42.537             0.000             0.000
       291   10 Jun 2027 06:42:46.004   10 Jun 2027 06:42:47.617             1.613           399.313
       292   10 Jun 2027 06:43:49.803   10 Jun 2027 06:43:53.387             3.584          1624.812
       293   10 Jun 2027 06:45:08.388   10 Jun 2027 06:45:14.112             5.724          1609.594
       294   10 Jun 2027 08:16:29.076   10 Jun 2027 08:16:33.481             4.405          2170.063
       295   10 Jun 2027 08:17:53.815   10 Jun 2027 08:17:56.300             2.485          1050.375
       296   10 Jun 2027 08:18:53.955   10 Jun 2027 08:18:56.339             2.384           688.969
       297   10 Jun 2027 08:20:27.005   10 Jun 2027 08:20:32.020             5.015          2257.781
       298   10 Jun 2027 08:20:45.561   10 Jun 2027 08:20:46.301             0.740           270.062
       299   10 Jun 2027 08:20:53.274   10 Jun 2027 08:20:53.956             0.682           132.969
       300   10 Jun 2027 08:21:49.031   10 Jun 2027 08:21:55.607             6.576          1721.094
       301   10 Jun 2027 08:22:07.321   10 Jun 2027 08:22:07.602             0.281           116.156
       302   10 Jun 2027 09:52:39.364   10 Jun 2027 09:52:42.953             3.589          1794.500
       303   10 Jun 2027 09:53:11.440   10 Jun 2027 09:53:17.706             6.266          1997.281
       304   10 Jun 2027 09:54:42.736   10 Jun 2027 09:54:48.040             5.304          2252.031
       305   10 Jun 2027 09:55:44.410   10 Jun 2027 09:55:48.519             4.109          1666.281
       306   10 Jun 2027 09:56:16.854   10 Jun 2027 09:56:20.431             3.577           373.781
       307   10 Jun 2027 09:57:17.058   10 Jun 2027 09:57:20.037             2.979          1304.656
       308   10 Jun 2027 09:57:49.578   10 Jun 2027 09:57:52.631             3.053           774.563
       309   10 Jun 2027 09:58:05.207   10 Jun 2027 09:58:06.075             0.868            52.750
       310   10 Jun 2027 09:58:19.018   10 Jun 2027 09:58:20.771             1.753           253.312
       311   10 Jun 2027 09:58:32.811   10 Jun 2027 09:58:34.152             1.341           194.219
       312   10 Jun 2027 09:59:32.199   10 Jun 2027 09:59:36.418             4.219          1729.688
       313   10 Jun 2027 09:59:53.255   10 Jun 2027 09:59:55.893             2.638           313.250
       314   10 Jun 2027 11:29:42.071   10 Jun 2027 11:29:53.034            10.963          5173.125
       315   10 Jun 2027 11:31:15.725   10 Jun 2027 11:31:19.564             3.839           215.000
       316   10 Jun 2027 11:31:37.314   10 Jun 2027 11:31:38.209             0.895           181.375
       317   10 Jun 2027 11:31:54.070   10 Jun 2027 11:31:54.515             0.445           144.156
       318   10 Jun 2027 11:32:41.554   10 Jun 2027 11:32:43.059             1.505           443.031
       319   10 Jun 2027 11:33:25.771   10 Jun 2027 11:33:26.245             0.474           205.906
       320   10 Jun 2027 11:33:54.833   10 Jun 2027 11:33:59.327             4.494           779.437
       321   10 Jun 2027 11:35:10.843   10 Jun 2027 11:35:15.684             4.841          2097.781
       322   10 Jun 2027 11:35:27.236   10 Jun 2027 11:35:29.073             1.837           223.531
       323   10 Jun 2027 11:35:42.486   10 Jun 2027 11:35:42.944             0.458           112.344
       324   11 Jun 2027 03:53:42.335   11 Jun 2027 03:56:39.943           177.608         88804.000
       325   11 Jun 2027 03:57:55.791   11 Jun 2027 03:58:25.770            29.979         14989.500
       326   11 Jun 2027 03:59:12.137   11 Jun 2027 03:59:30.337            18.200          9100.000
       327   11 Jun 2027 03:59:51.805   11 Jun 2027 03:59:51.805             0.000             0.000
       328   11 Jun 2027 04:00:27.283   11 Jun 2027 04:00:49.641            22.358         11179.000
       329   11 Jun 2027 05:18:34.171   11 Jun 2027 05:18:39.985             5.814          2907.000
       330   11 Jun 2027 05:30:17.159   11 Jun 2027 05:31:30.724            73.565         36782.500
       331   11 Jun 2027 06:52:29.808   11 Jun 2027 06:52:59.118            29.310         14223.969
       332   11 Jun 2027 06:53:24.737   11 Jun 2027 06:53:28.879             4.142           547.531
       333   11 Jun 2027 06:55:21.020   11 Jun 2027 06:55:25.669             4.649          2148.219
       334   11 Jun 2027 06:56:08.257   11 Jun 2027 06:56:10.934             2.677           491.094
       335   11 Jun 2027 06:56:45.029   11 Jun 2027 06:56:46.632             1.603           603.844
       336   11 Jun 2027 06:57:25.031   11 Jun 2027 06:57:27.504             2.473          1147.594
       337   11 Jun 2027 08:27:35.524   11 Jun 2027 08:27:40.681             5.157          2560.187
       338   11 Jun 2027 08:28:09.390   11 Jun 2027 08:28:10.051             0.661           273.469
       339   11 Jun 2027 08:29:02.129   11 Jun 2027 08:29:05.350             3.221          1206.406
       340   11 Jun 2027 08:29:55.631   11 Jun 2027 08:29:58.582             2.951          1407.156
       341   11 Jun 2027 08:30:56.762   11 Jun 2027 08:30:58.900             2.138           624.250
       342   11 Jun 2027 08:31:31.284   11 Jun 2027 08:31:34.180             2.896           509.875
       343   11 Jun 2027 08:32:45.272   11 Jun 2027 08:32:51.629             6.357          1544.594
       344   11 Jun 2027 08:33:15.214   11 Jun 2027 08:33:23.581             8.367           434.719
       345   11 Jun 2027 08:33:48.924   11 Jun 2027 08:33:51.956             3.032           688.125
       346   11 Jun 2027 08:33:54.445   11 Jun 2027 08:33:57.069             2.624            74.531
       347   11 Jun 2027 08:35:34.385   11 Jun 2027 08:35:40.759             6.374          1974.469
       348   11 Jun 2027 10:04:52.064   11 Jun 2027 10:04:58.085             6.021          2046.188
       349   11 Jun 2027 10:06:01.453   11 Jun 2027 10:06:05.345             3.892           596.719
       350   11 Jun 2027 10:06:26.441   11 Jun 2027 10:06:31.486             5.045           616.250
       351   11 Jun 2027 10:08:06.167   11 Jun 2027 10:08:11.842             5.675          2343.781
       352   11 Jun 2027 10:09:15.192   11 Jun 2027 10:09:20.803             5.611          1627.625
       353   11 Jun 2027 10:09:58.846   11 Jun 2027 10:10:03.817             4.971          1074.750
       354   11 Jun 2027 10:10:32.782   11 Jun 2027 10:10:34.619             1.837           648.938
       355   11 Jun 2027 10:11:16.403   11 Jun 2027 10:11:19.609             3.206          1292.344
       356   11 Jun 2027 10:11:32.382   11 Jun 2027 10:11:32.947             0.565           247.062
       357   11 Jun 2027 10:12:15.113   11 Jun 2027 10:12:15.669             0.556           278.000
       358   11 Jun 2027 11:41:45.177   11 Jun 2027 11:41:56.582            11.405          5200.156
       359   11 Jun 2027 11:43:55.874   11 Jun 2027 11:43:57.694             1.820           331.938
       360   11 Jun 2027 11:45:22.980   11 Jun 2027 11:45:32.061             9.081          2008.750
       361   11 Jun 2027 11:45:53.259   11 Jun 2027 11:45:54.559             1.300           480.656
       362   11 Jun 2027 11:46:11.074   11 Jun 2027 11:46:13.207             2.133           384.719
       363   11 Jun 2027 11:47:03.589   11 Jun 2027 11:47:08.104             4.515           999.656
       364   11 Jun 2027 11:47:27.439   11 Jun 2027 11:47:30.629             3.190           162.812
       365   11 Jun 2027 11:47:39.886   11 Jun 2027 11:47:41.241             1.355           233.156
       366   12 Jun 2027 04:05:51.281   12 Jun 2027 04:07:25.770            94.489         47244.500
       367   12 Jun 2027 04:08:08.690   12 Jun 2027 04:08:39.529            30.839         15419.500
       368   12 Jun 2027 04:09:48.089   12 Jun 2027 04:09:48.778             0.689           344.500
       369   12 Jun 2027 04:10:02.912   12 Jun 2027 04:10:15.759            12.847          6423.500
       370   12 Jun 2027 04:10:39.103   12 Jun 2027 04:11:01.774            22.671         11335.500
       371   12 Jun 2027 04:12:40.468   12 Jun 2027 04:12:45.908             5.440          2720.000
       372   12 Jun 2027 05:30:03.119   12 Jun 2027 05:30:47.987            44.868         22434.000
       373   12 Jun 2027 05:30:53.425   12 Jun 2027 05:31:02.095             8.670          4335.000
       374   12 Jun 2027 05:42:18.069   12 Jun 2027 05:42:50.015            31.946         15973.000
       375   12 Jun 2027 07:04:15.039   12 Jun 2027 07:05:30.761            75.722         37861.000
       376   12 Jun 2027 07:06:28.386   12 Jun 2027 07:06:34.168             5.782          2556.251
       377   12 Jun 2027 07:06:52.675   12 Jun 2027 07:06:54.809             2.134           198.250
       378   12 Jun 2027 07:07:42.702   12 Jun 2027 07:07:46.046             3.344          1443.250
       379   12 Jun 2027 07:09:10.446   12 Jun 2027 07:09:21.360            10.914          2321.438
       380   12 Jun 2027 07:09:35.879   12 Jun 2027 07:09:35.879             0.000             0.000
       381   12 Jun 2027 08:39:04.487   12 Jun 2027 08:39:15.636            11.149          2163.906
       382   12 Jun 2027 08:39:50.533   12 Jun 2027 08:39:51.741             1.208            75.062
       383   12 Jun 2027 08:41:49.661   12 Jun 2027 08:41:57.922             8.261          1443.594
       384   12 Jun 2027 08:43:31.705   12 Jun 2027 08:43:34.739             3.034          1010.312
       385   12 Jun 2027 08:45:37.988   12 Jun 2027 08:45:39.407             1.419           709.500
       386   12 Jun 2027 08:46:12.651   12 Jun 2027 08:46:16.673             4.022          1938.562
       387   12 Jun 2027 08:47:34.395   12 Jun 2027 08:47:38.942             4.547          2046.187
       388   12 Jun 2027 10:16:51.760   12 Jun 2027 10:17:01.838            10.078          4444.625
       389   12 Jun 2027 10:17:56.676   12 Jun 2027 10:17:58.415             1.739           277.281
       390   12 Jun 2027 10:18:28.716   12 Jun 2027 10:18:33.341             4.625           939.062
       391   12 Jun 2027 10:18:58.712   12 Jun 2027 10:18:59.486             0.774            54.406
       392   12 Jun 2027 10:21:08.651   12 Jun 2027 10:21:11.984             3.333          1254.219
       393   12 Jun 2027 10:22:32.240   12 Jun 2027 10:22:36.573             4.333          1800.781
       394   12 Jun 2027 10:23:12.339   12 Jun 2027 10:23:13.046             0.707           129.781
       395   12 Jun 2027 10:23:23.997   12 Jun 2027 10:23:25.691             1.694           342.219
       396   12 Jun 2027 10:23:34.267   12 Jun 2027 10:23:35.009             0.742           268.000
       397   12 Jun 2027 10:23:51.711   12 Jun 2027 10:23:54.764             3.053           333.437
       398   12 Jun 2027 11:53:36.715   12 Jun 2027 11:53:49.847            13.132          5570.344
       399   12 Jun 2027 11:54:04.168   12 Jun 2027 11:54:06.704             2.536           393.125
       400   12 Jun 2027 11:55:52.387   12 Jun 2027 11:55:56.656             4.269          1721.969
       401   12 Jun 2027 11:56:40.217   12 Jun 2027 11:56:44.066             3.849          1348.500
       402   12 Jun 2027 11:57:38.890   12 Jun 2027 11:57:41.472             2.582          1146.187
       403   12 Jun 2027 11:58:02.196   12 Jun 2027 11:58:03.913             1.717           299.844
       404   12 Jun 2027 11:58:33.988   12 Jun 2027 11:58:44.375            10.387           885.906
       405   12 Jun 2027 11:59:40.692   12 Jun 2027 11:59:47.681             6.989           736.281
       406   13 Jun 2027 04:18:01.878   13 Jun 2027 04:18:37.346            35.468         17734.000
       407   13 Jun 2027 04:20:08.643   13 Jun 2027 04:20:42.177            33.534         16767.000
       408   13 Jun 2027 04:21:04.464   13 Jun 2027 04:21:36.628            32.164         16082.000
       409   13 Jun 2027 05:42:04.245   13 Jun 2027 05:43:28.981            84.736         42368.000
       410   13 Jun 2027 07:18:02.306   13 Jun 2027 07:20:18.145           135.839         66555.813
       411   13 Jun 2027 07:20:33.711   13 Jun 2027 07:20:36.783             3.072           377.656
       412   13 Jun 2027 07:21:20.044   13 Jun 2027 07:21:21.769             1.725           826.687
       413   13 Jun 2027 08:51:51.448   13 Jun 2027 08:52:01.024             9.576          3131.344
       414   13 Jun 2027 08:53:40.840   13 Jun 2027 08:53:45.838             4.998           858.562
       415   13 Jun 2027 08:55:16.280   13 Jun 2027 08:55:22.449             6.169          2661.500
       416   13 Jun 2027 08:56:46.108   13 Jun 2027 08:56:52.002             5.894          2233.750
       417   13 Jun 2027 08:57:48.005   13 Jun 2027 08:57:50.557             2.552           388.688
       418   13 Jun 2027 08:58:22.206   13 Jun 2027 08:58:22.206             0.000             0.000
       419   13 Jun 2027 08:58:28.067   13 Jun 2027 08:58:35.152             7.085           666.125
       420   13 Jun 2027 08:59:35.997   13 Jun 2027 08:59:35.997             0.000             0.000
       421   13 Jun 2027 10:28:57.435   13 Jun 2027 10:29:14.132            16.697          6129.250
       422   13 Jun 2027 10:31:41.695   13 Jun 2027 10:31:48.868             7.173          1638.969
       423   13 Jun 2027 10:33:24.704   13 Jun 2027 10:33:26.640             1.936           651.531
       424   13 Jun 2027 10:33:53.189   13 Jun 2027 10:33:55.150             1.961           750.812
       425   13 Jun 2027 10:34:16.685   13 Jun 2027 10:34:18.495             1.810           654.781
       426   13 Jun 2027 10:35:09.349   13 Jun 2027 10:35:12.738             3.389          1589.187
       427   13 Jun 2027 10:35:44.666   13 Jun 2027 10:35:47.477             2.811           817.594
       428   13 Jun 2027 10:35:51.227   13 Jun 2027 10:35:52.080             0.853           117.187
