uniorb/output/strategy_4/Camera/Camera_KinoSat_110304.txt

KinoSat_110304
-------------------------
    Access    *     Start Time (UTCG)     *     Stop Time (UTCG)  *   Duration (s) *   Data (Mbytes)
         1   01 Jun 2027 04:06:04.457   01 Jun 2027 04:07:54.083           109.626         54813.000
         2   01 Jun 2027 04:08:11.720   01 Jun 2027 04:08:28.362            16.642          8321.000
         3   01 Jun 2027 04:10:33.298   01 Jun 2027 04:10:42.595             9.297          4648.500
         4   01 Jun 2027 04:11:30.003   01 Jun 2027 04:11:49.704            19.701          9850.500
         5   01 Jun 2027 04:12:19.489   01 Jun 2027 04:12:41.173            21.684         10842.000
         6   01 Jun 2027 04:13:18.886   01 Jun 2027 04:13:23.415             4.529          2264.500
         7   01 Jun 2027 05:42:52.317   01 Jun 2027 05:45:40.724           168.407         84203.500
         8   01 Jun 2027 05:46:06.713   01 Jun 2027 05:46:31.458            24.745         12372.500
         9   01 Jun 2027 05:48:34.774   01 Jun 2027 05:49:15.976            41.202         20601.000
        10   01 Jun 2027 07:20:49.375   01 Jun 2027 07:23:32.897           163.522         81761.000
        11   01 Jun 2027 07:23:49.007   01 Jun 2027 07:23:54.480             5.473          2736.500
        12   01 Jun 2027 07:24:06.969   01 Jun 2027 07:24:27.515            20.546         10273.000
        13   01 Jun 2027 07:24:39.211   01 Jun 2027 07:24:44.823             5.612          2806.000
        14   01 Jun 2027 08:54:25.072   01 Jun 2027 08:57:20.276           175.204         87602.000
        15   01 Jun 2027 08:58:07.235   01 Jun 2027 08:58:29.286            22.051         11025.500
        16   01 Jun 2027 09:00:10.550   01 Jun 2027 09:00:13.626             3.076          1538.000
        17   01 Jun 2027 09:00:23.609   01 Jun 2027 09:00:24.143             0.534           267.000
        18   02 Jun 2027 04:17:58.399   02 Jun 2027 04:25:23.873           445.474        222737.000
        19   02 Jun 2027 05:54:42.825   02 Jun 2027 06:00:16.537           333.712        166856.000
        20   02 Jun 2027 06:01:02.847   02 Jun 2027 06:01:17.939            15.092          7546.000
        21   02 Jun 2027 06:01:26.303   02 Jun 2027 06:01:27.758             1.455           727.500
        22   02 Jun 2027 07:32:51.437   02 Jun 2027 07:36:57.538           246.101        123050.500
        23   02 Jun 2027 09:06:42.107   02 Jun 2027 09:12:59.035           376.928        188464.000
        24   03 Jun 2027 03:00:00.000   03 Jun 2027 03:00:15.454            15.454          7727.000
        25   03 Jun 2027 03:00:27.920   03 Jun 2027 03:01:28.165            60.245         30122.500
        26   03 Jun 2027 04:30:05.129   03 Jun 2027 04:37:24.488           439.359        219679.500
        27   03 Jun 2027 06:07:08.117   03 Jun 2027 06:11:55.978           287.861        143930.500
        28   03 Jun 2027 06:12:53.778   03 Jun 2027 06:13:14.350            20.572         10286.000
        29   03 Jun 2027 07:44:14.800   03 Jun 2027 07:48:57.674           282.874        141437.000
        30   03 Jun 2027 09:19:13.357   03 Jun 2027 09:19:33.544            20.187         10093.500
        31   03 Jun 2027 09:20:51.619   03 Jun 2027 09:24:00.277           188.658         94329.000
        32   04 Jun 2027 03:03:38.615   04 Jun 2027 03:04:19.305            40.690         20345.000
        33   04 Jun 2027 03:05:02.415   04 Jun 2027 03:13:26.935           504.520        252260.000
        34   04 Jun 2027 04:42:31.428   04 Jun 2027 04:49:12.687           401.259        200629.500
        35   04 Jun 2027 06:19:28.159   04 Jun 2027 06:23:49.704           261.545        130772.500
        36   04 Jun 2027 06:23:55.047   04 Jun 2027 06:24:58.536            63.489         31744.500
        37   04 Jun 2027 07:56:18.524   04 Jun 2027 08:00:46.598           268.074        134037.000
        38   04 Jun 2027 09:34:24.235   04 Jun 2027 09:35:35.365            71.130         35565.000
        39   05 Jun 2027 03:18:30.929   05 Jun 2027 03:24:21.074           350.145        175072.500
        40   05 Jun 2027 03:24:24.487   05 Jun 2027 03:25:23.827            59.340         29670.000
        41   05 Jun 2027 04:54:39.469   05 Jun 2027 05:01:18.780           399.311        199655.500
        42   05 Jun 2027 06:32:26.506   05 Jun 2027 06:36:47.494           260.988        130494.000
        43   05 Jun 2027 08:08:28.872   05 Jun 2027 08:12:48.003           259.131        129565.500
        44   06 Jun 2027 03:30:48.418   06 Jun 2027 03:37:24.461           396.043        198021.500
        45   06 Jun 2027 05:07:11.226   06 Jun 2027 05:13:20.588           369.362        184681.000
        46   06 Jun 2027 06:44:46.149   06 Jun 2027 06:49:05.266           259.117        129558.500
        47   06 Jun 2027 08:20:42.964   06 Jun 2027 08:25:25.707           282.743        141371.500
        48   07 Jun 2027 03:42:25.881   07 Jun 2027 03:49:33.422           427.541        213770.500
        49   07 Jun 2027 05:18:45.596   07 Jun 2027 05:25:11.056           385.460        192730.000
        50   07 Jun 2027 06:57:17.925   07 Jun 2027 07:00:54.530           216.605        108302.500
        51   07 Jun 2027 08:32:29.445   07 Jun 2027 08:36:32.959           243.514        121757.000
        52   07 Jun 2027 08:37:08.570   07 Jun 2027 08:37:52.378            43.808         21904.000
        53   08 Jun 2027 03:53:59.612   08 Jun 2027 04:01:33.990           454.378        227189.000
        54   08 Jun 2027 05:31:05.625   08 Jun 2027 05:37:27.995           382.370        191185.000
        55   08 Jun 2027 07:09:14.059   08 Jun 2027 07:12:59.493           225.434        112717.000
        56   08 Jun 2027 08:42:12.708   08 Jun 2027 08:48:27.024           374.316        187158.000
        57   08 Jun 2027 08:48:33.855   08 Jun 2027 08:49:41.915            68.060         34030.000
        58   09 Jun 2027 04:06:19.363   09 Jun 2027 04:13:33.628           434.265        217132.500
        59   09 Jun 2027 04:13:37.706   09 Jun 2027 04:13:38.177             0.471           235.500
        60   09 Jun 2027 05:43:06.954   09 Jun 2027 05:49:35.571           388.617        194308.500
        61   09 Jun 2027 07:21:26.762   09 Jun 2027 07:25:02.699           215.937        107968.500
        62   09 Jun 2027 08:54:39.926   09 Jun 2027 09:02:06.528           446.602        223301.000
        63   10 Jun 2027 04:18:13.133   10 Jun 2027 04:25:38.535           445.402        222701.000
        64   10 Jun 2027 05:54:57.672   10 Jun 2027 06:00:50.832           353.160        176580.000
        65   10 Jun 2027 06:01:21.853   10 Jun 2027 06:01:42.248            20.395         10197.500
        66   10 Jun 2027 07:33:06.211   10 Jun 2027 07:37:12.260           246.049        123024.500
        67   10 Jun 2027 09:06:56.976   10 Jun 2027 09:13:13.734           376.758        188379.000
        68   11 Jun 2027 03:00:00.000   11 Jun 2027 03:00:30.228            30.228         15114.000
        69   11 Jun 2027 03:00:42.626   11 Jun 2027 03:01:42.854            60.228         30114.000
        70   11 Jun 2027 04:30:20.129   11 Jun 2027 04:37:39.247           439.118        219559.000
        71   11 Jun 2027 06:07:22.916   11 Jun 2027 06:12:09.657           286.741        143370.500
        72   11 Jun 2027 06:12:43.279   11 Jun 2027 06:13:28.951            45.672         22836.000
        73   11 Jun 2027 07:44:21.148   11 Jun 2027 07:49:12.499           291.351        145675.500
        74   11 Jun 2027 09:19:25.194   11 Jun 2027 09:19:48.047            22.853         11426.500
        75   11 Jun 2027 09:21:07.152   11 Jun 2027 09:24:14.734           187.582         93791.000
        76   12 Jun 2027 03:03:52.913   12 Jun 2027 03:13:41.569           588.656        294328.000
        77   12 Jun 2027 04:42:46.342   12 Jun 2027 04:49:27.300           400.958        200479.000
        78   12 Jun 2027 06:19:46.980   12 Jun 2027 06:24:04.595           257.615        128807.500
        79   12 Jun 2027 06:24:06.499   12 Jun 2027 06:25:13.007            66.508         33254.000
        80   12 Jun 2027 07:56:32.784   12 Jun 2027 08:01:01.365           268.581        134290.500
        81   12 Jun 2027 09:34:41.859   12 Jun 2027 09:35:50.258            68.399         34199.500
        82   13 Jun 2027 03:18:45.786   13 Jun 2027 03:24:35.899           350.113        175056.500
        83   13 Jun 2027 03:24:39.129   13 Jun 2027 03:25:38.645            59.516         29758.000
        84   13 Jun 2027 04:54:55.602   13 Jun 2027 05:01:33.591           397.989        198994.500
        85   13 Jun 2027 06:32:42.768   13 Jun 2027 06:37:02.869           260.101        130050.500
        86   13 Jun 2027 08:08:43.820   13 Jun 2027 08:13:02.606           258.786        129393.000
