uniorb/output/strategy_4/Camera/Camera_KinoSat_111808.txt

KinoSat_111808
-------------------------
    Access    *     Start Time (UTCG)     *     Stop Time (UTCG)  *   Duration (s) *   Data (Mbytes)
         1   01 Jun 2027 04:13:57.685   01 Jun 2027 04:14:25.867            28.182         14091.000
         2   01 Jun 2027 04:14:29.882   01 Jun 2027 04:15:56.668            86.786         43393.000
         3   01 Jun 2027 04:16:22.093   01 Jun 2027 04:16:28.153             6.060          3030.000
         4   01 Jun 2027 04:16:31.538   01 Jun 2027 04:16:43.470            11.932          5966.000
         5   01 Jun 2027 04:17:09.703   01 Jun 2027 04:17:24.485            14.782          7391.000
         6   01 Jun 2027 04:19:40.921   01 Jun 2027 04:19:46.389             5.468          2734.000
         7   01 Jun 2027 05:51:58.351   01 Jun 2027 05:53:58.534           120.183         60091.500
         8   01 Jun 2027 05:56:10.226   01 Jun 2027 05:56:16.060             5.834          2917.000
         9   01 Jun 2027 07:15:39.204   01 Jun 2027 07:17:41.779           122.575         61287.500
        10   01 Jun 2027 07:18:02.507   01 Jun 2027 07:18:02.507             0.000             0.000
        11   01 Jun 2027 08:52:03.266   01 Jun 2027 08:53:54.050           110.784         55392.000
        12   01 Jun 2027 08:54:34.924   01 Jun 2027 08:54:49.795            14.871          7435.500
        13   01 Jun 2027 10:24:15.457   01 Jun 2027 10:24:24.761             9.304          4652.000
        14   01 Jun 2027 10:26:10.226   01 Jun 2027 10:27:56.304           106.078         53039.000
        15   01 Jun 2027 10:28:05.681   01 Jun 2027 10:29:10.714            65.033         32516.500
        16   01 Jun 2027 10:29:17.389   01 Jun 2027 10:29:33.139            15.750          7875.000
        17   01 Jun 2027 10:32:33.754   01 Jun 2027 10:32:37.929             4.175          2087.500
        18   02 Jun 2027 04:26:03.754   02 Jun 2027 04:27:07.271            63.517         31758.500
        19   02 Jun 2027 04:27:14.544   02 Jun 2027 04:28:28.805            74.261         37130.500
        20   02 Jun 2027 04:32:01.170   02 Jun 2027 04:32:20.801            19.631          9815.500
        21   02 Jun 2027 06:05:12.148   02 Jun 2027 06:08:45.309           213.161        106580.500
        22   02 Jun 2027 07:27:44.666   02 Jun 2027 07:29:02.732            78.066         39033.000
        23   02 Jun 2027 07:30:28.144   02 Jun 2027 07:30:28.144             0.000             0.000
        24   02 Jun 2027 09:04:13.832   02 Jun 2027 09:06:49.429           155.597         77798.500
        25   02 Jun 2027 10:39:21.325   02 Jun 2027 10:41:32.028           130.703         63988.124
        26   02 Jun 2027 10:43:27.100   02 Jun 2027 10:43:30.038             2.938          1469.000
        27   02 Jun 2027 10:44:23.419   02 Jun 2027 10:44:30.362             6.943          2269.938
        28   02 Jun 2027 10:45:27.049   02 Jun 2027 10:45:30.375             3.326          1467.344
        29   02 Jun 2027 10:45:57.225   02 Jun 2027 10:45:58.723             1.498           709.812
        30   03 Jun 2027 03:00:28.722   03 Jun 2027 03:00:53.862            25.140         12570.000
        31   03 Jun 2027 03:03:34.703   03 Jun 2027 03:03:34.949             0.246           123.000
        32   03 Jun 2027 03:03:49.916   03 Jun 2027 03:04:03.788            13.872          6936.000
        33   03 Jun 2027 03:04:14.008   03 Jun 2027 03:04:20.172             6.164          3082.000
        34   03 Jun 2027 03:05:12.404   03 Jun 2027 03:05:26.980            14.576          7288.000
        35   03 Jun 2027 03:06:18.171   03 Jun 2027 03:06:23.990             5.819          2909.500
        36   03 Jun 2027 03:06:36.990   03 Jun 2027 03:06:42.221             5.231          2615.500
        37   03 Jun 2027 04:38:07.970   03 Jun 2027 04:38:49.352            41.382         20691.000
        38   03 Jun 2027 04:39:11.908   03 Jun 2027 04:40:07.143            55.235         27617.500
        39   03 Jun 2027 04:40:18.459   03 Jun 2027 04:40:46.627            28.168         14084.000
        40   03 Jun 2027 04:41:42.532   03 Jun 2027 04:42:09.514            26.982         13491.000
        41   03 Jun 2027 04:42:52.889   03 Jun 2027 04:43:02.511             9.622          4811.000
        42   03 Jun 2027 06:16:21.139   03 Jun 2027 06:16:57.654            36.515         18257.500
        43   03 Jun 2027 06:17:15.558   03 Jun 2027 06:18:29.171            73.613         36637.812
        44   03 Jun 2027 07:39:48.307   03 Jun 2027 07:40:01.740            13.433          4815.031
        45   03 Jun 2027 07:40:29.149   03 Jun 2027 07:40:32.542             3.393           502.281
        46   03 Jun 2027 07:41:09.423   03 Jun 2027 07:41:11.211             1.788           763.937
        47   03 Jun 2027 07:42:25.055   03 Jun 2027 07:42:30.247             5.192          2207.375
        48   03 Jun 2027 09:16:17.206   03 Jun 2027 09:16:24.656             7.450          2390.094
        49   03 Jun 2027 09:17:36.719   03 Jun 2027 09:17:43.064             6.345          2110.094
        50   03 Jun 2027 09:17:53.331   03 Jun 2027 09:17:54.719             1.388           222.156
        51   03 Jun 2027 09:18:38.953   03 Jun 2027 09:18:48.400             9.447           822.281
        52   03 Jun 2027 10:51:28.690   03 Jun 2027 10:51:37.156             8.466          2308.937
        53   03 Jun 2027 10:53:23.784   03 Jun 2027 10:53:32.073             8.289          3192.375
        54   03 Jun 2027 10:54:06.000   03 Jun 2027 10:54:08.115             2.115           181.437
        55   03 Jun 2027 10:57:49.852   03 Jun 2027 10:58:03.777            13.925          6632.781
        56   04 Jun 2027 03:11:55.069   04 Jun 2027 03:12:11.291            16.222          8111.000
        57   04 Jun 2027 03:12:12.355   04 Jun 2027 03:13:34.692            82.337         41168.500
        58   04 Jun 2027 03:17:44.433   04 Jun 2027 03:18:13.005            28.572         14286.000
        59   04 Jun 2027 04:51:12.658   04 Jun 2027 04:54:07.550           174.892         86098.250
        60   04 Jun 2027 04:54:50.929   04 Jun 2027 04:54:56.045             5.116           896.719
        61   04 Jun 2027 04:55:21.827   04 Jun 2027 04:55:25.496             3.669           805.688
        62   04 Jun 2027 04:55:56.260   04 Jun 2027 04:55:59.964             3.704           961.375
        63   04 Jun 2027 04:57:52.646   04 Jun 2027 04:57:58.485             5.839          2111.844
        64   04 Jun 2027 06:17:26.662   04 Jun 2027 06:17:39.503            12.841          6090.125
        65   04 Jun 2027 06:28:16.998   04 Jun 2027 06:28:21.196             4.198          2073.000
        66   04 Jun 2027 06:28:27.878   04 Jun 2027 06:28:28.294             0.416            44.344
        67   04 Jun 2027 06:29:16.886   04 Jun 2027 06:29:21.977             5.091          1518.500
        68   04 Jun 2027 07:52:15.260   04 Jun 2027 07:52:30.348            15.088          5600.156
        69   04 Jun 2027 07:52:47.483   04 Jun 2027 07:52:48.371             0.888           192.156
        70   04 Jun 2027 07:54:19.382   04 Jun 2027 07:54:24.442             5.060          2357.281
        71   04 Jun 2027 07:54:38.888   04 Jun 2027 07:54:42.823             3.935           426.125
        72   04 Jun 2027 09:28:01.423   04 Jun 2027 09:28:06.074             4.651          1791.000
        73   04 Jun 2027 09:30:05.465   04 Jun 2027 09:30:12.696             7.231          3414.000
        74   04 Jun 2027 09:30:40.467   04 Jun 2027 09:30:43.047             2.580           166.656
        75   04 Jun 2027 09:31:21.125   04 Jun 2027 09:31:23.605             2.480          1080.531
        76   04 Jun 2027 09:32:15.236   04 Jun 2027 09:32:16.112             0.876           438.000
        77   04 Jun 2027 11:02:44.060   04 Jun 2027 11:02:49.705             5.645          2623.844
        78   04 Jun 2027 11:05:22.129   04 Jun 2027 11:05:32.733            10.604          4626.000
        79   04 Jun 2027 11:06:13.009   04 Jun 2027 11:06:17.598             4.589          1249.375
        80   04 Jun 2027 11:09:39.851   04 Jun 2027 11:09:54.072            14.221          6214.687
        81   04 Jun 2027 11:10:09.613   04 Jun 2027 11:10:10.754             1.141           481.687
        82   05 Jun 2027 03:24:35.416   05 Jun 2027 03:27:18.430           163.014         81507.000
        83   05 Jun 2027 03:27:21.350   05 Jun 2027 03:27:35.926            14.576          7288.000
        84   05 Jun 2027 03:28:25.221   05 Jun 2027 03:28:30.327             5.106          2553.000
        85   05 Jun 2027 03:28:56.945   05 Jun 2027 03:28:59.816             2.871          1435.500
        86   05 Jun 2027 05:03:34.475   05 Jun 2027 05:05:41.609           127.134         62360.625
        87   05 Jun 2027 05:06:21.502   05 Jun 2027 05:06:24.426             2.924          1175.500
        88   05 Jun 2027 05:09:27.067   05 Jun 2027 05:09:38.593            11.526          5707.531
        89   05 Jun 2027 05:09:43.895   05 Jun 2027 05:09:46.550             2.655           164.000
        90   05 Jun 2027 06:28:41.643   05 Jun 2027 06:28:50.877             9.234          4553.656
        91   05 Jun 2027 06:29:30.810   05 Jun 2027 06:29:35.152             4.342           564.594
        92   05 Jun 2027 06:40:18.120   05 Jun 2027 06:40:24.063             5.943          2436.813
        93   05 Jun 2027 08:02:52.430   05 Jun 2027 08:03:04.258            11.828          5243.781
        94   05 Jun 2027 08:03:22.349   05 Jun 2027 08:03:26.277             3.928           490.656
        95   05 Jun 2027 08:03:48.936   05 Jun 2027 08:03:49.811             0.875           297.656
        96   05 Jun 2027 08:05:03.923   05 Jun 2027 08:05:09.995             6.072          2251.063
        97   05 Jun 2027 08:06:24.875   05 Jun 2027 08:06:32.291             7.416          2115.875
        98   05 Jun 2027 08:07:29.147   05 Jun 2027 08:07:32.817             3.670          1473.281
        99   05 Jun 2027 09:37:56.298   05 Jun 2027 09:38:00.044             3.746          1682.219
       100   05 Jun 2027 09:39:14.606   05 Jun 2027 09:39:16.595             1.989           863.312
       101   05 Jun 2027 09:41:22.835   05 Jun 2027 09:41:26.521             3.686          1435.781
       102   05 Jun 2027 09:43:38.531   05 Jun 2027 09:43:44.576             6.045          1873.500
       103   05 Jun 2027 09:44:02.650   05 Jun 2027 09:44:06.775             4.125           544.906
       104   05 Jun 2027 11:17:52.515   05 Jun 2027 11:18:06.678            14.163          7081.500
       105   05 Jun 2027 11:19:35.356   05 Jun 2027 11:19:44.299             8.943          4097.281
       106   05 Jun 2027 11:20:18.315   05 Jun 2027 11:20:20.807             2.492           521.844
       107   05 Jun 2027 11:20:37.189   05 Jun 2027 11:20:38.316             1.127           511.406
       108   05 Jun 2027 11:20:58.473   05 Jun 2027 11:21:01.145             2.672            89.188
       109   05 Jun 2027 11:21:29.884   05 Jun 2027 11:21:31.234             1.350           645.344
       110   05 Jun 2027 11:22:15.537   05 Jun 2027 11:22:15.935             0.398           199.000
       111   06 Jun 2027 03:36:51.507   06 Jun 2027 03:39:44.828           173.321         86660.500
       112   06 Jun 2027 03:41:10.105   06 Jun 2027 03:41:38.722            28.617         14308.500
       113   06 Jun 2027 03:42:18.582   06 Jun 2027 03:42:24.905             6.323          3161.500
       114   06 Jun 2027 05:15:51.833   06 Jun 2027 05:17:31.405            99.572         49318.875
       115   06 Jun 2027 05:19:49.575   06 Jun 2027 05:19:56.487             6.912          3456.000
       116   06 Jun 2027 05:20:54.370   06 Jun 2027 05:20:58.538             4.168          1912.594
       117   06 Jun 2027 05:21:20.442   06 Jun 2027 05:21:22.515             2.073           539.656
       118   06 Jun 2027 05:21:57.553   06 Jun 2027 05:22:00.059             2.506           816.500
       119   06 Jun 2027 05:22:38.352   06 Jun 2027 05:22:39.913             1.561           250.969
       120   06 Jun 2027 06:40:02.069   06 Jun 2027 06:40:12.532            10.463          5183.250
       121   06 Jun 2027 06:40:47.570   06 Jun 2027 06:40:49.125             1.555           497.906
       122   06 Jun 2027 06:41:14.472   06 Jun 2027 06:41:16.911             2.439           723.313
       123   06 Jun 2027 06:42:04.633   06 Jun 2027 06:42:09.661             5.028          1202.719
       124   06 Jun 2027 06:52:15.487   06 Jun 2027 06:52:23.830             8.343          2779.719
       125   06 Jun 2027 08:14:27.619   06 Jun 2027 08:14:38.864            11.245          5546.031
       126   06 Jun 2027 08:15:11.444   06 Jun 2027 08:15:15.090             3.646           961.656
       127   06 Jun 2027 08:16:25.536   06 Jun 2027 08:16:29.903             4.367          1829.094
       128   06 Jun 2027 08:17:22.342   06 Jun 2027 08:17:28.388             6.046           955.156
       129   06 Jun 2027 08:19:05.871   06 Jun 2027 08:19:13.556             7.685          1987.000
       130   06 Jun 2027 08:19:24.699   06 Jun 2027 08:19:25.081             0.382            36.531
       131   06 Jun 2027 09:49:21.001   06 Jun 2027 09:49:31.141            10.140          3060.656
       132   06 Jun 2027 09:53:03.933   06 Jun 2027 09:53:06.522             2.589           920.062
       133   06 Jun 2027 09:54:40.166   06 Jun 2027 09:54:45.688             5.522          2619.500
       134   06 Jun 2027 09:56:01.893   06 Jun 2027 09:56:05.609             3.716           846.406
       135   06 Jun 2027 09:56:25.327   06 Jun 2027 09:56:25.327             0.000             0.000
       136   06 Jun 2027 09:57:27.442   06 Jun 2027 09:57:31.879             4.437          1944.188
       137   06 Jun 2027 11:26:57.063   06 Jun 2027 11:27:10.697            13.634          3767.313
       138   06 Jun 2027 11:29:05.654   06 Jun 2027 11:29:11.088             5.434           987.281
       139   06 Jun 2027 11:29:57.891   06 Jun 2027 11:30:03.539             5.648           138.906
       140   06 Jun 2027 11:30:36.166   06 Jun 2027 11:30:44.057             7.891           795.844
       141   06 Jun 2027 11:31:07.696   06 Jun 2027 11:31:10.584             2.888           193.719
       142   06 Jun 2027 11:32:18.938   06 Jun 2027 11:32:23.201             4.263          2060.969
       143   06 Jun 2027 11:33:11.752   06 Jun 2027 11:33:17.229             5.477          1217.969
       144   06 Jun 2027 11:33:31.189   06 Jun 2027 11:33:32.462             1.273           411.094
       145   06 Jun 2027 11:33:55.212   06 Jun 2027 11:33:55.821             0.609           290.469
       146   07 Jun 2027 03:49:10.758   07 Jun 2027 03:49:23.665            12.907          6453.500
       147   07 Jun 2027 03:49:38.188   07 Jun 2027 03:52:02.123           143.935         71967.500
       148   07 Jun 2027 03:52:52.468   07 Jun 2027 03:53:21.890            29.422         14711.000
       149   07 Jun 2027 03:54:26.363   07 Jun 2027 03:54:30.526             4.163          2081.500
       150   07 Jun 2027 05:27:58.635   07 Jun 2027 05:29:38.672           100.037         50018.500
       151   07 Jun 2027 05:30:26.208   07 Jun 2027 05:30:57.890            31.682         15841.000
       152   07 Jun 2027 05:31:23.470   07 Jun 2027 05:31:28.964             5.494          2499.562
       153   07 Jun 2027 05:32:05.403   07 Jun 2027 05:32:06.438             1.035           350.937
       154   07 Jun 2027 05:32:53.414   07 Jun 2027 05:32:56.481             3.067          1257.594
       155   07 Jun 2027 05:33:52.503   07 Jun 2027 05:33:56.219             3.716          1452.375
       156   07 Jun 2027 06:52:07.730   07 Jun 2027 06:52:22.431            14.701          6946.719
       157   07 Jun 2027 06:52:58.491   07 Jun 2027 06:53:02.263             3.772           852.375
       158   07 Jun 2027 08:25:57.763   07 Jun 2027 08:26:20.045            22.282          9232.781
       159   07 Jun 2027 08:27:13.030   07 Jun 2027 08:27:15.927             2.897          1209.125
       160   07 Jun 2027 08:27:52.975   07 Jun 2027 08:27:53.643             0.668           249.750
       161   07 Jun 2027 08:29:00.952   07 Jun 2027 08:29:05.597             4.645          2049.375
       162   07 Jun 2027 08:30:21.947   07 Jun 2027 08:30:25.306             3.359          1617.406
       163   07 Jun 2027 08:30:47.796   07 Jun 2027 08:30:50.824             3.028           637.719
       164   07 Jun 2027 08:31:47.140   07 Jun 2027 08:31:52.558             5.418          1261.063
       165   07 Jun 2027 10:00:51.518   07 Jun 2027 10:01:00.909             9.391          3244.625
       166   07 Jun 2027 10:03:11.276   07 Jun 2027 10:03:14.040             2.764           660.719
       167   07 Jun 2027 10:03:51.438   07 Jun 2027 10:03:53.278             1.840           773.125
       168   07 Jun 2027 10:06:42.338   07 Jun 2027 10:06:50.726             8.388          4105.500
       169   07 Jun 2027 10:08:11.537   07 Jun 2027 10:08:13.450             1.913           421.562
       170   07 Jun 2027 10:08:49.050   07 Jun 2027 10:08:55.229             6.179          1107.688
       171   07 Jun 2027 10:09:47.884   07 Jun 2027 10:09:50.767             2.883          1216.969
       172   07 Jun 2027 11:38:54.151   07 Jun 2027 11:39:07.085            12.934          5331.906
       173   07 Jun 2027 11:41:23.595   07 Jun 2027 11:41:32.315             8.720          3905.219
       174   07 Jun 2027 11:43:08.536   07 Jun 2027 11:43:13.740             5.204          1320.063
       175   07 Jun 2027 11:43:36.062   07 Jun 2027 11:43:39.341             3.279           468.125
       176   07 Jun 2027 11:44:10.632   07 Jun 2027 11:44:13.061             2.429           716.844
       177   07 Jun 2027 11:45:10.471   07 Jun 2027 11:45:16.160             5.689          1621.531
       178   07 Jun 2027 11:45:18.292   07 Jun 2027 11:45:23.987             5.695            66.625
       179   07 Jun 2027 11:45:45.053   07 Jun 2027 11:45:46.393             1.340           501.594
       180   07 Jun 2027 11:46:03.173   07 Jun 2027 11:46:05.644             2.471           405.531
       181   08 Jun 2027 04:01:48.637   08 Jun 2027 04:01:55.109             6.472          3236.000
       182   08 Jun 2027 04:02:10.070   08 Jun 2027 04:03:06.367            56.297         28148.500
       183   08 Jun 2027 04:04:29.121   08 Jun 2027 04:05:55.062            85.941         42970.500
       184   08 Jun 2027 04:06:16.264   08 Jun 2027 04:06:54.676            38.412         19206.000
       185   08 Jun 2027 05:40:35.244   08 Jun 2027 05:41:22.705            47.461         23730.500
       186   08 Jun 2027 05:42:19.240   08 Jun 2027 05:43:23.114            63.874         31937.000
       187   08 Jun 2027 05:43:27.630   08 Jun 2027 05:44:07.348            39.718         17747.593
       188   08 Jun 2027 07:04:04.909   08 Jun 2027 07:04:19.193            14.284          5760.719
       189   08 Jun 2027 07:06:19.456   08 Jun 2027 07:06:22.200             2.744          1372.000
       190   08 Jun 2027 08:40:16.499   08 Jun 2027 08:40:28.602            12.103          5653.063
       191   08 Jun 2027 08:40:42.505   08 Jun 2027 08:40:46.028             3.523           150.125
       192   08 Jun 2027 08:41:40.813   08 Jun 2027 08:41:50.325             9.512          1436.531
       193   08 Jun 2027 08:42:44.656   08 Jun 2027 08:42:49.300             4.644           798.656
       194   08 Jun 2027 08:43:22.922   08 Jun 2027 08:43:27.281             4.359          1015.781
       195   08 Jun 2027 10:13:49.882   08 Jun 2027 10:14:00.497            10.615          3335.000
       196   08 Jun 2027 10:15:41.370   08 Jun 2027 10:15:45.438             4.068          1571.062
       197   08 Jun 2027 10:16:23.198   08 Jun 2027 10:16:26.014             2.816           516.156
       198   08 Jun 2027 10:18:41.793   08 Jun 2027 10:18:50.577             8.784          4243.094
       199   08 Jun 2027 10:18:52.858   08 Jun 2027 10:18:54.574             1.716            63.562
       200   08 Jun 2027 10:20:45.477   08 Jun 2027 10:20:49.136             3.659          1801.500
       201   08 Jun 2027 10:21:25.121   08 Jun 2027 10:21:28.763             3.642           958.906
       202   08 Jun 2027 10:22:07.264   08 Jun 2027 10:22:08.738             1.474           279.969
       203   08 Jun 2027 11:51:16.568   08 Jun 2027 11:51:30.322            13.754          6814.125
       204   08 Jun 2027 11:51:44.931   08 Jun 2027 11:51:58.406            13.475           456.531
       205   08 Jun 2027 11:53:26.242   08 Jun 2027 11:53:29.985             3.743          1461.125
       206   08 Jun 2027 11:53:47.388   08 Jun 2027 11:53:47.673             0.285           100.781
       207   08 Jun 2027 11:55:38.472   08 Jun 2027 11:55:44.706             6.234          3112.719
       208   08 Jun 2027 11:55:48.907   08 Jun 2027 11:55:49.355             0.448            73.469
       209   08 Jun 2027 11:57:30.541   08 Jun 2027 11:57:35.557             5.016          2294.156
       210   08 Jun 2027 11:57:53.649   08 Jun 2027 11:57:55.454             1.805           283.094
       211   09 Jun 2027 04:14:14.302   09 Jun 2027 04:14:41.983            27.681         13840.500
       212   09 Jun 2027 04:14:45.904   09 Jun 2027 04:16:11.102            85.198         42599.000
       213   09 Jun 2027 04:18:10.875   09 Jun 2027 04:18:24.053            13.178          6589.000
       214   09 Jun 2027 04:18:46.141   09 Jun 2027 04:18:47.885             1.744           872.000
       215   09 Jun 2027 05:52:15.876   09 Jun 2027 05:52:48.285            32.409         16204.500
       216   09 Jun 2027 05:53:44.318   09 Jun 2027 05:54:29.596            45.278         22639.000
       217   09 Jun 2027 05:54:55.226   09 Jun 2027 05:57:07.356           132.130         65901.782
       218   09 Jun 2027 07:15:55.726   09 Jun 2027 07:16:18.033            22.307          8010.375
       219   09 Jun 2027 07:17:48.518   09 Jun 2027 07:17:48.518             0.000             0.000
       220   09 Jun 2027 07:18:01.891   09 Jun 2027 07:18:10.609             8.718          3225.906
       221   09 Jun 2027 08:52:23.495   09 Jun 2027 08:52:45.759            22.264          8740.406
       222   09 Jun 2027 08:53:08.335   09 Jun 2027 08:53:09.471             1.136           360.406
       223   09 Jun 2027 08:53:54.366   09 Jun 2027 08:53:56.340             1.974           701.250
       224   09 Jun 2027 08:54:15.051   09 Jun 2027 08:54:15.556             0.505           225.750
       225   09 Jun 2027 08:55:25.741   09 Jun 2027 08:55:28.910             3.169          1028.969
       226   09 Jun 2027 10:24:32.693   09 Jun 2027 10:24:40.241             7.548          2887.719
       227   09 Jun 2027 10:26:51.556   09 Jun 2027 10:26:58.825             7.269          3303.031
       228   09 Jun 2027 10:28:25.139   09 Jun 2027 10:28:28.677             3.538           276.438
       229   09 Jun 2027 10:30:40.492   09 Jun 2027 10:30:46.308             5.816          2005.594
       230   09 Jun 2027 10:31:41.890   09 Jun 2027 10:31:44.700             2.810          1243.781
       231   09 Jun 2027 10:32:24.541   09 Jun 2027 10:32:27.555             3.014           825.469
       232   09 Jun 2027 10:32:57.068   09 Jun 2027 10:32:59.812             2.744           602.781
       233   09 Jun 2027 10:33:38.061   09 Jun 2027 10:33:40.620             2.559           782.531
       234   09 Jun 2027 10:33:51.527   09 Jun 2027 10:33:53.467             1.940           216.375
       235   09 Jun 2027 10:34:09.450   09 Jun 2027 10:34:09.935             0.485           188.219
       236   09 Jun 2027 10:34:19.666   09 Jun 2027 10:34:20.417             0.751           304.094
       237   10 Jun 2027 04:26:21.110   10 Jun 2027 04:27:23.445            62.335         31167.500
       238   10 Jun 2027 04:27:30.480   10 Jun 2027 04:27:49.137            18.657          9328.500
       239   10 Jun 2027 04:28:37.314   10 Jun 2027 04:29:14.956            37.642         18821.000
       240   10 Jun 2027 04:29:55.290   10 Jun 2027 04:30:38.051            42.761         21380.500
       241   10 Jun 2027 04:31:10.048   10 Jun 2027 04:31:10.369             0.321           160.500
       242   10 Jun 2027 06:05:29.332   10 Jun 2027 06:08:20.647           171.315         84371.875
       243   10 Jun 2027 07:28:03.354   10 Jun 2027 07:28:13.388            10.034          4706.125
       244   10 Jun 2027 07:28:59.658   10 Jun 2027 07:29:01.623             1.965           906.812
       245   10 Jun 2027 07:29:33.337   10 Jun 2027 07:29:35.563             2.226           991.063
       246   10 Jun 2027 07:30:40.686   10 Jun 2027 07:30:44.229             3.543          1771.500
       247   10 Jun 2027 07:30:53.629   10 Jun 2027 07:30:55.909             2.280           328.750
       248   10 Jun 2027 09:04:31.458   10 Jun 2027 09:04:42.275            10.817          3166.687
       249   10 Jun 2027 09:05:35.559   10 Jun 2027 09:05:40.039             4.480          1228.063
       250   10 Jun 2027 09:06:11.023   10 Jun 2027 09:06:11.023             0.000             0.000
       251   10 Jun 2027 09:06:32.585   10 Jun 2027 09:06:34.742             2.157           721.469
       252   10 Jun 2027 09:07:07.031   10 Jun 2027 09:07:09.079             2.048           557.562
       253   10 Jun 2027 10:40:10.122   10 Jun 2027 10:40:22.439            12.317          4778.844
       254   10 Jun 2027 10:42:38.265   10 Jun 2027 10:42:48.488            10.223          3475.344
       255   10 Jun 2027 10:43:43.332   10 Jun 2027 10:43:43.332             0.000             0.000
       256   10 Jun 2027 10:45:45.002   10 Jun 2027 10:45:54.059             9.057          4528.500
       257   10 Jun 2027 10:46:14.111   10 Jun 2027 10:46:16.742             2.631           815.406
       258   10 Jun 2027 10:46:21.856   10 Jun 2027 10:46:23.588             1.732           108.812
       259   11 Jun 2027 03:00:09.263   11 Jun 2027 03:00:20.157            10.894          5447.000
       260   11 Jun 2027 03:00:56.014   11 Jun 2027 03:01:16.979            20.965         10482.500
       261   11 Jun 2027 03:03:56.361   11 Jun 2027 03:04:02.606             6.245          3122.500
       262   11 Jun 2027 03:04:44.627   11 Jun 2027 03:04:59.455            14.828          7414.000
       263   11 Jun 2027 03:05:26.517   11 Jun 2027 03:05:41.606            15.089          7544.500
       264   11 Jun 2027 03:06:00.949   11 Jun 2027 03:06:05.779             4.830          2415.000
       265   11 Jun 2027 03:06:38.893   11 Jun 2027 03:06:38.967             0.074            37.000
       266   11 Jun 2027 03:06:53.534   11 Jun 2027 03:06:56.902             3.368          1684.000
       267   11 Jun 2027 03:07:03.143   11 Jun 2027 03:07:03.454             0.311           155.500
       268   11 Jun 2027 04:38:26.097   11 Jun 2027 04:39:07.237            41.140         20570.000
       269   11 Jun 2027 04:39:29.164   11 Jun 2027 04:41:41.193           132.029         66014.500
       270   11 Jun 2027 04:42:59.114   11 Jun 2027 04:43:09.313            10.199          5099.500
       271   11 Jun 2027 04:43:50.075   11 Jun 2027 04:43:58.057             7.982          3991.000
       272   11 Jun 2027 06:16:38.353   11 Jun 2027 06:17:14.790            36.437         18218.500
       273   11 Jun 2027 06:17:43.404   11 Jun 2027 06:18:19.996            36.592         18040.687
       274   11 Jun 2027 06:18:37.726   11 Jun 2027 06:18:38.545             0.819           408.125
       275   11 Jun 2027 07:40:05.378   11 Jun 2027 07:40:17.450            12.072          4842.750
       276   11 Jun 2027 07:40:45.490   11 Jun 2027 07:40:47.410             1.920           525.813
       277   11 Jun 2027 07:41:31.224   11 Jun 2027 07:41:38.151             6.927           902.469
       278   11 Jun 2027 07:42:40.515   11 Jun 2027 07:42:44.739             4.224          1707.719
       279   11 Jun 2027 09:16:33.565   11 Jun 2027 09:16:41.670             8.105          2375.031
       280   11 Jun 2027 09:18:02.009   11 Jun 2027 09:18:06.778             4.769          2057.437
       281   11 Jun 2027 09:18:30.987   11 Jun 2027 09:18:32.585             1.598           603.437
       282   11 Jun 2027 09:19:39.210   11 Jun 2027 09:19:42.671             3.461          1325.688
       283   11 Jun 2027 10:51:45.851   11 Jun 2027 10:51:54.107             8.256          2897.438
       284   11 Jun 2027 10:53:12.750   11 Jun 2027 10:53:12.750             0.000             0.000
       285   11 Jun 2027 10:53:44.877   11 Jun 2027 10:53:51.640             6.763          3350.250
       286   11 Jun 2027 10:55:20.294   11 Jun 2027 10:55:26.899             6.605          1814.719
       287   11 Jun 2027 10:55:31.826   11 Jun 2027 10:55:37.785             5.959           153.969
       288   11 Jun 2027 10:56:01.202   11 Jun 2027 10:56:01.218             0.016             0.094
       289   11 Jun 2027 10:56:31.501   11 Jun 2027 10:56:37.771             6.270           946.344
       290   11 Jun 2027 10:57:58.265   11 Jun 2027 10:58:05.652             7.387          1831.094
       291   11 Jun 2027 10:58:12.415   11 Jun 2027 10:58:13.338             0.923           151.219
       292   12 Jun 2027 03:12:13.184   12 Jun 2027 03:12:16.388             3.204          1602.000
       293   12 Jun 2027 03:12:26.588   12 Jun 2027 03:13:49.717            83.129         41564.500
       294   12 Jun 2027 03:14:08.786   12 Jun 2027 03:14:24.602            15.816          7908.000
       295   12 Jun 2027 03:15:04.693   12 Jun 2027 03:15:08.748             4.055          2027.500
       296   12 Jun 2027 03:15:18.722   12 Jun 2027 03:15:25.989             7.267          3633.500
       297   12 Jun 2027 03:18:17.689   12 Jun 2027 03:18:19.033             1.344           672.000
       298   12 Jun 2027 03:19:10.870   12 Jun 2027 03:19:20.146             9.276          4638.000
       299   12 Jun 2027 04:51:30.619   12 Jun 2027 04:53:47.948           137.329         68664.500
       300   12 Jun 2027 04:54:06.657   12 Jun 2027 04:54:45.245            38.588         19227.563
       301   12 Jun 2027 04:55:12.492   12 Jun 2027 04:55:15.234             2.742           205.812
       302   12 Jun 2027 04:56:11.476   12 Jun 2027 04:56:17.541             6.065          1064.563
       303   12 Jun 2027 04:58:11.905   12 Jun 2027 04:58:17.991             6.086          2214.094
       304   12 Jun 2027 06:17:40.786   12 Jun 2027 06:17:52.078            11.292          4972.250
       305   12 Jun 2027 06:28:34.126   12 Jun 2027 06:28:40.116             5.990          2685.687
       306   12 Jun 2027 06:28:43.365   12 Jun 2027 06:28:44.628             1.263            54.094
       307   12 Jun 2027 07:52:32.150   12 Jun 2027 07:52:46.035            13.885          3730.719
       308   12 Jun 2027 07:53:04.832   12 Jun 2027 07:53:12.296             7.464           291.250
       309   12 Jun 2027 07:54:35.294   12 Jun 2027 07:54:40.307             5.013          2318.281
       310   12 Jun 2027 07:54:56.869   12 Jun 2027 07:55:03.530             6.661           479.781
       311   12 Jun 2027 09:28:16.937   12 Jun 2027 09:28:27.421            10.484          1994.187
       312   12 Jun 2027 09:30:25.866   12 Jun 2027 09:30:35.723             9.857          3412.188
       313   12 Jun 2027 09:30:54.551   12 Jun 2027 09:30:54.551             0.000             0.000
       314   12 Jun 2027 09:30:58.265   12 Jun 2027 09:31:00.474             2.209           138.281
       315   12 Jun 2027 09:31:04.094   12 Jun 2027 09:31:05.041             0.947             3.062
       316   12 Jun 2027 09:32:31.854   12 Jun 2027 09:32:33.785             1.931           965.500
       317   12 Jun 2027 11:03:00.819   12 Jun 2027 11:03:06.080             5.261          2490.844
       318   12 Jun 2027 11:03:10.515   12 Jun 2027 11:03:11.009             0.494            46.625
       319   12 Jun 2027 11:05:42.643   12 Jun 2027 11:05:51.820             9.177          3823.687
       320   12 Jun 2027 11:06:43.025   12 Jun 2027 11:06:44.897             1.872           401.187
       321   12 Jun 2027 11:07:52.964   12 Jun 2027 11:07:55.955             2.991           165.156
       322   12 Jun 2027 11:08:33.794   12 Jun 2027 11:08:44.276            10.482           621.969
       323   12 Jun 2027 11:09:46.071   12 Jun 2027 11:09:53.269             7.198           723.500
       324   12 Jun 2027 11:10:28.620   12 Jun 2027 11:10:33.137             4.517          1097.969
       325   13 Jun 2027 03:24:53.359   13 Jun 2027 03:27:22.532           149.173         74586.500
       326   13 Jun 2027 03:27:52.815   13 Jun 2027 03:28:07.023            14.208          7104.000
       327   13 Jun 2027 03:28:11.331   13 Jun 2027 03:28:14.693             3.362          1681.000
       328   13 Jun 2027 05:03:53.579   13 Jun 2027 05:06:12.387           138.808         68498.312
       329   13 Jun 2027 05:06:45.468   13 Jun 2027 05:06:46.915             1.447           215.062
       330   13 Jun 2027 05:07:40.729   13 Jun 2027 05:07:43.125             2.396           767.875
       331   13 Jun 2027 05:09:41.982   13 Jun 2027 05:09:50.333             8.351          3081.000
       332   13 Jun 2027 05:11:07.993   13 Jun 2027 05:11:11.044             3.051          1525.500
       333   13 Jun 2027 06:28:55.916   13 Jun 2027 06:29:04.288             8.372          3881.250
       334   13 Jun 2027 06:29:45.146   13 Jun 2027 06:29:47.071             1.925           472.188
       335   13 Jun 2027 06:40:35.390   13 Jun 2027 06:40:41.085             5.695          2576.188
       336   13 Jun 2027 08:03:07.489   13 Jun 2027 08:03:18.798            11.309          4619.344
       337   13 Jun 2027 08:03:27.784   13 Jun 2027 08:03:28.431             0.647            73.469
       338   13 Jun 2027 08:05:21.042   13 Jun 2027 08:05:30.052             9.010          3124.094
       339   13 Jun 2027 08:06:41.099   13 Jun 2027 08:06:46.602             5.503          2087.125
       340   13 Jun 2027 08:07:46.130   13 Jun 2027 08:07:49.807             3.677          1442.531
       341   13 Jun 2027 09:38:10.397   13 Jun 2027 09:38:15.264             4.867          2433.500
       342   13 Jun 2027 09:39:01.098   13 Jun 2027 09:39:11.375            10.277          2079.625
       343   13 Jun 2027 09:40:01.412   13 Jun 2027 09:40:03.732             2.320           431.375
       344   13 Jun 2027 09:41:38.219   13 Jun 2027 09:41:42.276             4.057          1385.312
       345   13 Jun 2027 09:44:00.346   13 Jun 2027 09:44:05.076             4.730          1931.344
       346   13 Jun 2027 11:18:07.144   13 Jun 2027 11:18:23.679            16.535          8267.500
       347   13 Jun 2027 11:19:59.392   13 Jun 2027 11:20:07.435             8.043          3513.719
       348   13 Jun 2027 11:20:36.164   13 Jun 2027 11:20:41.872             5.708           802.906
       349   13 Jun 2027 11:21:24.997   13 Jun 2027 11:21:28.785             3.788           960.344
       350   13 Jun 2027 11:21:59.017   13 Jun 2027 11:22:00.705             1.688           585.594
       351   13 Jun 2027 11:22:10.935   13 Jun 2027 11:22:12.939             2.004           212.219
