uniorb/output/strategy_4/Camera/Camera_KinoSat_111206.txt

KinoSat_111206
-------------------------
    Access    *     Start Time (UTCG)     *     Stop Time (UTCG)  *   Duration (s) *   Data (Mbytes)
         1   01 Jun 2027 03:22:14.340   01 Jun 2027 03:24:25.654           131.314         65657.000
         2   01 Jun 2027 03:24:58.820   01 Jun 2027 03:25:08.315             9.495          4747.500
         3   01 Jun 2027 03:25:57.846   01 Jun 2027 03:25:57.846             0.000             0.000
         4   01 Jun 2027 03:26:23.589   01 Jun 2027 03:26:41.913            18.324          9162.000
         5   01 Jun 2027 04:45:36.273   01 Jun 2027 04:46:11.351            35.078         17539.000
         6   01 Jun 2027 04:47:18.040   01 Jun 2027 04:47:18.315             0.275           137.500
         7   01 Jun 2027 06:21:58.312   01 Jun 2027 06:23:45.434           107.122         53561.000
         8   01 Jun 2027 06:24:14.210   01 Jun 2027 06:24:33.069            18.859          9429.500
         9   01 Jun 2027 06:24:43.372   01 Jun 2027 06:24:43.372             0.000             0.000
        10   01 Jun 2027 07:56:02.314   01 Jun 2027 07:57:51.624           109.310         54655.000
        11   01 Jun 2027 07:58:00.238   01 Jun 2027 07:58:11.506            11.268          5634.000
        12   01 Jun 2027 07:59:15.178   01 Jun 2027 07:59:17.149             1.971           985.500
        13   01 Jun 2027 07:59:37.498   01 Jun 2027 07:59:54.365            16.867          8433.500
        14   01 Jun 2027 08:02:31.093   01 Jun 2027 08:02:45.864            14.771          7385.500
        15   01 Jun 2027 08:03:30.888   01 Jun 2027 08:03:40.565             9.677          4838.500
        16   01 Jun 2027 08:03:54.391   01 Jun 2027 08:04:01.015             6.624          3312.000
        17   01 Jun 2027 09:33:06.873   01 Jun 2027 09:35:55.767           168.894         84447.000
        18   01 Jun 2027 09:39:08.323   01 Jun 2027 09:39:09.905             1.582           791.000
        19   01 Jun 2027 11:10:02.914   01 Jun 2027 11:10:20.446            17.532          8766.000
        20   01 Jun 2027 11:10:26.696   01 Jun 2027 11:11:54.350            87.654         43827.000
        21   01 Jun 2027 11:12:28.626   01 Jun 2027 11:13:24.326            55.700         27850.000
        22   01 Jun 2027 11:14:20.199   01 Jun 2027 11:14:26.969             6.770          3385.000
        23   02 Jun 2027 03:34:42.555   02 Jun 2027 03:36:49.357           126.802         63401.000
        24   02 Jun 2027 03:37:36.983   02 Jun 2027 03:38:06.682            29.699         14849.500
        25   02 Jun 2027 04:57:39.827   02 Jun 2027 04:58:09.149            29.322         14661.000
        26   02 Jun 2027 04:59:22.677   02 Jun 2027 04:59:39.976            17.299          8649.500
        27   02 Jun 2027 06:34:08.957   02 Jun 2027 06:37:07.158           178.201         89100.500
        28   02 Jun 2027 08:09:13.899   02 Jun 2027 08:12:59.401           225.502        112751.000
        29   02 Jun 2027 08:13:23.630   02 Jun 2027 08:14:00.058            36.428         18214.000
        30   02 Jun 2027 08:15:01.552   02 Jun 2027 08:15:16.545            14.993          7496.500
        31   02 Jun 2027 08:15:52.761   02 Jun 2027 08:16:01.792             9.031          3175.718
        32   02 Jun 2027 09:45:35.835   02 Jun 2027 09:45:58.760            22.925          9907.812
        33   02 Jun 2027 09:48:18.950   02 Jun 2027 09:48:21.627             2.677           790.188
        34   02 Jun 2027 09:49:12.147   02 Jun 2027 09:49:17.846             5.699          1287.781
        35   02 Jun 2027 09:49:38.737   02 Jun 2027 09:49:42.059             3.322           494.031
        36   02 Jun 2027 09:50:15.578   02 Jun 2027 09:50:18.554             2.976           526.812
        37   02 Jun 2027 09:51:13.210   02 Jun 2027 09:51:14.124             0.914           358.437
        38   02 Jun 2027 09:51:48.783   02 Jun 2027 09:51:49.747             0.964           399.719
        39   02 Jun 2027 11:23:06.150   02 Jun 2027 11:23:17.896            11.746          5298.844
        40   02 Jun 2027 11:24:33.281   02 Jun 2027 11:24:36.876             3.595          1432.938
        41   02 Jun 2027 11:25:08.564   02 Jun 2027 11:25:13.073             4.509           990.250
        42   02 Jun 2027 11:25:47.788   02 Jun 2027 11:25:48.673             0.885            89.844
        43   02 Jun 2027 11:26:16.159   02 Jun 2027 11:26:18.767             2.608           398.531
        44   02 Jun 2027 11:27:01.515   02 Jun 2027 11:27:05.145             3.630          1019.656
        45   03 Jun 2027 03:46:17.055   03 Jun 2027 03:46:53.297            36.242         18121.000
        46   03 Jun 2027 03:47:06.067   03 Jun 2027 03:48:58.717           112.650         56325.000
        47   03 Jun 2027 03:49:05.157   03 Jun 2027 03:49:38.772            33.615         16807.500
        48   03 Jun 2027 05:09:35.944   03 Jun 2027 05:10:04.012            28.068         14034.000
        49   03 Jun 2027 05:10:55.708   03 Jun 2027 05:11:00.833             5.125          2562.500
        50   03 Jun 2027 05:11:47.631   03 Jun 2027 05:12:35.840            48.209         24104.500
        51   03 Jun 2027 06:46:13.727   03 Jun 2027 06:47:04.187            50.460         25103.344
        52   03 Jun 2027 06:47:35.026   03 Jun 2027 06:47:37.638             2.612           551.344
        53   03 Jun 2027 06:48:15.297   03 Jun 2027 06:48:19.028             3.731          1131.875
        54   03 Jun 2027 06:48:38.306   03 Jun 2027 06:48:38.306             0.000             0.000
        55   03 Jun 2027 06:48:49.977   03 Jun 2027 06:48:52.999             3.022           874.750
        56   03 Jun 2027 08:21:24.096   03 Jun 2027 08:21:29.317             5.221          2156.031
        57   03 Jun 2027 08:22:50.736   03 Jun 2027 08:22:55.838             5.102          2172.750
        58   03 Jun 2027 08:23:45.361   03 Jun 2027 08:23:49.638             4.277           829.469
        59   03 Jun 2027 08:24:27.013   03 Jun 2027 08:24:28.773             1.760           334.250
        60   03 Jun 2027 08:25:25.320   03 Jun 2027 08:25:27.964             2.644           916.062
        61   03 Jun 2027 08:25:42.890   03 Jun 2027 08:25:49.802             6.912           466.438
        62   03 Jun 2027 08:26:21.168   03 Jun 2027 08:26:26.296             5.128           774.438
        63   03 Jun 2027 08:26:40.173   03 Jun 2027 08:26:43.403             3.230           128.250
        64   03 Jun 2027 08:26:56.587   03 Jun 2027 08:26:58.215             1.628            59.000
        65   03 Jun 2027 09:57:38.605   03 Jun 2027 09:57:50.440            11.835          5618.281
        66   03 Jun 2027 10:00:31.303   03 Jun 2027 10:00:34.034             2.731           329.406
        67   03 Jun 2027 10:00:38.148   03 Jun 2027 10:00:38.962             0.814            37.563
        68   03 Jun 2027 10:01:32.983   03 Jun 2027 10:01:36.333             3.350          1257.250
        69   03 Jun 2027 10:01:57.152   03 Jun 2027 10:02:02.437             5.285           495.188
        70   03 Jun 2027 10:02:45.384   03 Jun 2027 10:02:48.556             3.172          1120.125
        71   03 Jun 2027 10:02:56.661   03 Jun 2027 10:02:58.315             1.654           253.281
        72   03 Jun 2027 10:03:37.154   03 Jun 2027 10:03:40.730             3.576           704.969
        73   03 Jun 2027 10:03:43.886   03 Jun 2027 10:03:45.449             1.563            98.625
        74   03 Jun 2027 11:35:11.835   03 Jun 2027 11:35:26.202            14.367          5461.438
        75   03 Jun 2027 11:35:38.093   03 Jun 2027 11:35:38.884             0.791           195.031
        76   03 Jun 2027 11:37:29.764   03 Jun 2027 11:37:30.452             0.688            97.937
        77   03 Jun 2027 11:37:47.455   03 Jun 2027 11:37:48.595             1.140           300.781
        78   03 Jun 2027 11:37:51.575   03 Jun 2027 11:37:52.741             1.166            93.125
        79   03 Jun 2027 11:38:44.079   03 Jun 2027 11:38:59.624            15.545           938.563
        80   03 Jun 2027 11:39:20.925   03 Jun 2027 11:39:25.514             4.589           514.063
        81   03 Jun 2027 11:39:42.982   03 Jun 2027 11:39:43.585             0.603           264.344
        82   04 Jun 2027 03:47:24.588   04 Jun 2027 03:47:31.685             7.097          3548.500
        83   04 Jun 2027 03:58:13.523   04 Jun 2027 03:58:55.587            42.064         21032.000
        84   04 Jun 2027 03:59:01.721   04 Jun 2027 04:01:40.479           158.758         79379.000
        85   04 Jun 2027 05:22:11.858   04 Jun 2027 05:22:45.075            33.217         16608.500
        86   04 Jun 2027 06:57:57.475   04 Jun 2027 06:59:10.402            72.927         36329.281
        87   04 Jun 2027 06:59:16.078   04 Jun 2027 06:59:18.514             2.436           127.531
        88   04 Jun 2027 06:59:57.839   04 Jun 2027 07:00:01.590             3.751          1228.906
        89   04 Jun 2027 07:00:45.502   04 Jun 2027 07:00:51.264             5.762          1372.250
        90   04 Jun 2027 07:01:25.532   04 Jun 2027 07:01:27.993             2.461          1008.000
        91   04 Jun 2027 08:32:48.452   04 Jun 2027 08:32:55.780             7.328          1867.906
        92   04 Jun 2027 08:33:13.617   04 Jun 2027 08:33:15.364             1.747           264.188
        93   04 Jun 2027 08:33:39.511   04 Jun 2027 08:33:42.183             2.672           554.250
        94   04 Jun 2027 08:35:17.738   04 Jun 2027 08:35:19.670             1.932           705.563
        95   04 Jun 2027 08:35:58.751   04 Jun 2027 08:36:02.389             3.638          1221.281
        96   04 Jun 2027 08:36:41.453   04 Jun 2027 08:36:45.543             4.090           944.562
        97   04 Jun 2027 08:37:28.540   04 Jun 2027 08:37:33.417             4.877          1047.531
        98   04 Jun 2027 08:38:11.170   04 Jun 2027 08:38:13.261             2.091           950.781
        99   04 Jun 2027 08:38:23.077   04 Jun 2027 08:38:23.372             0.295            83.125
       100   04 Jun 2027 08:39:17.558   04 Jun 2027 08:39:21.532             3.974          1693.313
       101   04 Jun 2027 08:40:06.064   04 Jun 2027 08:40:09.637             3.573          1341.156
       102   04 Jun 2027 10:09:24.286   04 Jun 2027 10:09:36.364            12.078          5726.156
       103   04 Jun 2027 10:12:21.730   04 Jun 2027 10:12:24.629             2.899           359.875
       104   04 Jun 2027 10:13:01.231   04 Jun 2027 10:13:07.222             5.991           386.813
       105   04 Jun 2027 10:13:33.994   04 Jun 2027 10:13:39.213             5.219           466.000
       106   04 Jun 2027 10:13:57.465   04 Jun 2027 10:13:58.746             1.281           444.656
       107   04 Jun 2027 10:14:36.867   04 Jun 2027 10:14:39.118             2.251           960.094
       108   04 Jun 2027 10:15:37.799   04 Jun 2027 10:15:43.700             5.901          1729.563
       109   04 Jun 2027 11:47:41.974   04 Jun 2027 11:47:54.105            12.131          4630.750
       110   04 Jun 2027 11:48:40.449   04 Jun 2027 11:48:50.577            10.128           735.781
       111   04 Jun 2027 11:50:52.369   04 Jun 2027 11:50:56.317             3.948          1711.250
       112   04 Jun 2027 11:51:06.728   04 Jun 2027 11:51:20.339            13.611           325.344
       113   04 Jun 2027 11:51:22.698   04 Jun 2027 11:51:23.415             0.717            21.281
       114   04 Jun 2027 11:51:35.734   04 Jun 2027 11:51:36.809             1.075           384.969
       115   05 Jun 2027 03:58:41.201   05 Jun 2027 03:59:10.134            28.933         14466.500
       116   05 Jun 2027 03:59:31.775   05 Jun 2027 03:59:31.775             0.000             0.000
       117   05 Jun 2027 04:10:11.442   05 Jun 2027 04:11:49.975            98.533         49266.500
       118   05 Jun 2027 05:32:50.701   05 Jun 2027 05:33:49.557            58.856         29428.000
       119   05 Jun 2027 05:34:26.212   05 Jun 2027 05:34:53.048            26.836         13418.000
       120   05 Jun 2027 05:35:23.437   05 Jun 2027 05:35:24.685             1.248           624.000
       121   05 Jun 2027 05:36:40.395   05 Jun 2027 05:37:02.983            22.588         11294.000
       122   05 Jun 2027 07:08:09.722   05 Jun 2027 07:09:09.851            60.129         30064.500
       123   05 Jun 2027 07:09:42.348   05 Jun 2027 07:10:03.774            21.426         10534.188
       124   05 Jun 2027 07:10:14.496   05 Jun 2027 07:10:17.718             3.222           254.187
       125   05 Jun 2027 07:10:51.730   05 Jun 2027 07:10:55.112             3.382           898.250
       126   05 Jun 2027 07:11:30.103   05 Jun 2027 07:11:35.685             5.582          1093.469
       127   05 Jun 2027 07:12:40.329   05 Jun 2027 07:12:41.477             1.148           574.000
       128   05 Jun 2027 07:13:01.864   05 Jun 2027 07:13:12.292            10.428          1870.250
       129   05 Jun 2027 07:13:38.390   05 Jun 2027 07:13:47.680             9.290           794.125
       130   05 Jun 2027 07:14:15.325   05 Jun 2027 07:14:15.969             0.644           258.562
       131   05 Jun 2027 08:44:41.477   05 Jun 2027 08:44:47.494             6.017          2925.188
       132   05 Jun 2027 08:45:40.241   05 Jun 2027 08:45:43.907             3.666          1015.219
       133   05 Jun 2027 08:47:53.274   05 Jun 2027 08:47:54.528             1.254           113.469
       134   05 Jun 2027 08:48:18.596   05 Jun 2027 08:48:18.596             0.000             0.000
       135   05 Jun 2027 08:49:00.099   05 Jun 2027 08:49:08.775             8.676          1725.344
       136   05 Jun 2027 08:49:48.360   05 Jun 2027 08:49:52.094             3.734           971.781
       137   05 Jun 2027 08:50:24.164   05 Jun 2027 08:50:28.413             4.249           948.656
       138   05 Jun 2027 08:50:46.248   05 Jun 2027 08:50:48.601             2.353           388.625
       139   05 Jun 2027 08:51:24.239   05 Jun 2027 08:51:27.142             2.903           728.406
       140   05 Jun 2027 08:52:10.586   05 Jun 2027 08:52:11.001             0.415           207.500
       141   05 Jun 2027 10:21:45.477   05 Jun 2027 10:21:59.649            14.172          6881.813
       142   05 Jun 2027 10:23:58.660   05 Jun 2027 10:24:00.059             1.399           354.219
       143   05 Jun 2027 10:24:21.764   05 Jun 2027 10:24:22.867             1.103            67.906
       144   05 Jun 2027 10:25:15.023   05 Jun 2027 10:25:18.522             3.499          1060.156
       145   05 Jun 2027 10:25:25.682   05 Jun 2027 10:25:27.745             2.063             6.688
       146   05 Jun 2027 10:26:09.162   05 Jun 2027 10:26:11.535             2.373          1159.563
       147   05 Jun 2027 10:26:31.067   05 Jun 2027 10:26:35.792             4.725           351.125
       148   05 Jun 2027 10:27:44.023   05 Jun 2027 10:27:51.273             7.250          1655.937
       149   05 Jun 2027 11:59:39.779   05 Jun 2027 11:59:51.871            12.092          5376.094
       150   06 Jun 2027 04:09:58.182   06 Jun 2027 04:10:33.815            35.633         17816.500
       151   06 Jun 2027 04:22:10.704   06 Jun 2027 04:23:10.098            59.394         29697.000
       152   06 Jun 2027 05:44:26.527   06 Jun 2027 05:45:33.009            66.482         33241.000
       153   06 Jun 2027 05:46:21.950   06 Jun 2027 05:46:56.202            34.252         17126.000
       154   06 Jun 2027 05:47:12.301   06 Jun 2027 05:47:12.301             0.000             0.000
       155   06 Jun 2027 05:47:28.807   06 Jun 2027 05:47:52.521            23.714         11857.000
       156   06 Jun 2027 07:19:19.819   06 Jun 2027 07:20:56.010            96.191         48095.500
       157   06 Jun 2027 07:21:20.258   06 Jun 2027 07:21:24.160             3.902          1951.000
       158   06 Jun 2027 07:21:29.813   06 Jun 2027 07:21:30.806             0.993           320.531
       159   06 Jun 2027 07:21:44.707   06 Jun 2027 07:21:46.042             1.335           362.313
       160   06 Jun 2027 07:23:14.804   06 Jun 2027 07:23:19.900             5.096          2097.406
       161   06 Jun 2027 07:24:36.956   06 Jun 2027 07:24:40.685             3.729          1864.500
       162   06 Jun 2027 07:24:59.726   06 Jun 2027 07:25:03.163             3.437          1138.531
       163   06 Jun 2027 07:25:24.346   06 Jun 2027 07:25:30.682             6.336           418.812
       164   06 Jun 2027 07:25:53.199   06 Jun 2027 07:25:54.176             0.977           259.094
       165   06 Jun 2027 07:25:57.271   06 Jun 2027 07:26:03.400             6.129            92.969
       166   06 Jun 2027 07:26:41.681   06 Jun 2027 07:26:42.037             0.356           178.000
       167   06 Jun 2027 08:56:53.954   06 Jun 2027 08:57:00.821             6.867          3401.812
       168   06 Jun 2027 08:59:42.775   06 Jun 2027 08:59:47.221             4.446          1498.312
       169   06 Jun 2027 09:00:31.176   06 Jun 2027 09:00:32.367             1.191           346.531
       170   06 Jun 2027 09:01:45.981   06 Jun 2027 09:01:50.075             4.094          1384.563
       171   06 Jun 2027 09:02:24.346   06 Jun 2027 09:02:26.097             1.751           639.875
       172   06 Jun 2027 09:02:49.036   06 Jun 2027 09:02:56.520             7.484           551.437
       173   06 Jun 2027 09:03:39.087   06 Jun 2027 09:03:40.805             1.718           489.937
       174   06 Jun 2027 09:04:05.946   06 Jun 2027 09:04:07.088             1.142            10.875
       175   06 Jun 2027 09:04:14.344   06 Jun 2027 09:04:14.438             0.094            47.000
       176   06 Jun 2027 10:33:36.695   06 Jun 2027 10:33:49.217            12.522          6200.562
       177   06 Jun 2027 10:36:46.579   06 Jun 2027 10:36:50.620             4.041          1102.125
       178   06 Jun 2027 10:37:27.621   06 Jun 2027 10:37:30.586             2.965          1156.281
       179   06 Jun 2027 10:37:54.808   06 Jun 2027 10:37:57.042             2.234           490.969
       180   06 Jun 2027 10:38:30.814   06 Jun 2027 10:38:32.350             1.536           647.812
       181   06 Jun 2027 10:38:47.832   06 Jun 2027 10:38:48.086             0.254           127.000
       182   06 Jun 2027 10:39:00.492   06 Jun 2027 10:39:03.378             2.886           557.656
       183   06 Jun 2027 10:39:26.637   06 Jun 2027 10:39:29.160             2.523           572.875
       184   06 Jun 2027 10:40:09.629   06 Jun 2027 10:40:13.066             3.437           777.781
       185   07 Jun 2027 03:00:00.000   07 Jun 2027 03:00:21.492            21.492         10746.000
       186   07 Jun 2027 03:01:13.207   07 Jun 2027 03:01:21.090             7.883          3941.500
       187   07 Jun 2027 03:01:27.426   07 Jun 2027 03:01:28.459             1.033           516.500
       188   07 Jun 2027 03:01:38.604   07 Jun 2027 03:01:41.444             2.840          1420.000
       189   07 Jun 2027 03:01:47.209   07 Jun 2027 03:01:48.340             1.131           565.500
       190   07 Jun 2027 03:02:22.084   07 Jun 2027 03:02:34.652            12.568          6284.000
       191   07 Jun 2027 03:03:17.762   07 Jun 2027 03:03:17.762             0.000             0.000
       192   07 Jun 2027 03:03:57.431   07 Jun 2027 03:04:09.830            12.399          6199.500
       193   07 Jun 2027 04:22:03.811   07 Jun 2027 04:22:48.432            44.621         22310.500
       194   07 Jun 2027 04:34:24.992   07 Jun 2027 04:34:44.561            19.569          9784.500
       195   07 Jun 2027 05:55:55.440   07 Jun 2027 05:57:18.649            83.209         41604.500
       196   07 Jun 2027 05:57:56.291   07 Jun 2027 05:59:15.897            79.606         39803.000
       197   07 Jun 2027 06:00:46.599   07 Jun 2027 06:01:04.726            18.127          9063.500
       198   07 Jun 2027 07:30:50.384   07 Jun 2027 07:31:24.974            34.590         15392.219
       199   07 Jun 2027 07:31:57.753   07 Jun 2027 07:32:00.207             2.454           240.594
       200   07 Jun 2027 07:33:07.844   07 Jun 2027 07:33:09.546             1.702            57.844
       201   07 Jun 2027 07:33:34.933   07 Jun 2027 07:33:36.038             1.105           507.156
       202   07 Jun 2027 07:35:20.014   07 Jun 2027 07:35:23.673             3.659          1787.844
       203   07 Jun 2027 07:36:40.506   07 Jun 2027 07:36:48.367             7.861          2183.969
       204   07 Jun 2027 07:37:31.997   07 Jun 2027 07:37:36.194             4.197           911.906
       205   07 Jun 2027 07:38:00.973   07 Jun 2027 07:38:06.904             5.931           352.187
       206   07 Jun 2027 07:38:22.025   07 Jun 2027 07:38:24.004             1.979           267.750
       207   07 Jun 2027 07:38:58.710   07 Jun 2027 07:38:58.949             0.239           119.500
       208   07 Jun 2027 07:39:46.551   07 Jun 2027 07:39:51.168             4.617          1497.563
       209   07 Jun 2027 09:08:48.019   07 Jun 2027 09:08:59.162            11.143          5243.188
       210   07 Jun 2027 09:11:38.204   07 Jun 2027 09:11:44.189             5.985          1392.656
       211   07 Jun 2027 09:12:55.208   07 Jun 2027 09:12:57.207             1.999           944.437
       212   07 Jun 2027 09:14:12.570   07 Jun 2027 09:14:17.319             4.749          2145.344
       213   07 Jun 2027 09:15:06.720   07 Jun 2027 09:15:10.494             3.774          1349.156
       214   07 Jun 2027 09:15:46.452   07 Jun 2027 09:15:49.305             2.853           182.688
       215   07 Jun 2027 09:15:58.038   07 Jun 2027 09:16:01.069             3.031           222.250
       216   07 Jun 2027 10:45:42.852   07 Jun 2027 10:45:50.587             7.735          3867.500
       217   07 Jun 2027 10:46:12.045   07 Jun 2027 10:46:16.607             4.562          2100.625
       218   07 Jun 2027 10:48:18.631   07 Jun 2027 10:48:25.359             6.728          2007.562
       219   07 Jun 2027 10:48:44.279   07 Jun 2027 10:48:46.159             1.880           293.531
       220   07 Jun 2027 10:49:52.293   07 Jun 2027 10:49:57.862             5.569          1772.187
       221   07 Jun 2027 10:51:00.704   07 Jun 2027 10:51:04.914             4.210          1680.375
       222   07 Jun 2027 10:51:23.773   07 Jun 2027 10:51:24.619             0.846            81.781
       223   07 Jun 2027 10:51:45.633   07 Jun 2027 10:51:47.038             1.405           529.875
       224   07 Jun 2027 10:51:54.748   07 Jun 2027 10:52:07.614            12.866           172.187
       225   08 Jun 2027 03:10:11.345   08 Jun 2027 03:11:18.929            67.584         33792.000
       226   08 Jun 2027 03:11:46.042   08 Jun 2027 03:12:06.226            20.184         10092.000
       227   08 Jun 2027 03:12:22.593   08 Jun 2027 03:12:22.839             0.246           123.000
       228   08 Jun 2027 03:13:43.701   08 Jun 2027 03:14:33.406            49.705         24852.500
       229   08 Jun 2027 04:33:59.604   08 Jun 2027 04:34:25.917            26.313         13156.500
       230   08 Jun 2027 04:34:40.595   08 Jun 2027 04:34:40.595             0.000             0.000
       231   08 Jun 2027 04:34:51.169   08 Jun 2027 04:34:56.346             5.177          2588.500
       232   08 Jun 2027 04:35:56.734   08 Jun 2027 04:35:56.734             0.000             0.000
       233   08 Jun 2027 06:09:59.751   08 Jun 2027 06:12:36.329           156.578         77600.937
       234   08 Jun 2027 07:43:43.970   08 Jun 2027 07:44:00.681            16.711          3457.438
       235   08 Jun 2027 07:45:11.121   08 Jun 2027 07:45:12.543             1.422           381.594
       236   08 Jun 2027 07:46:16.883   08 Jun 2027 07:46:16.883             0.000             0.000
       237   08 Jun 2027 07:46:22.310   08 Jun 2027 07:46:26.876             4.566           579.188
       238   08 Jun 2027 07:47:19.622   08 Jun 2027 07:47:23.486             3.864          1413.406
       239   08 Jun 2027 07:48:39.690   08 Jun 2027 07:48:45.369             5.679          2033.563
       240   08 Jun 2027 07:50:12.672   08 Jun 2027 07:50:18.102             5.430          2240.281
       241   08 Jun 2027 07:50:55.940   08 Jun 2027 07:50:56.560             0.620           310.000
       242   08 Jun 2027 07:51:16.906   08 Jun 2027 07:51:24.604             7.698          1492.094
       243   08 Jun 2027 07:52:17.934   08 Jun 2027 07:52:18.846             0.912           456.000
       244   08 Jun 2027 09:21:09.272   08 Jun 2027 09:21:26.236            16.964          7412.250
       245   08 Jun 2027 09:24:33.702   08 Jun 2027 09:24:35.412             1.710           143.687
       246   08 Jun 2027 09:25:01.900   08 Jun 2027 09:25:03.596             1.696           267.781
       247   08 Jun 2027 09:25:42.038   08 Jun 2027 09:25:47.906             5.868           212.938
       248   08 Jun 2027 09:26:20.154   08 Jun 2027 09:26:21.641             1.487            79.875
       249   08 Jun 2027 09:27:19.544   08 Jun 2027 09:27:23.627             4.083          1809.469
       250   08 Jun 2027 09:27:54.560   08 Jun 2027 09:27:58.290             3.730           556.406
       251   08 Jun 2027 10:58:12.842   08 Jun 2027 10:58:25.212            12.370          5744.875
       252   08 Jun 2027 10:59:17.894   08 Jun 2027 10:59:23.786             5.892           896.500
       253   08 Jun 2027 11:01:33.716   08 Jun 2027 11:01:37.772             4.056          1643.969
       254   08 Jun 2027 11:01:58.787   08 Jun 2027 11:02:00.400             1.613           353.562
       255   08 Jun 2027 11:02:30.492   08 Jun 2027 11:02:33.621             3.129           940.375
       256   08 Jun 2027 11:02:37.666   08 Jun 2027 11:02:40.119             2.453           126.406
       257   08 Jun 2027 11:03:46.743   08 Jun 2027 11:03:56.459             9.716          1764.844
       258   09 Jun 2027 03:22:29.996   09 Jun 2027 03:24:54.702           144.706         72353.000
       259   09 Jun 2027 03:25:32.994   09 Jun 2027 03:26:29.894            56.900         28450.000
       260   09 Jun 2027 04:45:51.170   09 Jun 2027 04:45:52.968             1.798           899.000
       261   09 Jun 2027 04:45:53.208   09 Jun 2027 04:45:53.860             0.652           326.000
       262   09 Jun 2027 04:46:00.593   09 Jun 2027 04:46:25.779            25.186         12593.000
       263   09 Jun 2027 04:47:33.464   09 Jun 2027 04:47:33.464             0.000             0.000
       264   09 Jun 2027 06:22:14.325   09 Jun 2027 06:23:44.137            89.812         44566.813
       265   09 Jun 2027 06:24:12.782   09 Jun 2027 06:24:15.835             3.053           366.906
       266   09 Jun 2027 06:24:31.251   09 Jun 2027 06:24:32.648             1.397           481.750
       267   09 Jun 2027 06:25:33.093   09 Jun 2027 06:25:38.862             5.769          1836.375
       268   09 Jun 2027 07:56:18.613   09 Jun 2027 07:56:23.721             5.108          2328.219
       269   09 Jun 2027 07:58:08.459   09 Jun 2027 07:58:13.383             4.924          1692.187
       270   09 Jun 2027 07:58:21.654   09 Jun 2027 07:58:25.925             4.271           195.656
       271   09 Jun 2027 07:59:41.234   09 Jun 2027 07:59:44.774             3.540          1009.844
       272   09 Jun 2027 08:00:09.625   09 Jun 2027 08:00:11.138             1.513           259.656
       273   09 Jun 2027 08:00:43.916   09 Jun 2027 08:00:45.656             1.740           181.031
       274   09 Jun 2027 08:01:08.595   09 Jun 2027 08:01:14.561             5.966           414.062
       275   09 Jun 2027 08:02:44.343   09 Jun 2027 08:02:51.001             6.658          2386.344
       276   09 Jun 2027 08:02:52.345   09 Jun 2027 08:02:53.357             1.012            14.562
       277   09 Jun 2027 08:03:47.937   09 Jun 2027 08:03:52.686             4.749          1414.281
       278   09 Jun 2027 08:04:11.099   09 Jun 2027 08:04:13.578             2.479           440.531
       279   09 Jun 2027 09:33:22.481   09 Jun 2027 09:33:39.962            17.481          6423.375
       280   09 Jun 2027 09:36:34.019   09 Jun 2027 09:36:35.132             1.113            48.844
       281   09 Jun 2027 09:37:48.404   09 Jun 2027 09:37:51.958             3.554          1722.375
       282   09 Jun 2027 09:38:27.870   09 Jun 2027 09:38:32.465             4.595           717.625
       283   09 Jun 2027 09:39:25.671   09 Jun 2027 09:39:30.134             4.463          1491.406
       284   09 Jun 2027 09:40:02.008   09 Jun 2027 09:40:05.268             3.260           944.844
       285   09 Jun 2027 11:10:18.737   09 Jun 2027 11:10:29.964            11.227          5206.906
       286   09 Jun 2027 11:10:42.833   09 Jun 2027 11:10:43.809             0.976           213.250
       287   09 Jun 2027 11:12:46.489   09 Jun 2027 11:12:51.128             4.639          1138.906
       288   09 Jun 2027 11:14:13.542   09 Jun 2027 11:14:18.832             5.290          1419.500
       289   10 Jun 2027 03:34:58.931   10 Jun 2027 03:38:23.634           204.703        102351.500
       290   10 Jun 2027 03:38:30.703   10 Jun 2027 03:38:55.778            25.075         12537.500
       291   10 Jun 2027 04:57:55.860   10 Jun 2027 04:57:56.571             0.711           355.500
       292   10 Jun 2027 04:58:54.723   10 Jun 2027 04:59:06.366            11.643          5821.500
       293   10 Jun 2027 04:59:37.792   10 Jun 2027 04:59:54.918            17.126          8563.000
       294   10 Jun 2027 06:34:24.806   10 Jun 2027 06:35:34.689            69.883         34290.656
       295   10 Jun 2027 06:36:07.271   10 Jun 2027 06:36:07.271             0.000             0.000
       296   10 Jun 2027 06:36:17.749   10 Jun 2027 06:36:19.403             1.654           460.844
       297   10 Jun 2027 06:37:04.084   10 Jun 2027 06:37:04.084             0.000             0.000
       298   10 Jun 2027 06:37:34.951   10 Jun 2027 06:37:40.203             5.252          2142.938
       299   10 Jun 2027 08:09:30.387   10 Jun 2027 08:09:37.357             6.970          2636.406
       300   10 Jun 2027 08:10:06.153   10 Jun 2027 08:10:08.550             2.397           120.875
       301   10 Jun 2027 08:11:10.371   10 Jun 2027 08:11:16.808             6.437           663.125
       302   10 Jun 2027 08:12:35.651   10 Jun 2027 08:12:39.157             3.506          1408.844
       303   10 Jun 2027 08:13:11.221   10 Jun 2027 08:13:13.881             2.660           974.813
       304   10 Jun 2027 08:13:40.836   10 Jun 2027 08:13:47.199             6.363           842.344
       305   10 Jun 2027 08:14:45.008   10 Jun 2027 08:14:46.377             1.369           351.531
       306   10 Jun 2027 08:15:16.607   10 Jun 2027 08:15:20.031             3.424           944.687
       307   10 Jun 2027 08:16:01.208   10 Jun 2027 08:16:02.993             1.785           864.625
       308   10 Jun 2027 08:16:08.184   10 Jun 2027 08:16:10.569             2.385           127.875
       309   10 Jun 2027 09:45:52.590   10 Jun 2027 09:46:07.141            14.551          6676.125
       310   10 Jun 2027 09:49:26.505   10 Jun 2027 09:49:32.293             5.788          1262.187
       311   10 Jun 2027 09:51:11.799   10 Jun 2027 09:51:17.668             5.869          1413.031
       312   10 Jun 2027 09:51:28.396   10 Jun 2027 09:51:29.887             1.491           335.250
       313   10 Jun 2027 09:52:03.301   10 Jun 2027 09:52:04.629             1.328           391.656
       314   10 Jun 2027 11:23:20.969   10 Jun 2027 11:23:34.293            13.324          4660.094
       315   10 Jun 2027 11:23:44.168   10 Jun 2027 11:23:44.921             0.753           279.937
       316   10 Jun 2027 11:24:52.728   10 Jun 2027 11:24:54.814             2.086            51.656
       317   10 Jun 2027 11:26:02.952   10 Jun 2027 11:26:06.693             3.741          1444.719
       318   10 Jun 2027 11:26:36.080   10 Jun 2027 11:26:36.626             0.546           179.062
       319   10 Jun 2027 11:27:20.628   10 Jun 2027 11:27:23.814             3.186          1113.719
       320   11 Jun 2027 03:46:32.012   11 Jun 2027 03:47:09.196            37.184         18592.000
       321   11 Jun 2027 03:47:21.758   11 Jun 2027 03:50:11.140           169.382         84691.000
       322   11 Jun 2027 05:10:00.167   11 Jun 2027 05:10:19.542            19.375          9687.500
       323   11 Jun 2027 05:11:38.291   11 Jun 2027 05:12:04.138            25.847         12923.500
       324   11 Jun 2027 06:46:29.134   11 Jun 2027 06:47:29.743            60.609         29636.031
       325   11 Jun 2027 06:48:08.342   11 Jun 2027 06:48:11.066             2.724          1062.781
       326   11 Jun 2027 06:48:42.732   11 Jun 2027 06:48:44.242             1.510           709.188
       327   11 Jun 2027 06:49:07.713   11 Jun 2027 06:49:09.519             1.806           417.625
       328   11 Jun 2027 08:21:39.564   11 Jun 2027 08:21:44.426             4.862          2139.625
       329   11 Jun 2027 08:23:07.954   11 Jun 2027 08:23:13.617             5.663          2173.062
       330   11 Jun 2027 08:24:26.798   11 Jun 2027 08:24:32.085             5.287           751.031
       331   11 Jun 2027 08:24:41.024   11 Jun 2027 08:24:41.024             0.000             0.000
       332   11 Jun 2027 08:25:13.636   11 Jun 2027 08:25:24.200            10.564          1298.469
       333   11 Jun 2027 08:25:45.520   11 Jun 2027 08:25:56.039            10.519           666.250
       334   11 Jun 2027 08:26:10.476   11 Jun 2027 08:26:13.854             3.378           390.781
       335   11 Jun 2027 08:27:09.796   11 Jun 2027 08:27:13.941             4.145          1042.594
       336   11 Jun 2027 09:57:52.456   11 Jun 2027 09:58:05.950            13.494          6411.281
       337   11 Jun 2027 09:59:51.900   11 Jun 2027 09:59:53.259             1.359           118.750
       338   11 Jun 2027 10:00:31.568   11 Jun 2027 10:00:32.276             0.708           347.750
       339   11 Jun 2027 10:00:36.808   11 Jun 2027 10:00:37.830             1.022            71.313
       340   11 Jun 2027 10:00:55.690   11 Jun 2027 10:00:57.761             2.071           547.969
       341   11 Jun 2027 10:01:12.704   11 Jun 2027 10:01:15.356             2.652           466.969
       342   11 Jun 2027 10:02:07.268   11 Jun 2027 10:02:11.764             4.496          1622.250
       343   11 Jun 2027 10:02:32.392   11 Jun 2027 10:02:34.346             1.954           602.344
       344   11 Jun 2027 10:02:37.414   11 Jun 2027 10:02:38.678             1.264            95.875
       345   11 Jun 2027 10:03:12.754   11 Jun 2027 10:03:14.971             2.217           273.594
       346   11 Jun 2027 10:03:22.771   11 Jun 2027 10:03:23.307             0.536            14.594
       347   11 Jun 2027 11:35:27.451   11 Jun 2027 11:35:41.944            14.493          7104.031
       348   11 Jun 2027 11:37:00.577   11 Jun 2027 11:37:01.808             1.231           225.188
       349   11 Jun 2027 11:37:42.284   11 Jun 2027 11:37:44.965             2.681            20.406
       350   11 Jun 2027 11:38:05.190   11 Jun 2027 11:38:06.013             0.823           386.750
       351   11 Jun 2027 11:38:33.817   11 Jun 2027 11:38:36.920             3.103           758.188
       352   11 Jun 2027 11:39:19.887   11 Jun 2027 11:39:28.151             8.264          1199.156
       353   11 Jun 2027 11:39:31.823   11 Jun 2027 11:39:34.407             2.584            28.750
       354   11 Jun 2027 11:39:57.302   11 Jun 2027 11:39:58.974             1.672           180.688
       355   12 Jun 2027 03:47:38.742   12 Jun 2027 03:47:48.576             9.834          4917.000
       356   12 Jun 2027 03:58:29.098   12 Jun 2027 04:01:56.243           207.145        103572.500
       357   12 Jun 2027 05:22:26.969   12 Jun 2027 05:23:00.859            33.890         16945.000
       358   12 Jun 2027 05:23:23.558   12 Jun 2027 05:23:36.049            12.491          6245.500
       359   12 Jun 2027 06:58:13.390   12 Jun 2027 06:59:13.223            59.833         29846.438
       360   12 Jun 2027 06:59:27.971   12 Jun 2027 06:59:30.480             2.509           418.719
       361   12 Jun 2027 06:59:49.743   12 Jun 2027 06:59:51.946             2.203           536.750
       362   12 Jun 2027 07:00:59.900   12 Jun 2027 07:01:01.386             1.486           743.000
       363   12 Jun 2027 07:01:11.005   12 Jun 2027 07:01:11.005             0.000             0.000
       364   12 Jun 2027 07:01:41.676   12 Jun 2027 07:01:45.756             4.080          1907.250
       365   12 Jun 2027 08:32:59.595   12 Jun 2027 08:33:11.741            12.146          1827.656
       366   12 Jun 2027 08:35:12.053   12 Jun 2027 08:35:17.655             5.602          2348.156
       367   12 Jun 2027 08:35:37.090   12 Jun 2027 08:35:38.784             1.694           252.875
       368   12 Jun 2027 08:36:17.970   12 Jun 2027 08:36:23.985             6.015            70.687
       369   12 Jun 2027 08:36:24.984   12 Jun 2027 08:36:27.152             2.168            26.969
       370   12 Jun 2027 08:37:47.124   12 Jun 2027 08:37:54.739             7.615          2499.125
       371   12 Jun 2027 08:38:34.926   12 Jun 2027 08:38:38.253             3.327          1109.563
       372   12 Jun 2027 08:39:28.380   12 Jun 2027 08:39:32.332             3.952          1564.469
       373   12 Jun 2027 08:40:21.966   12 Jun 2027 08:40:25.503             3.537          1363.844
       374   12 Jun 2027 10:09:40.217   12 Jun 2027 10:09:55.595            15.378          7271.125
       375   12 Jun 2027 10:12:28.500   12 Jun 2027 10:12:34.773             6.273          1045.156
       376   12 Jun 2027 10:13:04.943   12 Jun 2027 10:13:07.914             2.971           850.438
       377   12 Jun 2027 10:14:02.959   12 Jun 2027 10:14:09.313             6.354          1394.906
       378   12 Jun 2027 10:14:52.286   12 Jun 2027 10:14:57.572             5.286           980.813
       379   12 Jun 2027 10:15:54.797   12 Jun 2027 10:15:58.519             3.722          1788.281
       380   12 Jun 2027 11:47:58.023   12 Jun 2027 11:48:07.411             9.388          4615.969
       381   12 Jun 2027 11:48:15.777   12 Jun 2027 11:48:17.200             1.423           254.187
       382   12 Jun 2027 11:48:56.880   12 Jun 2027 11:49:01.114             4.234           754.156
       383   12 Jun 2027 11:50:13.209   12 Jun 2027 11:50:15.540             2.331           231.219
       384   12 Jun 2027 11:51:08.582   12 Jun 2027 11:51:12.689             4.107          1657.563
       385   12 Jun 2027 11:51:21.623   12 Jun 2027 11:51:26.923             5.300           279.188
       386   13 Jun 2027 03:58:54.897   13 Jun 2027 03:59:09.741            14.844          7422.000
       387   13 Jun 2027 03:59:20.461   13 Jun 2027 03:59:25.615             5.154          2577.000
       388   13 Jun 2027 04:10:27.255   13 Jun 2027 04:12:05.206            97.951         48975.500
       389   13 Jun 2027 05:33:06.152   13 Jun 2027 05:34:04.343            58.191         29095.500
       390   13 Jun 2027 05:34:41.824   13 Jun 2027 05:35:10.167            28.343         14171.500
       391   13 Jun 2027 05:35:37.945   13 Jun 2027 05:35:59.928            21.983         10991.500
       392   13 Jun 2027 07:08:18.238   13 Jun 2027 07:09:26.641            68.403         34201.500
       393   13 Jun 2027 07:09:57.005   13 Jun 2027 07:10:24.303            27.298         13649.000
       394   13 Jun 2027 07:11:36.279   13 Jun 2027 07:11:45.022             8.743          2281.094
       395   13 Jun 2027 07:11:56.898   13 Jun 2027 07:11:58.809             1.911           323.344
       396   13 Jun 2027 07:12:57.247   13 Jun 2027 07:13:02.341             5.094          1398.937
       397   13 Jun 2027 07:13:28.974   13 Jun 2027 07:13:30.208             1.234           459.938
       398   13 Jun 2027 07:13:50.384   13 Jun 2027 07:13:54.306             3.922           314.531
       399   13 Jun 2027 07:14:23.400   13 Jun 2027 07:14:25.670             2.270           898.469
       400   13 Jun 2027 08:44:58.559   13 Jun 2027 08:45:05.043             6.484          1500.594
       401   13 Jun 2027 08:47:12.152   13 Jun 2027 08:47:19.417             7.265          2322.031
       402   13 Jun 2027 08:48:10.921   13 Jun 2027 08:48:11.846             0.925           128.531
       403   13 Jun 2027 08:48:36.385   13 Jun 2027 08:48:39.737             3.352           496.813
       404   13 Jun 2027 08:49:32.582   13 Jun 2027 08:49:35.303             2.721          1271.250
       405   13 Jun 2027 08:49:54.181   13 Jun 2027 08:49:55.673             1.492           251.875
       406   13 Jun 2027 08:50:11.071   13 Jun 2027 08:50:12.065             0.994           248.875
       407   13 Jun 2027 08:51:20.118   13 Jun 2027 08:51:24.094             3.976          1273.125
       408   13 Jun 2027 08:52:12.856   13 Jun 2027 08:52:15.113             2.257          1041.781
       409   13 Jun 2027 10:22:01.318   13 Jun 2027 10:22:14.486            13.168          6568.344
       410   13 Jun 2027 10:24:56.512   13 Jun 2027 10:24:58.421             1.909           698.062
       411   13 Jun 2027 10:25:41.992   13 Jun 2027 10:25:42.047             0.055             7.625
       412   13 Jun 2027 10:25:46.879   13 Jun 2027 10:25:47.863             0.984           151.000
       413   13 Jun 2027 10:26:16.103   13 Jun 2027 10:26:17.417             1.314           271.219
       414   13 Jun 2027 10:26:44.931   13 Jun 2027 10:26:46.595             1.664           619.969
       415   13 Jun 2027 10:27:06.622   13 Jun 2027 10:27:12.386             5.764           625.844
       416   13 Jun 2027 10:27:41.192   13 Jun 2027 10:27:44.266             3.074           900.188
       417   13 Jun 2027 10:28:06.491   13 Jun 2027 10:28:11.612             5.121           172.281
       418   13 Jun 2027 11:59:55.461   13 Jun 2027 12:00:00.000             4.539          2269.500
