uniorb/output/strategy_4/Camera/Camera_KinoSat_110403.txt

KinoSat_110403
-------------------------
    Access    *     Start Time (UTCG)     *     Stop Time (UTCG)  *   Duration (s) *   Data (Mbytes)
         1   01 Jun 2027 04:11:35.238   01 Jun 2027 04:13:31.568           116.330         58165.000
         2   01 Jun 2027 04:15:45.680   01 Jun 2027 04:16:12.013            26.333         13166.500
         3   01 Jun 2027 04:16:34.983   01 Jun 2027 04:16:55.750            20.767         10383.500
         4   01 Jun 2027 04:17:24.485   01 Jun 2027 04:17:48.430            23.945         11972.500
         5   01 Jun 2027 04:17:56.904   01 Jun 2027 04:17:58.971             2.067          1033.500
         6   01 Jun 2027 05:47:55.073   01 Jun 2027 05:51:00.498           185.425         92712.500
         7   01 Jun 2027 05:52:22.153   01 Jun 2027 05:52:51.113            28.960         14480.000
         8   01 Jun 2027 07:25:21.588   01 Jun 2027 07:28:12.219           170.631         85315.500
         9   01 Jun 2027 07:28:30.635   01 Jun 2027 07:28:38.571             7.936          3968.000
        10   01 Jun 2027 07:29:19.994   01 Jun 2027 07:29:28.214             8.220          4110.000
        11   01 Jun 2027 09:01:25.239   01 Jun 2027 09:04:40.260           195.021         97510.500
        12   01 Jun 2027 09:05:04.940   01 Jun 2027 09:05:12.401             7.461          3730.500
        13   01 Jun 2027 09:05:35.002   01 Jun 2027 09:05:35.723             0.721           360.500
        14   01 Jun 2027 09:05:56.136   01 Jun 2027 09:06:06.760            10.624          5312.000
        15   02 Jun 2027 04:23:04.517   02 Jun 2027 04:30:20.228           435.711        217855.500
        16   02 Jun 2027 05:59:34.806   02 Jun 2027 06:03:15.108           220.302        110151.000
        17   02 Jun 2027 06:05:00.651   02 Jun 2027 06:05:58.650            57.999         28999.500
        18   02 Jun 2027 07:37:52.696   02 Jun 2027 07:41:36.002           223.306        111653.000
        19   02 Jun 2027 09:13:18.249   02 Jun 2027 09:17:21.405           243.156        121578.000
        20   02 Jun 2027 09:17:49.829   02 Jun 2027 09:18:41.095            51.266         25633.000
        21   03 Jun 2027 03:00:00.000   03 Jun 2027 03:04:36.943           276.943        138471.500
        22   03 Jun 2027 04:34:48.430   03 Jun 2027 04:42:20.881           452.451        226225.500
        23   03 Jun 2027 06:11:54.561   03 Jun 2027 06:17:58.366           363.805        181902.500
        24   03 Jun 2027 07:50:33.793   03 Jun 2027 07:53:48.209           194.416         97208.000
        25   03 Jun 2027 09:22:55.496   03 Jun 2027 09:29:16.362           380.866        190433.000
        26   03 Jun 2027 09:30:10.218   03 Jun 2027 09:30:57.185            46.967         23483.500
        27   04 Jun 2027 03:09:36.263   04 Jun 2027 03:11:33.285           117.022         58511.000
        28   04 Jun 2027 03:11:41.347   04 Jun 2027 03:16:59.355           318.008        159004.000
        29   04 Jun 2027 03:17:38.986   04 Jun 2027 03:17:59.968            20.982         10491.000
        30   04 Jun 2027 04:47:05.932   04 Jun 2027 04:54:24.538           438.606        219303.000
        31   04 Jun 2027 06:24:15.040   04 Jun 2027 06:29:08.687           293.647        146823.500
        32   04 Jun 2027 06:29:09.850   04 Jun 2027 06:30:03.033            53.183         26591.500
        33   04 Jun 2027 06:30:06.856   04 Jun 2027 06:30:23.948            17.092          8546.000
        34   04 Jun 2027 08:02:08.693   04 Jun 2027 08:06:00.181           231.488        115744.000
        35   04 Jun 2027 09:35:26.854   04 Jun 2027 09:42:41.676           434.822        217411.000
        36   05 Jun 2027 03:21:05.198   05 Jun 2027 03:29:09.189           483.991        241995.500
        37   05 Jun 2027 03:29:40.567   05 Jun 2027 03:30:27.549            46.982         23491.000
        38   05 Jun 2027 04:58:59.732   05 Jun 2027 05:06:25.120           445.388        222694.000
        39   05 Jun 2027 06:35:52.973   05 Jun 2027 06:41:28.572           335.599        167799.500
        40   05 Jun 2027 06:42:10.213   05 Jun 2027 06:42:27.082            16.869          8434.500
        41   05 Jun 2027 08:13:46.153   05 Jun 2027 08:17:59.451           253.298        126649.000
        42   05 Jun 2027 09:49:35.332   05 Jun 2027 09:53:54.930           259.598        129799.000
        43   06 Jun 2027 03:33:58.207   06 Jun 2027 03:42:28.875           510.668        255334.000
        44   06 Jun 2027 05:11:08.397   06 Jun 2027 05:18:24.464           436.067        218033.500
        45   06 Jun 2027 06:48:24.098   06 Jun 2027 06:52:52.860           268.762        134381.000
        46   06 Jun 2027 06:53:17.790   06 Jun 2027 06:54:13.872            56.082         28041.000
        47   06 Jun 2027 08:25:15.045   06 Jun 2027 08:29:55.797           280.752        140376.000
        48   06 Jun 2027 10:00:27.267   06 Jun 2027 10:00:29.737             2.470          1235.000
        49   06 Jun 2027 10:02:01.554   06 Jun 2027 10:04:58.109           176.555         88277.500
        50   07 Jun 2027 03:46:25.068   07 Jun 2027 03:53:22.253           417.185        208592.500
        51   07 Jun 2027 03:53:43.192   07 Jun 2027 03:54:27.170            43.978         21989.000
        52   07 Jun 2027 05:23:32.871   07 Jun 2027 05:30:14.881           402.010        201005.000
        53   07 Jun 2027 07:00:45.473   07 Jun 2027 07:05:29.236           283.763        141881.500
        54   07 Jun 2027 08:37:25.531   07 Jun 2027 08:41:48.883           263.352        131676.000
        55   07 Jun 2027 10:16:04.163   07 Jun 2027 10:16:29.042            24.879         12439.500
        56   08 Jun 2027 03:59:37.879   08 Jun 2027 04:05:23.586           345.707        172853.500
        57   08 Jun 2027 04:05:23.730   08 Jun 2027 04:06:27.135            63.405         31702.500
        58   08 Jun 2027 05:35:58.395   08 Jun 2027 05:42:20.857           382.462        191231.000
        59   08 Jun 2027 07:13:37.965   08 Jun 2027 07:17:55.022           257.057        128528.500
        60   08 Jun 2027 08:50:34.351   08 Jun 2027 08:53:47.630           193.279         96639.500
        61   09 Jun 2027 04:11:49.842   09 Jun 2027 04:18:25.599           395.757        197878.500
        62   09 Jun 2027 05:48:08.473   09 Jun 2027 05:53:53.708           345.235        172617.500
        63   09 Jun 2027 05:54:01.511   09 Jun 2027 05:54:12.878            11.367          5683.500
        64   09 Jun 2027 07:25:45.828   09 Jun 2027 07:30:08.999           263.171        131585.500
        65   09 Jun 2027 09:01:39.903   09 Jun 2027 09:05:50.353           250.450        125225.000
        66   09 Jun 2027 09:05:55.283   09 Jun 2027 09:06:32.695            37.412         18706.000
        67   10 Jun 2027 04:23:18.857   10 Jun 2027 04:30:35.002           436.145        218072.500
        68   10 Jun 2027 05:59:49.316   10 Jun 2027 06:06:13.331           384.015        192007.500
        69   10 Jun 2027 07:38:33.287   10 Jun 2027 07:41:50.450           197.163         98581.500
        70   10 Jun 2027 09:13:34.472   10 Jun 2027 09:17:36.380           241.908        120954.000
        71   10 Jun 2027 09:18:04.032   10 Jun 2027 09:18:55.851            51.819         25909.500
        72   11 Jun 2027 03:00:11.323   11 Jun 2027 03:04:51.769           280.446        140223.000
        73   11 Jun 2027 04:35:03.157   11 Jun 2027 04:42:35.559           452.402        226201.000
        74   11 Jun 2027 06:12:09.189   11 Jun 2027 06:18:12.976           363.787        181893.500
        75   11 Jun 2027 07:50:48.477   11 Jun 2027 07:54:02.862           194.385         97192.500
        76   11 Jun 2027 09:23:10.482   11 Jun 2027 09:29:31.227           380.745        190372.500
        77   11 Jun 2027 09:30:24.821   11 Jun 2027 09:31:11.811            46.990         23495.000
        78   12 Jun 2027 03:09:50.420   12 Jun 2027 03:11:48.095           117.675         58837.500
        79   12 Jun 2027 03:11:55.837   12 Jun 2027 03:17:04.769           308.932        154466.000
        80   12 Jun 2027 03:17:58.192   12 Jun 2027 03:18:14.651            16.459          8229.500
        81   12 Jun 2027 04:47:20.427   12 Jun 2027 04:54:39.128           438.701        219350.500
        82   12 Jun 2027 06:24:29.258   12 Jun 2027 06:29:22.623           293.365        146682.500
        83   12 Jun 2027 06:30:11.848   12 Jun 2027 06:30:17.503             5.655          2827.500
        84   12 Jun 2027 06:30:21.324   12 Jun 2027 06:30:38.694            17.370          8685.000
        85   12 Jun 2027 08:02:23.243   12 Jun 2027 08:06:14.790           231.547        115773.500
        86   12 Jun 2027 09:35:41.484   12 Jun 2027 09:42:56.281           434.797        217398.500
        87   13 Jun 2027 03:21:19.628   13 Jun 2027 03:29:23.846           484.218        242109.000
        88   13 Jun 2027 03:29:58.121   13 Jun 2027 03:30:42.195            44.074         22037.000
        89   13 Jun 2027 04:59:14.417   13 Jun 2027 05:06:39.927           445.510        222755.000
        90   13 Jun 2027 06:36:10.292   13 Jun 2027 06:41:42.452           332.160        166080.000
        91   13 Jun 2027 06:42:24.656   13 Jun 2027 06:42:41.581            16.925          8462.500
        92   13 Jun 2027 08:14:00.809   13 Jun 2027 08:18:14.035           253.226        126613.000
        93   13 Jun 2027 09:49:50.003   13 Jun 2027 09:54:09.450           259.447        129723.500
