uniorb/output/strategy_4/Camera/Camera_KinoSat_110305.txt

KinoSat_110305
-------------------------
    Access    *     Start Time (UTCG)     *     Stop Time (UTCG)  *   Duration (s) *   Data (Mbytes)
         1   01 Jun 2027 03:56:13.158   01 Jun 2027 03:58:07.571           114.413         57206.500
         2   01 Jun 2027 03:58:34.989   01 Jun 2027 03:58:58.603            23.614         11807.000
         3   01 Jun 2027 04:01:06.645   01 Jun 2027 04:01:58.770            52.125         26062.500
         4   01 Jun 2027 04:02:58.843   01 Jun 2027 04:03:11.332            12.489          6244.500
         5   01 Jun 2027 05:33:19.237   01 Jun 2027 05:36:56.489           217.252        108626.000
         6   01 Jun 2027 05:37:49.907   01 Jun 2027 05:38:07.247            17.340          8670.000
         7   01 Jun 2027 07:11:14.738   01 Jun 2027 07:13:54.153           159.415         79707.500
         8   01 Jun 2027 07:14:06.761   01 Jun 2027 07:14:13.144             6.383          3191.500
         9   01 Jun 2027 07:14:27.106   01 Jun 2027 07:14:34.245             7.139          3569.500
        10   01 Jun 2027 07:14:49.003   01 Jun 2027 07:15:02.269            13.266          6633.000
        11   01 Jun 2027 08:44:20.334   01 Jun 2027 08:47:06.629           166.295         83147.500
        12   01 Jun 2027 08:47:36.584   01 Jun 2027 08:47:37.463             0.879           439.500
        13   01 Jun 2027 08:48:14.549   01 Jun 2027 08:48:29.926            15.377          7688.500
        14   01 Jun 2027 08:48:43.928   01 Jun 2027 08:49:04.753            20.825         10412.500
        15   01 Jun 2027 08:50:06.377   01 Jun 2027 08:50:15.926             9.549          4774.500
        16   01 Jun 2027 08:50:27.123   01 Jun 2027 08:50:32.661             5.538          2769.000
        17   01 Jun 2027 08:51:50.590   01 Jun 2027 08:52:07.600            17.010          8505.000
        18   02 Jun 2027 04:08:30.577   02 Jun 2027 04:15:49.246           438.669        219334.500
        19   02 Jun 2027 05:45:15.291   02 Jun 2027 05:49:16.293           241.002        120501.000
        20   02 Jun 2027 05:49:31.327   02 Jun 2027 05:50:33.243            61.916         30958.000
        21   02 Jun 2027 05:50:34.584   02 Jun 2027 05:50:51.173            16.589          8294.500
        22   02 Jun 2027 05:51:13.964   02 Jun 2027 05:51:27.711            13.747          6873.500
        23   02 Jun 2027 05:51:31.538   02 Jun 2027 05:51:44.144            12.606          6303.000
        24   02 Jun 2027 07:23:14.031   02 Jun 2027 07:27:24.883           250.852        125426.000
        25   02 Jun 2027 08:56:51.543   02 Jun 2027 09:04:16.152           444.609        222304.500
        26   03 Jun 2027 04:20:24.463   03 Jun 2027 04:27:49.841           445.378        222689.000
        27   03 Jun 2027 05:57:08.732   03 Jun 2027 06:02:53.004           344.272        172136.000
        28   03 Jun 2027 06:02:54.901   03 Jun 2027 06:03:51.782            56.881         28440.500
        29   03 Jun 2027 07:35:02.152   03 Jun 2027 07:39:24.155           262.003        131001.500
        30   03 Jun 2027 09:11:11.203   03 Jun 2027 09:15:19.614           248.411        124205.500
        31   04 Jun 2027 03:00:00.000   04 Jun 2027 03:02:42.678           162.678         81339.000
        32   04 Jun 2027 03:02:44.848   04 Jun 2027 03:03:53.595            68.747         34373.500
        33   04 Jun 2027 04:32:33.364   04 Jun 2027 04:39:49.188           435.824        217912.000
        34   04 Jun 2027 06:09:47.471   04 Jun 2027 06:14:17.527           270.056        135028.000
        35   04 Jun 2027 06:14:51.574   04 Jun 2027 06:15:38.585            47.011         23505.500
        36   04 Jun 2027 07:46:30.869   04 Jun 2027 07:51:20.544           289.675        144837.500
        37   04 Jun 2027 09:23:41.306   04 Jun 2027 09:26:22.781           161.475         80737.500
        38   05 Jun 2027 03:06:08.801   05 Jun 2027 03:06:41.794            32.993         16496.500
        39   05 Jun 2027 03:07:50.415   05 Jun 2027 03:14:47.010           416.595        208297.500
        40   05 Jun 2027 03:14:55.567   05 Jun 2027 03:15:51.908            56.341         28170.500
        41   05 Jun 2027 04:44:57.582   05 Jun 2027 04:51:39.622           402.040        201020.000
        42   05 Jun 2027 06:21:55.423   05 Jun 2027 06:26:53.921           298.498        149249.000
        43   05 Jun 2027 07:58:42.780   05 Jun 2027 08:03:13.632           270.852        135426.000
        44   05 Jun 2027 09:37:15.082   05 Jun 2027 09:37:53.752            38.670         19335.000
        45   06 Jun 2027 03:21:02.584   06 Jun 2027 03:26:48.338           345.754        172877.000
        46   06 Jun 2027 03:26:48.470   06 Jun 2027 03:27:51.877            63.407         31703.500
        47   06 Jun 2027 04:57:23.093   06 Jun 2027 05:03:45.609           382.516        191258.000
        48   06 Jun 2027 06:35:10.876   06 Jun 2027 06:39:19.834           248.958        124479.000
        49   06 Jun 2027 08:11:00.505   06 Jun 2027 08:15:12.482           251.977        125988.500
        50   07 Jun 2027 03:33:14.568   07 Jun 2027 03:39:50.352           395.784        197892.000
        51   07 Jun 2027 05:09:32.831   07 Jun 2027 05:15:18.464           345.633        172816.500
        52   07 Jun 2027 05:15:27.747   07 Jun 2027 05:15:37.590             9.843          4921.500
        53   07 Jun 2027 06:47:11.443   07 Jun 2027 06:51:33.770           262.327        131163.500
        54   07 Jun 2027 08:23:15.349   07 Jun 2027 08:27:15.094           239.745        119872.500
        55   07 Jun 2027 08:27:22.538   07 Jun 2027 08:27:57.583            35.045         17522.500
        56   08 Jun 2027 03:44:43.493   08 Jun 2027 03:51:59.765           436.272        218136.000
        57   08 Jun 2027 05:21:14.048   08 Jun 2027 05:27:38.097           384.049        192024.500
        58   08 Jun 2027 06:59:54.667   08 Jun 2027 07:03:15.160           200.493        100246.500
        59   08 Jun 2027 08:35:12.835   08 Jun 2027 08:39:01.257           228.422        114211.000
        60   08 Jun 2027 08:39:31.833   08 Jun 2027 08:40:20.640            48.807         24403.500
        61   09 Jun 2027 03:56:27.962   09 Jun 2027 04:04:00.331           452.369        226184.500
        62   09 Jun 2027 05:33:33.980   09 Jun 2027 05:39:37.737           363.757        181878.500
        63   09 Jun 2027 07:11:39.483   09 Jun 2027 07:15:27.632           228.149        114074.500
        64   09 Jun 2027 08:44:35.420   09 Jun 2027 08:50:56.081           380.661        190330.500
        65   09 Jun 2027 08:52:05.951   09 Jun 2027 08:52:36.570            30.619         15309.500
        66   10 Jun 2027 04:08:45.102   10 Jun 2027 04:16:03.903           438.801        219400.500
        67   10 Jun 2027 05:45:29.936   10 Jun 2027 05:50:47.204           317.268        158634.000
        68   10 Jun 2027 05:50:49.497   10 Jun 2027 05:51:42.240            52.743         26371.500
        69   10 Jun 2027 05:51:46.059   10 Jun 2027 05:52:03.491            17.432          8716.000
        70   10 Jun 2027 07:23:51.720   10 Jun 2027 07:27:39.553           227.833        113916.500
        71   10 Jun 2027 08:57:06.322   10 Jun 2027 09:04:08.690           422.368        211184.000
        72   11 Jun 2027 04:20:39.217   11 Jun 2027 04:28:04.730           445.513        222756.500
        73   11 Jun 2027 05:57:23.825   11 Jun 2027 06:03:07.127           343.302        171651.000
        74   11 Jun 2027 06:03:45.160   11 Jun 2027 06:04:06.330            21.170         10585.000
        75   11 Jun 2027 07:35:16.741   11 Jun 2027 07:39:38.798           262.057        131028.500
        76   11 Jun 2027 09:11:14.813   11 Jun 2027 09:15:34.179           259.366        129683.000
        77   12 Jun 2027 03:00:00.000   12 Jun 2027 03:02:57.620           177.620         88810.000
        78   12 Jun 2027 03:03:08.266   12 Jun 2027 03:04:08.338            60.072         30036.000
        79   12 Jun 2027 04:32:48.718   12 Jun 2027 04:40:03.880           435.162        217581.000
        80   12 Jun 2027 06:10:02.534   12 Jun 2027 06:14:32.027           269.493        134746.500
        81   12 Jun 2027 06:15:07.184   12 Jun 2027 06:15:53.255            46.071         23035.500
        82   12 Jun 2027 07:46:42.992   12 Jun 2027 07:51:35.318           292.326        146163.000
        83   12 Jun 2027 09:25:18.567   12 Jun 2027 09:26:37.330            78.763         39381.500
        84   13 Jun 2027 03:06:24.292   13 Jun 2027 03:06:56.509            32.217         16108.500
        85   13 Jun 2027 03:08:05.357   13 Jun 2027 03:15:01.928           416.571        208285.500
        86   13 Jun 2027 03:15:13.856   13 Jun 2027 03:16:06.552            52.696         26348.000
        87   13 Jun 2027 04:45:12.288   13 Jun 2027 04:51:54.403           402.115        201057.500
        88   13 Jun 2027 06:22:09.973   13 Jun 2027 06:27:08.419           298.446        149223.000
        89   13 Jun 2027 07:58:57.646   13 Jun 2027 08:03:28.431           270.785        135392.500
        90   13 Jun 2027 09:37:29.710   13 Jun 2027 09:38:08.400            38.690         19345.000
