uniorb/output/strategy_4/Camera/Camera_KinoSat_110504.txt

KinoSat_110504
-------------------------
    Access    *     Start Time (UTCG)     *     Stop Time (UTCG)  *   Duration (s) *   Data (Mbytes)
         1   01 Jun 2027 03:54:54.330   01 Jun 2027 03:56:38.112           103.782         51891.000
         2   01 Jun 2027 03:56:52.465   01 Jun 2027 03:56:59.315             6.850          3425.000
         3   01 Jun 2027 03:57:52.722   01 Jun 2027 03:58:34.989            42.267         21133.500
         4   01 Jun 2027 04:01:05.015   01 Jun 2027 04:01:06.645             1.630           815.000
         5   01 Jun 2027 04:01:58.770   01 Jun 2027 04:02:51.126            52.356         26178.000
         6   01 Jun 2027 04:03:46.191   01 Jun 2027 04:03:47.717             1.526           763.000
         7   01 Jun 2027 05:32:42.934   01 Jun 2027 05:35:07.403           144.469         72234.500
         8   01 Jun 2027 05:35:37.023   01 Jun 2027 05:35:37.692             0.669           334.500
         9   01 Jun 2027 05:36:33.405   01 Jun 2027 05:36:40.137             6.732          3366.000
        10   01 Jun 2027 05:37:05.967   01 Jun 2027 05:37:17.567            11.600          5800.000
        11   01 Jun 2027 05:38:08.425   01 Jun 2027 05:38:28.502            20.077         10038.500
        12   01 Jun 2027 05:38:41.224   01 Jun 2027 05:38:59.162            17.938          8969.000
        13   01 Jun 2027 05:39:26.831   01 Jun 2027 05:39:36.777             9.946          4973.000
        14   01 Jun 2027 07:09:27.391   01 Jun 2027 07:10:33.658            66.267         33133.500
        15   01 Jun 2027 07:11:12.544   01 Jun 2027 07:12:41.298            88.754         44377.000
        16   01 Jun 2027 07:13:32.171   01 Jun 2027 07:13:51.693            19.522          9761.000
        17   01 Jun 2027 07:14:00.952   01 Jun 2027 07:14:06.761             5.809          2904.500
        18   01 Jun 2027 07:14:34.245   01 Jun 2027 07:14:47.150            12.905          6452.500
        19   01 Jun 2027 07:15:02.269   01 Jun 2027 07:15:04.808             2.539          1269.500
        20   01 Jun 2027 07:15:38.775   01 Jun 2027 07:15:41.321             2.546          1273.000
        21   01 Jun 2027 07:16:11.737   01 Jun 2027 07:16:13.176             1.439           719.500
        22   01 Jun 2027 08:47:34.835   01 Jun 2027 08:51:05.537           210.702        105351.000
        23   01 Jun 2027 10:21:25.906   01 Jun 2027 10:25:11.204           225.298        112649.000
        24   01 Jun 2027 10:26:04.866   01 Jun 2027 10:26:45.366            40.500         20250.000
        25   01 Jun 2027 10:27:37.421   01 Jun 2027 10:27:44.952             7.531          3765.500
        26   02 Jun 2027 04:07:42.726   02 Jun 2027 04:14:19.653           396.927        198463.500
        27   02 Jun 2027 04:14:40.806   02 Jun 2027 04:14:57.702            16.896          8448.000
        28   02 Jun 2027 04:15:21.825   02 Jun 2027 04:15:21.825             0.000             0.000
        29   02 Jun 2027 04:15:27.750   02 Jun 2027 04:15:32.087             4.337          2168.500
        30   02 Jun 2027 05:44:49.340   02 Jun 2027 05:48:00.286           190.946         95473.000
        31   02 Jun 2027 05:48:56.459   02 Jun 2027 05:49:31.327            34.868         17434.000
        32   02 Jun 2027 05:50:56.320   02 Jun 2027 05:51:32.723            36.403         18201.500
        33   02 Jun 2027 07:21:51.654   02 Jun 2027 07:26:41.883           290.229        145114.500
        34   02 Jun 2027 08:59:00.678   02 Jun 2027 09:03:40.791           280.113        140056.500
        35   02 Jun 2027 10:35:30.942   02 Jun 2027 10:38:45.763           194.821         97410.500
        36   03 Jun 2027 04:19:41.234   03 Jun 2027 04:27:09.428           448.194        224097.000
        37   03 Jun 2027 04:27:10.613   03 Jun 2027 04:27:52.033            41.420         20710.000
        38   03 Jun 2027 04:27:54.531   03 Jun 2027 04:28:11.625            17.094          8547.000
        39   03 Jun 2027 05:57:15.113   03 Jun 2027 06:03:57.298           402.185        201092.500
        40   03 Jun 2027 07:35:04.522   03 Jun 2027 07:38:33.317           208.795        104397.500
        41   03 Jun 2027 07:38:35.801   03 Jun 2027 07:39:44.041            68.240         34120.000
        42   03 Jun 2027 09:11:03.158   03 Jun 2027 09:15:30.977           267.819        133909.500
        43   03 Jun 2027 10:48:42.339   03 Jun 2027 10:50:19.610            97.271         48635.500
        44   04 Jun 2027 03:00:00.000   04 Jun 2027 03:01:46.632           106.632         53316.000
        45   04 Jun 2027 04:33:09.904   04 Jun 2027 04:39:05.646           355.742        177871.000
        46   04 Jun 2027 04:39:09.242   04 Jun 2027 04:40:07.969            58.727         29363.500
        47   04 Jun 2027 06:09:22.492   04 Jun 2027 06:16:02.830           400.338        200169.000
        48   04 Jun 2027 07:47:29.038   04 Jun 2027 07:51:30.601           241.563        120781.500
        49   04 Jun 2027 09:23:20.014   04 Jun 2027 09:27:34.007           253.993        126996.500
        50   05 Jun 2027 03:10:22.381   05 Jun 2027 03:13:54.139           211.758        105879.000
        51   05 Jun 2027 04:45:32.428   05 Jun 2027 04:52:09.008           396.580        198290.000
        52   05 Jun 2027 06:22:48.542   05 Jun 2027 06:28:05.194           316.652        158326.000
        53   05 Jun 2027 07:59:12.445   05 Jun 2027 08:03:49.202           276.757        138378.500
        54   05 Jun 2027 09:35:49.120   05 Jun 2027 09:40:08.805           259.685        129842.500
        55   06 Jun 2027 03:22:15.293   06 Jun 2027 03:26:17.743           242.450        121225.000
        56   06 Jun 2027 04:57:11.433   06 Jun 2027 05:04:17.533           426.100        213050.000
        57   06 Jun 2027 06:34:08.683   06 Jun 2027 06:39:54.942           346.259        173129.500
        58   06 Jun 2027 08:11:59.764   06 Jun 2027 08:15:38.444           218.680        109340.000
        59   06 Jun 2027 09:47:14.633   06 Jun 2027 09:51:17.137           242.504        121252.000
        60   06 Jun 2027 09:51:43.379   06 Jun 2027 09:52:36.789            53.410         26705.000
        61   07 Jun 2027 03:32:33.962   07 Jun 2027 03:33:07.686            33.724         16862.000
        62   07 Jun 2027 03:33:59.181   07 Jun 2027 03:38:32.804           273.623        136811.500
        63   07 Jun 2027 05:08:44.771   07 Jun 2027 05:16:19.280           454.509        227254.500
        64   07 Jun 2027 06:46:16.636   07 Jun 2027 06:52:12.076           355.440        177720.000
        65   07 Jun 2027 08:24:08.424   07 Jun 2027 08:27:43.531           215.107        107553.500
        66   07 Jun 2027 09:56:57.493   07 Jun 2027 10:03:11.848           374.355        187177.500
        67   07 Jun 2027 10:03:16.800   07 Jun 2027 10:04:53.460            96.660         48330.000
        68   08 Jun 2027 03:43:40.498   08 Jun 2027 03:45:23.772           103.274         51637.000
        69   08 Jun 2027 03:45:43.581   08 Jun 2027 03:50:45.083           301.502        150751.000
        70   08 Jun 2027 05:21:02.430   08 Jun 2027 05:28:22.380           439.950        219975.000
        71   08 Jun 2027 06:58:24.560   08 Jun 2027 07:04:19.193           354.633        177316.500
        72   08 Jun 2027 08:36:15.963   08 Jun 2027 08:39:47.111           211.148        105574.000
        73   08 Jun 2027 10:09:43.416   08 Jun 2027 10:16:23.144           399.728        199864.000
        74   09 Jun 2027 03:55:08.699   09 Jun 2027 04:03:05.864           477.165        238582.500
        75   09 Jun 2027 04:03:52.932   09 Jun 2027 04:04:10.620            17.688          8844.000
        76   09 Jun 2027 05:32:57.552   09 Jun 2027 05:40:23.126           445.574        222787.000
        77   09 Jun 2027 07:09:56.554   09 Jun 2027 07:15:37.387           340.833        170416.500
        78   09 Jun 2027 07:16:20.864   09 Jun 2027 07:16:27.667             6.803          3401.500
        79   09 Jun 2027 08:48:19.851   09 Jun 2027 08:51:56.624           216.773        108386.500
        80   09 Jun 2027 10:21:40.669   09 Jun 2027 10:27:19.044           338.375        169187.500
        81   10 Jun 2027 04:07:57.181   10 Jun 2027 04:15:15.497           438.316        219158.000
        82   10 Jun 2027 04:15:29.432   10 Jun 2027 04:16:27.273            57.841         28920.500
        83   10 Jun 2027 05:45:03.951   10 Jun 2027 05:52:23.353           439.402        219701.000
        84   10 Jun 2027 07:22:23.677   10 Jun 2027 07:26:56.315           272.638        136319.000
        85   10 Jun 2027 07:27:03.465   10 Jun 2027 07:28:13.777            70.312         35156.000
        86   10 Jun 2027 08:59:15.535   10 Jun 2027 09:03:55.969           280.434        140217.000
        87   10 Jun 2027 10:34:07.392   10 Jun 2027 10:34:34.906            27.514         13757.000
        88   10 Jun 2027 10:35:46.525   10 Jun 2027 10:39:00.181           193.656         96828.000
        89   11 Jun 2027 04:18:36.395   11 Jun 2027 04:27:24.084           527.689        263844.500
        90   11 Jun 2027 04:27:25.288   11 Jun 2027 04:28:06.778            41.490         20745.000
        91   11 Jun 2027 04:28:09.245   11 Jun 2027 04:28:26.204            16.959          8479.500
        92   11 Jun 2027 05:57:29.917   11 Jun 2027 06:04:11.911           401.994        200997.000
        93   11 Jun 2027 07:35:20.397   11 Jun 2027 07:38:48.134           207.737        103868.500
        94   11 Jun 2027 07:38:50.497   11 Jun 2027 07:39:58.374            67.877         33938.500
        95   11 Jun 2027 09:11:18.066   11 Jun 2027 09:15:45.601           267.535        133767.500
        96   11 Jun 2027 10:48:57.328   11 Jun 2027 10:50:34.054            96.726         48363.000
        97   12 Jun 2027 03:00:00.000   12 Jun 2027 03:02:01.231           121.231         60615.500
        98   12 Jun 2027 04:33:24.829   12 Jun 2027 04:39:20.222           355.393        177696.500
        99   12 Jun 2027 04:39:23.785   12 Jun 2027 04:40:22.651            58.866         29433.000
       100   12 Jun 2027 06:09:37.294   12 Jun 2027 06:16:17.547           400.253        200126.500
       101   12 Jun 2027 07:47:31.393   12 Jun 2027 07:51:45.462           254.069        127034.500
       102   12 Jun 2027 09:23:34.998   12 Jun 2027 09:27:48.392           253.394        126697.000
       103   13 Jun 2027 03:10:36.988   13 Jun 2027 03:14:08.556           211.568        105784.000
       104   13 Jun 2027 04:45:47.113   13 Jun 2027 04:52:23.607           396.494        198247.000
       105   13 Jun 2027 06:23:03.040   13 Jun 2027 06:28:19.800           316.760        158380.000
       106   13 Jun 2027 07:59:27.273   13 Jun 2027 08:04:03.929           276.656        138328.000
       107   13 Jun 2027 09:36:04.170   13 Jun 2027 09:40:23.299           259.129        129564.500
