uniorb/output/strategy_4/Camera/Camera_KinoSat_111207.txt

KinoSat_111207
-------------------------
    Access    *     Start Time (UTCG)     *     Stop Time (UTCG)  *   Duration (s) *   Data (Mbytes)
         1   01 Jun 2027 03:12:25.441   01 Jun 2027 03:13:55.010            89.569         44784.500
         2   01 Jun 2027 03:14:10.127   01 Jun 2027 03:14:18.940             8.813          4406.500
         3   01 Jun 2027 03:15:20.513   01 Jun 2027 03:15:21.896             1.383           691.500
         4   01 Jun 2027 03:15:46.826   01 Jun 2027 03:15:56.727             9.901          4950.500
         5   01 Jun 2027 04:36:09.591   01 Jun 2027 04:37:01.722            52.131         26065.500
         6   01 Jun 2027 04:37:57.811   01 Jun 2027 04:37:58.174             0.363           181.500
         7   01 Jun 2027 06:12:20.867   01 Jun 2027 06:14:16.271           115.404         57702.000
         8   01 Jun 2027 06:15:39.793   01 Jun 2027 06:15:51.937            12.144          6072.000
         9   01 Jun 2027 07:45:54.313   01 Jun 2027 07:48:16.008           141.695         70847.500
        10   01 Jun 2027 07:52:50.104   01 Jun 2027 07:52:55.273             5.169          2584.500
        11   01 Jun 2027 07:53:29.721   01 Jun 2027 07:53:33.474             3.753          1876.500
        12   01 Jun 2027 07:53:55.291   01 Jun 2027 07:54:21.257            25.966         12983.000
        13   01 Jun 2027 09:23:21.693   01 Jun 2027 09:25:34.290           132.597         66298.500
        14   01 Jun 2027 09:27:36.622   01 Jun 2027 09:28:20.231            43.609         21804.500
        15   01 Jun 2027 09:29:24.013   01 Jun 2027 09:29:32.520             8.507          4253.500
        16   01 Jun 2027 09:30:10.258   01 Jun 2027 09:30:11.463             1.205           602.500
        17   01 Jun 2027 11:00:21.542   01 Jun 2027 11:02:50.122           148.580         74290.000
        18   01 Jun 2027 11:04:12.775   01 Jun 2027 11:04:23.852            11.077          5538.500
        19   01 Jun 2027 11:05:01.546   01 Jun 2027 11:05:02.799             1.253           626.500
        20   01 Jun 2027 11:05:11.760   01 Jun 2027 11:05:20.057             8.297          4148.500
        21   02 Jun 2027 03:24:20.637   02 Jun 2027 03:25:44.735            84.098         42049.000
        22   02 Jun 2027 03:26:13.077   02 Jun 2027 03:26:49.801            36.724         18362.000
        23   02 Jun 2027 03:27:22.111   02 Jun 2027 03:27:42.613            20.502         10251.000
        24   02 Jun 2027 03:28:01.094   02 Jun 2027 03:28:35.753            34.659         17329.500
        25   02 Jun 2027 04:47:59.643   02 Jun 2027 04:48:33.218            33.575         16787.500
        26   02 Jun 2027 04:49:51.558   02 Jun 2027 04:49:51.558             0.000             0.000
        27   02 Jun 2027 04:50:11.043   02 Jun 2027 04:50:11.043             0.000             0.000
        28   02 Jun 2027 06:24:26.542   02 Jun 2027 06:28:01.284           214.742        107371.000
        29   02 Jun 2027 07:56:36.723   02 Jun 2027 07:56:45.735             9.012          4506.000
        30   02 Jun 2027 07:58:33.336   02 Jun 2027 08:01:17.953           164.617         82308.500
        31   02 Jun 2027 08:01:51.499   02 Jun 2027 08:02:08.986            17.487          8743.500
        32   02 Jun 2027 08:03:36.399   02 Jun 2027 08:03:42.213             5.814          2907.000
        33   02 Jun 2027 08:05:00.129   02 Jun 2027 08:05:01.521             1.392           696.000
        34   02 Jun 2027 08:06:22.885   02 Jun 2027 08:06:23.054             0.169            84.500
        35   02 Jun 2027 09:35:31.349   02 Jun 2027 09:36:37.357            66.008         32836.062
        36   02 Jun 2027 09:39:13.435   02 Jun 2027 09:39:32.807            19.372           626.000
        37   02 Jun 2027 09:39:58.660   02 Jun 2027 09:40:01.206             2.546           687.531
        38   02 Jun 2027 09:40:36.714   02 Jun 2027 09:40:37.881             1.167           270.062
        39   02 Jun 2027 09:41:33.605   02 Jun 2027 09:41:39.921             6.316          1741.375
        40   02 Jun 2027 09:42:12.719   02 Jun 2027 09:42:15.931             3.212           956.031
        41   02 Jun 2027 11:12:48.596   02 Jun 2027 11:13:00.403            11.807          5432.531
        42   02 Jun 2027 11:13:32.972   02 Jun 2027 11:13:35.156             2.184           988.969
        43   02 Jun 2027 11:14:18.703   02 Jun 2027 11:14:21.743             3.040          1360.844
        44   02 Jun 2027 11:15:36.161   02 Jun 2027 11:15:44.976             8.815          1273.563
        45   02 Jun 2027 11:16:47.279   02 Jun 2027 11:16:50.147             2.868          1093.594
        46   02 Jun 2027 11:17:16.736   02 Jun 2027 11:17:20.640             3.904           317.188
        47   03 Jun 2027 03:37:34.012   03 Jun 2027 03:39:17.018           103.006         51503.000
        48   03 Jun 2027 03:40:02.923   03 Jun 2027 03:41:07.215            64.292         32146.000
        49   03 Jun 2027 05:00:07.588   03 Jun 2027 05:00:58.762            51.174         25587.000
        50   03 Jun 2027 06:36:35.702   03 Jun 2027 06:38:05.466            89.764         42695.156
        51   03 Jun 2027 06:38:31.343   03 Jun 2027 06:38:31.343             0.000             0.000
        52   03 Jun 2027 06:38:49.109   03 Jun 2027 06:38:52.944             3.835          1196.594
        53   03 Jun 2027 06:39:06.126   03 Jun 2027 06:39:07.301             1.175           107.312
        54   03 Jun 2027 08:11:46.432   03 Jun 2027 08:11:53.249             6.817          3046.969
        55   03 Jun 2027 08:12:14.420   03 Jun 2027 08:12:15.183             0.763           139.031
        56   03 Jun 2027 08:13:19.358   03 Jun 2027 08:13:20.355             0.997           396.125
        57   03 Jun 2027 08:14:44.797   03 Jun 2027 08:14:47.902             3.105          1361.156
        58   03 Jun 2027 08:15:40.142   03 Jun 2027 08:15:44.681             4.539           904.813
        59   03 Jun 2027 08:17:01.854   03 Jun 2027 08:17:08.317             6.463          2261.313
        60   03 Jun 2027 08:17:54.302   03 Jun 2027 08:17:57.221             2.919           833.844
        61   03 Jun 2027 08:18:10.829   03 Jun 2027 08:18:11.869             1.040           423.781
        62   03 Jun 2027 08:18:16.979   03 Jun 2027 08:18:18.662             1.683            24.937
        63   03 Jun 2027 09:48:05.514   03 Jun 2027 09:48:25.653            20.139          5854.719
        64   03 Jun 2027 09:51:30.286   03 Jun 2027 09:51:33.917             3.631          1061.562
        65   03 Jun 2027 09:52:23.091   03 Jun 2027 09:52:27.961             4.870          1099.688
        66   03 Jun 2027 09:53:26.072   03 Jun 2027 09:53:30.496             4.424          1367.000
        67   03 Jun 2027 11:25:29.082   03 Jun 2027 11:25:46.029            16.947          6005.406
        68   03 Jun 2027 11:27:34.118   03 Jun 2027 11:27:39.833             5.715          1069.406
        69   03 Jun 2027 11:28:19.686   03 Jun 2027 11:28:20.174             0.488           190.031
        70   03 Jun 2027 11:29:25.323   03 Jun 2027 11:29:29.850             4.527          1370.063
        71   03 Jun 2027 11:29:47.122   03 Jun 2027 11:29:51.742             4.620           539.750
        72   04 Jun 2027 03:48:41.313   04 Jun 2027 03:49:19.274            37.961         18980.500
        73   04 Jun 2027 03:49:48.202   04 Jun 2027 03:52:14.438           146.236         73118.000
        74   04 Jun 2027 05:12:08.947   04 Jun 2027 05:12:51.805            42.858         21429.000
        75   04 Jun 2027 05:13:45.925   04 Jun 2027 05:13:47.323             1.398           699.000
        76   04 Jun 2027 05:14:13.076   04 Jun 2027 05:15:02.032            48.956         24478.000
        77   04 Jun 2027 06:48:36.815   04 Jun 2027 06:49:01.981            25.166         10653.750
        78   04 Jun 2027 06:49:20.934   04 Jun 2027 06:49:22.738             1.804           592.281
        79   04 Jun 2027 06:50:25.989   04 Jun 2027 06:50:28.884             2.895          1333.313
        80   04 Jun 2027 06:50:51.972   04 Jun 2027 06:50:53.468             1.496           426.031
        81   04 Jun 2027 06:51:12.052   04 Jun 2027 06:51:13.342             1.290           559.625
        82   04 Jun 2027 06:51:42.937   04 Jun 2027 06:51:44.686             1.749           828.844
        83   04 Jun 2027 08:23:49.433   04 Jun 2027 08:23:55.427             5.994          2505.500
        84   04 Jun 2027 08:24:06.401   04 Jun 2027 08:24:09.462             3.061           159.437
        85   04 Jun 2027 08:25:54.870   04 Jun 2027 08:25:59.529             4.659          1030.062
        86   04 Jun 2027 08:26:33.292   04 Jun 2027 08:26:40.113             6.821           607.219
        87   04 Jun 2027 08:26:43.402   04 Jun 2027 08:26:44.037             0.635            73.875
        88   04 Jun 2027 08:27:56.752   04 Jun 2027 08:28:04.553             7.801          1293.125
        89   04 Jun 2027 08:28:12.710   04 Jun 2027 08:28:17.152             4.442           232.063
        90   04 Jun 2027 08:28:46.801   04 Jun 2027 08:28:50.380             3.579           814.031
        91   04 Jun 2027 08:30:00.843   04 Jun 2027 08:30:04.549             3.706          1850.563
        92   04 Jun 2027 09:59:44.600   04 Jun 2027 09:59:59.209            14.609          7239.437
        93   04 Jun 2027 10:01:15.786   04 Jun 2027 10:01:21.414             5.628           693.219
        94   04 Jun 2027 10:02:27.497   04 Jun 2027 10:02:30.326             2.829           990.281
        95   04 Jun 2027 10:03:04.531   04 Jun 2027 10:03:05.675             1.144           559.438
        96   04 Jun 2027 10:03:32.229   04 Jun 2027 10:03:35.691             3.462           725.406
        97   04 Jun 2027 10:04:07.199   04 Jun 2027 10:04:09.277             2.078           262.594
        98   04 Jun 2027 10:04:34.438   04 Jun 2027 10:04:37.991             3.553           786.281
        99   04 Jun 2027 10:05:09.579   04 Jun 2027 10:05:11.083             1.504           701.281
       100   04 Jun 2027 11:37:43.354   04 Jun 2027 11:37:55.386            12.032          5612.906
       101   04 Jun 2027 11:39:55.126   04 Jun 2027 11:40:02.070             6.944          2379.938
       102   04 Jun 2027 11:40:48.099   04 Jun 2027 11:40:53.061             4.962          1086.750
       103   04 Jun 2027 11:41:39.317   04 Jun 2027 11:41:45.062             5.745          1445.500
       104   04 Jun 2027 11:42:00.594   04 Jun 2027 11:42:03.632             3.038           430.344
       105   05 Jun 2027 03:49:42.228   05 Jun 2027 03:49:57.362            15.134          7567.000
       106   05 Jun 2027 04:00:38.601   05 Jun 2027 04:04:06.385           207.784        103892.000
       107   05 Jun 2027 05:25:08.787   05 Jun 2027 05:25:26.471            17.684          8842.000
       108   05 Jun 2027 05:27:14.335   05 Jun 2027 05:27:14.335             0.000             0.000
       109   05 Jun 2027 07:00:20.500   05 Jun 2027 07:01:44.403            83.903         41951.500
       110   05 Jun 2027 07:02:22.841   05 Jun 2027 07:02:28.184             5.343          2459.906
       111   05 Jun 2027 07:03:37.532   05 Jun 2027 07:03:42.150             4.618          1951.281
       112   05 Jun 2027 07:04:28.623   05 Jun 2027 07:04:35.212             6.589          1296.406
       113   05 Jun 2027 08:35:04.404   05 Jun 2027 08:35:10.852             6.448          2998.125
       114   05 Jun 2027 08:36:05.203   05 Jun 2027 08:36:10.400             5.197           691.719
       115   05 Jun 2027 08:37:51.741   05 Jun 2027 08:37:57.017             5.276           963.125
       116   05 Jun 2027 08:38:29.520   05 Jun 2027 08:38:29.520             0.000             0.000
       117   05 Jun 2027 08:38:35.863   05 Jun 2027 08:38:37.298             1.435           419.094
       118   05 Jun 2027 08:39:24.361   05 Jun 2027 08:39:36.623            12.262           960.406
       119   05 Jun 2027 08:40:02.856   05 Jun 2027 08:40:07.349             4.493           749.719
       120   05 Jun 2027 08:40:39.147   05 Jun 2027 08:40:40.992             1.845           901.813
       121   05 Jun 2027 08:40:49.330   05 Jun 2027 08:40:51.316             1.986           175.031
       122   05 Jun 2027 08:41:55.717   05 Jun 2027 08:41:59.211             3.494          1718.156
       123   05 Jun 2027 10:11:53.701   05 Jun 2027 10:12:08.263            14.562          7159.063
       124   05 Jun 2027 10:15:28.716   05 Jun 2027 10:15:31.971             3.255           857.094
       125   05 Jun 2027 10:16:07.041   05 Jun 2027 10:16:13.695             6.654          1095.938
       126   05 Jun 2027 10:16:24.535   05 Jun 2027 10:16:25.236             0.701           338.750
       127   05 Jun 2027 10:17:01.032   05 Jun 2027 10:17:03.225             2.193           945.219
       128   05 Jun 2027 10:18:04.792   05 Jun 2027 10:18:08.763             3.971          1923.969
       129   05 Jun 2027 11:50:06.544   05 Jun 2027 11:50:20.985            14.441          7194.250
       130   05 Jun 2027 11:52:24.544   05 Jun 2027 11:52:26.754             2.210           322.938
       131   05 Jun 2027 11:52:45.949   05 Jun 2027 11:52:50.657             4.708           512.250
       132   05 Jun 2027 11:53:15.987   05 Jun 2027 11:53:21.281             5.294           303.156
       133   05 Jun 2027 11:53:25.666   05 Jun 2027 11:53:28.873             3.207             5.500
       134   05 Jun 2027 11:53:50.386   05 Jun 2027 11:53:54.844             4.458           635.781
       135   06 Jun 2027 04:00:59.161   06 Jun 2027 04:01:18.492            19.331          9665.500
       136   06 Jun 2027 04:12:38.988   06 Jun 2027 04:14:04.844            85.856         42928.000
       137   06 Jun 2027 05:35:10.700   06 Jun 2027 05:36:11.617            60.917         30458.500
       138   06 Jun 2027 05:36:52.451   06 Jun 2027 05:37:46.913            54.462         27231.000
       139   06 Jun 2027 07:10:13.933   06 Jun 2027 07:11:32.910            78.977         39488.500
       140   06 Jun 2027 07:12:04.683   06 Jun 2027 07:12:22.928            18.245          8216.563
       141   06 Jun 2027 07:13:45.198   06 Jun 2027 07:13:51.212             6.014          2243.219
       142   06 Jun 2027 07:14:03.187   06 Jun 2027 07:14:07.588             4.401           244.375
       143   06 Jun 2027 07:15:31.919   06 Jun 2027 07:15:37.990             6.071          2242.875
       144   06 Jun 2027 07:16:16.114   06 Jun 2027 07:16:19.028             2.914          1120.344
       145   06 Jun 2027 07:16:37.047   06 Jun 2027 07:16:38.370             1.323           202.750
       146   06 Jun 2027 08:47:12.576   06 Jun 2027 08:47:16.034             3.458          1467.750
       147   06 Jun 2027 08:49:33.202   06 Jun 2027 08:49:36.756             3.554          1195.000
       148   06 Jun 2027 08:50:28.887   06 Jun 2027 08:50:28.887             0.000             0.000
       149   06 Jun 2027 08:50:48.426   06 Jun 2027 08:50:51.057             2.631           688.781
       150   06 Jun 2027 08:51:08.165   06 Jun 2027 08:51:13.522             5.357           205.531
       151   06 Jun 2027 08:52:03.871   06 Jun 2027 08:52:07.217             3.346          1177.094
       152   06 Jun 2027 08:52:21.671   06 Jun 2027 08:52:23.245             1.574           430.781
       153   06 Jun 2027 08:53:31.926   06 Jun 2027 08:53:36.600             4.674          1316.531
       154   06 Jun 2027 08:54:30.825   06 Jun 2027 08:54:35.151             4.326          1199.875
       155   06 Jun 2027 10:24:10.675   06 Jun 2027 10:24:25.074            14.399          6236.031
       156   06 Jun 2027 10:27:51.884   06 Jun 2027 10:27:58.551             6.667          2019.906
       157   06 Jun 2027 10:28:31.524   06 Jun 2027 10:28:34.919             3.395          1006.625
       158   06 Jun 2027 10:28:55.794   06 Jun 2027 10:29:02.312             6.518           457.250
       159   07 Jun 2027 04:12:20.138   07 Jun 2027 04:13:06.230            46.092         23046.000
       160   07 Jun 2027 04:24:36.531   07 Jun 2027 04:25:32.069            55.538         27769.000
       161   07 Jun 2027 05:46:35.120   07 Jun 2027 05:47:59.374            84.254         42127.000
       162   07 Jun 2027 05:48:43.152   07 Jun 2027 05:49:14.875            31.723         15861.500
       163   07 Jun 2027 07:21:38.568   07 Jun 2027 07:23:17.142            98.574         49073.750
       164   07 Jun 2027 07:23:30.976   07 Jun 2027 07:23:33.754             2.778           243.437
       165   07 Jun 2027 07:24:40.987   07 Jun 2027 07:24:44.125             3.138          1303.719
       166   07 Jun 2027 07:25:03.176   07 Jun 2027 07:25:06.685             3.509           221.031
       167   07 Jun 2027 07:25:54.898   07 Jun 2027 07:25:57.929             3.031           811.656
       168   07 Jun 2027 07:27:44.424   07 Jun 2027 07:27:50.417             5.993          2660.813
       169   07 Jun 2027 07:28:52.229   07 Jun 2027 07:28:56.348             4.119          1931.625
       170   07 Jun 2027 07:29:14.586   07 Jun 2027 07:29:15.739             1.153           200.000
       171   07 Jun 2027 07:30:16.702   07 Jun 2027 07:30:17.523             0.821           410.500
       172   07 Jun 2027 08:59:14.631   07 Jun 2027 08:59:29.928            15.297          6802.563
       173   07 Jun 2027 09:00:10.227   07 Jun 2027 09:00:12.717             2.490          1059.031
       174   07 Jun 2027 09:02:07.417   07 Jun 2027 09:02:15.400             7.983          1471.438
       175   07 Jun 2027 09:03:06.744   07 Jun 2027 09:03:10.819             4.075          1475.594
       176   07 Jun 2027 09:03:27.699   07 Jun 2027 09:03:33.326             5.627           527.500
       177   07 Jun 2027 09:04:29.609   07 Jun 2027 09:04:42.139            12.530          1540.875
       178   07 Jun 2027 09:05:53.041   07 Jun 2027 09:05:58.945             5.904          1976.688
       179   07 Jun 2027 09:06:27.674   07 Jun 2027 09:06:29.040             1.366           612.469
       180   07 Jun 2027 09:06:40.587   07 Jun 2027 09:06:40.665             0.078            39.000
       181   07 Jun 2027 10:36:00.443   07 Jun 2027 10:36:16.133            15.690          6923.625
       182   07 Jun 2027 10:36:19.291   07 Jun 2027 10:36:21.961             2.670            98.687
       183   07 Jun 2027 10:39:38.414   07 Jun 2027 10:39:42.041             3.627          1354.562
       184   07 Jun 2027 10:40:12.747   07 Jun 2027 10:40:14.951             2.204           315.781
       185   07 Jun 2027 10:40:17.247   07 Jun 2027 10:40:18.833             1.586            71.750
       186   07 Jun 2027 10:40:20.091   07 Jun 2027 10:40:21.069             0.978            38.625
       187   07 Jun 2027 10:41:37.077   07 Jun 2027 10:41:43.439             6.362          2352.750
       188   07 Jun 2027 10:42:10.889   07 Jun 2027 10:42:16.002             5.113           562.281
       189   07 Jun 2027 10:42:16.407   07 Jun 2027 10:42:16.533             0.126            12.656
       190   08 Jun 2027 03:00:16.576   08 Jun 2027 03:00:28.086            11.510          5755.000
       191   08 Jun 2027 03:00:53.628   08 Jun 2027 03:01:03.644            10.016          5008.000
       192   08 Jun 2027 03:01:41.094   08 Jun 2027 03:01:48.400             7.306          3653.000
       193   08 Jun 2027 03:02:16.436   08 Jun 2027 03:02:23.799             7.363          3681.500
       194   08 Jun 2027 03:02:45.697   08 Jun 2027 03:02:53.383             7.686          3843.000
       195   08 Jun 2027 03:03:23.687   08 Jun 2027 03:03:23.687             0.000             0.000
       196   08 Jun 2027 03:03:46.210   08 Jun 2027 03:03:51.746             5.536          2768.000
       197   08 Jun 2027 03:03:53.460   08 Jun 2027 03:03:56.394             2.934          1467.000
       198   08 Jun 2027 03:04:14.063   08 Jun 2027 03:04:20.185             6.122          3061.000
       199   08 Jun 2027 03:04:32.321   08 Jun 2027 03:04:41.300             8.979          4489.500
       200   08 Jun 2027 04:24:27.962   08 Jun 2027 04:25:14.541            46.579         23289.500
       201   08 Jun 2027 04:26:21.227   08 Jun 2027 04:26:22.567             1.340           670.000
       202   08 Jun 2027 04:36:59.901   08 Jun 2027 04:37:03.648             3.747          1873.500
       203   08 Jun 2027 05:58:17.476   08 Jun 2027 06:00:21.387           123.911         61955.500
       204   08 Jun 2027 06:00:57.594   08 Jun 2027 06:01:16.217            18.623          9311.500
       205   08 Jun 2027 06:02:04.191   08 Jun 2027 06:02:18.667            14.476          7238.000
       206   08 Jun 2027 06:02:30.078   08 Jun 2027 06:02:41.106            11.028          5514.000
       207   08 Jun 2027 06:03:07.884   08 Jun 2027 06:03:12.684             4.800          2400.000
       208   08 Jun 2027 06:03:21.131   08 Jun 2027 06:03:42.980            21.849         10924.500
       209   08 Jun 2027 07:33:09.721   08 Jun 2027 07:33:38.059            28.338         11681.750
       210   08 Jun 2027 07:34:15.196   08 Jun 2027 07:34:17.362             2.166           287.875
       211   08 Jun 2027 07:35:24.113   08 Jun 2027 07:35:28.209             4.096          2012.719
       212   08 Jun 2027 07:35:37.151   08 Jun 2027 07:35:39.317             2.166            88.938
       213   08 Jun 2027 07:36:50.772   08 Jun 2027 07:36:54.145             3.373          1553.094
       214   08 Jun 2027 07:38:20.311   08 Jun 2027 07:38:25.674             5.363          1082.750
       215   08 Jun 2027 07:39:29.190   08 Jun 2027 07:39:30.967             1.777           725.063
       216   08 Jun 2027 07:40:21.154   08 Jun 2027 07:40:23.787             2.633           916.656
       217   08 Jun 2027 07:40:43.356   08 Jun 2027 07:40:44.539             1.183           588.656
       218   08 Jun 2027 07:41:43.735   08 Jun 2027 07:41:46.456             2.721          1325.906
       219   08 Jun 2027 09:11:15.293   08 Jun 2027 09:11:32.503            17.210          5517.844
       220   08 Jun 2027 09:14:03.334   08 Jun 2027 09:14:06.857             3.523          1386.156
       221   08 Jun 2027 09:15:28.822   08 Jun 2027 09:15:29.985             1.163           395.500
       222   08 Jun 2027 09:16:51.872   08 Jun 2027 09:16:52.218             0.346            96.812
       223   08 Jun 2027 09:16:54.348   08 Jun 2027 09:16:55.224             0.876            22.875
       224   08 Jun 2027 09:17:46.105   08 Jun 2027 09:17:50.109             4.004           766.625
       225   08 Jun 2027 09:18:08.925   08 Jun 2027 09:18:11.351             2.426           588.000
       226   08 Jun 2027 09:18:22.529   08 Jun 2027 09:18:27.905             5.376           349.313
       227   08 Jun 2027 10:48:09.304   08 Jun 2027 10:48:21.844            12.540          6188.344
       228   08 Jun 2027 10:48:41.661   08 Jun 2027 10:48:42.668             1.007           471.156
       229   08 Jun 2027 10:50:47.071   08 Jun 2027 10:50:50.640             3.569           596.250
       230   08 Jun 2027 10:52:05.101   08 Jun 2027 10:52:06.014             0.913           397.438
       231   08 Jun 2027 10:52:09.754   08 Jun 2027 10:52:11.083             1.329           116.875
       232   08 Jun 2027 10:52:34.491   08 Jun 2027 10:52:39.743             5.252           722.031
       233   08 Jun 2027 10:52:58.140   08 Jun 2027 10:52:58.581             0.441           139.094
       234   08 Jun 2027 10:54:14.337   08 Jun 2027 10:54:21.089             6.752          2240.562
       235   09 Jun 2027 03:12:37.440   09 Jun 2027 03:14:31.218           113.778         56889.000
       236   09 Jun 2027 03:15:42.975   09 Jun 2027 03:15:50.584             7.609          3804.500
       237   09 Jun 2027 03:16:23.663   09 Jun 2027 03:16:58.461            34.798         17399.000
       238   09 Jun 2027 04:36:24.189   09 Jun 2027 04:36:44.930            20.741         10370.500
       239   09 Jun 2027 04:37:17.260   09 Jun 2027 04:37:39.807            22.547         11273.500
       240   09 Jun 2027 06:12:36.767   09 Jun 2027 06:14:48.044           131.277         64807.094
       241   09 Jun 2027 06:15:57.383   09 Jun 2027 06:16:00.865             3.482          1558.937
       242   09 Jun 2027 07:46:10.071   09 Jun 2027 07:46:23.886            13.815          2349.437
       243   09 Jun 2027 07:48:07.413   09 Jun 2027 07:48:22.435            15.022           932.750
       244   09 Jun 2027 07:48:46.603   09 Jun 2027 07:48:47.708             1.105           184.781
       245   09 Jun 2027 07:49:45.153   09 Jun 2027 07:49:49.124             3.971          1437.281
       246   09 Jun 2027 07:50:01.419   09 Jun 2027 07:50:04.611             3.192           188.188
       247   09 Jun 2027 07:50:45.357   09 Jun 2027 07:50:47.968             2.611           689.281
       248   09 Jun 2027 07:51:32.122   09 Jun 2027 07:51:34.678             2.556           846.562
       249   09 Jun 2027 07:52:09.308   09 Jun 2027 07:52:12.850             3.542          1082.187
       250   09 Jun 2027 07:53:06.791   09 Jun 2027 07:53:11.175             4.384          1685.656
       251   09 Jun 2027 07:53:17.342   09 Jun 2027 07:53:20.013             2.671            72.969
       252   09 Jun 2027 07:53:43.088   09 Jun 2027 07:53:44.925             1.837           669.844
       253   09 Jun 2027 07:54:42.769   09 Jun 2027 07:54:43.849             1.080           540.000
       254   09 Jun 2027 09:23:40.758   09 Jun 2027 09:23:50.952            10.194          4827.562
       255   09 Jun 2027 09:26:01.619   09 Jun 2027 09:26:04.047             2.428           385.844
       256   09 Jun 2027 09:27:09.225   09 Jun 2027 09:27:13.002             3.777          1344.906
       257   09 Jun 2027 09:28:27.509   09 Jun 2027 09:28:31.106             3.597           735.562
       258   09 Jun 2027 09:28:46.624   09 Jun 2027 09:28:48.211             1.587           394.563
       259   09 Jun 2027 09:29:49.774   09 Jun 2027 09:29:57.003             7.229          1750.156
       260   09 Jun 2027 09:30:22.872   09 Jun 2027 09:30:25.538             2.666           719.250
       261   09 Jun 2027 11:00:37.240   09 Jun 2027 11:00:58.359            21.119          6355.000
       262   09 Jun 2027 11:03:08.038   09 Jun 2027 11:03:11.443             3.405           783.312
       263   09 Jun 2027 11:04:02.863   09 Jun 2027 11:04:06.121             3.258           151.406
       264   09 Jun 2027 11:04:15.807   09 Jun 2027 11:04:17.880             2.073           302.688
       265   09 Jun 2027 11:04:40.169   09 Jun 2027 11:04:48.620             8.451           284.156
       266   09 Jun 2027 11:05:20.020   09 Jun 2027 11:05:22.797             2.777           720.250
       267   09 Jun 2027 11:06:06.767   09 Jun 2027 11:06:11.615             4.848           571.656
       268   09 Jun 2027 11:06:25.874   09 Jun 2027 11:06:28.814             2.940           445.594
       269   10 Jun 2027 03:24:36.055   10 Jun 2027 03:27:42.072           186.017         93008.500
       270   10 Jun 2027 03:28:02.603   10 Jun 2027 03:28:29.643            27.040         13520.000
       271   10 Jun 2027 04:48:15.045   10 Jun 2027 04:48:47.628            32.583         16291.500
       272   10 Jun 2027 04:49:19.876   10 Jun 2027 04:49:19.876             0.000             0.000
       273   10 Jun 2027 06:24:41.955   10 Jun 2027 06:26:07.674            85.719         40502.281
       274   10 Jun 2027 06:27:04.447   10 Jun 2027 06:27:07.034             2.587          1186.187
       275   10 Jun 2027 06:27:16.975   10 Jun 2027 06:27:17.535             0.560           159.188
       276   10 Jun 2027 07:56:50.746   10 Jun 2027 07:56:58.970             8.224          3119.156
       277   10 Jun 2027 07:58:49.009   10 Jun 2027 07:58:53.728             4.719           430.562
       278   10 Jun 2027 08:00:39.267   10 Jun 2027 08:00:41.702             2.435           204.313
       279   10 Jun 2027 08:00:51.326   10 Jun 2027 08:00:52.097             0.771           273.750
       280   10 Jun 2027 08:03:03.291   10 Jun 2027 08:03:10.985             7.694          1709.438
       281   10 Jun 2027 08:03:34.903   10 Jun 2027 08:03:36.179             1.276           535.875
       282   10 Jun 2027 08:04:55.480   10 Jun 2027 08:05:00.042             4.562          1924.906
       283   10 Jun 2027 08:05:18.370   10 Jun 2027 08:05:19.067             0.697             7.625
       284   10 Jun 2027 08:05:20.091   10 Jun 2027 08:05:22.677             2.586            32.000
       285   10 Jun 2027 08:06:03.695   10 Jun 2027 08:06:07.319             3.624           922.531
       286   10 Jun 2027 08:06:34.621   10 Jun 2027 08:06:38.360             3.739           562.250
       287   10 Jun 2027 09:35:47.907   10 Jun 2027 09:36:01.893            13.986          6057.781
       288   10 Jun 2027 09:40:15.180   10 Jun 2027 09:40:21.944             6.764          1816.031
       289   10 Jun 2027 09:40:51.654   10 Jun 2027 09:40:53.169             1.515           265.656
       290   10 Jun 2027 09:41:48.111   10 Jun 2027 09:41:51.830             3.719          1716.937
       291   10 Jun 2027 09:42:27.984   10 Jun 2027 09:42:31.954             3.970           896.687
       292   10 Jun 2027 11:13:09.610   10 Jun 2027 11:13:22.215            12.605          4702.344
       293   10 Jun 2027 11:14:34.372   10 Jun 2027 11:14:38.975             4.603          1314.906
       294   10 Jun 2027 11:16:02.926   10 Jun 2027 11:16:05.309             2.383           670.656
       295   10 Jun 2027 11:16:17.000   10 Jun 2027 11:16:21.801             4.801           279.250
       296   10 Jun 2027 11:16:28.341   10 Jun 2027 11:16:29.437             1.096           167.938
       297   10 Jun 2027 11:16:30.696   10 Jun 2027 11:16:35.261             4.565            39.344
       298   10 Jun 2027 11:16:59.185   10 Jun 2027 11:17:02.627             3.442           561.313
       299   10 Jun 2027 11:17:22.395   10 Jun 2027 11:17:25.181             2.786           597.219
       300   10 Jun 2027 11:17:51.596   10 Jun 2027 11:17:53.968             2.372           485.594
       301   11 Jun 2027 03:37:49.566   11 Jun 2027 03:40:58.617           189.051         94525.500
       302   11 Jun 2027 05:00:23.379   11 Jun 2027 05:00:54.788            31.409         15704.500
       303   11 Jun 2027 05:01:22.365   11 Jun 2027 05:01:22.365             0.000             0.000
       304   11 Jun 2027 05:03:15.244   11 Jun 2027 05:03:15.244             0.000             0.000
       305   11 Jun 2027 06:36:51.785   11 Jun 2027 06:38:13.770            81.985         40473.781
       306   11 Jun 2027 06:38:28.568   11 Jun 2027 06:38:33.769             5.201            52.781
       307   11 Jun 2027 06:39:03.763   11 Jun 2027 06:39:04.979             1.216           522.219
       308   11 Jun 2027 06:39:21.669   11 Jun 2027 06:39:23.310             1.641            91.219
       309   11 Jun 2027 06:40:01.082   11 Jun 2027 06:40:01.082             0.000             0.000
       310   11 Jun 2027 08:12:03.013   11 Jun 2027 08:12:07.508             4.495          2181.687
       311   11 Jun 2027 08:12:29.460   11 Jun 2027 08:12:30.012             0.552            75.906
       312   11 Jun 2027 08:13:23.566   11 Jun 2027 08:13:25.834             2.268           319.375
       313   11 Jun 2027 08:14:18.499   11 Jun 2027 08:14:21.329             2.830          1318.469
       314   11 Jun 2027 08:15:33.971   11 Jun 2027 08:15:37.487             3.516          1042.437
       315   11 Jun 2027 08:16:06.735   11 Jun 2027 08:16:17.843            11.108           914.000
       316   11 Jun 2027 08:16:37.086   11 Jun 2027 08:16:41.082             3.996           384.438
       317   11 Jun 2027 08:16:55.921   11 Jun 2027 08:16:57.195             1.274           144.625
       318   11 Jun 2027 08:17:04.645   11 Jun 2027 08:17:05.838             1.193           148.813
       319   11 Jun 2027 08:17:42.692   11 Jun 2027 08:17:45.426             2.734           828.375
       320   11 Jun 2027 08:18:25.188   11 Jun 2027 08:18:26.634             1.446           599.875
       321   11 Jun 2027 09:48:21.582   11 Jun 2027 09:48:32.788            11.206          5273.625
       322   11 Jun 2027 09:51:07.132   11 Jun 2027 09:51:07.318             0.186            81.844
       323   11 Jun 2027 09:51:44.686   11 Jun 2027 09:51:48.800             4.114          1036.813
       324   11 Jun 2027 09:52:38.123   11 Jun 2027 09:52:41.798             3.675          1071.500
       325   11 Jun 2027 09:53:42.033   11 Jun 2027 09:53:47.354             5.321          1337.594
       326   11 Jun 2027 11:25:44.490   11 Jun 2027 11:25:56.591            12.101          5899.563
       327   11 Jun 2027 11:26:26.895   11 Jun 2027 11:26:29.467             2.572            61.750
       328   11 Jun 2027 11:27:51.258   11 Jun 2027 11:27:56.197             4.939          1049.469
       329   11 Jun 2027 11:28:35.627   11 Jun 2027 11:28:36.077             0.450           172.000
       330   11 Jun 2027 11:29:40.315   11 Jun 2027 11:29:46.873             6.558          1324.094
       331   11 Jun 2027 11:30:02.139   11 Jun 2027 11:30:07.046             4.907           413.156
       332   12 Jun 2027 03:48:57.549   12 Jun 2027 03:49:34.890            37.341         18670.500
       333   12 Jun 2027 03:50:03.540   12 Jun 2027 03:52:20.467           136.927         68463.500
       334   12 Jun 2027 05:12:24.279   12 Jun 2027 05:13:07.091            42.812         21406.000
       335   12 Jun 2027 05:14:01.115   12 Jun 2027 05:14:04.316             3.201          1600.500
       336   12 Jun 2027 05:14:29.603   12 Jun 2027 05:15:18.161            48.558         24279.000
       337   12 Jun 2027 06:48:51.390   12 Jun 2027 06:49:24.948            33.558         15572.375
       338   12 Jun 2027 06:50:08.357   12 Jun 2027 06:50:11.156             2.799           948.063
       339   12 Jun 2027 06:50:52.933   12 Jun 2027 06:50:58.962             6.029          1042.219
       340   12 Jun 2027 06:51:20.219   12 Jun 2027 06:51:21.289             1.070           388.906
       341   12 Jun 2027 06:52:20.237   12 Jun 2027 06:52:21.683             1.446           723.000
       342   12 Jun 2027 08:24:04.443   12 Jun 2027 08:24:11.230             6.787          2477.094
       343   12 Jun 2027 08:24:23.649   12 Jun 2027 08:24:24.688             1.039           232.844
       344   12 Jun 2027 08:26:12.040   12 Jun 2027 08:26:15.385             3.345          1086.031
       345   12 Jun 2027 08:26:50.088   12 Jun 2027 08:26:55.544             5.456           587.188
       346   12 Jun 2027 08:26:57.232   12 Jun 2027 08:26:59.300             2.068            13.781
       347   12 Jun 2027 08:28:14.266   12 Jun 2027 08:28:20.393             6.127          1423.281
       348   12 Jun 2027 08:28:25.357   12 Jun 2027 08:28:26.735             1.378           155.125
       349   12 Jun 2027 08:29:02.400   12 Jun 2027 08:29:06.425             4.025          1114.531
       350   12 Jun 2027 08:29:24.845   12 Jun 2027 08:29:28.319             3.474           209.125
       351   12 Jun 2027 08:29:40.580   12 Jun 2027 08:29:47.423             6.843           370.344
       352   12 Jun 2027 08:30:43.401   12 Jun 2027 08:30:45.575             2.174          1087.000
       353   12 Jun 2027 10:00:00.262   12 Jun 2027 10:00:12.510            12.248          5806.656
       354   12 Jun 2027 10:02:43.700   12 Jun 2027 10:02:45.891             2.191           997.656
       355   12 Jun 2027 10:03:02.667   12 Jun 2027 10:03:03.886             1.219           524.250
       356   12 Jun 2027 10:03:25.595   12 Jun 2027 10:03:27.075             1.480           620.094
       357   12 Jun 2027 10:03:47.477   12 Jun 2027 10:03:49.697             2.220           594.906
       358   12 Jun 2027 10:04:22.231   12 Jun 2027 10:04:25.485             3.254           222.000
       359   12 Jun 2027 10:04:49.213   12 Jun 2027 10:04:52.636             3.423           741.500
       360   12 Jun 2027 10:05:25.074   12 Jun 2027 10:05:27.052             1.978           658.906
       361   12 Jun 2027 10:05:43.009   12 Jun 2027 10:05:45.783             2.774           222.562
       362   12 Jun 2027 11:37:58.663   12 Jun 2027 11:38:09.993            11.330          5601.156
       363   12 Jun 2027 11:39:14.596   12 Jun 2027 11:39:17.683             3.087           834.500
       364   12 Jun 2027 11:40:13.827   12 Jun 2027 11:40:15.189             1.362            50.500
       365   12 Jun 2027 11:41:05.311   12 Jun 2027 11:41:08.361             3.050          1070.188
       366   12 Jun 2027 11:41:54.746   12 Jun 2027 11:41:59.755             5.009          1410.562
       367   12 Jun 2027 11:42:14.932   12 Jun 2027 11:42:17.594             2.662           474.281
       368   12 Jun 2027 11:42:17.899   12 Jun 2027 11:42:19.534             1.635             9.531
       369   13 Jun 2027 03:49:56.303   13 Jun 2027 03:50:14.260            17.957          8978.500
       370   13 Jun 2027 04:00:54.140   13 Jun 2027 04:03:49.525           175.385         87692.500
       371   13 Jun 2027 04:04:22.147   13 Jun 2027 04:04:22.154             0.007             3.500
       372   13 Jun 2027 05:24:50.428   13 Jun 2027 05:25:02.275            11.847          5923.500
       373   13 Jun 2027 05:26:51.114   13 Jun 2027 05:27:20.997            29.883         14941.500
       374   13 Jun 2027 07:00:36.211   13 Jun 2027 07:01:57.237            81.026         39219.906
       375   13 Jun 2027 07:03:25.520   13 Jun 2027 07:03:29.422             3.902          1951.000
       376   13 Jun 2027 07:04:04.712   13 Jun 2027 07:04:08.285             3.573          1782.813
       377   13 Jun 2027 07:04:51.141   13 Jun 2027 07:04:55.621             4.480          1296.563
       378   13 Jun 2027 08:35:20.160   13 Jun 2027 08:35:24.382             4.222          1878.187
       379   13 Jun 2027 08:37:37.805   13 Jun 2027 08:37:45.870             8.065          2348.687
       380   13 Jun 2027 08:38:39.451   13 Jun 2027 08:38:39.451             0.000             0.000
       381   13 Jun 2027 08:38:47.148   13 Jun 2027 08:38:51.133             3.985          1185.719
       382   13 Jun 2027 08:39:41.961   13 Jun 2027 08:39:48.763             6.802          1575.719
       383   13 Jun 2027 08:40:27.642   13 Jun 2027 08:40:29.765             2.123           651.750
       384   13 Jun 2027 08:41:04.120   13 Jun 2027 08:41:06.691             2.571           325.375
       385   13 Jun 2027 08:41:27.906   13 Jun 2027 08:41:29.157             1.251           334.000
       386   13 Jun 2027 08:42:10.234   13 Jun 2027 08:42:13.061             2.827           449.844
       387   13 Jun 2027 08:42:13.635   13 Jun 2027 08:42:13.945             0.310            17.937
       388   13 Jun 2027 10:12:09.884   13 Jun 2027 10:12:22.552            12.668          6292.000
       389   13 Jun 2027 10:15:47.586   13 Jun 2027 10:15:51.685             4.099           967.094
       390   13 Jun 2027 10:16:21.939   13 Jun 2027 10:16:24.149             2.210           934.250
       391   13 Jun 2027 10:16:39.332   13 Jun 2027 10:16:40.287             0.955           474.469
       392   13 Jun 2027 10:17:16.473   13 Jun 2027 10:17:23.877             7.404           966.844
       393   13 Jun 2027 10:18:21.780   13 Jun 2027 10:18:25.423             3.643          1551.437
       394   13 Jun 2027 11:50:21.313   13 Jun 2027 11:50:32.853            11.540          5374.594
       395   13 Jun 2027 11:52:45.281   13 Jun 2027 11:52:46.417             1.136           403.781
       396   13 Jun 2027 11:53:22.920   13 Jun 2027 11:53:29.026             6.106           614.281
       397   13 Jun 2027 11:54:03.906   13 Jun 2027 11:54:09.156             5.250          1090.000
