uniorb/output/strategy_4/Camera/Camera_KinoSat_110902.txt

KinoSat_110902
-------------------------
    Access    *     Start Time (UTCG)     *     Stop Time (UTCG)  *   Duration (s) *   Data (Mbytes)
         1   01 Jun 2027 04:00:18.809   01 Jun 2027 04:02:21.362           122.553         61276.500
         2   01 Jun 2027 05:36:04.117   01 Jun 2027 05:38:08.425           124.308         62154.000
         3   01 Jun 2027 05:39:40.690   01 Jun 2027 05:39:40.690             0.000             0.000
         4   01 Jun 2027 05:40:07.460   01 Jun 2027 05:40:17.838            10.378          5189.000
         5   01 Jun 2027 07:10:55.658   01 Jun 2027 07:13:04.978           129.320         64660.000
         6   01 Jun 2027 07:13:58.880   01 Jun 2027 07:14:00.952             2.072          1036.000
         7   01 Jun 2027 07:14:24.998   01 Jun 2027 07:14:29.156             4.158          2079.000
         8   01 Jun 2027 07:17:21.302   01 Jun 2027 07:17:31.857            10.555          5277.500
         9   01 Jun 2027 08:47:31.053   01 Jun 2027 08:50:16.553           165.500         82750.000
        10   01 Jun 2027 08:53:47.742   01 Jun 2027 08:53:54.759             7.017          3508.500
        11   01 Jun 2027 10:25:48.685   01 Jun 2027 10:28:12.751           144.066         72033.000
        12   01 Jun 2027 10:28:24.366   01 Jun 2027 10:28:28.612             4.246          2123.000
        13   01 Jun 2027 11:59:48.682   01 Jun 2027 12:00:00.000            11.318          5659.000
        14   02 Jun 2027 04:10:57.279   02 Jun 2027 04:11:49.503            52.224         26112.000
        15   02 Jun 2027 04:14:57.702   02 Jun 2027 04:14:57.702             0.000             0.000
        16   02 Jun 2027 04:15:21.825   02 Jun 2027 04:15:26.660             4.835          2417.500
        17   02 Jun 2027 05:46:18.184   02 Jun 2027 05:47:15.704            57.520         28760.000
        18   02 Jun 2027 05:47:49.264   02 Jun 2027 05:49:31.327           102.063         51031.500
        19   02 Jun 2027 05:50:56.320   02 Jun 2027 05:51:02.883             6.563          3281.500
        20   02 Jun 2027 05:52:20.727   02 Jun 2027 05:52:25.669             4.942          2471.000
        21   02 Jun 2027 05:52:34.651   02 Jun 2027 05:52:35.223             0.572           286.000
        22   02 Jun 2027 07:22:46.808   02 Jun 2027 07:25:45.291           178.483         89241.500
        23   02 Jun 2027 07:25:49.017   02 Jun 2027 07:26:01.677            12.660          6330.000
        24   02 Jun 2027 07:26:32.548   02 Jun 2027 07:26:40.221             7.673          3836.500
        25   02 Jun 2027 07:28:15.013   02 Jun 2027 07:28:45.463            30.450         15225.000
        26   02 Jun 2027 07:29:28.250   02 Jun 2027 07:29:41.446            13.196          6598.000
        27   02 Jun 2027 08:59:52.247   02 Jun 2027 09:03:14.064           201.817        100908.500
        28   02 Jun 2027 09:03:31.403   02 Jun 2027 09:03:58.360            26.957         13478.500
        29   02 Jun 2027 09:04:41.092   02 Jun 2027 09:05:11.241            30.149         13794.313
        30   02 Jun 2027 10:37:46.302   02 Jun 2027 10:38:15.372            29.070         14244.906
        31   02 Jun 2027 10:38:59.918   02 Jun 2027 10:39:01.782             1.864           615.437
        32   02 Jun 2027 10:39:41.192   02 Jun 2027 10:39:43.119             1.927           920.781
        33   02 Jun 2027 10:40:15.129   02 Jun 2027 10:40:18.601             3.472          1000.312
        34   02 Jun 2027 10:40:42.575   02 Jun 2027 10:40:43.923             1.348           181.844
        35   02 Jun 2027 10:41:20.048   02 Jun 2027 10:41:24.158             4.110           722.656
        36   02 Jun 2027 10:41:36.497   02 Jun 2027 10:41:37.155             0.658           324.187
        37   03 Jun 2027 03:00:17.673   03 Jun 2027 03:00:35.610            17.937          8968.500
        38   03 Jun 2027 03:01:12.072   03 Jun 2027 03:01:12.072             0.000             0.000
        39   03 Jun 2027 04:22:33.216   03 Jun 2027 04:23:39.878            66.662         33331.000
        40   03 Jun 2027 04:25:19.500   03 Jun 2027 04:25:19.500             0.000             0.000
        41   03 Jun 2027 04:25:30.138   03 Jun 2027 04:25:40.828            10.690          5345.000
        42   03 Jun 2027 04:26:57.446   03 Jun 2027 04:27:07.822            10.376          5188.000
        43   03 Jun 2027 04:27:41.244   03 Jun 2027 04:27:47.494             6.250          3125.000
        44   03 Jun 2027 05:57:27.230   03 Jun 2027 05:59:08.262           101.032         50516.000
        45   03 Jun 2027 05:59:29.006   03 Jun 2027 05:59:29.643             0.637           318.500
        46   03 Jun 2027 05:59:36.116   03 Jun 2027 05:59:45.966             9.850          4925.000
        47   03 Jun 2027 06:01:39.020   03 Jun 2027 06:02:30.447            51.427         25713.500
        48   03 Jun 2027 06:03:42.374   03 Jun 2027 06:03:53.868            11.494          5747.000
        49   03 Jun 2027 06:05:28.662   03 Jun 2027 06:05:56.167            27.505         13752.500
        50   03 Jun 2027 07:35:00.680   03 Jun 2027 07:35:22.245            21.565          9519.594
        51   03 Jun 2027 07:37:23.999   03 Jun 2027 07:37:28.831             4.832           938.594
        52   03 Jun 2027 07:37:53.510   03 Jun 2027 07:37:55.500             1.990           379.531
        53   03 Jun 2027 07:38:13.886   03 Jun 2027 07:38:16.272             2.386           271.281
        54   03 Jun 2027 07:38:41.862   03 Jun 2027 07:38:44.216             2.354           184.219
        55   03 Jun 2027 07:40:13.076   03 Jun 2027 07:40:17.041             3.965          1774.625
        56   03 Jun 2027 07:40:44.977   03 Jun 2027 07:40:46.278             1.301           494.625
        57   03 Jun 2027 09:11:43.153   03 Jun 2027 09:11:53.612            10.459          5071.031
        58   03 Jun 2027 09:14:06.213   03 Jun 2027 09:14:09.879             3.666          1214.875
        59   03 Jun 2027 09:14:59.439   03 Jun 2027 09:15:00.213             0.774           269.625
        60   03 Jun 2027 09:15:31.419   03 Jun 2027 09:15:34.853             3.434           975.187
        61   03 Jun 2027 09:15:43.207   03 Jun 2027 09:15:45.373             2.166           123.406
        62   03 Jun 2027 09:16:09.430   03 Jun 2027 09:16:17.206             7.776           597.563
        63   03 Jun 2027 09:16:56.420   03 Jun 2027 09:16:58.518             2.098           397.281
        64   03 Jun 2027 09:18:01.226   03 Jun 2027 09:18:06.305             5.079          1184.563
        65   03 Jun 2027 10:49:46.232   03 Jun 2027 10:50:00.352            14.120          7046.438
        66   03 Jun 2027 10:51:41.662   03 Jun 2027 10:51:46.304             4.642          2037.250
        67   03 Jun 2027 10:52:45.811   03 Jun 2027 10:52:51.282             5.471          1859.594
        68   03 Jun 2027 10:53:08.541   03 Jun 2027 10:53:10.323             1.782           287.594
        69   03 Jun 2027 10:53:43.214   03 Jun 2027 10:53:45.517             2.303           839.250
        70   04 Jun 2027 03:00:10.500   04 Jun 2027 03:00:21.616            11.116          5558.000
        71   04 Jun 2027 03:01:59.394   04 Jun 2027 03:02:03.795             4.401          2200.500
        72   04 Jun 2027 03:12:25.984   04 Jun 2027 03:12:52.983            26.999         13499.500
        73   04 Jun 2027 04:34:02.698   04 Jun 2027 04:35:25.742            83.044         41522.000
        74   04 Jun 2027 04:36:02.178   04 Jun 2027 04:36:35.017            32.839         16419.500
        75   04 Jun 2027 04:38:20.296   04 Jun 2027 04:39:09.696            49.400         24700.000
        76   04 Jun 2027 04:39:37.927   04 Jun 2027 04:40:02.890            24.963         12481.500
        77   04 Jun 2027 06:08:57.867   04 Jun 2027 06:10:05.999            68.132         34066.000
        78   04 Jun 2027 06:10:28.648   04 Jun 2027 06:10:37.113             8.465          3780.094
        79   04 Jun 2027 06:11:34.522   04 Jun 2027 06:11:39.664             5.142          1586.500
        80   04 Jun 2027 06:12:40.857   04 Jun 2027 06:12:46.159             5.302          1912.281
        81   04 Jun 2027 06:14:17.858   04 Jun 2027 06:14:24.183             6.325          2865.594
        82   04 Jun 2027 06:15:32.603   04 Jun 2027 06:15:35.017             2.414          1207.000
        83   04 Jun 2027 06:16:18.812   04 Jun 2027 06:16:29.285            10.473          2212.969
        84   04 Jun 2027 06:16:30.007   04 Jun 2027 06:16:31.463             1.456            22.562
        85   04 Jun 2027 06:17:39.790   04 Jun 2027 06:17:46.087             6.297          1888.969
        86   04 Jun 2027 07:46:54.652   04 Jun 2027 07:46:57.588             2.936           718.500
        87   04 Jun 2027 07:47:26.168   04 Jun 2027 07:47:29.038             2.870           610.594
        88   04 Jun 2027 07:48:56.935   04 Jun 2027 07:48:58.664             1.729           787.594
        89   04 Jun 2027 07:51:26.401   04 Jun 2027 07:51:28.534             2.133           911.344
        90   04 Jun 2027 07:52:14.892   04 Jun 2027 07:52:15.260             0.368           147.844
        91   04 Jun 2027 07:53:41.842   04 Jun 2027 07:53:46.013             4.171          1845.156
        92   04 Jun 2027 09:23:46.464   04 Jun 2027 09:24:01.754            15.290          4833.562
        93   04 Jun 2027 09:24:53.089   04 Jun 2027 09:24:53.569             0.480           221.406
        94   04 Jun 2027 09:26:14.077   04 Jun 2027 09:26:14.829             0.752            76.156
        95   04 Jun 2027 09:27:28.954   04 Jun 2027 09:27:34.007             5.053           516.344
        96   04 Jun 2027 09:28:13.731   04 Jun 2027 09:28:15.010             1.279            64.937
        97   04 Jun 2027 09:28:20.561   04 Jun 2027 09:28:22.914             2.353           168.344
        98   04 Jun 2027 09:29:31.850   04 Jun 2027 09:29:36.316             4.466          1609.969
        99   04 Jun 2027 11:01:32.798   04 Jun 2027 11:01:47.805            15.007          5745.625
       100   04 Jun 2027 11:03:39.188   04 Jun 2027 11:03:48.497             9.309          1838.687
       101   04 Jun 2027 11:04:23.311   04 Jun 2027 11:04:27.311             4.000           695.375
       102   04 Jun 2027 11:04:37.397   04 Jun 2027 11:04:43.402             6.005           259.594
       103   04 Jun 2027 11:05:40.018   04 Jun 2027 11:05:44.846             4.828          1769.250
       104   05 Jun 2027 03:12:06.463   05 Jun 2027 03:12:21.186            14.723          7361.500
       105   05 Jun 2027 04:48:05.885   05 Jun 2027 04:51:11.237           185.352         92676.000
       106   05 Jun 2027 06:21:51.876   05 Jun 2027 06:23:31.873            99.997         49511.875
       107   05 Jun 2027 06:24:21.957   05 Jun 2027 06:24:23.004             1.047           523.500
       108   05 Jun 2027 06:24:25.787   05 Jun 2027 06:24:25.787             0.000             0.000
       109   05 Jun 2027 06:24:56.827   05 Jun 2027 06:25:00.894             4.067          1063.250
       110   05 Jun 2027 06:26:34.492   05 Jun 2027 06:26:40.337             5.845          2589.219
       111   05 Jun 2027 06:27:52.955   05 Jun 2027 06:27:57.226             4.271          2121.125
       112   05 Jun 2027 06:28:37.615   05 Jun 2027 06:28:37.615             0.000             0.000
       113   05 Jun 2027 06:29:12.743   05 Jun 2027 06:29:21.718             8.975          2293.500
       114   05 Jun 2027 06:30:24.021   05 Jun 2027 06:30:24.981             0.960           240.875
       115   05 Jun 2027 07:59:14.839   05 Jun 2027 07:59:20.268             5.429           273.812
       116   05 Jun 2027 08:00:47.162   05 Jun 2027 08:00:52.052             4.890           376.531
       117   05 Jun 2027 08:02:19.994   05 Jun 2027 08:02:25.630             5.636          2603.094
       118   05 Jun 2027 08:03:01.264   05 Jun 2027 08:03:04.258             2.994          1027.438
       119   05 Jun 2027 08:03:55.521   05 Jun 2027 08:04:02.744             7.223          1479.281
       120   05 Jun 2027 09:36:19.337   05 Jun 2027 09:36:30.184            10.847          5042.312
       121   05 Jun 2027 09:37:27.963   05 Jun 2027 09:37:30.990             3.027          1025.156
       122   05 Jun 2027 09:39:23.186   05 Jun 2027 09:39:24.973             1.787           161.750
       123   05 Jun 2027 09:40:13.063   05 Jun 2027 09:40:14.349             1.286           493.500
       124   05 Jun 2027 09:40:36.527   05 Jun 2027 09:40:39.485             2.958           451.719
       125   05 Jun 2027 09:41:36.592   05 Jun 2027 09:41:46.092             9.500          1712.437
       126   05 Jun 2027 11:13:03.636   05 Jun 2027 11:13:17.344            13.708          5637.094
       127   05 Jun 2027 11:13:46.580   05 Jun 2027 11:13:48.573             1.993           353.281
       128   05 Jun 2027 11:15:55.017   05 Jun 2027 11:15:59.684             4.667           566.344
       129   05 Jun 2027 11:16:31.716   05 Jun 2027 11:16:34.775             3.059           334.125
       130   05 Jun 2027 11:17:46.309   05 Jun 2027 11:17:47.189             0.880            82.937
       131   06 Jun 2027 03:23:58.121   06 Jun 2027 03:24:08.322            10.201          5100.500
       132   06 Jun 2027 03:24:11.206   06 Jun 2027 03:24:19.776             8.570          4285.000
       133   06 Jun 2027 05:00:20.167   06 Jun 2027 05:03:36.737           196.570         98285.000
       134   06 Jun 2027 06:32:37.007   06 Jun 2027 06:32:55.605            18.598          9299.000
       135   06 Jun 2027 06:34:24.173   06 Jun 2027 06:35:33.676            69.503         33780.688
       136   06 Jun 2027 06:36:09.904   06 Jun 2027 06:36:10.583             0.679           326.969
       137   06 Jun 2027 06:36:40.570   06 Jun 2027 06:36:41.141             0.571           243.375
       138   06 Jun 2027 06:36:55.532   06 Jun 2027 06:36:58.904             3.372           335.906
       139   06 Jun 2027 06:38:33.043   06 Jun 2027 06:38:37.805             4.762          2381.000
       140   06 Jun 2027 06:38:47.827   06 Jun 2027 06:38:47.827             0.000             0.000
       141   06 Jun 2027 06:38:57.067   06 Jun 2027 06:38:58.742             1.675           619.500
       142   06 Jun 2027 06:39:14.693   06 Jun 2027 06:39:17.082             2.389           208.688
       143   06 Jun 2027 06:39:57.446   06 Jun 2027 06:40:02.069             4.623          1137.531
       144   06 Jun 2027 06:40:34.992   06 Jun 2027 06:40:34.992             0.000             0.000
       145   06 Jun 2027 06:40:51.326   06 Jun 2027 06:40:55.702             4.376          1350.844
       146   06 Jun 2027 06:41:26.146   06 Jun 2027 06:41:31.810             5.664           586.375
       147   06 Jun 2027 06:42:19.825   06 Jun 2027 06:42:21.197             1.372           474.750
       148   06 Jun 2027 08:11:28.665   06 Jun 2027 08:11:32.287             3.622          1036.719
       149   06 Jun 2027 08:14:26.116   06 Jun 2027 08:14:27.573             1.457           571.562
       150   06 Jun 2027 08:14:38.864   06 Jun 2027 08:14:40.671             1.807            31.031
       151   06 Jun 2027 08:16:02.585   06 Jun 2027 08:16:05.024             2.439           566.031
       152   06 Jun 2027 08:16:48.918   06 Jun 2027 08:16:51.737             2.819           577.281
       153   06 Jun 2027 08:17:16.124   06 Jun 2027 08:17:19.336             3.212           762.094
       154   06 Jun 2027 09:48:24.805   06 Jun 2027 09:48:36.652            11.847          5913.656
       155   06 Jun 2027 09:49:18.259   06 Jun 2027 09:49:21.001             2.742           585.125
       156   06 Jun 2027 09:51:20.796   06 Jun 2027 09:51:26.211             5.415           346.625
       157   06 Jun 2027 09:51:56.187   06 Jun 2027 09:51:57.188             1.001           400.250
       158   06 Jun 2027 09:53:12.156   06 Jun 2027 09:53:16.342             4.186          1830.156
       159   06 Jun 2027 11:25:11.408   06 Jun 2027 11:25:22.911            11.503          5456.719
       160   06 Jun 2027 11:26:36.938   06 Jun 2027 11:26:46.376             9.438          1259.594
       161   06 Jun 2027 11:27:30.362   06 Jun 2027 11:27:33.728             3.366           602.687
       162   06 Jun 2027 11:27:58.645   06 Jun 2027 11:28:01.353             2.708           675.125
       163   06 Jun 2027 11:29:44.363   06 Jun 2027 11:29:45.881             1.518           682.062
       164   07 Jun 2027 03:36:01.603   07 Jun 2027 03:36:12.267            10.664          5332.000
       165   07 Jun 2027 03:38:42.700   07 Jun 2027 03:38:56.868            14.168          7084.000
       166   07 Jun 2027 05:12:30.721   07 Jun 2027 05:12:32.680             1.959           979.500
       167   07 Jun 2027 05:13:59.001   07 Jun 2027 05:15:04.139            65.138         32569.000
       168   07 Jun 2027 05:15:22.369   07 Jun 2027 05:15:55.610            33.241         16620.500
       169   07 Jun 2027 06:47:35.621   07 Jun 2027 06:50:41.048           185.427         92713.500
       170   07 Jun 2027 06:50:50.417   07 Jun 2027 06:50:50.417             0.000             0.000
       171   07 Jun 2027 06:51:15.042   07 Jun 2027 06:51:18.506             3.464          1066.812
       172   07 Jun 2027 06:51:29.191   07 Jun 2027 06:51:29.191             0.000             0.000
       173   07 Jun 2027 06:52:32.214   07 Jun 2027 06:52:36.973             4.759          2303.375
       174   07 Jun 2027 06:53:37.864   07 Jun 2027 06:53:49.231            11.367          1472.562
       175   07 Jun 2027 06:54:01.755   07 Jun 2027 06:54:02.373             0.618           258.125
       176   07 Jun 2027 08:23:57.412   07 Jun 2027 08:24:03.219             5.807          1798.844
       177   07 Jun 2027 08:25:49.753   07 Jun 2027 08:25:57.763             8.010          1693.000
       178   07 Jun 2027 08:27:02.248   07 Jun 2027 08:27:06.572             4.324          1045.187
       179   07 Jun 2027 08:27:47.561   07 Jun 2027 08:27:52.341             4.780           420.312
       180   07 Jun 2027 08:28:45.778   07 Jun 2027 08:28:50.804             5.026          1158.000
       181   07 Jun 2027 08:29:26.960   07 Jun 2027 08:29:28.764             1.804           610.062
       182   07 Jun 2027 10:01:27.905   07 Jun 2027 10:01:37.439             9.534          4496.906
       183   07 Jun 2027 10:03:52.324   07 Jun 2027 10:03:53.278             0.954           125.531
       184   07 Jun 2027 10:04:50.476   07 Jun 2027 10:04:59.969             9.493          1643.594
       185   07 Jun 2027 10:05:13.891   07 Jun 2027 10:05:14.895             1.004           427.906
       186   07 Jun 2027 10:05:52.030   07 Jun 2027 10:05:53.656             1.626           813.000
       187   07 Jun 2027 11:37:32.521   07 Jun 2027 11:37:44.307            11.786          5334.719
       188   07 Jun 2027 11:39:44.388   07 Jun 2027 11:39:46.967             2.579           655.250
       189   07 Jun 2027 11:40:57.213   07 Jun 2027 11:40:59.771             2.558           503.844
       190   07 Jun 2027 11:41:44.686   07 Jun 2027 11:41:46.331             1.645           625.250
       191   08 Jun 2027 03:47:57.629   08 Jun 2027 03:48:12.950            15.321          7660.500
       192   08 Jun 2027 03:50:12.019   08 Jun 2027 03:50:12.019             0.000             0.000
       193   08 Jun 2027 03:51:08.439   08 Jun 2027 03:51:10.687             2.248          1124.000
       194   08 Jun 2027 05:24:35.425   08 Jun 2027 05:27:29.664           174.239         87119.500
       195   08 Jun 2027 06:59:45.693   08 Jun 2027 07:01:39.886           114.193         56196.187
       196   08 Jun 2027 07:02:27.083   08 Jun 2027 07:02:28.703             1.620           498.656
       197   08 Jun 2027 07:02:44.088   08 Jun 2027 07:02:46.624             2.536           195.656
       198   08 Jun 2027 07:02:52.817   08 Jun 2027 07:02:53.858             1.041           127.594
       199   08 Jun 2027 07:04:53.830   08 Jun 2027 07:05:02.093             8.263          2983.688
       200   08 Jun 2027 07:05:28.624   08 Jun 2027 07:05:39.825            11.201           729.188
       201   08 Jun 2027 07:05:57.871   08 Jun 2027 07:05:59.683             1.812           563.938
       202   08 Jun 2027 08:36:00.800   08 Jun 2027 08:36:09.176             8.376          3834.156
       203   08 Jun 2027 08:38:37.883   08 Jun 2027 08:38:38.620             0.737           224.531
       204   08 Jun 2027 08:38:51.854   08 Jun 2027 08:38:54.667             2.813           339.781
       205   08 Jun 2027 08:39:30.735   08 Jun 2027 08:39:31.833             1.098           311.063
       206   08 Jun 2027 08:40:37.734   08 Jun 2027 08:40:42.505             4.771           741.125
       207   08 Jun 2027 08:41:38.319   08 Jun 2027 08:41:41.601             3.282          1426.656
       208   08 Jun 2027 10:13:33.458   08 Jun 2027 10:13:47.495            14.037          5631.688
       209   08 Jun 2027 10:14:13.524   08 Jun 2027 10:14:19.994             6.470           568.750
       210   08 Jun 2027 10:15:58.731   08 Jun 2027 10:16:02.457             3.726           388.469
       211   08 Jun 2027 10:16:31.956   08 Jun 2027 10:16:33.494             1.538           275.375
       212   08 Jun 2027 10:17:25.425   08 Jun 2027 10:17:27.095             1.670           723.594
       213   08 Jun 2027 10:17:42.507   08 Jun 2027 10:17:43.165             0.658           298.219
       214   08 Jun 2027 10:18:00.967   08 Jun 2027 10:18:02.847             1.880           408.625
       215   08 Jun 2027 11:49:34.780   08 Jun 2027 11:49:45.429            10.649          5275.781
       216   08 Jun 2027 11:51:30.111   08 Jun 2027 11:51:32.096             1.985           497.906
       217   08 Jun 2027 11:53:42.472   08 Jun 2027 11:53:44.163             1.691           489.594
       218   09 Jun 2027 04:00:33.482   09 Jun 2027 04:00:48.937            15.455          7727.500
       219   09 Jun 2027 04:01:36.082   09 Jun 2027 04:01:36.082             0.000             0.000
       220   09 Jun 2027 04:03:11.885   09 Jun 2027 04:03:17.432             5.547          2773.500
       221   09 Jun 2027 05:36:19.051   09 Jun 2027 05:38:49.430           150.379         75189.500
       222   09 Jun 2027 05:39:46.913   09 Jun 2027 05:39:55.823             8.910          4455.000
       223   09 Jun 2027 05:40:22.956   09 Jun 2027 05:40:32.961            10.005          5002.500
       224   09 Jun 2027 07:11:10.264   09 Jun 2027 07:13:12.138           121.874         60374.281
       225   09 Jun 2027 07:13:46.520   09 Jun 2027 07:13:53.675             7.155           798.250
       226   09 Jun 2027 07:14:01.070   09 Jun 2027 07:14:06.594             5.524            63.969
       227   09 Jun 2027 07:14:24.054   09 Jun 2027 07:14:24.054             0.000             0.000
       228   09 Jun 2027 07:14:47.416   09 Jun 2027 07:14:49.382             1.966           767.813
       229   09 Jun 2027 07:15:11.401   09 Jun 2027 07:15:13.918             2.517           512.750
       230   09 Jun 2027 07:16:31.809   09 Jun 2027 07:16:39.272             7.463          2223.156
       231   09 Jun 2027 07:17:37.792   09 Jun 2027 07:17:44.808             7.016          1280.500
       232   09 Jun 2027 08:47:45.940   09 Jun 2027 08:47:57.663            11.723          3876.219
       233   09 Jun 2027 08:51:10.533   09 Jun 2027 08:51:14.041             3.508          1211.281
       234   09 Jun 2027 08:52:05.219   09 Jun 2027 08:52:07.507             2.288          1041.875
       235   09 Jun 2027 08:52:14.406   09 Jun 2027 08:52:18.430             4.024           215.594
       236   09 Jun 2027 08:52:54.467   09 Jun 2027 08:52:56.802             2.335          1126.156
       237   09 Jun 2027 08:54:04.449   09 Jun 2027 08:54:09.761             5.312          2105.625
       238   09 Jun 2027 10:26:03.561   09 Jun 2027 10:26:15.983            12.422          5997.562
       239   09 Jun 2027 10:26:38.830   09 Jun 2027 10:26:44.180             5.350           354.906
       240   09 Jun 2027 10:27:52.502   09 Jun 2027 10:27:58.172             5.670          1677.406
       241   09 Jun 2027 10:28:04.560   09 Jun 2027 10:28:07.874             3.314           177.094
       242   09 Jun 2027 10:28:28.677   09 Jun 2027 10:28:30.403             1.726           274.312
       243   09 Jun 2027 10:28:46.209   09 Jun 2027 10:28:47.749             1.540            63.875
       244   09 Jun 2027 10:29:26.189   09 Jun 2027 10:29:28.738             2.549           270.531
       245   09 Jun 2027 10:29:45.032   09 Jun 2027 10:29:46.959             1.927           509.187
       246   09 Jun 2027 10:29:50.671   09 Jun 2027 10:29:52.755             2.084            32.188
       247   09 Jun 2027 11:59:24.314   09 Jun 2027 11:59:32.531             8.217          4108.500
       248   10 Jun 2027 04:11:12.230   10 Jun 2027 04:11:40.702            28.472         14236.000
       249   10 Jun 2027 04:13:17.200   10 Jun 2027 04:13:23.287             6.087          3043.500
       250   10 Jun 2027 04:14:03.676   10 Jun 2027 04:14:18.367            14.691          7345.500
       251   10 Jun 2027 04:14:34.544   10 Jun 2027 04:14:34.544             0.000             0.000
       252   10 Jun 2027 05:46:32.053   10 Jun 2027 05:47:31.073            59.020         29510.000
       253   10 Jun 2027 05:48:04.087   10 Jun 2027 05:48:34.390            30.303         15151.500
       254   10 Jun 2027 05:48:54.847   10 Jun 2027 05:49:11.053            16.206          8103.000
       255   10 Jun 2027 05:49:31.290   10 Jun 2027 05:49:45.389            14.099          7049.500
       256   10 Jun 2027 05:52:27.382   10 Jun 2027 05:52:50.395            23.013         11506.500
       257   10 Jun 2027 07:23:02.443   10 Jun 2027 07:25:19.813           137.370         67150.781
       258   10 Jun 2027 07:26:02.486   10 Jun 2027 07:26:05.527             3.041            42.938
       259   10 Jun 2027 07:26:16.669   10 Jun 2027 07:26:20.003             3.334           348.188
       260   10 Jun 2027 07:27:25.523   10 Jun 2027 07:27:27.340             1.817           894.281
       261   10 Jun 2027 07:28:59.658   10 Jun 2027 07:29:01.623             1.965           906.812
       262   10 Jun 2027 07:29:33.337   10 Jun 2027 07:29:35.563             2.226           991.063
       263   10 Jun 2027 09:00:07.028   10 Jun 2027 09:00:16.781             9.753          4681.250
       264   10 Jun 2027 09:01:27.522   10 Jun 2027 09:01:32.964             5.442           335.906
       265   10 Jun 2027 09:03:46.769   10 Jun 2027 09:03:48.159             1.390           438.500
       266   10 Jun 2027 09:04:12.826   10 Jun 2027 09:04:14.406             1.580            28.594
       267   10 Jun 2027 09:04:47.089   10 Jun 2027 09:04:48.746             1.657           775.875
       268   10 Jun 2027 09:05:50.917   10 Jun 2027 09:05:57.246             6.329          1698.563
       269   10 Jun 2027 10:38:01.269   10 Jun 2027 10:38:15.271            14.002          6481.406
       270   10 Jun 2027 10:39:58.114   10 Jun 2027 10:40:04.717             6.603          2570.906
       271   10 Jun 2027 10:41:12.540   10 Jun 2027 10:41:15.241             2.701          1286.094
       272   10 Jun 2027 10:41:59.376   10 Jun 2027 10:42:00.937             1.561           780.500
       273   11 Jun 2027 03:00:32.467   11 Jun 2027 03:00:57.973            25.506         12753.000
       274   11 Jun 2027 03:01:30.104   11 Jun 2027 03:01:33.274             3.170          1585.000
       275   11 Jun 2027 04:22:48.040   11 Jun 2027 04:23:41.482            53.442         26721.000
       276   11 Jun 2027 04:24:43.450   11 Jun 2027 04:25:10.955            27.505         13752.500
       277   11 Jun 2027 04:26:48.986   11 Jun 2027 04:26:48.986             0.000             0.000
       278   11 Jun 2027 04:26:59.156   11 Jun 2027 04:27:11.549            12.393          6196.500
       279   11 Jun 2027 05:57:41.763   11 Jun 2027 05:59:44.456           122.693         61346.500
       280   11 Jun 2027 06:00:47.070   11 Jun 2027 06:00:54.646             7.576          3788.000
       281   11 Jun 2027 06:01:03.604   11 Jun 2027 06:01:05.174             1.570           785.000
       282   11 Jun 2027 06:02:48.591   11 Jun 2027 06:02:53.192             4.601          2300.500
       283   11 Jun 2027 06:03:41.639   11 Jun 2027 06:04:07.833            26.194         13097.000
       284   11 Jun 2027 06:05:43.476   11 Jun 2027 06:06:11.162            27.686         13843.000
       285   11 Jun 2027 07:35:15.507   11 Jun 2027 07:35:36.721            21.214          8958.156
       286   11 Jun 2027 07:37:00.231   11 Jun 2027 07:37:04.693             4.462           618.562
       287   11 Jun 2027 07:37:58.043   11 Jun 2027 07:37:59.800             1.757           563.938
       288   11 Jun 2027 07:38:30.293   11 Jun 2027 07:38:34.366             4.073           908.031
       289   11 Jun 2027 07:39:37.551   11 Jun 2027 07:39:44.545             6.994          1129.625
       290   11 Jun 2027 07:39:54.145   11 Jun 2027 07:39:55.021             0.876           272.625
       291   11 Jun 2027 07:40:45.490   11 Jun 2027 07:40:45.490             0.000             0.000
       292   11 Jun 2027 07:41:02.345   11 Jun 2027 07:41:04.786             2.441          1052.531
       293   11 Jun 2027 09:11:58.044   11 Jun 2027 09:12:09.178            11.134          5217.062
       294   11 Jun 2027 09:14:21.747   11 Jun 2027 09:14:24.528             2.781          1189.750
       295   11 Jun 2027 09:15:05.840   11 Jun 2027 09:15:10.548             4.708           214.063
       296   11 Jun 2027 09:15:37.503   11 Jun 2027 09:15:40.884             3.381           723.531
       297   11 Jun 2027 09:15:53.631   11 Jun 2027 09:15:57.173             3.542           120.344
       298   11 Jun 2027 09:16:25.234   11 Jun 2027 09:16:33.565             8.331           608.344
       299   11 Jun 2027 09:17:10.717   11 Jun 2027 09:17:13.274             2.557           357.312
       300   11 Jun 2027 09:18:17.826   11 Jun 2027 09:18:21.598             3.772          1216.625
       301   11 Jun 2027 10:50:01.163   11 Jun 2027 10:50:15.045            13.882          6702.469
       302   11 Jun 2027 10:50:51.141   11 Jun 2027 10:50:54.454             3.313           447.438
       303   11 Jun 2027 10:53:13.675   11 Jun 2027 10:53:16.262             2.587           378.250
       304   11 Jun 2027 10:53:32.424   11 Jun 2027 10:53:33.471             1.047           462.594
       305   11 Jun 2027 10:53:59.637   11 Jun 2027 10:54:00.350             0.713           156.031
       306   11 Jun 2027 10:54:00.654   11 Jun 2027 10:54:03.012             2.358             9.500
       307   12 Jun 2027 03:00:25.238   12 Jun 2027 03:00:36.604            11.366          5683.000
       308   12 Jun 2027 03:12:41.034   12 Jun 2027 03:13:07.573            26.539         13269.500
       309   12 Jun 2027 04:34:17.170   12 Jun 2027 04:35:40.287            83.117         41558.500
       310   12 Jun 2027 04:36:51.160   12 Jun 2027 04:36:51.160             0.000             0.000
       311   12 Jun 2027 04:38:35.176   12 Jun 2027 04:39:27.854            52.678         26339.000
       312   12 Jun 2027 04:39:34.074   12 Jun 2027 04:39:39.051             4.977          2488.500
       313   12 Jun 2027 06:09:12.472   12 Jun 2027 06:11:11.114           118.642         59321.000
       314   12 Jun 2027 06:11:49.863   12 Jun 2027 06:11:55.190             5.327          2663.500
       315   12 Jun 2027 06:12:32.942   12 Jun 2027 06:12:42.103             9.161          3090.437
       316   12 Jun 2027 06:13:12.965   12 Jun 2027 06:13:15.801             2.836           646.125
       317   12 Jun 2027 06:14:33.467   12 Jun 2027 06:14:33.467             0.000             0.000
       318   12 Jun 2027 06:14:50.414   12 Jun 2027 06:14:58.966             8.552          2661.500
       319   12 Jun 2027 06:15:48.875   12 Jun 2027 06:15:48.875             0.000             0.000
       320   12 Jun 2027 06:16:34.256   12 Jun 2027 06:16:44.212             9.956          2977.813
       321   12 Jun 2027 06:16:57.456   12 Jun 2027 06:16:57.456             0.000             0.000
       322   12 Jun 2027 06:16:58.528   12 Jun 2027 06:17:00.407             1.879           437.281
       323   12 Jun 2027 06:17:42.918   12 Jun 2027 06:17:45.207             2.289           655.437
       324   12 Jun 2027 06:18:07.187   12 Jun 2027 06:18:14.907             7.720           316.906
       325   12 Jun 2027 07:47:09.447   12 Jun 2027 07:47:12.239             2.792           945.594
       326   12 Jun 2027 07:47:43.065   12 Jun 2027 07:47:47.850             4.785           620.500
       327   12 Jun 2027 07:49:20.778   12 Jun 2027 07:49:22.532             1.754           192.469
       328   12 Jun 2027 07:50:01.758   12 Jun 2027 07:50:02.782             1.024           346.875
       329   12 Jun 2027 07:51:25.365   12 Jun 2027 07:51:27.105             1.740           576.781
       330   12 Jun 2027 07:51:43.787   12 Jun 2027 07:51:44.825             1.038           346.969
       331   12 Jun 2027 07:52:31.417   12 Jun 2027 07:52:32.150             0.733           178.562
       332   12 Jun 2027 09:24:03.802   12 Jun 2027 09:24:17.225            13.423          4671.625
       333   12 Jun 2027 09:26:28.664   12 Jun 2027 09:26:29.203             0.539           131.937
       334   12 Jun 2027 09:27:26.651   12 Jun 2027 09:27:30.603             3.952          1795.250
       335   12 Jun 2027 09:27:49.486   12 Jun 2027 09:27:51.183             1.697           590.094
       336   12 Jun 2027 09:28:29.294   12 Jun 2027 09:28:32.231             2.937            58.531
       337   12 Jun 2027 09:28:37.097   12 Jun 2027 09:28:37.363             0.266            59.656
       338   12 Jun 2027 09:29:47.757   12 Jun 2027 09:29:51.935             4.178          1405.844
       339   12 Jun 2027 11:01:47.502   12 Jun 2027 11:02:02.930            15.428          5575.437
       340   12 Jun 2027 11:03:54.296   12 Jun 2027 11:03:57.683             3.387          1691.531
       341   12 Jun 2027 11:04:58.780   12 Jun 2027 11:05:12.715            13.935           171.250
       342   13 Jun 2027 03:12:20.987   13 Jun 2027 03:12:35.807            14.820          7410.000
       343   13 Jun 2027 04:48:20.950   13 Jun 2027 04:51:07.290           166.340         83170.000
       344   13 Jun 2027 04:51:38.615   13 Jun 2027 04:51:38.615             0.000             0.000
       345   13 Jun 2027 04:52:01.204   13 Jun 2027 04:52:08.273             7.069          3534.500
       346   13 Jun 2027 06:22:05.959   13 Jun 2027 06:24:01.281           115.322         56121.531
       347   13 Jun 2027 06:24:37.467   13 Jun 2027 06:24:39.160             1.693           517.500
       348   13 Jun 2027 06:25:12.766   13 Jun 2027 06:25:15.924             3.158          1039.438
       349   13 Jun 2027 06:26:49.654   13 Jun 2027 06:26:53.194             3.540          1770.000
       350   13 Jun 2027 06:27:41.865   13 Jun 2027 06:27:47.803             5.938          2319.281
       351   13 Jun 2027 06:28:33.183   13 Jun 2027 06:28:37.192             4.009          1186.406
       352   13 Jun 2027 06:29:30.036   13 Jun 2027 06:29:37.740             7.704          1651.375
       353   13 Jun 2027 06:30:38.926   13 Jun 2027 06:30:39.920             0.994           221.906
       354   13 Jun 2027 07:59:30.322   13 Jun 2027 07:59:35.217             4.895           323.938
       355   13 Jun 2027 08:01:03.530   13 Jun 2027 08:01:08.762             5.232           337.250
       356   13 Jun 2027 08:01:42.390   13 Jun 2027 08:01:44.022             1.632           780.094
       357   13 Jun 2027 08:02:43.219   13 Jun 2027 08:02:44.603             1.384           163.938
       358   13 Jun 2027 08:03:11.087   13 Jun 2027 08:03:14.923             3.836           315.344
       359   13 Jun 2027 08:03:23.168   13 Jun 2027 08:03:23.930             0.762           235.406
       360   13 Jun 2027 08:05:10.662   13 Jun 2027 08:05:13.198             2.536           813.437
       361   13 Jun 2027 09:36:34.127   13 Jun 2027 09:36:48.540            14.413          5471.406
       362   13 Jun 2027 09:39:40.356   13 Jun 2027 09:39:44.417             4.061           226.219
       363   13 Jun 2027 09:40:15.278   13 Jun 2027 09:40:19.779             4.501           360.813
       364   13 Jun 2027 09:40:21.569   13 Jun 2027 09:40:22.929             1.360            19.094
       365   13 Jun 2027 09:40:57.945   13 Jun 2027 09:41:00.268             2.323           910.906
       366   13 Jun 2027 09:41:52.477   13 Jun 2027 09:42:01.014             8.537          1620.594
       367   13 Jun 2027 11:13:18.906   13 Jun 2027 11:13:30.824            11.918          4888.656
       368   13 Jun 2027 11:14:54.008   13 Jun 2027 11:14:56.806             2.798           307.687
       369   13 Jun 2027 11:16:11.834   13 Jun 2027 11:16:17.599             5.765           664.469
       370   13 Jun 2027 11:16:47.765   13 Jun 2027 11:16:48.766             1.001           348.656
       371   13 Jun 2027 11:18:04.825   13 Jun 2027 11:18:05.832             1.007           270.313
