uniorb/output/strategy_4/Camera/Camera_KinoSat_110202.txt

KinoSat_110202
-------------------------
    Access    *     Start Time (UTCG)     *     Stop Time (UTCG)  *   Duration (s) *   Data (Mbytes)
         1   01 Jun 2027 03:00:00.000   01 Jun 2027 03:00:13.544            13.544          6772.000
         2   01 Jun 2027 03:00:58.708   01 Jun 2027 03:01:14.388            15.680          7840.000
         3   01 Jun 2027 04:30:52.365   01 Jun 2027 04:33:23.479           151.114         75557.000
         4   01 Jun 2027 04:34:16.554   01 Jun 2027 04:34:17.115             0.561           280.500
         5   01 Jun 2027 04:34:23.372   01 Jun 2027 04:34:25.771             2.399          1199.500
         6   01 Jun 2027 04:35:26.008   01 Jun 2027 04:35:38.778            12.770          6385.000
         7   01 Jun 2027 04:36:04.842   01 Jun 2027 04:36:34.856            30.014         15007.000
         8   01 Jun 2027 06:08:25.908   01 Jun 2027 06:11:13.121           167.213         83606.500
         9   01 Jun 2027 06:12:28.728   01 Jun 2027 06:12:57.305            28.577         14288.500
        10   01 Jun 2027 07:44:27.213   01 Jun 2027 07:47:16.953           169.740         84870.000
        11   01 Jun 2027 07:48:19.588   01 Jun 2027 07:48:39.057            19.469          9734.500
        12   01 Jun 2027 07:48:43.178   01 Jun 2027 07:48:48.662             5.484          2742.000
        13   02 Jun 2027 03:06:02.329   02 Jun 2027 03:13:24.734           442.405        221202.500
        14   02 Jun 2027 04:42:38.183   02 Jun 2027 04:46:24.360           226.177        113088.500
        15   02 Jun 2027 06:20:55.869   02 Jun 2027 06:24:50.705           234.836        117418.000
        16   02 Jun 2027 07:54:24.141   02 Jun 2027 07:54:26.447             2.306          1153.000
        17   02 Jun 2027 07:56:15.721   02 Jun 2027 08:00:28.219           252.498        126249.000
        18   02 Jun 2027 08:00:58.892   02 Jun 2027 08:01:45.825            46.933         23466.500
        19   03 Jun 2027 03:17:55.228   03 Jun 2027 03:25:25.109           449.881        224940.500
        20   03 Jun 2027 04:54:59.271   03 Jun 2027 05:00:49.945           350.674        175337.000
        21   03 Jun 2027 05:00:52.234   03 Jun 2027 05:01:10.211            17.977          8988.500
        22   03 Jun 2027 06:32:53.551   03 Jun 2027 06:36:53.226           239.675        119837.500
        23   03 Jun 2027 08:06:06.052   03 Jun 2027 08:12:27.418           381.366        190683.000
        24   03 Jun 2027 08:12:46.273   03 Jun 2027 08:13:57.789            71.516         35758.000
        25   04 Jun 2027 03:30:07.678   04 Jun 2027 03:37:28.596           440.918        220459.000
        26   04 Jun 2027 05:06:50.365   04 Jun 2027 05:13:03.594           373.229        186614.500
        27   04 Jun 2027 05:13:12.318   04 Jun 2027 05:13:28.261            15.943          7971.500
        28   04 Jun 2027 06:44:53.391   04 Jun 2027 06:49:02.920           249.529        124764.500
        29   04 Jun 2027 08:18:31.120   04 Jun 2027 08:25:54.144           443.024        221512.000
        30   05 Jun 2027 03:42:01.619   05 Jun 2027 03:49:30.007           448.388        224194.000
        31   05 Jun 2027 05:18:56.257   05 Jun 2027 05:24:17.481           321.224        160612.000
        32   05 Jun 2027 05:25:01.527   05 Jun 2027 05:25:27.680            26.153         13076.500
        33   05 Jun 2027 06:56:42.304   05 Jun 2027 07:01:01.432           259.128        129564.000
        34   05 Jun 2027 08:30:54.263   05 Jun 2027 08:31:54.413            60.150         30075.000
        35   05 Jun 2027 08:32:41.183   05 Jun 2027 08:36:14.105           212.922        106461.000
        36   06 Jun 2027 03:54:22.653   06 Jun 2027 04:01:23.446           420.793        210396.500
        37   06 Jun 2027 05:31:26.291   06 Jun 2027 05:35:55.581           269.290        134645.000
        38   06 Jun 2027 05:36:28.003   06 Jun 2027 05:37:16.611            48.608         24304.000
        39   06 Jun 2027 07:08:47.161   06 Jun 2027 07:12:59.535           252.374        126187.000
        40   06 Jun 2027 08:43:32.482   06 Jun 2027 08:43:35.518             3.036          1518.000
        41   06 Jun 2027 08:45:08.841   06 Jun 2027 08:47:59.018           170.177         85088.500
        42   07 Jun 2027 04:06:36.054   07 Jun 2027 04:13:18.636           402.582        201291.000
        43   07 Jun 2027 05:43:31.939   07 Jun 2027 05:48:32.537           300.598        150299.000
        44   07 Jun 2027 07:20:18.387   07 Jun 2027 07:25:00.973           282.586        141293.000
        45   07 Jun 2027 08:58:30.925   07 Jun 2027 08:59:28.177            57.252         28626.000
        46   08 Jun 2027 04:19:05.448   08 Jun 2027 04:25:25.163           379.715        189857.500
        47   08 Jun 2027 05:56:34.623   08 Jun 2027 06:01:01.581           266.958        133479.000
        48   08 Jun 2027 07:32:45.677   08 Jun 2027 07:36:54.396           248.719        124359.500
        49   09 Jun 2027 03:00:00.000   09 Jun 2027 03:01:29.191            89.191         44595.500
        50   09 Jun 2027 04:31:06.408   09 Jun 2027 04:36:43.890           337.482        168741.000
        51   09 Jun 2027 04:36:48.391   09 Jun 2027 04:36:57.785             9.394          4697.000
        52   09 Jun 2027 04:37:06.614   09 Jun 2027 04:37:14.393             7.779          3889.500
        53   09 Jun 2027 06:08:40.822   09 Jun 2027 06:13:11.945           271.123        135561.500
        54   09 Jun 2027 07:45:04.993   09 Jun 2027 07:48:53.755           228.762        114381.000
        55   09 Jun 2027 07:48:57.756   09 Jun 2027 07:49:42.667            44.911         22455.500
        56   10 Jun 2027 03:06:16.885   10 Jun 2027 03:13:39.615           442.730        221365.000
        57   10 Jun 2027 04:42:52.978   10 Jun 2027 04:49:16.850           383.872        191936.000
        58   10 Jun 2027 06:21:13.269   10 Jun 2027 06:25:05.538           232.269        116134.500
        59   10 Jun 2027 07:54:30.886   10 Jun 2027 07:54:42.617            11.731          5865.500
        60   10 Jun 2027 07:56:30.503   10 Jun 2027 08:00:43.400           252.897        126448.500
        61   10 Jun 2027 08:01:16.763   10 Jun 2027 08:02:00.778            44.015         22007.500
        62   11 Jun 2027 03:18:10.627   11 Jun 2027 03:25:39.998           449.371        224685.500
        63   11 Jun 2027 04:55:14.107   11 Jun 2027 05:01:04.886           350.779        175389.500
        64   11 Jun 2027 05:01:07.878   11 Jun 2027 05:01:24.573            16.695          8347.500
        65   11 Jun 2027 06:33:08.381   11 Jun 2027 06:37:08.037           239.656        119828.000
        66   11 Jun 2027 08:06:21.243   11 Jun 2027 08:12:42.721           381.478        190739.000
        67   11 Jun 2027 08:13:00.703   11 Jun 2027 08:14:12.424            71.721         35860.500
        68   12 Jun 2027 03:30:22.312   12 Jun 2027 03:37:43.507           441.195        220597.500
        69   12 Jun 2027 05:07:05.146   12 Jun 2027 05:13:18.311           373.165        186582.500
        70   12 Jun 2027 05:13:22.496   12 Jun 2027 05:13:43.105            20.609         10304.500
        71   12 Jun 2027 06:45:08.215   12 Jun 2027 06:49:17.710           249.495        124747.500
        72   12 Jun 2027 08:18:49.184   12 Jun 2027 08:26:08.909           439.725        219862.500
        73   13 Jun 2027 03:42:16.402   13 Jun 2027 03:49:44.911           448.509        224254.500
        74   13 Jun 2027 05:19:11.489   13 Jun 2027 05:24:31.493           320.004        160002.000
        75   13 Jun 2027 05:24:53.983   13 Jun 2027 05:25:42.243            48.260         24130.000
        76   13 Jun 2027 06:57:00.106   13 Jun 2027 07:01:16.193           256.087        128043.500
        77   13 Jun 2027 08:31:09.504   13 Jun 2027 08:32:22.816            73.312         36656.000
        78   13 Jun 2027 08:32:55.791   13 Jun 2027 08:36:28.470           212.679        106339.500
