uniorb/output/strategy_4/Camera/Camera_KinoSat_111007.txt

KinoSat_111007
-------------------------
    Access    *     Start Time (UTCG)     *     Stop Time (UTCG)  *   Duration (s) *   Data (Mbytes)
         1   01 Jun 2027 03:08:36.485   01 Jun 2027 03:09:22.741            46.256         23128.000
         2   01 Jun 2027 03:20:16.843   01 Jun 2027 03:21:42.338            85.495         42747.500
         3   01 Jun 2027 04:42:33.129   01 Jun 2027 04:43:09.770            36.641         18320.500
         4   01 Jun 2027 04:43:24.691   01 Jun 2027 04:43:29.503             4.812          2406.000
         5   01 Jun 2027 04:46:59.583   01 Jun 2027 04:47:06.286             6.703          3351.500
         6   01 Jun 2027 06:17:46.141   01 Jun 2027 06:18:33.198            47.057         23528.500
         7   01 Jun 2027 06:19:41.445   01 Jun 2027 06:20:44.539            63.094         31547.000
         8   01 Jun 2027 06:21:18.826   01 Jun 2027 06:21:18.826             0.000             0.000
         9   01 Jun 2027 06:22:36.700   01 Jun 2027 06:22:37.101             0.401           200.500
        10   01 Jun 2027 06:23:58.587   01 Jun 2027 06:24:17.249            18.662          9331.000
        11   01 Jun 2027 07:54:49.864   01 Jun 2027 07:56:53.852           123.988         61994.000
        12   01 Jun 2027 07:57:50.428   01 Jun 2027 07:57:51.624             1.196           598.000
        13   01 Jun 2027 07:58:00.238   01 Jun 2027 07:58:00.238             0.000             0.000
        14   01 Jun 2027 07:58:04.778   01 Jun 2027 07:58:22.954            18.176          9088.000
        15   01 Jun 2027 08:01:58.432   01 Jun 2027 08:02:09.963            11.531          5765.500
        16   01 Jun 2027 09:31:47.811   01 Jun 2027 09:34:11.450           143.639         71819.500
        17   01 Jun 2027 09:34:18.042   01 Jun 2027 09:35:07.209            49.167         24583.500
        18   01 Jun 2027 09:36:10.707   01 Jun 2027 09:36:16.333             5.626          2813.000
        19   01 Jun 2027 09:36:47.259   01 Jun 2027 09:37:07.766            20.507         10253.500
        20   01 Jun 2027 11:09:44.334   01 Jun 2027 11:12:19.149           154.815         77407.500
        21   02 Jun 2027 03:19:58.247   02 Jun 2027 03:20:41.743            43.496         21748.000
        22   02 Jun 2027 03:32:14.226   02 Jun 2027 03:33:09.598            55.372         27686.000
        23   02 Jun 2027 04:54:13.037   02 Jun 2027 04:55:34.431            81.394         40697.000
        24   02 Jun 2027 04:57:34.882   02 Jun 2027 04:57:50.572            15.690          7845.000
        25   02 Jun 2027 04:58:40.802   02 Jun 2027 04:58:45.827             5.025          2512.500
        26   02 Jun 2027 04:58:51.237   02 Jun 2027 04:59:00.355             9.118          4559.000
        27   02 Jun 2027 04:59:19.741   02 Jun 2027 04:59:22.677             2.936          1468.000
        28   02 Jun 2027 06:29:13.217   02 Jun 2027 06:32:41.319           208.102        104051.000
        29   02 Jun 2027 06:34:36.912   02 Jun 2027 06:34:36.912             0.000             0.000
        30   02 Jun 2027 06:34:51.662   02 Jun 2027 06:35:03.665            12.003          6001.500
        31   02 Jun 2027 06:35:48.886   02 Jun 2027 06:35:51.616             2.730          1365.000
        32   02 Jun 2027 08:06:51.834   02 Jun 2027 08:10:25.905           214.071        107035.500
        33   02 Jun 2027 08:12:59.401   02 Jun 2027 08:13:10.532            11.131          5565.500
        34   02 Jun 2027 08:14:00.058   02 Jun 2027 08:14:18.295            18.237          9118.500
        35   02 Jun 2027 09:43:38.162   02 Jun 2027 09:44:08.936            30.774         14727.626
        36   02 Jun 2027 09:44:44.038   02 Jun 2027 09:44:45.957             1.919           454.000
        37   02 Jun 2027 09:46:16.863   02 Jun 2027 09:46:23.456             6.593          2317.250
        38   02 Jun 2027 09:47:14.615   02 Jun 2027 09:47:19.037             4.422          1099.375
        39   02 Jun 2027 09:47:50.451   02 Jun 2027 09:47:52.926             2.475           905.156
        40   02 Jun 2027 09:48:18.950   02 Jun 2027 09:48:21.627             2.677           790.188
        41   02 Jun 2027 09:48:26.073   02 Jun 2027 09:48:27.348             1.275           127.250
        42   02 Jun 2027 09:48:30.938   02 Jun 2027 09:48:32.173             1.235            48.094
        43   02 Jun 2027 09:48:47.533   02 Jun 2027 09:48:51.567             4.034           140.781
        44   02 Jun 2027 09:49:10.320   02 Jun 2027 09:49:12.147             1.827           586.031
        45   02 Jun 2027 09:49:54.157   02 Jun 2027 09:49:55.904             1.747           798.219
        46   02 Jun 2027 09:50:18.554   02 Jun 2027 09:50:20.932             2.378           637.156
        47   02 Jun 2027 11:21:43.454   02 Jun 2027 11:22:01.449            17.995          8342.156
        48   02 Jun 2027 11:22:29.247   02 Jun 2027 11:22:32.112             2.865           143.750
        49   02 Jun 2027 11:24:07.049   02 Jun 2027 11:24:09.021             1.972           619.656
        50   02 Jun 2027 11:25:01.330   02 Jun 2027 11:25:02.011             0.681           324.844
        51   02 Jun 2027 11:25:27.665   02 Jun 2027 11:25:34.239             6.574           647.750
        52   02 Jun 2027 11:25:47.192   02 Jun 2027 11:25:48.673             1.481           311.031
        53   03 Jun 2027 03:32:05.594   03 Jun 2027 03:32:16.866            11.272          5636.000
        54   03 Jun 2027 03:33:01.738   03 Jun 2027 03:33:11.812            10.074          5037.000
        55   03 Jun 2027 03:44:37.928   03 Jun 2027 03:44:41.201             3.273          1636.500
        56   03 Jun 2027 05:05:54.693   03 Jun 2027 05:08:46.733           172.040         86020.000
        57   03 Jun 2027 05:08:54.756   03 Jun 2027 05:09:02.787             8.031          4015.500
        58   03 Jun 2027 05:10:06.087   03 Jun 2027 05:10:21.600            15.513          7756.500
        59   03 Jun 2027 05:10:29.334   03 Jun 2027 05:10:36.584             7.250          3625.000
        60   03 Jun 2027 05:10:43.170   03 Jun 2027 05:10:46.961             3.791          1895.500
        61   03 Jun 2027 05:11:12.555   03 Jun 2027 05:11:21.298             8.743          4371.500
        62   03 Jun 2027 06:40:46.809   03 Jun 2027 06:42:11.004            84.195         41355.937
        63   03 Jun 2027 06:42:49.498   03 Jun 2027 06:42:52.122             2.624          1202.938
        64   03 Jun 2027 06:43:30.864   03 Jun 2027 06:43:33.141             2.277           800.813
        65   03 Jun 2027 06:44:14.103   03 Jun 2027 06:44:18.688             4.585          1180.156
        66   03 Jun 2027 06:44:36.871   03 Jun 2027 06:44:38.345             1.474           533.250
        67   03 Jun 2027 06:44:54.446   03 Jun 2027 06:44:58.183             3.737           502.156
        68   03 Jun 2027 06:45:58.345   03 Jun 2027 06:46:02.289             3.944          1599.719
        69   03 Jun 2027 06:47:35.026   03 Jun 2027 06:47:39.077             4.051          2025.500
        70   03 Jun 2027 06:48:15.297   03 Jun 2027 06:48:19.028             3.731          1271.687
        71   03 Jun 2027 06:48:38.306   03 Jun 2027 06:48:38.306             0.000             0.000
        72   03 Jun 2027 06:48:49.977   03 Jun 2027 06:48:52.999             3.022           874.750
        73   03 Jun 2027 08:18:53.027   03 Jun 2027 08:18:58.152             5.125          2156.031
        74   03 Jun 2027 08:23:18.818   03 Jun 2027 08:23:22.022             3.204           759.813
        75   03 Jun 2027 08:24:44.307   03 Jun 2027 08:24:47.199             2.892          1377.219
        76   03 Jun 2027 08:25:42.238   03 Jun 2027 08:25:49.802             7.564          1719.969
        77   03 Jun 2027 08:25:59.752   03 Jun 2027 08:26:00.253             0.501           210.937
        78   03 Jun 2027 09:55:47.942   03 Jun 2027 09:55:56.410             8.468          4199.719
        79   03 Jun 2027 09:59:59.349   03 Jun 2027 10:00:03.346             3.997           845.687
        80   03 Jun 2027 10:00:18.589   03 Jun 2027 10:00:19.764             1.175           283.531
        81   03 Jun 2027 10:00:31.303   03 Jun 2027 10:00:34.034             2.731           329.406
        82   03 Jun 2027 10:00:38.148   03 Jun 2027 10:00:38.962             0.814            37.563
        83   03 Jun 2027 10:01:42.713   03 Jun 2027 10:01:48.610             5.897          1413.563
        84   03 Jun 2027 11:32:56.061   03 Jun 2027 11:33:07.515            11.454          5154.094
        85   03 Jun 2027 11:35:29.403   03 Jun 2027 11:35:34.239             4.836          1332.719
        86   03 Jun 2027 11:36:44.315   03 Jun 2027 11:36:46.539             2.224           205.094
        87   03 Jun 2027 11:37:26.630   03 Jun 2027 11:37:29.764             3.134            33.750
        88   03 Jun 2027 11:37:37.830   03 Jun 2027 11:37:39.398             1.568           252.062
        89   04 Jun 2027 03:44:01.384   04 Jun 2027 03:44:17.713            16.329          8164.500
        90   04 Jun 2027 05:20:14.991   04 Jun 2027 05:23:47.564           212.573        106286.500
        91   04 Jun 2027 06:53:47.754   04 Jun 2027 06:55:03.524            75.770         37339.781
        92   04 Jun 2027 06:56:09.039   04 Jun 2027 06:56:09.489             0.450           212.625
        93   04 Jun 2027 06:56:30.876   04 Jun 2027 06:56:35.233             4.357           497.750
        94   04 Jun 2027 06:57:06.725   04 Jun 2027 06:57:08.508             1.783           815.062
        95   04 Jun 2027 06:58:35.611   04 Jun 2027 06:58:41.986             6.375          2293.219
        96   04 Jun 2027 06:59:11.997   04 Jun 2027 06:59:12.989             0.992           453.063
        97   04 Jun 2027 06:59:33.436   04 Jun 2027 06:59:35.531             2.095           542.437
        98   04 Jun 2027 07:00:03.288   04 Jun 2027 07:00:04.159             0.871           170.281
        99   04 Jun 2027 07:00:53.276   04 Jun 2027 07:00:53.276             0.000             0.000
       100   04 Jun 2027 07:01:25.532   04 Jun 2027 07:01:29.380             3.848          1438.094
       101   04 Jun 2027 07:02:18.989   04 Jun 2027 07:02:20.004             1.015           492.594
       102   04 Jun 2027 08:31:20.180   04 Jun 2027 08:31:29.520             9.340          3159.125
       103   04 Jun 2027 08:36:41.453   04 Jun 2027 08:36:45.543             4.090           944.562
       104   04 Jun 2027 08:37:28.540   04 Jun 2027 08:37:33.417             4.877          1047.531
       105   04 Jun 2027 10:08:15.487   04 Jun 2027 10:08:28.447            12.960          6480.000
       106   04 Jun 2027 10:08:36.610   04 Jun 2027 10:08:41.113             4.503           556.281
       107   04 Jun 2027 10:11:39.278   04 Jun 2027 10:11:40.643             1.365           666.750
       108   04 Jun 2027 10:11:56.808   04 Jun 2027 10:11:56.957             0.149            32.031
       109   04 Jun 2027 10:12:09.877   04 Jun 2027 10:12:11.524             1.647           185.313
       110   04 Jun 2027 10:12:49.519   04 Jun 2027 10:12:52.151             2.632           847.594
       111   04 Jun 2027 10:13:47.228   04 Jun 2027 10:13:51.678             4.450          1495.719
       112   04 Jun 2027 11:45:09.603   04 Jun 2027 11:45:20.881            11.278          4336.844
       113   04 Jun 2027 11:47:20.562   04 Jun 2027 11:47:25.623             5.061          1233.719
       114   04 Jun 2027 11:48:08.074   04 Jun 2027 11:48:11.921             3.847          1026.625
       115   05 Jun 2027 03:55:52.533   05 Jun 2027 03:56:43.783            51.250         25625.000
       116   05 Jun 2027 05:32:19.706   05 Jun 2027 05:35:00.628           160.922         80461.000
       117   05 Jun 2027 07:04:27.402   05 Jun 2027 07:04:38.431            11.029          5514.500
       118   05 Jun 2027 07:06:26.489   05 Jun 2027 07:08:07.405           100.916         49002.656
       119   05 Jun 2027 07:08:38.693   05 Jun 2027 07:08:41.402             2.709           605.281
       120   05 Jun 2027 07:09:28.434   05 Jun 2027 07:09:30.452             2.018           852.937
       121   05 Jun 2027 07:09:55.363   05 Jun 2027 07:09:56.637             1.274           180.063
       122   05 Jun 2027 07:11:54.771   05 Jun 2027 07:12:02.615             7.844          3133.594
       123   05 Jun 2027 07:12:56.537   05 Jun 2027 07:12:56.537             0.000             0.000
       124   05 Jun 2027 07:13:12.978   05 Jun 2027 07:13:14.552             1.574           787.000
       125   05 Jun 2027 07:13:22.053   05 Jun 2027 07:13:23.245             1.192           466.594
       126   05 Jun 2027 07:13:50.789   05 Jun 2027 07:13:53.569             2.780           753.281
       127   05 Jun 2027 08:43:25.010   05 Jun 2027 08:43:33.336             8.326          4159.844
       128   05 Jun 2027 08:45:41.441   05 Jun 2027 08:45:43.907             2.466           104.312
       129   05 Jun 2027 08:47:28.486   05 Jun 2027 08:47:30.565             2.079           674.562
       130   05 Jun 2027 08:48:22.152   05 Jun 2027 08:48:27.794             5.642           761.344
       131   05 Jun 2027 08:49:17.263   05 Jun 2027 08:49:20.691             3.428          1253.031
       132   05 Jun 2027 08:49:53.807   05 Jun 2027 08:49:58.421             4.614           170.219
       133   05 Jun 2027 10:20:53.089   05 Jun 2027 10:21:05.139            12.050          5632.219
       134   05 Jun 2027 10:23:47.325   05 Jun 2027 10:23:48.571             1.246           320.406
       135   05 Jun 2027 10:24:41.098   05 Jun 2027 10:24:44.772             3.674           694.031
       136   05 Jun 2027 11:57:12.981   05 Jun 2027 11:57:28.998            16.017          7813.000
       137   05 Jun 2027 11:59:29.432   05 Jun 2027 11:59:31.997             2.565          1177.500
       138   06 Jun 2027 04:08:00.703   06 Jun 2027 04:08:48.730            48.027         24013.500
       139   06 Jun 2027 05:44:29.490   06 Jun 2027 05:46:49.016           139.526         69763.000
       140   06 Jun 2027 05:47:12.301   06 Jun 2027 05:47:26.439            14.138          7069.000
       141   06 Jun 2027 07:19:40.479   06 Jun 2027 07:21:40.608           120.129         59904.344
       142   06 Jun 2027 07:22:40.264   06 Jun 2027 07:22:44.681             4.417           282.437
       143   06 Jun 2027 07:23:13.931   06 Jun 2027 07:23:14.804             0.873           349.781
       144   06 Jun 2027 07:24:40.685   06 Jun 2027 07:24:48.517             7.832          2235.844
       145   06 Jun 2027 07:25:44.908   06 Jun 2027 07:25:48.307             3.399          1411.938
       146   06 Jun 2027 07:25:54.296   06 Jun 2027 07:25:57.271             2.975            34.281
       147   06 Jun 2027 07:26:09.175   06 Jun 2027 07:26:12.670             3.495           372.000
       148   06 Jun 2027 08:55:59.472   06 Jun 2027 08:56:09.103             9.631          4551.031
       149   06 Jun 2027 08:57:50.075   06 Jun 2027 08:57:56.166             6.091            85.281
       150   06 Jun 2027 08:58:50.822   06 Jun 2027 08:58:54.829             4.007            72.062
       151   06 Jun 2027 08:59:29.023   06 Jun 2027 08:59:31.988             2.965           314.875
       152   06 Jun 2027 09:01:09.460   06 Jun 2027 09:01:18.224             8.764          2462.875
       153   06 Jun 2027 09:01:44.701   06 Jun 2027 09:01:46.645             1.944           770.656
       154   06 Jun 2027 10:33:22.821   06 Jun 2027 10:33:36.695            13.874          5644.563
       155   06 Jun 2027 10:35:59.928   06 Jun 2027 10:36:01.661             1.733           168.469
       156   06 Jun 2027 10:36:27.216   06 Jun 2027 10:36:27.754             0.538            36.156
       157   06 Jun 2027 10:36:50.620   06 Jun 2027 10:36:50.988             0.368           126.281
       158   06 Jun 2027 10:37:39.097   06 Jun 2027 10:37:39.927             0.830           358.625
       159   06 Jun 2027 10:37:54.917   06 Jun 2027 10:37:55.026             0.109             3.406
       160   07 Jun 2027 03:00:00.000   07 Jun 2027 03:00:06.822             6.822          3411.000
       161   07 Jun 2027 04:20:43.137   07 Jun 2027 04:21:18.548            35.411         17705.500
       162   07 Jun 2027 04:22:48.432   07 Jun 2027 04:22:51.526             3.094          1547.000
       163   07 Jun 2027 05:56:27.633   07 Jun 2027 05:59:15.897           168.264         84132.000
       164   07 Jun 2027 05:59:36.732   07 Jun 2027 05:59:53.313            16.581          8290.500
       165   07 Jun 2027 07:31:32.662   07 Jun 2027 07:32:51.679            79.017         39141.062
       166   07 Jun 2027 07:33:05.993   07 Jun 2027 07:33:06.727             0.734           239.500
       167   07 Jun 2027 07:33:49.063   07 Jun 2027 07:33:53.194             4.131          1288.094
       168   07 Jun 2027 07:34:27.463   07 Jun 2027 07:34:27.921             0.458           188.031
       169   07 Jun 2027 07:36:40.506   07 Jun 2027 07:36:48.367             7.861          2982.719
       170   07 Jun 2027 07:37:03.270   07 Jun 2027 07:37:07.154             3.884           358.594
       171   07 Jun 2027 07:37:32.599   07 Jun 2027 07:37:36.194             3.595           639.625
       172   07 Jun 2027 07:37:53.730   07 Jun 2027 07:37:54.871             1.141           548.000
       173   07 Jun 2027 09:07:37.556   07 Jun 2027 09:07:50.705            13.149          4486.531
       174   07 Jun 2027 09:11:17.183   07 Jun 2027 09:11:19.221             2.038           379.219
       175   07 Jun 2027 09:12:23.093   07 Jun 2027 09:12:27.544             4.451          1949.281
       176   07 Jun 2027 09:13:03.919   07 Jun 2027 09:13:05.642             1.723           272.219
       177   07 Jun 2027 09:13:14.063   07 Jun 2027 09:13:15.650             1.587           263.156
       178   07 Jun 2027 10:45:35.507   07 Jun 2027 10:45:51.776            16.269          7944.969
       179   07 Jun 2027 10:48:00.546   07 Jun 2027 10:48:07.852             7.306          2228.062
       180   07 Jun 2027 10:49:03.473   07 Jun 2027 10:49:14.738            11.265          1043.125
       181   07 Jun 2027 10:49:38.243   07 Jun 2027 10:49:39.971             1.728           584.813
       182   07 Jun 2027 10:49:46.321   07 Jun 2027 10:49:48.557             2.236           114.156
       183   08 Jun 2027 03:08:31.488   08 Jun 2027 03:09:43.595            72.107         36053.500
       184   08 Jun 2027 04:31:49.784   08 Jun 2027 04:32:53.631            63.847         31923.500
       185   08 Jun 2027 04:33:53.885   08 Jun 2027 04:33:57.249             3.364          1682.000
       186   08 Jun 2027 06:08:12.225   08 Jun 2027 06:10:45.522           153.297         76648.500
       187   08 Jun 2027 06:10:55.828   08 Jun 2027 06:11:12.062            16.234          7203.782
       188   08 Jun 2027 06:12:05.885   08 Jun 2027 06:12:09.187             3.302          1343.937
       189   08 Jun 2027 07:42:57.726   08 Jun 2027 07:43:05.963             8.237          3541.188
       190   08 Jun 2027 07:43:48.355   08 Jun 2027 07:44:00.681            12.326           342.156
       191   08 Jun 2027 07:47:07.130   08 Jun 2027 07:47:10.763             3.633          1400.625
       192   08 Jun 2027 07:47:34.616   08 Jun 2027 07:47:36.322             1.706           615.594
       193   08 Jun 2027 07:47:46.266   08 Jun 2027 07:47:52.337             6.071            82.469
       194   08 Jun 2027 07:48:32.235   08 Jun 2027 07:48:33.580             1.345           160.125
       195   08 Jun 2027 07:49:05.780   08 Jun 2027 07:49:12.687             6.907           815.313
       196   08 Jun 2027 07:49:44.399   08 Jun 2027 07:49:49.932             5.533           991.000
       197   08 Jun 2027 09:19:47.124   08 Jun 2027 09:19:57.894            10.770          5156.063
       198   08 Jun 2027 09:21:28.177   08 Jun 2027 09:21:31.485             3.308          1620.125
       199   08 Jun 2027 09:23:30.927   08 Jun 2027 09:23:35.988             5.061          1790.250
       200   08 Jun 2027 09:24:09.491   08 Jun 2027 09:24:11.897             2.406           882.656
       201   08 Jun 2027 09:24:29.104   08 Jun 2027 09:24:32.554             3.450           524.125
       202   08 Jun 2027 09:24:53.331   08 Jun 2027 09:24:55.761             2.430           613.406
       203   08 Jun 2027 09:25:42.286   08 Jun 2027 09:25:47.906             5.620          1309.875
       204   08 Jun 2027 10:57:57.753   08 Jun 2027 10:58:11.802            14.049          6030.313
       205   08 Jun 2027 10:58:28.901   08 Jun 2027 10:58:29.777             0.876           115.281
       206   08 Jun 2027 10:59:49.641   08 Jun 2027 10:59:54.620             4.979          2016.094
       207   08 Jun 2027 11:00:06.919   08 Jun 2027 11:00:08.489             1.570           202.125
       208   08 Jun 2027 11:00:25.533   08 Jun 2027 11:00:26.349             0.816            44.625
       209   08 Jun 2027 11:01:28.104   08 Jun 2027 11:01:33.716             5.612           257.000
       210   08 Jun 2027 11:01:47.473   08 Jun 2027 11:01:50.036             2.563           392.063
       211   09 Jun 2027 03:08:51.293   09 Jun 2027 03:09:11.373            20.080         10040.000
       212   09 Jun 2027 03:10:08.703   09 Jun 2027 03:10:08.703             0.000             0.000
       213   09 Jun 2027 03:20:32.122   09 Jun 2027 03:21:56.487            84.365         42182.500
       214   09 Jun 2027 04:42:47.848   09 Jun 2027 04:44:03.510            75.662         37831.000
       215   09 Jun 2027 04:44:44.844   09 Jun 2027 04:45:15.155            30.311         15155.500
       216   09 Jun 2027 04:46:25.779   09 Jun 2027 04:46:53.813            28.034         14017.000
       217   09 Jun 2027 06:18:00.278   09 Jun 2027 06:19:16.205            75.927         37647.000
       218   09 Jun 2027 06:20:15.309   09 Jun 2027 06:20:21.727             6.418          1705.594
       219   09 Jun 2027 06:21:22.923   09 Jun 2027 06:21:29.788             6.865          1912.375
       220   09 Jun 2027 06:21:45.484   09 Jun 2027 06:21:47.972             2.488           337.125
       221   09 Jun 2027 06:22:52.147   09 Jun 2027 06:22:52.147             0.000             0.000
       222   09 Jun 2027 06:23:05.696   09 Jun 2027 06:23:17.412            11.716          1971.875
       223   09 Jun 2027 06:24:15.835   09 Jun 2027 06:24:21.311             5.476          1385.312
       224   09 Jun 2027 06:24:47.776   09 Jun 2027 06:24:50.776             3.000           564.375
       225   09 Jun 2027 07:55:04.800   09 Jun 2027 07:55:13.411             8.611          2068.094
       226   09 Jun 2027 07:58:15.393   09 Jun 2027 07:58:17.364             1.971           216.687
       227   09 Jun 2027 07:59:08.919   09 Jun 2027 07:59:12.753             3.834          1477.031
       228   09 Jun 2027 07:59:54.820   09 Jun 2027 07:59:57.006             2.186           676.750
       229   09 Jun 2027 08:01:01.347   09 Jun 2027 08:01:05.826             4.479          1980.156
       230   09 Jun 2027 08:02:27.475   09 Jun 2027 08:02:30.538             3.063          1531.500
       231   09 Jun 2027 09:32:02.874   09 Jun 2027 09:32:12.666             9.792          4808.031
       232   09 Jun 2027 09:33:22.033   09 Jun 2027 09:33:22.481             0.448             5.875
       233   09 Jun 2027 09:35:49.108   09 Jun 2027 09:35:49.998             0.890            96.938
       234   09 Jun 2027 09:35:58.018   09 Jun 2027 09:36:01.793             3.775           250.625
       235   09 Jun 2027 09:36:32.456   09 Jun 2027 09:36:34.019             1.563           532.687
       236   09 Jun 2027 09:37:03.060   09 Jun 2027 09:37:20.400            17.340           907.531
       237   09 Jun 2027 11:09:59.198   09 Jun 2027 11:10:13.934            14.736          6922.156
       238   09 Jun 2027 11:11:12.918   09 Jun 2027 11:11:16.190             3.272           909.656
       239   09 Jun 2027 11:11:59.538   09 Jun 2027 11:12:03.368             3.830           124.500
       240   09 Jun 2027 11:12:24.150   09 Jun 2027 11:12:28.163             4.013           649.437
       241   09 Jun 2027 11:13:06.237   09 Jun 2027 11:13:10.176             3.939           574.250
       242   09 Jun 2027 11:13:19.673   09 Jun 2027 11:13:24.088             4.415           107.969
       243   09 Jun 2027 11:13:42.857   09 Jun 2027 11:13:45.686             2.829            85.437
       244   09 Jun 2027 11:13:56.217   09 Jun 2027 11:13:58.031             1.814           154.156
       245   10 Jun 2027 03:20:14.194   10 Jun 2027 03:20:58.123            43.929         21964.500
       246   10 Jun 2027 03:32:29.341   10 Jun 2027 03:33:24.513            55.172         27586.000
       247   10 Jun 2027 04:54:29.109   10 Jun 2027 04:55:50.516            81.407         40703.500
       248   10 Jun 2027 04:56:35.006   10 Jun 2027 04:57:13.453            38.447         19223.500
       249   10 Jun 2027 04:58:04.901   10 Jun 2027 04:58:11.259             6.358          3179.000
       250   10 Jun 2027 04:58:24.119   10 Jun 2027 04:58:54.723            30.604         15302.000
       251   10 Jun 2027 06:29:28.072   10 Jun 2027 06:30:30.402            62.330         31158.281
       252   10 Jun 2027 06:30:45.773   10 Jun 2027 06:30:47.405             1.632           205.688
       253   10 Jun 2027 06:31:04.317   10 Jun 2027 06:31:05.617             1.300           175.500
       254   10 Jun 2027 06:31:47.472   10 Jun 2027 06:31:50.309             2.837          1154.875
       255   10 Jun 2027 06:32:48.632   10 Jun 2027 06:32:54.208             5.576          1822.594
       256   10 Jun 2027 06:33:00.544   10 Jun 2027 06:33:05.003             4.459           134.844
       257   10 Jun 2027 06:33:09.206   10 Jun 2027 06:33:15.406             6.200            88.281
       258   10 Jun 2027 06:33:33.487   10 Jun 2027 06:33:36.448             2.961           456.000
       259   10 Jun 2027 06:34:47.548   10 Jun 2027 06:34:52.340             4.792          2003.594
       260   10 Jun 2027 06:35:08.761   10 Jun 2027 06:35:15.009             6.248           513.156
       261   10 Jun 2027 06:35:33.001   10 Jun 2027 06:35:33.001             0.000             0.000
       262   10 Jun 2027 06:36:26.377   10 Jun 2027 06:36:30.482             4.105          1853.406
       263   10 Jun 2027 06:36:48.329   10 Jun 2027 06:36:49.822             1.493           256.750
       264   10 Jun 2027 06:37:04.400   10 Jun 2027 06:37:04.400             0.000             0.000
       265   10 Jun 2027 06:38:04.756   10 Jun 2027 06:38:09.280             4.524          1913.969
       266   10 Jun 2027 08:07:06.865   10 Jun 2027 08:07:09.616             2.751           876.250
       267   10 Jun 2027 08:08:58.453   10 Jun 2027 08:09:05.090             6.637          2067.250
       268   10 Jun 2027 08:12:35.651   10 Jun 2027 08:12:39.157             3.506          1408.844
       269   10 Jun 2027 08:13:11.221   10 Jun 2027 08:13:13.881             2.660           974.813
       270   10 Jun 2027 08:14:12.345   10 Jun 2027 08:14:15.108             2.763          1374.906
       271   10 Jun 2027 09:43:53.480   10 Jun 2027 09:44:07.565            14.085          5757.406
       272   10 Jun 2027 09:45:18.613   10 Jun 2027 09:45:21.217             2.604           597.844
       273   10 Jun 2027 09:46:52.752   10 Jun 2027 09:46:56.927             4.175           494.312
       274   10 Jun 2027 09:47:38.670   10 Jun 2027 09:47:39.686             1.016           155.594
       275   10 Jun 2027 09:48:00.262   10 Jun 2027 09:48:02.738             2.476            35.437
       276   10 Jun 2027 09:48:07.059   10 Jun 2027 09:48:07.261             0.202            46.750
       277   10 Jun 2027 09:48:35.034   10 Jun 2027 09:48:36.732             1.698           798.937
       278   10 Jun 2027 09:49:16.759   10 Jun 2027 09:49:19.132             2.373          1062.750
       279   10 Jun 2027 09:50:13.763   10 Jun 2027 09:50:17.642             3.879          1486.438
       280   10 Jun 2027 11:21:56.535   10 Jun 2027 11:22:14.985            18.450          7045.750
       281   10 Jun 2027 11:22:45.364   10 Jun 2027 11:22:46.417             1.053           183.437
       282   10 Jun 2027 11:24:04.483   10 Jun 2027 11:24:06.524             2.041           667.969
       283   10 Jun 2027 11:24:58.673   10 Jun 2027 11:25:04.613             5.940          1300.469
       284   10 Jun 2027 11:25:16.721   10 Jun 2027 11:25:17.705             0.984           302.750
       285   10 Jun 2027 11:25:52.236   10 Jun 2027 11:25:53.505             1.269           255.938
       286   10 Jun 2027 11:26:03.819   10 Jun 2027 11:26:04.588             0.769            27.094
       287   11 Jun 2027 03:32:20.770   11 Jun 2027 03:32:31.837            11.067          5533.500
       288   11 Jun 2027 03:33:16.807   11 Jun 2027 03:33:26.719             9.912          4956.000
       289   11 Jun 2027 03:34:09.182   11 Jun 2027 03:34:09.182             0.000             0.000
       290   11 Jun 2027 03:34:10.668   11 Jun 2027 03:34:15.404             4.736          2368.000
       291   11 Jun 2027 03:44:53.867   11 Jun 2027 03:44:55.948             2.081          1040.500
       292   11 Jun 2027 05:06:09.257   11 Jun 2027 05:09:23.715           194.458         97229.000
       293   11 Jun 2027 05:09:31.707   11 Jun 2027 05:09:32.771             1.064           532.000
       294   11 Jun 2027 05:10:36.534   11 Jun 2027 05:10:44.602             8.068          4034.000
       295   11 Jun 2027 05:11:27.600   11 Jun 2027 05:11:35.724             8.124          4062.000
       296   11 Jun 2027 06:41:01.877   11 Jun 2027 06:42:25.338            83.461         41156.937
       297   11 Jun 2027 06:43:05.219   11 Jun 2027 06:43:09.662             4.443          1246.281
       298   11 Jun 2027 06:43:46.500   11 Jun 2027 06:43:49.181             2.681           744.906
       299   11 Jun 2027 06:44:35.878   11 Jun 2027 06:44:44.224             8.346          1049.813
       300   11 Jun 2027 06:45:08.602   11 Jun 2027 06:45:11.006             2.404           458.969
       301   11 Jun 2027 06:45:34.708   11 Jun 2027 06:45:36.721             2.013           695.281
       302   11 Jun 2027 06:46:40.885   11 Jun 2027 06:46:44.578             3.693          1737.344
       303   11 Jun 2027 06:47:11.731   11 Jun 2027 06:47:13.690             1.959           616.938
       304   11 Jun 2027 06:48:08.342   11 Jun 2027 06:48:11.066             2.724          1062.781
       305   11 Jun 2027 06:49:02.703   11 Jun 2027 06:49:05.518             2.815          1333.281
       306   11 Jun 2027 06:49:36.097   11 Jun 2027 06:49:36.800             0.703           351.500
       307   11 Jun 2027 06:49:58.920   11 Jun 2027 06:50:05.294             6.374          1086.063
       308   11 Jun 2027 06:50:35.922   11 Jun 2027 06:50:36.471             0.549           171.594
       309   11 Jun 2027 08:19:08.647   11 Jun 2027 08:19:14.384             5.737          1463.469
       310   11 Jun 2027 08:20:57.216   11 Jun 2027 08:21:04.137             6.921          1847.000
       311   11 Jun 2027 08:23:35.917   11 Jun 2027 08:23:44.079             8.162           765.094
       312   11 Jun 2027 08:24:26.798   11 Jun 2027 08:24:32.085             5.287           751.031
       313   11 Jun 2027 08:25:13.769   11 Jun 2027 08:25:14.779             1.010           458.438
       314   11 Jun 2027 08:25:45.520   11 Jun 2027 08:25:56.039            10.519           666.250
       315   11 Jun 2027 08:26:09.181   11 Jun 2027 08:26:10.476             1.295           372.313
       316   11 Jun 2027 09:56:03.637   11 Jun 2027 09:56:15.146            11.509          5650.594
       317   11 Jun 2027 09:57:18.536   11 Jun 2027 09:57:23.153             4.617           901.312
       318   11 Jun 2027 09:59:11.415   11 Jun 2027 09:59:15.563             4.148           859.594
       319   11 Jun 2027 10:00:17.778   11 Jun 2027 10:00:19.822             2.044           923.656
       320   11 Jun 2027 10:00:34.526   11 Jun 2027 10:00:36.808             2.282           317.281
       321   11 Jun 2027 10:00:52.727   11 Jun 2027 10:00:54.204             1.477           497.469
       322   11 Jun 2027 10:01:20.416   11 Jun 2027 10:01:24.603             4.187           466.969
       323   11 Jun 2027 10:02:24.320   11 Jun 2027 10:02:27.067             2.747           793.531
       324   11 Jun 2027 11:33:11.191   11 Jun 2027 11:33:21.879            10.688          4754.531
       325   11 Jun 2027 11:34:09.128   11 Jun 2027 11:34:14.317             5.189           103.156
       326   11 Jun 2027 11:34:49.883   11 Jun 2027 11:34:53.067             3.184           930.250
       327   11 Jun 2027 11:36:21.373   11 Jun 2027 11:36:23.633             2.260           832.281
       328   11 Jun 2027 11:36:53.371   11 Jun 2027 11:36:55.043             1.672           797.156
       329   11 Jun 2027 11:38:04.592   11 Jun 2027 11:38:05.107             0.515           257.500
       330   12 Jun 2027 03:44:15.959   12 Jun 2027 03:44:32.285            16.326          8163.000
       331   12 Jun 2027 05:20:30.871   12 Jun 2027 05:24:02.920           212.049        106024.500
       332   12 Jun 2027 06:54:03.221   12 Jun 2027 06:55:22.949            79.728         39684.500
       333   12 Jun 2027 06:56:17.974   12 Jun 2027 06:56:20.329             2.355            22.594
       334   12 Jun 2027 06:57:10.580   12 Jun 2027 06:57:13.303             2.723          1248.094
       335   12 Jun 2027 06:57:38.435   12 Jun 2027 06:57:39.892             1.457           707.625
       336   12 Jun 2027 06:58:19.110   12 Jun 2027 06:58:22.642             3.532           997.750
       337   12 Jun 2027 06:59:35.445   12 Jun 2027 06:59:39.826             4.381          1993.094
       338   12 Jun 2027 07:00:55.535   12 Jun 2027 07:00:59.900             4.365          2056.000
       339   12 Jun 2027 07:01:33.364   12 Jun 2027 07:01:37.187             3.823          1045.750
       340   12 Jun 2027 07:02:19.027   12 Jun 2027 07:02:19.027             0.000             0.000
       341   12 Jun 2027 07:02:34.971   12 Jun 2027 07:02:36.413             1.442           721.000
       342   12 Jun 2027 08:31:35.823   12 Jun 2027 08:31:43.377             7.554          2044.344
       343   12 Jun 2027 08:36:56.220   12 Jun 2027 08:36:58.490             2.270           976.125
       344   12 Jun 2027 08:37:43.740   12 Jun 2027 08:37:47.124             3.384          1101.844
       345   12 Jun 2027 10:08:30.509   12 Jun 2027 10:08:41.814            11.305          5472.125
       346   12 Jun 2027 10:08:52.188   12 Jun 2027 10:08:52.601             0.413           179.094
       347   12 Jun 2027 10:10:07.677   12 Jun 2027 10:10:10.317             2.640           312.219
       348   12 Jun 2027 10:10:49.982   12 Jun 2027 10:10:52.722             2.740           655.094
       349   12 Jun 2027 10:11:46.947   12 Jun 2027 10:11:48.878             1.931           323.313
       350   12 Jun 2027 10:12:28.500   12 Jun 2027 10:12:34.773             6.273          1045.156
       351   12 Jun 2027 10:13:04.943   12 Jun 2027 10:13:07.914             2.971           850.438
       352   12 Jun 2027 10:14:02.959   12 Jun 2027 10:14:09.313             6.354          1394.906
       353   12 Jun 2027 11:45:24.930   12 Jun 2027 11:45:35.435            10.505          5186.906
       354   12 Jun 2027 11:46:57.480   12 Jun 2027 11:46:58.813             1.333            78.375
       355   12 Jun 2027 11:48:32.796   12 Jun 2027 11:48:39.577             6.781           660.563
       356   12 Jun 2027 11:49:52.911   12 Jun 2027 11:49:53.772             0.861           144.063
       357   13 Jun 2027 03:56:07.746   13 Jun 2027 03:56:57.543            49.797         24898.500
       358   13 Jun 2027 05:32:34.933   13 Jun 2027 05:34:40.852           125.919         62959.500
       359   13 Jun 2027 05:35:29.378   13 Jun 2027 05:35:37.945             8.567          4283.500
       360   13 Jun 2027 05:36:00.714   13 Jun 2027 05:36:10.684             9.970          4985.000
       361   13 Jun 2027 07:04:42.961   13 Jun 2027 07:04:53.354            10.393          5196.500
       362   13 Jun 2027 07:06:41.946   13 Jun 2027 07:08:35.403           113.457         56728.500
       363   13 Jun 2027 07:08:54.554   13 Jun 2027 07:08:59.087             4.533          2184.219
       364   13 Jun 2027 07:09:19.149   13 Jun 2027 07:09:21.865             2.716           214.656
       365   13 Jun 2027 07:10:49.222   13 Jun 2027 07:10:55.121             5.899          2014.375
       366   13 Jun 2027 07:11:17.272   13 Jun 2027 07:11:21.175             3.903           188.219
       367   13 Jun 2027 07:12:39.423   13 Jun 2027 07:12:44.301             4.878          1973.250
       368   13 Jun 2027 07:13:28.974   13 Jun 2027 07:13:29.761             0.787           393.500
       369   13 Jun 2027 07:13:32.886   13 Jun 2027 07:13:34.243             1.357           626.688
       370   13 Jun 2027 07:14:23.400   13 Jun 2027 07:14:25.670             2.270           898.469
       371   13 Jun 2027 08:43:40.399   13 Jun 2027 08:43:48.860             8.461          4058.688
       372   13 Jun 2027 08:48:11.872   13 Jun 2027 08:48:14.275             2.403           342.187
       373   13 Jun 2027 08:48:45.043   13 Jun 2027 08:48:46.488             1.445           449.531
       374   13 Jun 2027 08:49:32.582   13 Jun 2027 08:49:35.303             2.721          1271.250
       375   13 Jun 2027 08:50:11.071   13 Jun 2027 08:50:12.065             0.994           248.875
       376   13 Jun 2027 10:21:11.427   13 Jun 2027 10:21:23.716            12.289          6100.594
       377   13 Jun 2027 10:24:04.746   13 Jun 2027 10:24:07.006             2.260           418.969
       378   13 Jun 2027 10:24:33.438   13 Jun 2027 10:24:37.715             4.277           450.500
       379   13 Jun 2027 10:24:37.758   13 Jun 2027 10:24:38.050             0.292             1.344
       380   13 Jun 2027 10:25:33.649   13 Jun 2027 10:25:35.989             2.340          1160.531
       381   13 Jun 2027 10:25:46.879   13 Jun 2027 10:25:47.863             0.984           152.719
       382   13 Jun 2027 11:57:29.838   13 Jun 2027 11:57:45.004            15.166          6928.625
