uniorb/output/strategy_4/Camera/Camera_KinoSat_111403.txt

KinoSat_111403
-------------------------
    Access    *     Start Time (UTCG)     *     Stop Time (UTCG)  *   Duration (s) *   Data (Mbytes)
         1   01 Jun 2027 03:42:41.616   01 Jun 2027 03:45:07.387           145.771         72885.500
         2   01 Jun 2027 03:45:52.972   01 Jun 2027 03:45:59.288             6.316          3158.000
         3   01 Jun 2027 03:46:41.047   01 Jun 2027 03:46:47.696             6.649          3324.500
         4   01 Jun 2027 03:49:39.835   01 Jun 2027 03:49:41.255             1.420           710.000
         5   01 Jun 2027 05:07:03.284   01 Jun 2027 05:08:06.033            62.749         31374.500
         6   01 Jun 2027 05:19:16.949   01 Jun 2027 05:19:48.665            31.716         15858.000
         7   01 Jun 2027 06:41:13.105   01 Jun 2027 06:42:27.961            74.856         37428.000
         8   01 Jun 2027 06:43:28.787   01 Jun 2027 06:43:46.511            17.724          8862.000
         9   01 Jun 2027 08:16:01.282   01 Jun 2027 08:17:57.827           116.545         58272.500
        10   01 Jun 2027 08:21:37.826   01 Jun 2027 08:21:37.826             0.000             0.000
        11   01 Jun 2027 08:23:23.748   01 Jun 2027 08:23:50.152            26.404         13202.000
        12   01 Jun 2027 09:53:50.244   01 Jun 2027 09:55:54.044           123.800         61900.000
        13   01 Jun 2027 09:59:50.202   01 Jun 2027 10:00:44.059            53.857         26928.500
        14   01 Jun 2027 11:30:34.639   01 Jun 2027 11:31:22.737            48.098         24049.000
        15   01 Jun 2027 11:31:44.147   01 Jun 2027 11:32:17.024            32.877         16438.500
        16   01 Jun 2027 11:33:16.345   01 Jun 2027 11:34:27.941            71.596         35798.000
        17   01 Jun 2027 11:36:40.669   01 Jun 2027 11:36:44.663             3.994          1997.000
        18   02 Jun 2027 03:55:00.883   02 Jun 2027 03:56:17.036            76.153         38076.500
        19   02 Jun 2027 03:56:47.380   02 Jun 2027 03:57:41.224            53.844         26922.000
        20   02 Jun 2027 03:58:46.826   02 Jun 2027 03:58:48.238             1.412           706.000
        21   02 Jun 2027 03:58:49.652   02 Jun 2027 03:59:08.962            19.310          9655.000
        22   02 Jun 2027 03:59:48.439   02 Jun 2027 03:59:48.439             0.000             0.000
        23   02 Jun 2027 05:19:02.413   02 Jun 2027 05:20:02.980            60.567         30283.500
        24   02 Jun 2027 05:20:28.781   02 Jun 2027 05:20:28.781             0.000             0.000
        25   02 Jun 2027 06:54:59.212   02 Jun 2027 06:58:05.641           186.429         93214.500
        26   02 Jun 2027 06:58:18.724   02 Jun 2027 06:58:52.879            34.155         17077.500
        27   02 Jun 2027 08:28:49.985   02 Jun 2027 08:31:22.439           152.454         76227.000
        28   02 Jun 2027 08:32:36.042   02 Jun 2027 08:33:30.207            54.165         27082.500
        29   02 Jun 2027 08:36:37.621   02 Jun 2027 08:37:20.263            42.642         21321.000
        30   02 Jun 2027 10:05:56.850   02 Jun 2027 10:06:28.058            31.208         14756.469
        31   02 Jun 2027 10:07:58.610   02 Jun 2027 10:07:59.943             1.333           430.156
        32   02 Jun 2027 10:08:56.385   02 Jun 2027 10:09:01.172             4.787          1312.500
        33   02 Jun 2027 10:09:44.260   02 Jun 2027 10:09:45.376             1.116           389.469
        34   02 Jun 2027 10:10:27.173   02 Jun 2027 10:10:29.572             2.399          1156.281
        35   02 Jun 2027 10:10:41.438   02 Jun 2027 10:10:42.727             1.289           333.375
        36   02 Jun 2027 10:10:59.813   02 Jun 2027 10:11:00.932             1.119           502.625
        37   02 Jun 2027 10:11:20.381   02 Jun 2027 10:11:22.822             2.441           216.844
        38   02 Jun 2027 10:11:28.723   02 Jun 2027 10:11:40.924            12.201           105.500
        39   02 Jun 2027 10:12:15.757   02 Jun 2027 10:12:20.388             4.631          1088.531
        40   02 Jun 2027 10:12:54.985   02 Jun 2027 10:12:57.593             2.608           866.625
        41   02 Jun 2027 10:13:03.320   02 Jun 2027 10:13:06.471             3.151           178.969
        42   02 Jun 2027 11:42:59.514   02 Jun 2027 11:43:11.899            12.385          5658.250
        43   02 Jun 2027 11:43:24.512   02 Jun 2027 11:43:25.460             0.948           394.156
        44   02 Jun 2027 11:45:20.865   02 Jun 2027 11:45:25.142             4.277          1919.937
        45   02 Jun 2027 11:46:32.512   02 Jun 2027 11:46:36.222             3.710          1696.656
        46   02 Jun 2027 11:47:14.941   02 Jun 2027 11:47:21.915             6.974           959.094
        47   02 Jun 2027 11:47:30.566   02 Jun 2027 11:47:31.917             1.351           248.469
        48   02 Jun 2027 11:48:16.466   02 Jun 2027 11:48:19.150             2.684          1246.281
        49   02 Jun 2027 11:48:48.543   02 Jun 2027 11:48:54.001             5.458           875.094
        50   03 Jun 2027 04:07:35.467   03 Jun 2027 04:09:54.923           139.456         69728.000
        51   03 Jun 2027 04:10:51.616   03 Jun 2027 04:10:58.307             6.691          3345.500
        52   03 Jun 2027 04:11:28.927   03 Jun 2027 04:11:37.414             8.487          4243.500
        53   03 Jun 2027 04:11:42.778   03 Jun 2027 04:11:53.810            11.032          5516.000
        54   03 Jun 2027 05:30:56.811   03 Jun 2027 05:31:49.151            52.340         26170.000
        55   03 Jun 2027 07:07:21.121   03 Jun 2027 07:09:20.757           119.636         59815.687
        56   03 Jun 2027 07:09:34.813   03 Jun 2027 07:09:38.411             3.598           265.812
        57   03 Jun 2027 07:09:54.450   03 Jun 2027 07:09:55.509             1.059           286.063
        58   03 Jun 2027 08:41:02.190   03 Jun 2027 08:41:08.141             5.951          2185.344
        59   03 Jun 2027 08:43:01.606   03 Jun 2027 08:43:03.144             1.538           434.062
        60   03 Jun 2027 08:43:19.368   03 Jun 2027 08:43:20.600             1.232            85.875
        61   03 Jun 2027 08:44:07.859   03 Jun 2027 08:44:12.119             4.260           113.250
        62   03 Jun 2027 08:45:19.499   03 Jun 2027 08:45:19.499             0.000             0.000
        63   03 Jun 2027 08:46:14.520   03 Jun 2027 08:46:23.288             8.768          3603.656
        64   03 Jun 2027 08:47:52.857   03 Jun 2027 08:47:58.404             5.547          2380.188
        65   03 Jun 2027 08:48:08.014   03 Jun 2027 08:48:10.705             2.691           300.312
        66   03 Jun 2027 08:48:48.116   03 Jun 2027 08:48:57.783             9.667          1169.094
        67   03 Jun 2027 10:18:23.127   03 Jun 2027 10:18:37.715            14.588          5928.656
        68   03 Jun 2027 10:20:22.619   03 Jun 2027 10:20:24.941             2.322           121.281
        69   03 Jun 2027 10:21:24.848   03 Jun 2027 10:21:28.490             3.642          1210.875
        70   03 Jun 2027 10:22:03.796   03 Jun 2027 10:22:09.838             6.042           883.031
        71   03 Jun 2027 10:23:27.470   03 Jun 2027 10:23:30.782             3.312           506.750
        72   03 Jun 2027 10:24:33.704   03 Jun 2027 10:24:37.149             3.445          1285.656
        73   03 Jun 2027 10:24:56.380   03 Jun 2027 10:24:56.830             0.450           182.063
        74   03 Jun 2027 11:55:20.121   03 Jun 2027 11:55:31.061            10.940          5230.906
        75   03 Jun 2027 11:57:03.859   03 Jun 2027 11:57:07.155             3.296          1209.000
        76   03 Jun 2027 11:57:29.462   03 Jun 2027 11:57:32.863             3.401           406.094
        77   03 Jun 2027 11:59:05.992   03 Jun 2027 11:59:14.143             8.151           929.594
        78   04 Jun 2027 04:19:50.151   04 Jun 2027 04:22:05.568           135.417         67708.500
        79   04 Jun 2027 04:23:09.068   04 Jun 2027 04:23:21.514            12.446          6223.000
        80   04 Jun 2027 05:42:44.205   04 Jun 2027 05:43:41.387            57.182         28591.000
        81   04 Jun 2027 07:19:23.071   04 Jun 2027 07:21:20.849           117.778         58889.000
        82   04 Jun 2027 07:21:48.668   04 Jun 2027 07:21:56.487             7.819          1056.782
        83   04 Jun 2027 08:54:22.640   04 Jun 2027 08:54:30.165             7.525          3476.375
        84   04 Jun 2027 08:55:24.433   04 Jun 2027 08:55:25.862             1.429           488.406
        85   04 Jun 2027 08:56:09.576   04 Jun 2027 08:56:17.890             8.314           937.688
        86   04 Jun 2027 08:57:38.395   04 Jun 2027 08:57:41.660             3.265          1505.281
        87   04 Jun 2027 08:58:20.266   04 Jun 2027 08:58:23.458             3.192           748.687
        88   04 Jun 2027 08:59:56.102   04 Jun 2027 09:00:01.285             5.183          2528.313
        89   04 Jun 2027 09:00:31.146   04 Jun 2027 09:00:35.059             3.913           286.094
        90   04 Jun 2027 09:01:12.370   04 Jun 2027 09:01:13.526             1.156           346.031
        91   04 Jun 2027 10:30:30.802   04 Jun 2027 10:30:40.759             9.957          4815.656
        92   04 Jun 2027 10:32:40.737   04 Jun 2027 10:32:44.034             3.297           260.406
        93   04 Jun 2027 10:33:16.473   04 Jun 2027 10:33:20.566             4.093           302.688
        94   04 Jun 2027 10:34:06.971   04 Jun 2027 10:34:12.162             5.191           889.500
        95   04 Jun 2027 10:34:49.233   04 Jun 2027 10:34:53.073             3.840           192.969
        96   04 Jun 2027 10:35:19.010   04 Jun 2027 10:35:22.097             3.087           810.531
        97   04 Jun 2027 10:36:24.754   04 Jun 2027 10:36:29.673             4.919          1597.031
        98   04 Jun 2027 10:37:00.509   04 Jun 2027 10:37:02.713             2.204           936.250
        99   05 Jun 2027 04:31:36.355   05 Jun 2027 04:32:07.491            31.136         15568.000
       100   05 Jun 2027 04:32:25.911   05 Jun 2027 04:34:37.820           131.909         65954.500
       101   05 Jun 2027 04:35:05.893   05 Jun 2027 04:35:16.587            10.694          5347.000
       102   05 Jun 2027 05:54:58.737   05 Jun 2027 05:55:22.860            24.123         12061.500
       103   05 Jun 2027 05:57:08.035   05 Jun 2027 05:57:47.233            39.198         19599.000
       104   05 Jun 2027 07:31:30.525   05 Jun 2027 07:32:53.732            83.207         40988.531
       105   05 Jun 2027 07:33:13.549   05 Jun 2027 07:33:15.249             1.700           387.812
       106   05 Jun 2027 07:33:52.076   05 Jun 2027 07:33:54.592             2.516          1150.844
       107   05 Jun 2027 07:34:30.026   05 Jun 2027 07:34:33.236             3.210           993.156
       108   05 Jun 2027 09:06:40.714   05 Jun 2027 09:06:51.464            10.750          4792.719
       109   05 Jun 2027 09:08:03.385   05 Jun 2027 09:08:10.765             7.380          2033.781
       110   05 Jun 2027 09:09:38.152   05 Jun 2027 09:09:41.016             2.864          1146.000
       111   05 Jun 2027 09:09:58.978   05 Jun 2027 09:09:58.978             0.000             0.000
       112   05 Jun 2027 09:10:35.726   05 Jun 2027 09:10:38.318             2.592          1225.875
       113   05 Jun 2027 09:11:58.931   05 Jun 2027 09:12:01.369             2.438          1058.250
       114   05 Jun 2027 09:12:28.286   05 Jun 2027 09:12:29.724             1.438           324.969
       115   05 Jun 2027 09:13:06.185   05 Jun 2027 09:13:08.908             2.723           324.031
       116   05 Jun 2027 10:43:04.792   05 Jun 2027 10:43:14.913            10.121          4957.562
       117   05 Jun 2027 10:44:55.339   05 Jun 2027 10:44:58.129             2.790          1294.281
       118   05 Jun 2027 10:45:36.413   05 Jun 2027 10:45:39.260             2.847           496.938
       119   05 Jun 2027 10:45:50.534   05 Jun 2027 10:45:52.320             1.786           308.063
       120   05 Jun 2027 10:46:17.633   05 Jun 2027 10:46:21.579             3.946           129.094
       121   05 Jun 2027 10:47:01.391   05 Jun 2027 10:47:01.936             0.545            77.687
       122   05 Jun 2027 10:47:38.987   05 Jun 2027 10:47:43.628             4.641          1137.313
       123   05 Jun 2027 10:48:24.796   05 Jun 2027 10:48:28.071             3.275           567.250
       124   05 Jun 2027 10:49:00.530   05 Jun 2027 10:49:05.506             4.976           879.031
       125   06 Jun 2027 03:05:23.398   06 Jun 2027 03:05:30.316             6.918          3459.000
       126   06 Jun 2027 03:06:24.340   06 Jun 2027 03:06:58.968            34.628         17314.000
       127   06 Jun 2027 03:07:14.407   06 Jun 2027 03:07:19.973             5.566          2783.000
       128   06 Jun 2027 03:07:37.536   06 Jun 2027 03:07:44.664             7.128          3564.000
       129   06 Jun 2027 03:08:18.928   06 Jun 2027 03:08:25.541             6.613          3306.500
       130   06 Jun 2027 03:08:43.780   06 Jun 2027 03:09:00.743            16.963          8481.500
       131   06 Jun 2027 03:09:42.947   06 Jun 2027 03:10:02.429            19.482          9741.000
       132   06 Jun 2027 03:11:20.809   06 Jun 2027 03:11:27.470             6.661          3330.500
       133   06 Jun 2027 03:12:57.096   06 Jun 2027 03:13:06.241             9.145          4572.500
       134   06 Jun 2027 03:13:12.007   06 Jun 2027 03:13:22.055            10.048          5024.000
       135   06 Jun 2027 03:13:29.368   06 Jun 2027 03:14:21.302            51.934         25967.000
       136   06 Jun 2027 04:43:33.202   06 Jun 2027 04:44:12.093            38.891         19445.500
       137   06 Jun 2027 04:44:34.471   06 Jun 2027 04:46:02.643            88.172         44086.000
       138   06 Jun 2027 06:07:28.665   06 Jun 2027 06:07:56.781            28.116         14058.000
       139   06 Jun 2027 06:08:04.448   06 Jun 2027 06:08:05.061             0.613           306.500
       140   06 Jun 2027 06:08:26.064   06 Jun 2027 06:08:39.026            12.962          6481.000
       141   06 Jun 2027 06:09:07.257   06 Jun 2027 06:09:24.831            17.574          7662.156
       142   06 Jun 2027 07:43:23.434   06 Jun 2027 07:43:32.850             9.416          2249.156
       143   06 Jun 2027 07:44:35.063   06 Jun 2027 07:44:42.033             6.970          1887.000
       144   06 Jun 2027 07:45:03.805   06 Jun 2027 07:45:05.951             2.146           278.625
       145   06 Jun 2027 07:45:26.787   06 Jun 2027 07:45:28.477             1.690           367.531
       146   06 Jun 2027 07:45:55.497   06 Jun 2027 07:45:56.773             1.276           631.063
       147   06 Jun 2027 07:46:06.250   06 Jun 2027 07:46:15.091             8.841           290.469
       148   06 Jun 2027 07:46:43.702   06 Jun 2027 07:46:43.702             0.000             0.000
       149   06 Jun 2027 07:47:08.410   06 Jun 2027 07:47:11.463             3.053          1371.219
       150   06 Jun 2027 09:18:19.424   06 Jun 2027 09:18:25.516             6.092          2706.406
       151   06 Jun 2027 09:20:11.861   06 Jun 2027 09:20:18.508             6.647          2745.938
       152   06 Jun 2027 09:20:58.389   06 Jun 2027 09:21:05.045             6.656           850.125
       153   06 Jun 2027 09:21:17.550   06 Jun 2027 09:21:17.849             0.299            57.750
       154   06 Jun 2027 09:22:01.427   06 Jun 2027 09:22:04.679             3.252           862.156
       155   06 Jun 2027 09:23:55.845   06 Jun 2027 09:24:02.528             6.683          2408.781
       156   06 Jun 2027 09:25:16.521   06 Jun 2027 09:25:21.550             5.029          2280.313
       157   06 Jun 2027 10:54:38.635   06 Jun 2027 10:54:48.588             9.953          4632.750
       158   06 Jun 2027 10:56:51.124   06 Jun 2027 10:56:52.280             1.156            67.969
       159   06 Jun 2027 10:57:08.227   06 Jun 2027 10:57:09.310             1.083           498.344
       160   06 Jun 2027 10:57:37.903   06 Jun 2027 10:57:39.719             1.816           143.875
       161   06 Jun 2027 10:58:23.558   06 Jun 2027 10:58:28.527             4.969          1298.219
       162   06 Jun 2027 10:59:43.533   06 Jun 2027 10:59:48.099             4.566          1485.156
       163   06 Jun 2027 11:00:16.196   06 Jun 2027 11:00:18.651             2.455           851.781
       164   06 Jun 2027 11:00:34.364   06 Jun 2027 11:00:35.364             1.000           276.187
       165   06 Jun 2027 11:01:00.435   06 Jun 2027 11:01:02.011             1.576           783.469
       166   07 Jun 2027 03:18:27.994   07 Jun 2027 03:21:31.429           183.435         91717.500
       167   07 Jun 2027 03:24:56.889   07 Jun 2027 03:25:07.097            10.208          5104.000
       168   07 Jun 2027 03:25:28.920   07 Jun 2027 03:25:37.102             8.182          4091.000
       169   07 Jun 2027 04:44:16.957   07 Jun 2027 04:44:48.231            31.274         15637.000
       170   07 Jun 2027 04:55:29.200   07 Jun 2027 04:56:58.614            89.414         44143.594
       171   07 Jun 2027 04:58:06.867   07 Jun 2027 04:58:09.024             2.157           856.000
       172   07 Jun 2027 06:18:05.978   07 Jun 2027 06:18:16.124            10.146          4110.375
       173   07 Jun 2027 06:19:20.147   07 Jun 2027 06:19:24.138             3.991          1270.906
       174   07 Jun 2027 06:20:13.742   07 Jun 2027 06:20:17.349             3.607           850.094
       175   07 Jun 2027 06:21:51.399   07 Jun 2027 06:22:00.971             9.572          2630.469
       176   07 Jun 2027 06:22:24.984   07 Jun 2027 06:22:29.067             4.083           750.406
       177   07 Jun 2027 07:53:41.575   07 Jun 2027 07:53:44.725             3.150          1415.875
       178   07 Jun 2027 07:54:12.280   07 Jun 2027 07:54:15.410             3.130           672.375
       179   07 Jun 2027 07:55:11.529   07 Jun 2027 07:55:16.373             4.844          1708.969
       180   07 Jun 2027 07:56:36.138   07 Jun 2027 07:56:42.450             6.312          2253.719
       181   07 Jun 2027 07:56:50.943   07 Jun 2027 07:56:53.571             2.628             8.969
       182   07 Jun 2027 07:58:00.221   07 Jun 2027 07:58:00.221             0.000             0.000
       183   07 Jun 2027 07:58:00.722   07 Jun 2027 07:58:01.191             0.469            57.344
       184   07 Jun 2027 07:58:15.932   07 Jun 2027 07:58:17.271             1.339           388.000
       185   07 Jun 2027 07:58:26.407   07 Jun 2027 07:58:28.423             2.016           285.500
       186   07 Jun 2027 07:58:50.949   07 Jun 2027 07:58:54.374             3.425           215.719
       187   07 Jun 2027 09:29:52.807   07 Jun 2027 09:29:58.543             5.736          2868.000
       188   07 Jun 2027 09:30:23.771   07 Jun 2027 09:30:27.834             4.063          1002.625
       189   07 Jun 2027 09:32:12.305   07 Jun 2027 09:32:31.124            18.819          2752.531
       190   07 Jun 2027 09:33:27.938   07 Jun 2027 09:33:30.538             2.600           764.656
       191   07 Jun 2027 09:34:01.647   07 Jun 2027 09:34:03.616             1.969           893.219
       192   07 Jun 2027 09:34:44.390   07 Jun 2027 09:34:47.345             2.955          1274.187
       193   07 Jun 2027 09:35:17.490   07 Jun 2027 09:35:18.173             0.683           227.656
       194   07 Jun 2027 09:35:59.178   07 Jun 2027 09:36:01.592             2.414          1024.281
       195   07 Jun 2027 09:37:09.413   07 Jun 2027 09:37:17.113             7.700          1806.906
       196   07 Jun 2027 11:06:58.613   07 Jun 2027 11:07:10.402            11.789          5664.750
       197   07 Jun 2027 11:09:18.009   07 Jun 2027 11:09:23.377             5.368          1230.563
       198   07 Jun 2027 11:10:06.464   07 Jun 2027 11:10:08.419             1.955           750.750
       199   07 Jun 2027 11:10:53.661   07 Jun 2027 11:10:59.794             6.133          1393.281
       200   07 Jun 2027 11:11:18.450   07 Jun 2027 11:11:19.036             0.586           249.000
       201   07 Jun 2027 11:11:36.162   07 Jun 2027 11:11:46.299            10.137           535.188
       202   07 Jun 2027 11:11:50.458   07 Jun 2027 11:11:54.810             4.352           129.969
       203   07 Jun 2027 11:12:35.697   07 Jun 2027 11:12:39.000             3.303           594.719
       204   07 Jun 2027 11:13:02.038   07 Jun 2027 11:13:02.749             0.711           154.531
       205   08 Jun 2027 03:30:57.499   08 Jun 2027 03:34:08.204           190.705         95352.500
       206   08 Jun 2027 03:35:02.186   08 Jun 2027 03:35:04.144             1.958           979.000
       207   08 Jun 2027 03:35:06.657   08 Jun 2027 03:35:09.145             2.488          1244.000
       208   08 Jun 2027 03:35:24.139   08 Jun 2027 03:35:58.207            34.068         17034.000
       209   08 Jun 2027 03:36:25.926   08 Jun 2027 03:36:51.945            26.019         13009.500
       210   08 Jun 2027 03:37:43.808   08 Jun 2027 03:37:45.895             2.087          1043.500
       211   08 Jun 2027 04:55:48.995   08 Jun 2027 04:56:01.822            12.827          6413.500
       212   08 Jun 2027 05:07:31.795   08 Jun 2027 05:08:38.563            66.768         33384.000
       213   08 Jun 2027 06:29:45.469   08 Jun 2027 06:29:58.622            13.153          6576.500
       214   08 Jun 2027 06:30:20.962   08 Jun 2027 06:30:24.136             3.174           903.625
       215   08 Jun 2027 06:30:41.027   08 Jun 2027 06:30:47.431             6.404           455.625
       216   08 Jun 2027 06:31:45.708   08 Jun 2027 06:31:51.064             5.356           328.875
       217   08 Jun 2027 06:32:00.899   08 Jun 2027 06:32:00.899             0.000             0.000
       218   08 Jun 2027 06:32:11.537   08 Jun 2027 06:32:13.253             1.716           594.688
       219   08 Jun 2027 06:33:11.453   08 Jun 2027 06:33:16.972             5.519          1818.750
       220   08 Jun 2027 06:34:31.461   08 Jun 2027 06:34:37.930             6.469          1947.094
       221   08 Jun 2027 08:04:47.982   08 Jun 2027 08:04:55.351             7.369          2230.656
       222   08 Jun 2027 08:06:18.439   08 Jun 2027 08:06:24.592             6.153          1119.750
       223   08 Jun 2027 08:07:08.637   08 Jun 2027 08:07:11.722             3.085          1323.406
       224   08 Jun 2027 08:08:36.900   08 Jun 2027 08:08:43.820             6.920          2610.656
       225   08 Jun 2027 08:10:01.332   08 Jun 2027 08:10:08.137             6.805          2249.250
       226   08 Jun 2027 08:10:28.185   08 Jun 2027 08:10:29.255             1.070           237.344
       227   08 Jun 2027 08:11:05.824   08 Jun 2027 08:11:08.203             2.379          1142.781
       228   08 Jun 2027 08:11:42.684   08 Jun 2027 08:11:47.531             4.847           910.875
       229   08 Jun 2027 08:12:44.685   08 Jun 2027 08:12:47.898             3.213           904.156
       230   08 Jun 2027 09:42:12.390   08 Jun 2027 09:42:18.182             5.792          2406.656
       231   08 Jun 2027 09:44:12.175   08 Jun 2027 09:44:21.114             8.939          2697.031
       232   08 Jun 2027 09:45:24.823   08 Jun 2027 09:45:30.746             5.923           610.844
       233   08 Jun 2027 09:45:53.795   08 Jun 2027 09:45:57.972             4.177           400.594
       234   08 Jun 2027 09:46:52.706   08 Jun 2027 09:46:57.470             4.764          1475.063
       235   08 Jun 2027 09:47:23.690   08 Jun 2027 09:47:25.190             1.500           205.688
       236   08 Jun 2027 09:48:18.916   08 Jun 2027 09:48:22.211             3.295          1522.250
       237   08 Jun 2027 09:48:24.252   08 Jun 2027 09:48:25.380             1.128            32.125
       238   08 Jun 2027 11:19:00.228   08 Jun 2027 11:19:11.709            11.481          5186.781
       239   08 Jun 2027 11:20:35.778   08 Jun 2027 11:20:43.117             7.339           518.844
       240   08 Jun 2027 11:21:49.870   08 Jun 2027 11:21:53.972             4.102          1179.719
       241   08 Jun 2027 11:22:57.707   08 Jun 2027 11:23:06.124             8.417           467.344
       242   08 Jun 2027 11:23:50.293   08 Jun 2027 11:23:52.969             2.676          1169.219
       243   08 Jun 2027 11:25:16.526   08 Jun 2027 11:25:24.652             8.126          1753.531
       244   09 Jun 2027 03:42:58.314   09 Jun 2027 03:45:51.309           172.995         86497.500
       245   09 Jun 2027 03:47:12.464   09 Jun 2027 03:47:13.071             0.607           303.500
       246   09 Jun 2027 03:49:50.200   09 Jun 2027 03:49:50.200             0.000             0.000
       247   09 Jun 2027 03:49:56.738   09 Jun 2027 03:50:03.439             6.701          3350.500
       248   09 Jun 2027 05:07:20.305   09 Jun 2027 05:07:59.580            39.275         19637.500
       249   09 Jun 2027 05:19:33.414   09 Jun 2027 05:20:04.982            31.568         15784.000
       250   09 Jun 2027 06:41:28.402   09 Jun 2027 06:42:34.662            66.260         33039.938
       251   09 Jun 2027 06:43:31.485   09 Jun 2027 06:43:36.013             4.528          1514.844
       252   09 Jun 2027 06:43:43.423   09 Jun 2027 06:43:45.081             1.658           163.156
       253   09 Jun 2027 06:45:15.260   09 Jun 2027 06:45:25.038             9.778          2818.094
       254   09 Jun 2027 06:45:57.089   09 Jun 2027 06:46:01.061             3.972           274.156
       255   09 Jun 2027 06:46:06.424   09 Jun 2027 06:46:08.066             1.642            75.562
       256   09 Jun 2027 08:16:16.623   09 Jun 2027 08:16:21.926             5.303          2478.812
       257   09 Jun 2027 08:17:08.145   09 Jun 2027 08:17:11.182             3.037          1267.781
       258   09 Jun 2027 08:18:23.950   09 Jun 2027 08:18:24.135             0.185            92.500
       259   09 Jun 2027 08:19:21.299   09 Jun 2027 08:19:25.942             4.643          1915.187
       260   09 Jun 2027 08:20:05.382   09 Jun 2027 08:20:08.941             3.559           715.063
       261   09 Jun 2027 08:20:50.195   09 Jun 2027 08:20:54.448             4.253           906.844
       262   09 Jun 2027 08:22:05.477   09 Jun 2027 08:22:08.837             3.360           126.531
       263   09 Jun 2027 08:23:02.381   09 Jun 2027 08:23:02.974             0.593           296.500
       264   09 Jun 2027 08:23:12.850   09 Jun 2027 08:23:14.947             2.097          1029.250
       265   09 Jun 2027 08:24:10.033   09 Jun 2027 08:24:14.516             4.483          1442.313
       266   09 Jun 2027 08:25:01.944   09 Jun 2027 08:25:10.813             8.869          1317.000
       267   09 Jun 2027 09:54:06.509   09 Jun 2027 09:54:17.299            10.790          4488.500
       268   09 Jun 2027 09:58:22.280   09 Jun 2027 09:58:24.856             2.576          1191.000
       269   09 Jun 2027 09:59:09.503   09 Jun 2027 09:59:10.457             0.954           140.156
       270   09 Jun 2027 10:00:38.685   09 Jun 2027 10:00:43.916             5.231          2141.719
       271   09 Jun 2027 10:00:47.258   09 Jun 2027 10:00:49.316             2.058           104.437
       272   09 Jun 2027 10:00:57.711   09 Jun 2027 10:00:59.270             1.559           262.344
       273   09 Jun 2027 10:01:11.547   09 Jun 2027 10:01:16.633             5.086           363.500
       274   09 Jun 2027 11:30:51.010   09 Jun 2027 11:31:02.271            11.261          4998.969
       275   09 Jun 2027 11:31:21.874   09 Jun 2027 11:31:27.019             5.145           361.938
       276   09 Jun 2027 11:33:13.161   09 Jun 2027 11:33:19.887             6.726          1924.031
       277   09 Jun 2027 11:33:40.188   09 Jun 2027 11:33:41.190             1.002           162.906
       278   09 Jun 2027 11:34:35.760   09 Jun 2027 11:34:40.368             4.608          1098.656
       279   09 Jun 2027 11:35:07.622   09 Jun 2027 11:35:09.498             1.876           771.375
       280   09 Jun 2027 11:35:33.802   09 Jun 2027 11:35:38.105             4.303           514.094
       281   09 Jun 2027 11:35:45.299   09 Jun 2027 11:35:52.476             7.177           224.813
       282   09 Jun 2027 11:36:27.559   09 Jun 2027 11:36:30.565             3.006          1096.344
       283   09 Jun 2027 11:37:11.423   09 Jun 2027 11:37:17.637             6.214           977.125
       284   09 Jun 2027 11:37:29.209   09 Jun 2027 11:37:36.970             7.761            16.875
       285   10 Jun 2027 03:55:19.485   10 Jun 2027 03:57:58.823           159.338         79669.000
       286   10 Jun 2027 03:58:25.295   10 Jun 2027 03:59:26.642            61.347         30673.500
       287   10 Jun 2027 05:19:18.632   10 Jun 2027 05:19:54.178            35.546         17773.000
       288   10 Jun 2027 06:55:15.521   10 Jun 2027 06:56:39.499            83.978         41448.906
       289   10 Jun 2027 06:57:07.118   10 Jun 2027 06:57:13.544             6.426           657.281
       290   10 Jun 2027 06:58:25.927   10 Jun 2027 06:58:30.377             4.450          1942.406
       291   10 Jun 2027 08:29:04.906   10 Jun 2027 08:29:12.866             7.960          3266.781
       292   10 Jun 2027 08:31:31.463   10 Jun 2027 08:31:32.968             1.505           568.438
       293   10 Jun 2027 08:32:23.446   10 Jun 2027 08:32:28.917             5.471          1415.063
       294   10 Jun 2027 08:33:46.188   10 Jun 2027 08:33:51.439             5.251          2155.969
       295   10 Jun 2027 08:34:08.626   10 Jun 2027 08:34:08.626             0.000             0.000
       296   10 Jun 2027 08:34:58.569   10 Jun 2027 08:35:03.887             5.318          1801.719
       297   10 Jun 2027 08:35:42.225   10 Jun 2027 08:35:44.287             2.062          1031.000
       298   10 Jun 2027 08:35:59.015   10 Jun 2027 08:36:08.325             9.310           627.312
       299   10 Jun 2027 08:36:53.505   10 Jun 2027 08:36:58.825             5.320          1311.750
       300   10 Jun 2027 10:06:13.705   10 Jun 2027 10:06:28.349            14.644          5307.562
       301   10 Jun 2027 10:08:50.532   10 Jun 2027 10:08:53.792             3.260           981.812
       302   10 Jun 2027 10:10:08.162   10 Jun 2027 10:10:13.188             5.026          2303.281
       303   10 Jun 2027 10:10:38.940   10 Jun 2027 10:10:40.957             2.017           589.781
       304   10 Jun 2027 10:10:55.957   10 Jun 2027 10:10:57.717             1.760           302.906
       305   10 Jun 2027 10:11:25.117   10 Jun 2027 10:11:25.743             0.626           247.875
       306   10 Jun 2027 10:11:38.139   10 Jun 2027 10:11:41.661             3.522           283.344
       307   10 Jun 2027 10:11:44.211   10 Jun 2027 10:11:45.209             0.998            79.687
       308   10 Jun 2027 10:12:30.312   10 Jun 2027 10:12:35.731             5.419          1133.562
       309   10 Jun 2027 10:12:38.464   10 Jun 2027 10:12:42.369             3.905            85.406
       310   10 Jun 2027 10:13:10.835   10 Jun 2027 10:13:13.962             3.127           860.500
       311   10 Jun 2027 10:13:21.050   10 Jun 2027 10:13:24.669             3.619           221.500
       312   10 Jun 2027 11:43:16.516   10 Jun 2027 11:43:28.157            11.641          5820.500
       313   10 Jun 2027 11:43:41.714   10 Jun 2027 11:43:44.697             2.983           703.156
       314   10 Jun 2027 11:45:41.890   10 Jun 2027 11:45:43.400             1.510           146.344
       315   10 Jun 2027 11:46:49.428   10 Jun 2027 11:46:54.014             4.586          1769.687
       316   10 Jun 2027 11:47:31.917   10 Jun 2027 11:47:37.448             5.531           958.188
       317   10 Jun 2027 11:47:53.818   10 Jun 2027 11:48:00.262             6.444           291.750
       318   10 Jun 2027 11:48:38.261   10 Jun 2027 11:48:39.884             1.623           105.188
       319   10 Jun 2027 11:48:59.930   10 Jun 2027 11:49:02.103             2.173           536.062
       320   11 Jun 2027 04:07:51.056   11 Jun 2027 04:09:43.072           112.016         56008.000
       321   11 Jun 2027 04:10:28.385   11 Jun 2027 04:11:08.005            39.620         19810.000
       322   11 Jun 2027 04:12:18.643   11 Jun 2027 04:12:27.607             8.964          4482.000
       323   11 Jun 2027 05:31:12.006   11 Jun 2027 05:32:05.271            53.265         26632.500
       324   11 Jun 2027 05:32:27.437   11 Jun 2027 05:32:27.617             0.180            90.000
       325   11 Jun 2027 07:07:37.065   11 Jun 2027 07:09:33.174           116.109         57835.281
       326   11 Jun 2027 07:10:25.991   11 Jun 2027 07:10:30.012             4.021          1650.531
       327   11 Jun 2027 08:41:25.314   11 Jun 2027 08:41:36.478            11.164          2864.531
       328   11 Jun 2027 08:43:18.684   11 Jun 2027 08:43:25.564             6.880           419.188
       329   11 Jun 2027 08:44:22.123   11 Jun 2027 08:44:24.493             2.370          1185.000
       330   11 Jun 2027 08:44:36.538   11 Jun 2027 08:44:39.548             3.010           749.531
       331   11 Jun 2027 08:45:59.686   11 Jun 2027 08:46:03.793             4.107          1881.000
       332   11 Jun 2027 08:46:51.808   11 Jun 2027 08:46:54.504             2.696          1255.406
       333   11 Jun 2027 08:48:10.579   11 Jun 2027 08:48:17.896             7.317          2376.875
       334   11 Jun 2027 08:49:05.932   11 Jun 2027 08:49:12.431             6.499          1173.813
       335   11 Jun 2027 10:18:40.187   11 Jun 2027 10:18:52.644            12.457          5709.156
       336   11 Jun 2027 10:20:42.473   11 Jun 2027 10:20:43.320             0.847           235.500
       337   11 Jun 2027 10:21:40.680   11 Jun 2027 10:21:47.938             7.258          1241.062
       338   11 Jun 2027 10:22:20.158   11 Jun 2027 10:22:26.376             6.218           869.844
       339   11 Jun 2027 10:23:26.830   11 Jun 2027 10:23:29.539             2.709           609.844
       340   11 Jun 2027 10:24:06.937   11 Jun 2027 10:24:09.259             2.322           680.937
       341   11 Jun 2027 10:25:06.360   11 Jun 2027 10:25:07.667             1.307           541.844
       342   11 Jun 2027 10:25:12.131   11 Jun 2027 10:25:12.363             0.232            38.031
       343   11 Jun 2027 11:55:40.840   11 Jun 2027 11:55:56.463            15.623          6336.281
       344   11 Jun 2027 11:58:23.686   11 Jun 2027 11:58:28.043             4.357          1762.656
       345   11 Jun 2027 11:59:54.233   11 Jun 2027 11:59:57.970             3.737          1868.500
       346   12 Jun 2027 04:20:06.398   12 Jun 2027 04:22:23.931           137.533         68766.500
       347   12 Jun 2027 04:23:26.844   12 Jun 2027 04:23:40.049            13.205          6602.500
       348   12 Jun 2027 05:43:00.214   12 Jun 2027 05:43:55.922            55.708         27854.000
       349   12 Jun 2027 07:19:38.925   12 Jun 2027 07:21:42.499           123.574         60000.187
       350   12 Jun 2027 07:22:25.554   12 Jun 2027 07:22:25.554             0.000             0.000
       351   12 Jun 2027 07:22:38.748   12 Jun 2027 07:22:43.352             4.604          1684.344
       352   12 Jun 2027 08:54:39.835   12 Jun 2027 08:54:45.017             5.182          2537.844
       353   12 Jun 2027 08:55:24.335   12 Jun 2027 08:55:31.380             7.045           414.156
       354   12 Jun 2027 08:55:57.486   12 Jun 2027 08:55:58.571             1.085           476.250
       355   12 Jun 2027 08:57:08.138   12 Jun 2027 08:57:13.994             5.856          1281.313
       356   12 Jun 2027 08:58:14.482   12 Jun 2027 08:58:15.841             1.359           527.438
       357   12 Jun 2027 08:58:52.833   12 Jun 2027 08:58:55.839             3.006           552.375
       358   12 Jun 2027 08:59:40.181   12 Jun 2027 08:59:40.382             0.201            80.500
       359   12 Jun 2027 09:00:13.012   12 Jun 2027 09:00:16.902             3.890           846.344
       360   12 Jun 2027 09:00:43.417   12 Jun 2027 09:00:50.646             7.229           108.469
       361   12 Jun 2027 09:01:13.554   12 Jun 2027 09:01:14.707             1.153             9.406
       362   12 Jun 2027 09:01:24.022   12 Jun 2027 09:01:24.645             0.623            82.500
       363   12 Jun 2027 09:01:25.858   12 Jun 2027 09:01:27.909             2.051            37.906
       364   12 Jun 2027 10:30:49.692   12 Jun 2027 10:30:58.745             9.053          4012.281
       365   12 Jun 2027 10:33:18.366   12 Jun 2027 10:33:21.493             3.127           897.094
       366   12 Jun 2027 10:34:23.508   12 Jun 2027 10:34:26.569             3.061           883.375
       367   12 Jun 2027 10:35:23.233   12 Jun 2027 10:35:28.091             4.858          1770.750
       368   12 Jun 2027 10:35:51.256   12 Jun 2027 10:35:54.052             2.796           587.094
       369   12 Jun 2027 10:36:09.024   12 Jun 2027 10:36:18.622             9.598           225.938
       370   12 Jun 2027 10:36:45.097   12 Jun 2027 10:36:46.605             1.508           335.938
       371   12 Jun 2027 10:37:15.350   12 Jun 2027 10:37:18.414             3.064           898.281
       372   12 Jun 2027 10:37:21.673   12 Jun 2027 10:37:23.307             1.634           101.844
       373   13 Jun 2027 04:31:52.515   13 Jun 2027 04:32:24.490            31.975         15987.500
       374   13 Jun 2027 04:32:41.941   13 Jun 2027 04:34:33.764           111.823         55911.500
       375   13 Jun 2027 04:35:43.015   13 Jun 2027 04:35:43.522             0.507           253.500
       376   13 Jun 2027 05:55:14.538   13 Jun 2027 05:56:09.974            55.436         27718.000
       377   13 Jun 2027 07:31:47.019   13 Jun 2027 07:33:38.607           111.588         54969.937
       378   13 Jun 2027 07:35:17.015   13 Jun 2027 07:35:18.431             1.416           708.000
       379   13 Jun 2027 09:06:57.525   13 Jun 2027 09:07:09.218            11.693          4626.562
       380   13 Jun 2027 09:08:21.530   13 Jun 2027 09:08:28.451             6.921          2120.219
       381   13 Jun 2027 09:09:54.484   13 Jun 2027 09:09:54.484             0.000             0.000
       382   13 Jun 2027 09:10:10.989   13 Jun 2027 09:10:17.133             6.144          1605.625
       383   13 Jun 2027 09:10:53.577   13 Jun 2027 09:11:00.963             7.386          1138.875
       384   13 Jun 2027 09:11:40.876   13 Jun 2027 09:11:52.702            11.826           597.281
       385   13 Jun 2027 09:13:14.042   13 Jun 2027 09:13:18.069             4.027          1894.375
       386   13 Jun 2027 10:43:19.528   13 Jun 2027 10:43:34.409            14.881          5896.469
       387   13 Jun 2027 10:45:14.516   13 Jun 2027 10:45:17.224             2.708            84.219
       388   13 Jun 2027 10:45:57.356   13 Jun 2027 10:45:59.544             2.188           210.594
       389   13 Jun 2027 10:47:18.037   13 Jun 2027 10:47:31.490            13.453          1484.562
       390   13 Jun 2027 10:48:27.387   13 Jun 2027 10:48:32.126             4.739           964.281
