uniorb/output/strategy_4/Camera/Camera_KinoSat_111602.txt

KinoSat_111602
-------------------------
    Access    *     Start Time (UTCG)     *     Stop Time (UTCG)  *   Duration (s) *   Data (Mbytes)
         1   01 Jun 2027 03:43:13.705   01 Jun 2027 03:44:15.390            61.685         30842.500
         2   01 Jun 2027 03:44:22.091   01 Jun 2027 03:45:52.972            90.881         45440.500
         3   01 Jun 2027 03:46:47.696   01 Jun 2027 03:46:54.921             7.225          3612.500
         4   01 Jun 2027 05:21:31.599   01 Jun 2027 05:22:05.075            33.476         16738.000
         5   01 Jun 2027 05:22:20.142   01 Jun 2027 05:23:18.417            58.275         29137.500
         6   01 Jun 2027 05:23:51.861   01 Jun 2027 05:23:53.558             1.697           848.500
         7   01 Jun 2027 05:24:51.436   01 Jun 2027 05:24:51.436             0.000             0.000
         8   01 Jun 2027 05:25:04.383   01 Jun 2027 05:25:20.786            16.403          8201.500
         9   01 Jun 2027 06:44:53.998   01 Jun 2027 06:46:08.845            74.847         37423.500
        10   01 Jun 2027 08:21:26.752   01 Jun 2027 08:22:43.240            76.488         38244.000
        11   01 Jun 2027 08:23:23.748   01 Jun 2027 08:23:50.152            26.404         13202.000
        12   01 Jun 2027 09:56:37.240   01 Jun 2027 09:57:49.004            71.764         35882.000
        13   01 Jun 2027 09:57:59.049   01 Jun 2027 09:59:32.718            93.669         46834.500
        14   01 Jun 2027 10:03:01.925   01 Jun 2027 10:03:13.231            11.306          5653.000
        15   01 Jun 2027 11:32:58.787   01 Jun 2027 11:36:06.011           187.224         93612.000
        16   02 Jun 2027 03:56:20.334   02 Jun 2027 03:57:44.023            83.689         41844.500
        17   02 Jun 2027 03:58:10.249   02 Jun 2027 03:59:08.962            58.713         29356.500
        18   02 Jun 2027 04:02:57.929   02 Jun 2027 04:03:28.951            31.022         15511.000
        19   02 Jun 2027 05:33:28.373   02 Jun 2027 05:34:08.264            39.891         19945.500
        20   02 Jun 2027 05:34:27.551   02 Jun 2027 05:37:03.565           156.014         78007.000
        21   02 Jun 2027 06:57:23.744   02 Jun 2027 06:58:16.840            53.096         26548.000
        22   02 Jun 2027 06:58:52.879   02 Jun 2027 06:59:29.446            36.567         18283.500
        23   02 Jun 2027 08:33:18.502   02 Jun 2027 08:36:35.888           197.386         98693.000
        24   02 Jun 2027 10:08:12.039   02 Jun 2027 10:08:51.463            39.424         16990.874
        25   02 Jun 2027 10:10:27.173   02 Jun 2027 10:10:27.173             0.000             0.000
        26   02 Jun 2027 10:10:57.109   02 Jun 2027 10:11:03.063             5.954          2091.781
        27   02 Jun 2027 10:14:53.003   02 Jun 2027 10:15:08.935            15.932          6392.250
        28   02 Jun 2027 11:44:35.164   02 Jun 2027 11:44:46.467            11.303          5600.125
        29   02 Jun 2027 11:45:38.219   02 Jun 2027 11:45:39.154             0.935           464.500
        30   02 Jun 2027 11:46:30.851   02 Jun 2027 11:46:35.172             4.321          1552.875
        31   02 Jun 2027 11:46:41.917   02 Jun 2027 11:46:44.250             2.333           210.781
        32   02 Jun 2027 11:47:30.566   02 Jun 2027 11:47:32.851             2.285           840.188
        33   02 Jun 2027 11:48:16.466   02 Jun 2027 11:48:19.150             2.684          1246.281
        34   02 Jun 2027 11:48:48.543   02 Jun 2027 11:48:54.001             5.458           875.094
        35   02 Jun 2027 11:49:15.966   02 Jun 2027 11:49:22.922             6.956           477.781
        36   03 Jun 2027 04:08:24.289   03 Jun 2027 04:11:37.414           193.125         96562.500
        37   03 Jun 2027 04:11:42.778   03 Jun 2027 04:11:53.810            11.032          5516.000
        38   03 Jun 2027 04:14:56.765   03 Jun 2027 04:15:13.110            16.345          8172.500
        39   03 Jun 2027 05:34:10.218   03 Jun 2027 05:34:17.591             7.373          3686.500
        40   03 Jun 2027 05:34:26.429   03 Jun 2027 05:34:43.999            17.570          8785.000
        41   03 Jun 2027 05:45:24.666   03 Jun 2027 05:47:00.051            95.385         47305.094
        42   03 Jun 2027 07:08:01.240   03 Jun 2027 07:08:16.539            15.299          6875.094
        43   03 Jun 2027 07:09:15.220   03 Jun 2027 07:09:20.315             5.095          1774.906
        44   03 Jun 2027 07:09:26.307   03 Jun 2027 07:09:27.313             1.006           187.250
        45   03 Jun 2027 07:09:45.296   03 Jun 2027 07:09:46.417             1.121           327.594
        46   03 Jun 2027 07:09:54.450   03 Jun 2027 07:09:55.509             1.059           251.031
        47   03 Jun 2027 07:10:53.757   03 Jun 2027 07:10:53.757             0.000             0.000
        48   03 Jun 2027 07:11:23.104   03 Jun 2027 07:11:28.562             5.458          2301.812
        49   03 Jun 2027 07:11:55.454   03 Jun 2027 07:11:57.639             2.185           698.094
        50   03 Jun 2027 08:43:35.884   03 Jun 2027 08:43:43.683             7.799          2256.250
        51   03 Jun 2027 08:45:43.222   03 Jun 2027 08:45:48.296             5.074          1919.844
        52   03 Jun 2027 08:46:36.691   03 Jun 2027 08:46:39.787             3.096          1351.625
        53   03 Jun 2027 08:48:15.838   03 Jun 2027 08:48:18.036             2.198          1056.469
        54   03 Jun 2027 08:49:27.221   03 Jun 2027 08:49:30.166             2.945          1222.031
        55   03 Jun 2027 10:19:48.694   03 Jun 2027 10:19:50.010             1.316           658.000
        56   03 Jun 2027 10:20:18.441   03 Jun 2027 10:20:24.941             6.500          2759.531
        57   03 Jun 2027 10:22:03.796   03 Jun 2027 10:22:09.838             6.042           883.031
        58   03 Jun 2027 10:23:11.254   03 Jun 2027 10:23:13.240             1.986           553.750
        59   03 Jun 2027 10:23:22.580   03 Jun 2027 10:23:23.252             0.672           211.469
        60   03 Jun 2027 10:23:52.563   03 Jun 2027 10:23:58.308             5.745           784.156
        61   03 Jun 2027 10:25:40.824   03 Jun 2027 10:25:47.098             6.274          3106.563
        62   03 Jun 2027 10:26:28.993   03 Jun 2027 10:26:35.143             6.150           953.656
        63   03 Jun 2027 10:26:53.116   03 Jun 2027 10:26:58.003             4.887           284.781
        64   03 Jun 2027 11:56:55.066   03 Jun 2027 11:57:09.377            14.311          7076.281
        65   03 Jun 2027 11:58:23.422   03 Jun 2027 11:58:24.974             1.552           229.188
        66   03 Jun 2027 11:58:36.245   03 Jun 2027 11:58:38.779             2.534           352.219
        67   03 Jun 2027 11:59:22.254   03 Jun 2027 11:59:25.159             2.905          1125.625
        68   04 Jun 2027 04:20:53.700   04 Jun 2027 04:23:09.068           135.368         67684.000
        69   04 Jun 2027 04:23:21.514   04 Jun 2027 04:23:35.169            13.655          6827.500
        70   04 Jun 2027 04:23:50.171   04 Jun 2027 04:24:12.988            22.817         11408.500
        71   04 Jun 2027 04:27:41.358   04 Jun 2027 04:28:02.007            20.649         10324.500
        72   04 Jun 2027 05:45:44.631   04 Jun 2027 05:46:19.240            34.609         17304.500
        73   04 Jun 2027 05:57:28.061   04 Jun 2027 05:58:27.307            59.246         29623.000
        74   04 Jun 2027 07:19:43.540   04 Jun 2027 07:20:23.409            39.869         19574.751
        75   04 Jun 2027 07:20:32.220   04 Jun 2027 07:20:37.961             5.741           275.344
        76   04 Jun 2027 07:21:48.668   04 Jun 2027 07:21:56.487             7.819          1367.781
        77   04 Jun 2027 07:22:57.032   04 Jun 2027 07:23:08.775            11.743          1892.031
        78   04 Jun 2027 07:24:19.501   04 Jun 2027 07:24:25.936             6.435          2036.813
        79   04 Jun 2027 08:54:42.609   04 Jun 2027 08:54:51.036             8.427          3749.188
        80   04 Jun 2027 08:57:03.940   04 Jun 2027 08:57:11.116             7.176          2978.125
        81   04 Jun 2027 08:57:41.199   04 Jun 2027 08:57:41.660             0.461            87.625
        82   04 Jun 2027 08:58:20.266   04 Jun 2027 08:58:23.458             3.192           748.687
        83   04 Jun 2027 08:59:56.102   04 Jun 2027 09:00:01.285             5.183          2528.313
        84   04 Jun 2027 09:00:19.814   04 Jun 2027 09:00:21.991             2.177            85.875
        85   04 Jun 2027 09:00:31.146   04 Jun 2027 09:00:35.059             3.913           286.094
        86   04 Jun 2027 09:01:05.902   04 Jun 2027 09:01:06.926             1.024            79.500
        87   04 Jun 2027 09:01:25.337   04 Jun 2027 09:01:28.187             2.850           450.656
        88   04 Jun 2027 09:02:40.557   04 Jun 2027 09:02:43.772             3.215          1078.500
        89   04 Jun 2027 10:32:08.923   04 Jun 2027 10:32:16.116             7.193          3040.469
        90   04 Jun 2027 10:35:14.612   04 Jun 2027 10:35:22.097             7.485          2611.531
        91   04 Jun 2027 10:35:37.743   04 Jun 2027 10:35:42.584             4.841            51.344
        92   04 Jun 2027 10:36:38.220   04 Jun 2027 10:36:40.118             1.898           420.812
        93   04 Jun 2027 10:37:35.523   04 Jun 2027 10:37:37.632             2.109           389.219
        94   04 Jun 2027 10:38:24.051   04 Jun 2027 10:38:28.912             4.861          1406.188
        95   04 Jun 2027 10:39:26.385   04 Jun 2027 10:39:27.346             0.961           480.500
        96   05 Jun 2027 03:00:00.000   05 Jun 2027 03:00:09.456             9.456          4728.000
        97   05 Jun 2027 04:32:55.939   05 Jun 2027 04:35:13.700           137.761         68880.500
        98   05 Jun 2027 04:35:28.309   05 Jun 2027 04:35:40.001            11.692          5846.000
        99   05 Jun 2027 04:36:06.790   05 Jun 2027 04:36:12.671             5.881          2940.500
       100   05 Jun 2027 04:36:42.586   05 Jun 2027 04:36:57.767            15.181          7590.500
       101   05 Jun 2027 04:37:43.939   05 Jun 2027 04:38:05.793            21.854         10927.000
       102   05 Jun 2027 04:39:54.181   05 Jun 2027 04:39:56.866             2.685          1342.500
       103   05 Jun 2027 05:57:17.053   05 Jun 2027 05:57:51.166            34.113         17056.500
       104   05 Jun 2027 05:58:27.588   05 Jun 2027 05:59:09.905            42.317         21158.500
       105   05 Jun 2027 06:09:33.549   05 Jun 2027 06:10:01.158            27.609         13804.500
       106   05 Jun 2027 07:31:22.320   05 Jun 2027 07:32:00.869            38.549         16989.687
       107   05 Jun 2027 07:33:26.431   05 Jun 2027 07:33:29.948             3.517          1219.375
       108   05 Jun 2027 07:34:08.030   05 Jun 2027 07:34:21.540            13.510           857.188
       109   05 Jun 2027 07:35:01.452   05 Jun 2027 07:35:01.452             0.000             0.000
       110   05 Jun 2027 07:36:20.406   05 Jun 2027 07:36:29.651             9.245          3681.438
       111   05 Jun 2027 07:36:34.128   05 Jun 2027 07:36:38.719             4.591            64.469
       112   05 Jun 2027 09:06:10.649   05 Jun 2027 09:06:15.946             5.297          2544.469
       113   05 Jun 2027 09:06:58.304   05 Jun 2027 09:06:59.497             1.193           314.063
       114   05 Jun 2027 09:08:10.926   05 Jun 2027 09:08:13.716             2.790           111.625
       115   05 Jun 2027 09:08:22.079   05 Jun 2027 09:08:29.875             7.796           151.969
       116   05 Jun 2027 09:09:16.888   05 Jun 2027 09:09:24.781             7.893          1168.625
       117   05 Jun 2027 09:09:56.498   05 Jun 2027 09:09:58.978             2.480           573.312
       118   05 Jun 2027 09:11:56.282   05 Jun 2027 09:12:04.824             8.542          3665.750
       119   05 Jun 2027 09:14:06.170   05 Jun 2027 09:14:11.290             5.120          2560.000
       120   05 Jun 2027 09:14:33.260   05 Jun 2027 09:14:34.970             1.710             3.312
       121   05 Jun 2027 10:44:03.329   05 Jun 2027 10:44:13.742            10.413          4775.281
       122   05 Jun 2027 10:44:55.519   05 Jun 2027 10:44:55.577             0.058             5.625
       123   05 Jun 2027 10:45:13.651   05 Jun 2027 10:45:15.315             1.664           523.219
       124   05 Jun 2027 10:46:13.502   05 Jun 2027 10:46:17.633             4.131           717.750
       125   05 Jun 2027 10:47:38.987   05 Jun 2027 10:47:43.628             4.641          1137.313
       126   05 Jun 2027 10:49:59.357   05 Jun 2027 10:50:08.577             9.220          3729.531
       127   05 Jun 2027 10:50:24.860   05 Jun 2027 10:50:27.154             2.294           434.875
       128   05 Jun 2027 10:51:08.249   05 Jun 2027 10:51:11.520             3.271          1284.219
       129   06 Jun 2027 03:06:52.081   06 Jun 2027 03:07:10.826            18.745          9372.500
       130   06 Jun 2027 03:07:16.592   06 Jun 2027 03:07:59.868            43.276         21638.000
       131   06 Jun 2027 03:09:00.831   06 Jun 2027 03:09:18.661            17.830          8915.000
       132   06 Jun 2027 03:09:32.334   06 Jun 2027 03:10:02.429            30.095         15047.500
       133   06 Jun 2027 03:12:23.783   06 Jun 2027 03:12:26.358             2.575          1287.500
       134   06 Jun 2027 04:45:20.092   06 Jun 2027 04:47:58.195           158.103         79051.500
       135   06 Jun 2027 04:49:03.470   06 Jun 2027 04:49:31.702            28.232         12169.000
       136   06 Jun 2027 04:50:11.654   06 Jun 2027 04:50:14.297             2.643            36.937
       137   06 Jun 2027 06:09:14.660   06 Jun 2027 06:09:40.878            26.218         11948.156
       138   06 Jun 2027 06:10:19.446   06 Jun 2027 06:10:19.446             0.000             0.000
       139   06 Jun 2027 06:10:33.397   06 Jun 2027 06:10:38.161             4.764          1480.437
       140   06 Jun 2027 06:11:27.483   06 Jun 2027 06:11:27.483             0.000             0.000
       141   06 Jun 2027 07:45:12.834   06 Jun 2027 07:45:22.762             9.928          4088.969
       142   06 Jun 2027 07:45:55.497   06 Jun 2027 07:45:56.773             1.276           631.063
       143   06 Jun 2027 07:46:43.702   06 Jun 2027 07:46:47.552             3.850          1460.844
       144   06 Jun 2027 07:48:20.977   06 Jun 2027 07:48:25.981             5.004          2267.719
       145   06 Jun 2027 09:19:01.273   06 Jun 2027 09:19:07.026             5.753          2748.406
       146   06 Jun 2027 09:20:58.389   06 Jun 2027 09:21:05.045             6.656           850.125
       147   06 Jun 2027 09:22:16.267   06 Jun 2027 09:22:16.267             0.000             0.000
       148   06 Jun 2027 09:22:24.875   06 Jun 2027 09:22:38.764            13.889          2197.875
       149   06 Jun 2027 09:23:55.845   06 Jun 2027 09:24:02.528             6.683          2408.781
       150   06 Jun 2027 09:25:35.178   06 Jun 2027 09:25:41.504             6.326          1182.187
       151   06 Jun 2027 09:26:04.644   06 Jun 2027 09:26:06.623             1.979           722.375
       152   06 Jun 2027 09:26:32.699   06 Jun 2027 09:26:34.313             1.614           377.438
       153   06 Jun 2027 10:56:10.450   06 Jun 2027 10:56:25.987            15.537          6193.750
       154   06 Jun 2027 10:57:42.530   06 Jun 2027 10:57:44.887             2.357           800.125
       155   06 Jun 2027 11:00:27.904   06 Jun 2027 11:00:39.121            11.217          4955.625
       156   06 Jun 2027 11:01:16.726   06 Jun 2027 11:01:22.155             5.429           636.281
       157   06 Jun 2027 11:01:22.599   06 Jun 2027 11:01:22.834             0.235            13.875
       158   06 Jun 2027 11:01:36.229   06 Jun 2027 11:01:37.362             1.133           418.594
       159   06 Jun 2027 11:02:21.882   06 Jun 2027 11:02:28.734             6.852          1267.719
       160   06 Jun 2027 11:02:34.423   06 Jun 2027 11:02:39.050             4.627           148.969
       161   06 Jun 2027 11:02:59.686   06 Jun 2027 11:03:03.802             4.116           644.875
       162   07 Jun 2027 03:19:36.725   07 Jun 2027 03:19:56.106            19.381          9690.500
       163   07 Jun 2027 03:20:10.867   07 Jun 2027 03:21:04.696            53.829         26914.500
       164   07 Jun 2027 03:21:06.306   07 Jun 2027 03:22:56.017           109.711         54855.500
       165   07 Jun 2027 03:23:49.496   07 Jun 2027 03:24:07.471            17.975          8987.500
       166   07 Jun 2027 04:57:44.488   07 Jun 2027 04:59:29.957           105.469         52716.625
       167   07 Jun 2027 04:59:52.298   07 Jun 2027 04:59:53.306             1.008           402.219
       168   07 Jun 2027 05:00:32.690   07 Jun 2027 05:00:39.551             6.861           261.125
       169   07 Jun 2027 05:01:40.104   07 Jun 2027 05:01:42.643             2.539           782.375
       170   07 Jun 2027 06:21:07.444   07 Jun 2027 06:21:20.853            13.409          6452.687
       171   07 Jun 2027 06:22:29.953   07 Jun 2027 06:22:35.516             5.563          1594.031
       172   07 Jun 2027 06:22:45.264   07 Jun 2027 06:22:52.221             6.957           179.188
       173   07 Jun 2027 06:23:18.518   07 Jun 2027 06:23:22.058             3.540           101.781
       174   07 Jun 2027 07:57:29.906   07 Jun 2027 07:57:45.873            15.967          7102.844
       175   07 Jun 2027 07:58:44.046   07 Jun 2027 07:58:49.077             5.031          1369.531
       176   07 Jun 2027 07:59:24.337   07 Jun 2027 07:59:26.814             2.477          1043.375
       177   07 Jun 2027 08:00:06.080   07 Jun 2027 08:00:09.854             3.774          1069.844
       178   07 Jun 2027 09:31:24.005   07 Jun 2027 09:31:31.250             7.245          2840.594
       179   07 Jun 2027 09:33:27.938   07 Jun 2027 09:33:30.538             2.600           764.656
       180   07 Jun 2027 09:34:01.647   07 Jun 2027 09:34:03.616             1.969           893.219
       181   07 Jun 2027 09:34:44.390   07 Jun 2027 09:34:47.345             2.955          1274.187
       182   07 Jun 2027 09:36:10.990   07 Jun 2027 09:36:17.704             6.714          1274.594
       183   07 Jun 2027 09:37:58.522   07 Jun 2027 09:38:02.179             3.657          1828.500
       184   07 Jun 2027 09:38:16.117   07 Jun 2027 09:38:20.262             4.145           892.156
       185   07 Jun 2027 09:38:57.002   07 Jun 2027 09:39:01.629             4.627          1111.437
       186   07 Jun 2027 11:08:36.562   07 Jun 2027 11:08:48.868            12.306          5523.250
       187   07 Jun 2027 11:10:06.464   07 Jun 2027 11:10:08.419             1.955           750.750
       188   07 Jun 2027 11:11:29.307   07 Jun 2027 11:11:36.162             6.855          1351.750
       189   07 Jun 2027 11:12:27.489   07 Jun 2027 11:12:31.669             4.180          1603.969
       190   07 Jun 2027 11:13:20.020   07 Jun 2027 11:13:26.577             6.557          1385.094
       191   07 Jun 2027 11:13:52.767   07 Jun 2027 11:13:55.907             3.140           715.187
       192   07 Jun 2027 11:14:43.903   07 Jun 2027 11:14:44.756             0.853           344.281
       193   07 Jun 2027 11:14:58.262   07 Jun 2027 11:14:59.333             1.071            32.031
       194   08 Jun 2027 03:31:44.673   08 Jun 2027 03:32:36.357            51.684         25842.000
       195   08 Jun 2027 03:32:42.309   08 Jun 2027 03:33:19.241            36.932         18466.000
       196   08 Jun 2027 03:34:11.680   08 Jun 2027 03:35:06.657            54.977         27488.500
       197   08 Jun 2027 03:35:34.792   08 Jun 2027 03:36:22.887            48.095         24047.500
       198   08 Jun 2027 03:36:51.945   08 Jun 2027 03:36:54.891             2.946          1473.000
       199   08 Jun 2027 05:10:03.211   08 Jun 2027 05:10:20.730            17.519          8759.500
       200   08 Jun 2027 05:10:55.711   08 Jun 2027 05:12:24.736            89.025         42691.625
       201   08 Jun 2027 05:13:33.557   08 Jun 2027 05:13:38.881             5.324          1984.719
       202   08 Jun 2027 06:32:57.490   08 Jun 2027 06:33:05.843             8.353          3897.938
       203   08 Jun 2027 06:34:24.641   08 Jun 2027 06:34:24.641             0.000             0.000
       204   08 Jun 2027 06:34:31.461   08 Jun 2027 06:34:37.930             6.469          2500.250
       205   08 Jun 2027 06:35:10.943   08 Jun 2027 06:35:12.869             1.926           963.000
       206   08 Jun 2027 08:09:33.375   08 Jun 2027 08:09:38.977             5.602          2336.406
       207   08 Jun 2027 08:10:28.185   08 Jun 2027 08:10:29.255             1.070           535.000
       208   08 Jun 2027 08:11:05.824   08 Jun 2027 08:11:11.644             5.820          1502.719
       209   08 Jun 2027 08:12:08.198   08 Jun 2027 08:12:18.877            10.679          1708.187
       210   08 Jun 2027 09:44:41.481   08 Jun 2027 09:44:50.112             8.631          2735.656
       211   08 Jun 2027 09:45:40.976   08 Jun 2027 09:45:43.261             2.285           656.500
       212   08 Jun 2027 09:46:05.504   08 Jun 2027 09:46:08.654             3.150           365.906
       213   08 Jun 2027 09:47:31.259   08 Jun 2027 09:47:39.486             8.227          1204.781
       214   08 Jun 2027 09:48:28.883   08 Jun 2027 09:48:33.957             5.074          1131.937
       215   08 Jun 2027 09:49:30.635   08 Jun 2027 09:49:34.423             3.788           960.469
       216   08 Jun 2027 09:50:01.413   08 Jun 2027 09:50:09.525             8.112           834.219
       217   08 Jun 2027 09:50:43.305   08 Jun 2027 09:50:43.560             0.255           124.937
       218   08 Jun 2027 09:51:17.196   08 Jun 2027 09:51:17.731             0.535           147.219
       219   08 Jun 2027 09:51:22.628   08 Jun 2027 09:51:23.233             0.605           153.031
       220   08 Jun 2027 11:21:01.728   08 Jun 2027 11:21:15.369            13.641          6780.469
       221   08 Jun 2027 11:22:45.704   08 Jun 2027 11:22:48.702             2.998           384.562
       222   08 Jun 2027 11:23:50.293   08 Jun 2027 11:23:52.969             2.676          1169.219
       223   08 Jun 2027 11:24:38.507   08 Jun 2027 11:24:42.805             4.298           621.719
       224   08 Jun 2027 11:25:02.573   08 Jun 2027 11:25:05.086             2.513            39.969
       225   08 Jun 2027 11:26:09.388   08 Jun 2027 11:26:13.881             4.493          1919.250
       226   08 Jun 2027 11:26:23.827   08 Jun 2027 11:26:25.172             1.345            31.938
       227   08 Jun 2027 11:26:42.180   08 Jun 2027 11:26:44.218             2.038           395.656
       228   08 Jun 2027 11:27:14.809   08 Jun 2027 11:27:16.477             1.668           546.750
       229   09 Jun 2027 03:43:30.632   09 Jun 2027 03:44:31.462            60.830         30415.000
       230   09 Jun 2027 03:44:38.357   09 Jun 2027 03:46:16.090            97.733         48866.500
       231   09 Jun 2027 03:46:30.192   09 Jun 2027 03:46:56.804            26.612         13306.000
       232   09 Jun 2027 03:48:10.630   09 Jun 2027 03:48:20.814            10.184          5092.000
       233   09 Jun 2027 05:21:47.905   09 Jun 2027 05:22:22.581            34.676         17338.000
       234   09 Jun 2027 05:22:36.571   09 Jun 2027 05:23:38.076            61.505         30331.656
       235   09 Jun 2027 05:24:34.711   09 Jun 2027 05:24:38.769             4.058          1172.688
       236   09 Jun 2027 05:25:27.130   09 Jun 2027 05:25:29.427             2.297           570.156
       237   09 Jun 2027 06:45:09.924   09 Jun 2027 06:45:19.232             9.308          4233.594
       238   09 Jun 2027 06:45:57.089   09 Jun 2027 06:46:01.061             3.972           274.156
       239   09 Jun 2027 06:46:06.424   09 Jun 2027 06:46:08.066             1.642            75.562
       240   09 Jun 2027 06:47:11.413   09 Jun 2027 06:47:15.406             3.993          1436.406
       241   09 Jun 2027 08:21:44.533   09 Jun 2027 08:21:53.969             9.436          3268.000
       242   09 Jun 2027 08:22:59.757   09 Jun 2027 08:23:02.381             2.624          1312.000
       243   09 Jun 2027 08:23:42.753   09 Jun 2027 08:23:48.071             5.318          2005.500
       244   09 Jun 2027 08:24:43.954   09 Jun 2027 08:24:43.954             0.000             0.000
       245   09 Jun 2027 08:25:00.739   09 Jun 2027 08:25:10.813            10.074          1584.562
       246   09 Jun 2027 09:57:09.206   09 Jun 2027 09:57:19.103             9.897          4359.594
       247   09 Jun 2027 09:58:18.191   09 Jun 2027 09:58:22.263             4.072           348.656
       248   09 Jun 2027 09:59:03.833   09 Jun 2027 09:59:09.503             5.670          1218.031
       249   09 Jun 2027 10:00:38.685   09 Jun 2027 10:00:43.916             5.231          2141.719
       250   09 Jun 2027 10:00:47.258   09 Jun 2027 10:00:49.316             2.058           104.437
       251   09 Jun 2027 10:00:57.711   09 Jun 2027 10:00:59.270             1.559           262.344
       252   09 Jun 2027 10:01:34.019   09 Jun 2027 10:01:35.934             1.915           543.313
       253   09 Jun 2027 10:03:14.003   09 Jun 2027 10:03:18.883             4.880          2322.813
       254   09 Jun 2027 11:33:15.362   09 Jun 2027 11:33:24.897             9.535          4604.000
       255   09 Jun 2027 11:34:59.594   09 Jun 2027 11:35:04.518             4.924          1350.594
       256   09 Jun 2027 11:35:38.105   09 Jun 2027 11:35:42.229             4.124           640.406
       257   09 Jun 2027 11:36:40.642   09 Jun 2027 11:36:43.428             2.786           941.906
       258   09 Jun 2027 11:37:02.192   09 Jun 2027 11:37:02.475             0.283            15.187
       259   09 Jun 2027 11:38:09.392   09 Jun 2027 11:38:17.823             8.431          1751.313
       260   09 Jun 2027 11:38:28.967   09 Jun 2027 11:38:31.643             2.676           348.250
       261   09 Jun 2027 11:38:44.574   09 Jun 2027 11:38:46.974             2.400           171.000
       262   09 Jun 2027 11:39:03.951   09 Jun 2027 11:39:07.486             3.535           420.344
       263   10 Jun 2027 03:56:37.244   10 Jun 2027 04:00:03.008           205.764        102882.000
       264   10 Jun 2027 04:01:37.577   10 Jun 2027 04:01:39.501             1.924           962.000
       265   10 Jun 2027 04:03:27.850   10 Jun 2027 04:04:14.208            46.358         23179.000
       266   10 Jun 2027 05:33:44.706   10 Jun 2027 05:34:25.403            40.697         20348.500
       267   10 Jun 2027 05:34:42.476   10 Jun 2027 05:35:31.504            49.028         24494.875
       268   10 Jun 2027 05:36:04.597   10 Jun 2027 05:36:10.404             5.807           912.531
       269   10 Jun 2027 05:36:41.461   10 Jun 2027 05:36:41.902             0.441           149.781
       270   10 Jun 2027 05:37:06.609   10 Jun 2027 05:37:08.324             1.715           715.031
       271   10 Jun 2027 06:57:40.541   10 Jun 2027 06:57:53.900            13.359          4504.656
       272   10 Jun 2027 06:58:08.895   10 Jun 2027 06:58:10.770             1.875           269.906
       273   10 Jun 2027 06:58:19.551   10 Jun 2027 06:58:21.246             1.695           120.344
       274   10 Jun 2027 06:59:10.563   10 Jun 2027 06:59:14.155             3.592          1394.875
       275   10 Jun 2027 08:33:33.713   10 Jun 2027 08:33:39.734             6.021          2473.187
       276   10 Jun 2027 08:35:30.287   10 Jun 2027 08:35:38.810             8.523          3253.094
       277   10 Jun 2027 08:35:45.360   10 Jun 2027 08:35:45.360             0.000             0.000
       278   10 Jun 2027 08:36:11.529   10 Jun 2027 08:36:16.387             4.858           915.750
       279   10 Jun 2027 08:36:52.630   10 Jun 2027 08:36:55.409             2.779          1081.062
       280   10 Jun 2027 10:08:27.202   10 Jun 2027 10:08:34.459             7.257          3364.937
       281   10 Jun 2027 10:10:08.162   10 Jun 2027 10:10:08.162             0.000             0.000
       282   10 Jun 2027 10:10:46.635   10 Jun 2027 10:10:55.034             8.399          3505.562
       283   10 Jun 2027 10:11:25.117   10 Jun 2027 10:11:25.743             0.626           247.875
       284   10 Jun 2027 10:13:59.381   10 Jun 2027 10:14:16.221            16.840          4192.875
       285   10 Jun 2027 10:15:34.998   10 Jun 2027 10:15:39.070             4.072           857.406
       286   10 Jun 2027 11:44:53.040   10 Jun 2027 11:45:07.503            14.463          5215.406
       287   10 Jun 2027 11:46:49.300   10 Jun 2027 11:46:50.527             1.227            93.063
       288   10 Jun 2027 11:47:20.417   10 Jun 2027 11:47:26.773             6.356           877.750
       289   10 Jun 2027 11:48:42.776   10 Jun 2027 11:48:54.057            11.281          2214.344
       290   10 Jun 2027 11:49:18.206   10 Jun 2027 11:49:21.073             2.867           737.781
       291   10 Jun 2027 11:49:51.177   10 Jun 2027 11:49:54.047             2.870           523.937
       292   10 Jun 2027 11:50:18.109   10 Jun 2027 11:50:24.589             6.480           751.937
       293   11 Jun 2027 04:08:41.421   11 Jun 2027 04:11:51.974           190.553         95276.500
       294   11 Jun 2027 04:14:46.031   11 Jun 2027 04:14:58.925            12.894          6447.000
       295   11 Jun 2027 04:15:04.916   11 Jun 2027 04:15:12.083             7.167          3583.500
       296   11 Jun 2027 05:34:23.875   11 Jun 2027 05:34:44.380            20.505         10252.500
       297   11 Jun 2027 05:35:14.603   11 Jun 2027 05:35:14.603             0.000             0.000
       298   11 Jun 2027 05:45:41.615   11 Jun 2027 05:47:14.863            93.248         46532.156
       299   11 Jun 2027 07:08:16.927   11 Jun 2027 07:08:34.925            17.998          7834.500
       300   11 Jun 2027 07:09:35.191   11 Jun 2027 07:09:36.598             1.407           703.500
       301   11 Jun 2027 07:09:41.365   11 Jun 2027 07:09:44.261             2.896           852.938
       302   11 Jun 2027 07:10:02.348   11 Jun 2027 07:10:03.552             1.204           373.219
       303   11 Jun 2027 07:10:36.363   11 Jun 2027 07:10:40.746             4.383          1025.344
       304   11 Jun 2027 07:12:35.573   11 Jun 2027 07:12:41.308             5.735          2623.687
       305   11 Jun 2027 07:12:57.145   11 Jun 2027 07:12:58.388             1.243           400.281
       306   11 Jun 2027 08:44:36.538   11 Jun 2027 08:44:39.625             3.087          1543.500
       307   11 Jun 2027 08:45:17.866   11 Jun 2027 08:45:24.444             6.578          2070.156
       308   11 Jun 2027 08:48:01.702   11 Jun 2027 08:48:11.539             9.837          4577.031
       309   11 Jun 2027 08:48:28.370   11 Jun 2027 08:48:30.214             1.844           491.781
       310   11 Jun 2027 08:49:33.641   11 Jun 2027 08:49:35.928             2.287           865.906
       311   11 Jun 2027 10:20:07.308   11 Jun 2027 10:20:12.433             5.125          2246.906
       312   11 Jun 2027 10:22:08.818   11 Jun 2027 10:22:15.292             6.474          2980.813
       313   11 Jun 2027 10:23:35.157   11 Jun 2027 10:23:36.507             1.350           484.563
       314   11 Jun 2027 10:24:22.532   11 Jun 2027 10:24:26.859             4.327          1354.344
       315   11 Jun 2027 10:25:12.363   11 Jun 2027 10:25:14.000             1.637           702.813
       316   11 Jun 2027 10:25:23.089   11 Jun 2027 10:25:25.591             2.502            17.000
       317   11 Jun 2027 10:26:45.499   11 Jun 2027 10:26:51.780             6.281          2096.125
       318   11 Jun 2027 10:27:08.058   11 Jun 2027 10:27:14.668             6.610           234.625
       319   11 Jun 2027 11:57:13.046   11 Jun 2027 11:57:27.281            14.235          6981.625
       320   11 Jun 2027 11:57:47.915   11 Jun 2027 11:57:51.062             3.147           475.250
       321   12 Jun 2027 04:21:11.612   12 Jun 2027 04:23:31.250           139.638         69819.000
       322   12 Jun 2027 04:24:00.204   12 Jun 2027 04:24:25.698            25.494         12747.000
       323   12 Jun 2027 04:24:52.694   12 Jun 2027 04:24:57.203             4.509          2254.500
       324   12 Jun 2027 04:25:57.854   12 Jun 2027 04:26:09.989            12.135          6067.500
       325   12 Jun 2027 04:26:33.016   12 Jun 2027 04:26:33.188             0.172            86.000
       326   12 Jun 2027 04:27:59.148   12 Jun 2027 04:28:19.183            20.035         10017.500
       327   12 Jun 2027 05:46:01.155   12 Jun 2027 05:46:08.747             7.592          3796.000
       328   12 Jun 2027 05:47:30.085   12 Jun 2027 05:47:35.570             5.485          2742.500
       329   12 Jun 2027 05:57:42.003   12 Jun 2027 05:58:43.269            61.266         30633.000
       330   12 Jun 2027 07:20:00.312   12 Jun 2027 07:20:52.657            52.345         25889.750
       331   12 Jun 2027 07:21:57.239   12 Jun 2027 07:21:59.455             2.216           927.031
       332   12 Jun 2027 07:22:13.179   12 Jun 2027 07:22:13.643             0.464           195.500
       333   12 Jun 2027 07:23:14.621   12 Jun 2027 07:23:24.915            10.294          1533.344
       334   12 Jun 2027 07:24:36.731   12 Jun 2027 07:24:41.145             4.414          2098.812
       335   12 Jun 2027 07:25:05.244   12 Jun 2027 07:25:06.430             1.186           419.719
       336   12 Jun 2027 08:54:57.983   12 Jun 2027 08:55:07.553             9.570          3689.219
       337   12 Jun 2027 08:55:42.246   12 Jun 2027 08:55:44.714             2.468           559.719
       338   12 Jun 2027 08:55:58.843   12 Jun 2027 08:55:59.755             0.912           319.406
       339   12 Jun 2027 08:57:08.138   12 Jun 2027 08:57:13.994             5.856          1281.313
       340   12 Jun 2027 08:58:33.454   12 Jun 2027 08:58:33.454             0.000             0.000
       341   12 Jun 2027 09:00:11.269   12 Jun 2027 09:00:25.048            13.779          5374.688
       342   12 Jun 2027 09:00:39.533   12 Jun 2027 09:00:39.946             0.413            77.531
       343   12 Jun 2027 09:00:43.417   12 Jun 2027 09:00:50.646             7.229           108.469
       344   12 Jun 2027 09:01:24.022   12 Jun 2027 09:01:24.645             0.623            82.500
       345   12 Jun 2027 09:02:11.491   12 Jun 2027 09:02:17.623             6.132          1337.000
       346   12 Jun 2027 10:32:26.594   12 Jun 2027 10:32:36.262             9.668          4071.656
       347   12 Jun 2027 10:34:23.508   12 Jun 2027 10:34:26.569             3.061           883.375
       348   12 Jun 2027 10:35:55.750   12 Jun 2027 10:35:57.306             1.556           772.219
       349   12 Jun 2027 10:37:56.515   12 Jun 2027 10:38:04.413             7.898          3703.250
       350   12 Jun 2027 10:39:05.082   12 Jun 2027 10:39:10.209             5.127          1654.781
       351   12 Jun 2027 10:39:44.097   12 Jun 2027 10:39:44.562             0.465            58.938
       352   13 Jun 2027 03:00:00.000   13 Jun 2027 03:00:12.437            12.437          6218.500
       353   13 Jun 2027 04:33:13.689   13 Jun 2027 04:35:32.559           138.870         69435.000
       354   13 Jun 2027 04:35:56.905   13 Jun 2027 04:36:21.449            24.544         12272.000
       355   13 Jun 2027 04:37:15.912   13 Jun 2027 04:37:54.091            38.179         19089.500
       356   13 Jun 2027 05:57:34.517   13 Jun 2027 05:58:05.349            30.832         15416.000
       357   13 Jun 2027 05:59:25.252   13 Jun 2027 05:59:40.620            15.368          7684.000
       358   13 Jun 2027 06:09:50.188   13 Jun 2027 06:10:17.706            27.518         13759.000
       359   13 Jun 2027 07:31:33.482   13 Jun 2027 07:32:18.962            45.480         22059.344
       360   13 Jun 2027 07:33:41.935   13 Jun 2027 07:33:45.486             3.551          1163.937
       361   13 Jun 2027 07:34:24.493   13 Jun 2027 07:34:36.170            11.677           799.594
       362   13 Jun 2027 07:35:03.532   13 Jun 2027 07:35:05.939             2.407           713.812
       363   13 Jun 2027 07:35:19.667   13 Jun 2027 07:35:21.778             2.111            82.875
       364   13 Jun 2027 07:36:08.581   13 Jun 2027 07:36:10.143             1.562           698.125
       365   13 Jun 2027 07:36:48.668   13 Jun 2027 07:36:52.521             3.853           942.625
       366   13 Jun 2027 09:06:26.061   13 Jun 2027 09:06:32.353             6.292          2655.062
       367   13 Jun 2027 09:08:28.451   13 Jun 2027 09:08:28.806             0.355            92.500
       368   13 Jun 2027 09:09:54.484   13 Jun 2027 09:09:57.891             3.407          1089.844
       369   13 Jun 2027 09:10:17.133   13 Jun 2027 09:10:18.166             1.033           192.000
       370   13 Jun 2027 09:10:48.323   13 Jun 2027 09:10:51.012             2.689           446.813
       371   13 Jun 2027 09:12:13.422   13 Jun 2027 09:12:19.437             6.015          2495.156
       372   13 Jun 2027 09:13:16.943   13 Jun 2027 09:13:18.069             1.126           400.313
       373   13 Jun 2027 09:13:40.067   13 Jun 2027 09:13:42.991             2.924           563.906
       374   13 Jun 2027 09:14:49.854   13 Jun 2027 09:14:53.087             3.233           694.594
       375   13 Jun 2027 10:44:19.918   13 Jun 2027 10:44:28.515             8.597          4134.156
       376   13 Jun 2027 10:45:13.782   13 Jun 2027 10:45:14.516             0.734             3.375
       377   13 Jun 2027 10:45:23.929   13 Jun 2027 10:45:24.803             0.874           294.156
       378   13 Jun 2027 10:45:57.356   13 Jun 2027 10:45:59.544             2.188           210.594
       379   13 Jun 2027 10:46:30.220   13 Jun 2027 10:46:32.275             2.055           717.438
       380   13 Jun 2027 10:47:56.530   13 Jun 2027 10:47:59.642             3.112          1202.906
       381   13 Jun 2027 10:48:42.951   13 Jun 2027 10:48:42.951             0.000             0.000
       382   13 Jun 2027 10:49:53.617   13 Jun 2027 10:50:00.081             6.464          2925.781
       383   13 Jun 2027 10:50:47.806   13 Jun 2027 10:50:51.976             4.170          1424.219
       384   13 Jun 2027 10:51:09.130   13 Jun 2027 10:51:10.047             0.917           253.219
