uniorb/output/strategy_4/Camera/Camera_KinoSat_110409.txt

KinoSat_110409
-------------------------
    Access    *     Start Time (UTCG)     *     Stop Time (UTCG)  *   Duration (s) *   Data (Mbytes)
         1   01 Jun 2027 03:11:47.973   01 Jun 2027 03:12:47.740            59.767         29883.500
         2   01 Jun 2027 03:13:05.032   01 Jun 2027 03:13:14.215             9.183          4591.500
         3   01 Jun 2027 03:13:34.003   01 Jun 2027 03:13:49.494            15.491          7745.500
         4   01 Jun 2027 03:14:13.261   01 Jun 2027 03:14:19.730             6.469          3234.500
         5   01 Jun 2027 03:14:58.918   01 Jun 2027 03:15:05.988             7.070          3535.000
         6   01 Jun 2027 03:15:40.641   01 Jun 2027 03:15:41.686             1.045           522.500
         7   01 Jun 2027 03:16:14.608   01 Jun 2027 03:16:26.047            11.439          5719.500
         8   01 Jun 2027 03:16:35.883   01 Jun 2027 03:16:42.579             6.696          3348.000
         9   01 Jun 2027 03:17:09.075   01 Jun 2027 03:17:09.075             0.000             0.000
        10   01 Jun 2027 03:17:25.819   01 Jun 2027 03:17:29.651             3.832          1916.000
        11   01 Jun 2027 03:18:54.211   01 Jun 2027 03:18:58.277             4.066          2033.000
        12   01 Jun 2027 03:19:50.727   01 Jun 2027 03:20:14.012            23.285         11642.500
        13   01 Jun 2027 04:49:22.328   01 Jun 2027 04:51:16.091           113.763         56881.500
        14   01 Jun 2027 04:51:38.627   01 Jun 2027 04:51:48.191             9.564          4782.000
        15   01 Jun 2027 04:53:21.263   01 Jun 2027 04:53:41.814            20.551         10275.500
        16   01 Jun 2027 04:55:58.760   01 Jun 2027 04:56:43.689            44.929         22464.500
        17   01 Jun 2027 06:26:05.169   01 Jun 2027 06:28:37.322           152.153         76076.500
        18   01 Jun 2027 06:29:15.673   01 Jun 2027 06:29:35.995            20.322         10161.000
        19   01 Jun 2027 06:30:56.655   01 Jun 2027 06:31:18.823            22.168         11084.000
        20   01 Jun 2027 06:32:28.157   01 Jun 2027 06:32:40.537            12.380          6190.000
        21   01 Jun 2027 08:04:08.339   01 Jun 2027 08:06:26.552           138.213         69106.500
        22   01 Jun 2027 08:06:32.463   01 Jun 2027 08:06:38.852             6.389          3194.500
        23   01 Jun 2027 08:06:58.709   01 Jun 2027 08:07:05.521             6.812          3406.000
        24   01 Jun 2027 08:07:37.826   01 Jun 2027 08:07:38.555             0.729           364.500
        25   01 Jun 2027 08:08:07.692   01 Jun 2027 08:08:17.784            10.092          5046.000
        26   01 Jun 2027 09:37:49.547   01 Jun 2027 09:41:25.584           216.037        108018.500
        27   02 Jun 2027 03:23:18.402   02 Jun 2027 03:29:35.751           377.349        188674.500
        28   02 Jun 2027 03:30:54.771   02 Jun 2027 03:31:27.242            32.471         16235.500
        29   02 Jun 2027 05:01:16.477   02 Jun 2027 05:04:31.976           195.499         97749.500
        30   02 Jun 2027 05:05:07.881   02 Jun 2027 05:05:15.711             7.830          3915.000
        31   02 Jun 2027 05:06:17.787   02 Jun 2027 05:06:37.077            19.290          9645.000
        32   02 Jun 2027 05:07:00.999   02 Jun 2027 05:07:35.189            34.190         17095.000
        33   02 Jun 2027 05:08:21.385   02 Jun 2027 05:08:45.085            23.700         11850.000
        34   02 Jun 2027 06:38:11.868   02 Jun 2027 06:43:31.395           319.527        159763.500
        35   02 Jun 2027 06:44:01.782   02 Jun 2027 06:44:42.050            40.268         20134.000
        36   02 Jun 2027 08:15:54.250   02 Jun 2027 08:20:16.240           261.990        130995.000
        37   02 Jun 2027 09:50:09.731   02 Jun 2027 09:51:22.810            73.079         36539.500
        38   02 Jun 2027 09:52:09.648   02 Jun 2027 09:55:28.309           198.661         99330.500
        39   03 Jun 2027 03:36:12.184   03 Jun 2027 03:43:42.380           450.196        225098.000
        40   03 Jun 2027 03:44:24.473   03 Jun 2027 03:44:46.784            22.311         11155.500
        41   03 Jun 2027 05:13:37.748   03 Jun 2027 05:20:40.952           423.204        211602.000
        42   03 Jun 2027 06:50:41.294   03 Jun 2027 06:55:10.378           269.084        134542.000
        43   03 Jun 2027 06:55:29.447   03 Jun 2027 06:56:31.375            61.928         30964.000
        44   03 Jun 2027 08:27:40.169   03 Jun 2027 08:32:14.305           274.136        137068.000
        45   03 Jun 2027 10:04:24.308   03 Jun 2027 10:07:13.532           169.224         84612.000
        46   04 Jun 2027 03:48:47.162   04 Jun 2027 03:55:40.830           413.668        206834.000
        47   04 Jun 2027 03:55:43.143   04 Jun 2027 03:56:43.731            60.588         30294.000
        48   04 Jun 2027 05:25:50.553   04 Jun 2027 05:32:33.560           403.007        201503.500
        49   04 Jun 2027 07:02:47.179   04 Jun 2027 07:07:48.015           300.836        150418.000
        50   04 Jun 2027 08:39:33.119   04 Jun 2027 08:44:40.361           307.242        153621.000
        51   04 Jun 2027 10:18:22.502   04 Jun 2027 10:18:42.746            20.244         10122.000
        52   05 Jun 2027 04:01:58.710   05 Jun 2027 04:08:45.275           406.565        203282.500
        53   05 Jun 2027 05:38:20.889   05 Jun 2027 05:44:40.110           379.221        189610.500
        54   05 Jun 2027 07:15:48.884   05 Jun 2027 07:20:16.967           268.083        134041.500
        55   05 Jun 2027 08:51:55.460   05 Jun 2027 08:56:09.386           253.926        126963.000
        56   06 Jun 2027 04:14:07.499   06 Jun 2027 04:20:43.949           396.450        198225.000
        57   06 Jun 2027 05:50:06.175   06 Jun 2027 05:56:12.877           366.702        183351.000
        58   06 Jun 2027 07:27:55.328   06 Jun 2027 07:32:26.334           271.006        135503.000
        59   06 Jun 2027 09:04:22.815   06 Jun 2027 09:08:08.269           225.454        112727.000
        60   06 Jun 2027 09:08:12.326   06 Jun 2027 09:08:58.462            46.136         23068.000
        61   07 Jun 2027 04:25:30.903   07 Jun 2027 04:32:54.603           443.700        221850.000
        62   07 Jun 2027 06:02:08.023   07 Jun 2027 06:08:31.609           383.586        191793.000
        63   07 Jun 2027 07:40:25.918   07 Jun 2027 07:44:20.346           234.428        117214.000
        64   07 Jun 2027 09:13:45.322   07 Jun 2027 09:15:12.961            87.639         43819.500
        65   07 Jun 2027 09:15:56.406   07 Jun 2027 09:19:58.467           242.061        121030.500
        66   07 Jun 2027 09:20:55.188   07 Jun 2027 09:21:17.515            22.327         11163.500
        67   08 Jun 2027 03:00:42.077   08 Jun 2027 03:01:54.364            72.287         36143.500
        68   08 Jun 2027 03:02:24.665   08 Jun 2027 03:07:14.550           289.885        144942.500
        69   08 Jun 2027 04:37:26.113   08 Jun 2027 04:44:54.833           448.720        224360.000
        70   08 Jun 2027 06:15:18.677   08 Jun 2027 06:20:19.799           301.122        150561.000
        71   08 Jun 2027 06:20:35.155   08 Jun 2027 06:20:38.600             3.445          1722.500
        72   08 Jun 2027 07:52:23.141   08 Jun 2027 07:56:22.674           239.533        119766.500
        73   08 Jun 2027 09:25:36.966   08 Jun 2027 09:31:58.187           381.221        190610.500
        74   08 Jun 2027 09:32:19.920   08 Jun 2027 09:33:14.555            54.635         27317.500
        75   09 Jun 2027 03:12:02.295   09 Jun 2027 03:14:08.408           126.113         63056.500
        76   09 Jun 2027 03:14:12.588   09 Jun 2027 03:19:33.723           321.135        160567.500
        77   09 Jun 2027 03:20:10.572   09 Jun 2027 03:20:34.357            23.785         11892.500
        78   09 Jun 2027 04:49:36.745   09 Jun 2027 04:56:58.361           441.616        220808.000
        79   09 Jun 2027 06:26:19.487   09 Jun 2027 06:32:32.877           373.390        186695.000
        80   09 Jun 2027 08:04:38.988   09 Jun 2027 08:08:32.399           233.411        116705.500
        81   09 Jun 2027 09:38:04.923   09 Jun 2027 09:44:59.898           414.975        207487.500
        82   10 Jun 2027 03:23:32.626   10 Jun 2027 03:31:41.934           489.308        244654.000
        83   10 Jun 2027 03:32:15.385   10 Jun 2027 03:33:01.135            45.750         22875.000
        84   10 Jun 2027 05:01:31.081   10 Jun 2027 05:08:59.772           448.691        224345.500
        85   10 Jun 2027 06:38:27.539   10 Jun 2027 06:43:45.871           318.332        159166.000
        86   10 Jun 2027 06:44:18.713   10 Jun 2027 06:44:56.486            37.773         18886.500
        87   10 Jun 2027 08:16:19.210   10 Jun 2027 08:20:30.865           251.655        125827.500
        88   10 Jun 2027 09:50:24.686   10 Jun 2027 09:51:37.174            72.488         36244.000
        89   10 Jun 2027 09:52:26.544   10 Jun 2027 09:55:42.596           196.052         98026.000
        90   11 Jun 2027 03:36:26.675   11 Jun 2027 03:43:56.971           450.296        225148.000
        91   11 Jun 2027 03:44:01.117   11 Jun 2027 03:45:01.387            60.270         30135.000
        92   11 Jun 2027 05:13:52.483   11 Jun 2027 05:20:46.954           414.471        207235.500
        93   11 Jun 2027 06:50:56.037   11 Jun 2027 06:55:24.979           268.942        134471.000
        94   11 Jun 2027 06:55:44.006   11 Jun 2027 06:56:45.977            61.971         30985.500
        95   11 Jun 2027 08:27:54.702   11 Jun 2027 08:32:28.885           274.183        137091.500
        96   11 Jun 2027 10:04:40.360   11 Jun 2027 10:07:28.072           167.712         83856.000
        97   12 Jun 2027 03:49:02.929   12 Jun 2027 03:55:55.311           412.382        206191.000
        98   12 Jun 2027 03:55:57.754   12 Jun 2027 03:56:58.201            60.447         30223.500
        99   12 Jun 2027 05:26:04.822   12 Jun 2027 05:32:48.268           403.446        201723.000
       100   12 Jun 2027 07:03:02.282   12 Jun 2027 07:08:02.921           300.639        150319.500
       101   12 Jun 2027 08:39:47.580   12 Jun 2027 08:44:55.255           307.675        153837.500
       102   12 Jun 2027 10:18:37.159   12 Jun 2027 10:18:57.232            20.073         10036.500
       103   13 Jun 2027 04:02:13.947   13 Jun 2027 04:08:59.826           405.879        202939.500
       104   13 Jun 2027 05:38:35.896   13 Jun 2027 05:44:54.788           378.892        189446.000
       105   13 Jun 2027 07:16:08.640   13 Jun 2027 07:20:31.838           263.198        131599.000
       106   13 Jun 2027 08:52:10.579   13 Jun 2027 08:56:24.084           253.505        126752.500
