uniorb/output/strategy_4/Camera/Camera_KinoSat_110502.txt

KinoSat_110502
-------------------------
    Access    *     Start Time (UTCG)     *     Stop Time (UTCG)  *   Duration (s) *   Data (Mbytes)
         1   01 Jun 2027 04:14:47.485   01 Jun 2027 04:16:34.983           107.498         53749.000
         2   01 Jun 2027 04:17:48.430   01 Jun 2027 04:17:56.904             8.474          4237.000
         3   01 Jun 2027 04:19:03.383   01 Jun 2027 04:19:12.594             9.211          4605.500
         4   01 Jun 2027 04:19:39.658   01 Jun 2027 04:20:03.572            23.914         11957.000
         5   01 Jun 2027 04:20:18.386   01 Jun 2027 04:20:29.085            10.699          5349.500
         6   01 Jun 2027 04:22:07.181   01 Jun 2027 04:22:16.414             9.233          4616.500
         7   01 Jun 2027 04:22:20.927   01 Jun 2027 04:22:37.746            16.819          8409.500
         8   01 Jun 2027 04:23:19.896   01 Jun 2027 04:23:21.128             1.232           616.000
         9   01 Jun 2027 05:52:14.673   01 Jun 2027 05:54:16.232           121.559         60779.500
        10   01 Jun 2027 05:55:34.015   01 Jun 2027 05:56:38.359            64.344         32172.000
        11   01 Jun 2027 05:57:54.489   01 Jun 2027 05:58:11.129            16.640          8320.000
        12   01 Jun 2027 05:58:43.930   01 Jun 2027 05:58:51.345             7.415          3707.500
        13   01 Jun 2027 07:29:14.704   01 Jun 2027 07:30:25.988            71.284         35642.000
        14   01 Jun 2027 07:30:30.801   01 Jun 2027 07:32:00.126            89.325         44662.500
        15   01 Jun 2027 07:32:11.264   01 Jun 2027 07:32:19.958             8.694          4347.000
        16   01 Jun 2027 07:33:09.772   01 Jun 2027 07:33:20.169            10.397          5198.500
        17   01 Jun 2027 07:33:50.454   01 Jun 2027 07:34:14.224            23.770         11885.000
        18   01 Jun 2027 09:06:08.690   01 Jun 2027 09:08:33.134           144.444         72222.000
        19   01 Jun 2027 09:08:48.215   01 Jun 2027 09:09:29.304            41.089         20544.500
        20   01 Jun 2027 09:10:05.038   01 Jun 2027 09:10:30.427            25.389         12694.500
        21   01 Jun 2027 10:43:17.957   01 Jun 2027 10:45:47.143           149.186         74593.000
        22   02 Jun 2027 04:25:30.331   02 Jun 2027 04:25:38.790             8.459          4229.500
        23   02 Jun 2027 04:27:26.329   02 Jun 2027 04:34:14.170           407.841        203920.500
        24   02 Jun 2027 04:34:17.278   02 Jun 2027 04:35:03.967            46.689         23344.500
        25   02 Jun 2027 04:35:08.055   02 Jun 2027 04:35:15.338             7.283          3641.500
        26   02 Jun 2027 06:04:24.255   02 Jun 2027 06:10:26.260           362.005        181002.500
        27   02 Jun 2027 06:10:55.081   02 Jun 2027 06:11:09.245            14.164          7082.000
        28   02 Jun 2027 07:41:40.995   02 Jun 2027 07:45:49.902           248.907        124453.500
        29   02 Jun 2027 07:45:52.122   02 Jun 2027 07:46:30.955            38.833         19416.500
        30   02 Jun 2027 09:18:15.081   02 Jun 2027 09:23:16.254           301.173        150586.500
        31   02 Jun 2027 10:56:45.580   02 Jun 2027 10:57:10.075            24.495         12247.500
        32   03 Jun 2027 03:05:28.590   03 Jun 2027 03:09:07.365           218.775        109387.500
        33   03 Jun 2027 04:40:39.161   03 Jun 2027 04:47:17.439           398.278        199139.000
        34   03 Jun 2027 06:18:05.519   03 Jun 2027 06:23:15.249           309.730        154865.000
        35   03 Jun 2027 07:54:22.020   03 Jun 2027 07:58:53.911           271.891        135945.500
        36   03 Jun 2027 09:30:45.861   03 Jun 2027 09:34:46.584           240.723        120361.500
        37   04 Jun 2027 03:17:29.622   04 Jun 2027 03:20:58.531           208.909        104454.500
        38   04 Jun 2027 04:52:42.390   04 Jun 2027 04:59:22.898           400.508        200254.000
        39   04 Jun 2027 06:29:46.766   04 Jun 2027 06:34:56.382           309.616        154808.000
        40   04 Jun 2027 08:06:35.136   04 Jun 2027 08:11:00.675           265.539        132769.500
        41   04 Jun 2027 09:42:32.296   04 Jun 2027 09:46:41.118           248.822        124411.000
        42   04 Jun 2027 09:46:46.856   04 Jun 2027 09:47:38.050            51.194         25597.000
        43   05 Jun 2027 03:29:13.101   05 Jun 2027 03:33:33.999           260.898        130449.000
        44   05 Jun 2027 05:03:56.990   05 Jun 2027 05:11:30.033           453.043        226521.500
        45   05 Jun 2027 06:41:31.116   05 Jun 2027 06:47:05.980           334.864        167432.000
        46   05 Jun 2027 08:19:13.830   05 Jun 2027 08:22:54.981           221.151        110575.500
        47   05 Jun 2027 09:52:17.113   05 Jun 2027 09:53:49.588            92.475         46237.500
        48   05 Jun 2027 09:53:53.999   05 Jun 2027 09:58:37.770           283.771        141885.500
        49   05 Jun 2027 09:59:14.182   05 Jun 2027 10:00:00.393            46.211         23105.500
        50   06 Jun 2027 03:39:07.252   06 Jun 2027 03:40:25.335            78.083         39041.500
        51   06 Jun 2027 03:40:57.373   06 Jun 2027 03:45:50.485           293.112        146556.000
        52   06 Jun 2027 05:16:05.167   06 Jun 2027 05:23:29.128           443.961        221980.500
        53   06 Jun 2027 06:53:11.417   06 Jun 2027 06:58:56.268           344.851        172425.500
        54   06 Jun 2027 08:31:21.805   06 Jun 2027 08:34:57.511           215.706        107853.000
        55   06 Jun 2027 10:04:17.181   06 Jun 2027 10:10:33.475           376.294        188147.000
        56   06 Jun 2027 10:10:36.695   06 Jun 2027 10:12:04.458            87.763         43881.500
        57   07 Jun 2027 03:50:32.220   07 Jun 2027 03:58:10.029           457.809        228904.500
        58   07 Jun 2027 03:59:08.045   07 Jun 2027 03:59:10.138             2.093          1046.500
        59   07 Jun 2027 05:28:08.483   07 Jun 2027 05:35:32.890           444.407        222203.500
        60   07 Jun 2027 07:05:07.781   07 Jun 2027 07:10:56.030           348.249        174124.500
        61   07 Jun 2027 08:43:29.992   07 Jun 2027 08:47:06.634           216.642        108321.000
        62   07 Jun 2027 10:16:43.194   07 Jun 2027 10:22:35.715           352.521        176260.500
        63   08 Jun 2027 04:02:02.731   08 Jun 2027 04:10:17.751           495.020        247510.000
        64   08 Jun 2027 04:10:52.566   08 Jun 2027 04:11:36.335            43.769         21884.500
        65   08 Jun 2027 05:40:07.577   08 Jun 2027 05:47:34.379           446.802        223401.000
        66   08 Jun 2027 07:17:02.490   08 Jun 2027 07:22:08.940           306.450        153225.000
        67   08 Jun 2027 07:22:20.138   08 Jun 2027 07:23:28.684            68.546         34273.000
        68   08 Jun 2027 08:54:10.633   08 Jun 2027 08:59:04.871           294.238        147119.000
        69   08 Jun 2027 10:29:00.987   08 Jun 2027 10:30:09.744            68.757         34378.500
        70   08 Jun 2027 10:30:52.868   08 Jun 2027 10:34:12.004           199.136         99568.000
        71   09 Jun 2027 04:15:02.069   09 Jun 2027 04:23:35.729           513.660        256830.000
        72   09 Jun 2027 05:52:29.854   09 Jun 2027 05:59:19.420           409.566        204783.000
        73   09 Jun 2027 07:29:29.366   09 Jun 2027 07:33:59.113           269.747        134873.500
        74   09 Jun 2027 07:34:42.670   09 Jun 2027 07:35:20.849            38.179         19089.500
        75   09 Jun 2027 09:06:25.726   09 Jun 2027 09:10:59.779           274.053        137026.500
        76   09 Jun 2027 10:43:32.684   09 Jun 2027 10:46:01.633           148.949         74474.500
        77   10 Jun 2027 04:25:44.419   10 Jun 2027 04:25:53.382             8.963          4481.500
        78   10 Jun 2027 04:27:40.979   10 Jun 2027 04:34:28.839           407.860        203930.000
        79   10 Jun 2027 04:34:31.903   10 Jun 2027 04:35:29.970            58.067         29033.500
        80   10 Jun 2027 06:04:39.076   10 Jun 2027 06:11:23.933           404.857        202428.500
        81   10 Jun 2027 07:41:57.110   10 Jun 2027 07:46:04.669           247.559        123779.500
        82   10 Jun 2027 07:46:06.899   10 Jun 2027 07:46:45.816            38.917         19458.500
        83   10 Jun 2027 09:18:30.025   10 Jun 2027 09:23:30.812           300.787        150393.500
        84   10 Jun 2027 10:57:01.175   10 Jun 2027 10:57:22.982            21.807         10903.500
        85   11 Jun 2027 03:05:43.337   11 Jun 2027 03:09:21.945           218.608        109304.000
        86   11 Jun 2027 04:40:54.047   11 Jun 2027 04:47:32.088           398.041        199020.500
        87   11 Jun 2027 06:18:19.996   11 Jun 2027 06:23:29.910           309.914        154957.000
        88   11 Jun 2027 07:54:36.490   11 Jun 2027 07:59:08.659           272.169        136084.500
        89   11 Jun 2027 09:31:00.883   11 Jun 2027 09:35:01.416           240.533        120266.500
        90   12 Jun 2027 03:17:43.906   12 Jun 2027 03:21:13.309           209.403        104701.500
        91   12 Jun 2027 04:52:56.755   12 Jun 2027 04:59:37.737           400.982        200491.000
        92   12 Jun 2027 06:30:00.063   12 Jun 2027 06:35:11.258           311.195        155597.500
        93   12 Jun 2027 08:06:50.916   12 Jun 2027 08:11:15.255           264.339        132169.500
        94   12 Jun 2027 09:42:47.924   12 Jun 2027 09:46:55.680           247.756        123878.000
        95   12 Jun 2027 09:47:01.473   12 Jun 2027 09:47:52.904            51.431         25715.500
        96   13 Jun 2027 03:29:27.723   13 Jun 2027 03:33:49.084           261.361        130680.500
        97   13 Jun 2027 05:04:11.616   13 Jun 2027 05:11:44.676           453.060        226530.000
        98   13 Jun 2027 06:41:45.701   13 Jun 2027 06:47:20.646           334.945        167472.500
        99   13 Jun 2027 08:19:30.222   13 Jun 2027 08:23:09.596           219.374        109687.000
       100   13 Jun 2027 09:52:31.486   13 Jun 2027 09:54:04.046            92.560         46280.000
       101   13 Jun 2027 09:54:07.324   13 Jun 2027 09:58:52.763           285.439        142719.500
       102   13 Jun 2027 09:59:29.095   13 Jun 2027 10:00:15.442            46.347         23173.500
