uniorb/output/strategy_4/Camera/Camera_KinoSat_111001.txt

KinoSat_111001
-------------------------
    Access    *     Start Time (UTCG)     *     Stop Time (UTCG)  *   Duration (s) *   Data (Mbytes)
         1   01 Jun 2027 04:05:26.076   01 Jun 2027 04:07:12.318           106.242         53121.000
         2   01 Jun 2027 04:07:18.878   01 Jun 2027 04:07:21.802             2.924          1462.000
         3   01 Jun 2027 05:41:55.226   01 Jun 2027 05:43:52.014           116.788         58394.000
         4   01 Jun 2027 05:44:42.122   01 Jun 2027 05:44:51.892             9.770          4885.000
         5   01 Jun 2027 07:17:02.124   01 Jun 2027 07:19:38.456           156.332         78166.000
         6   01 Jun 2027 07:23:40.846   01 Jun 2027 07:23:47.187             6.341          3170.500
         7   01 Jun 2027 08:53:23.497   01 Jun 2027 08:56:25.361           181.864         90932.000
         8   01 Jun 2027 08:57:45.267   01 Jun 2027 08:57:59.700            14.433          7216.500
         9   01 Jun 2027 10:30:50.503   01 Jun 2027 10:32:07.368            76.865         38432.500
        10   01 Jun 2027 10:32:40.611   01 Jun 2027 10:33:47.512            66.901         33450.500
        11   01 Jun 2027 10:34:47.256   01 Jun 2027 10:34:50.197             2.941          1470.500
        12   02 Jun 2027 04:17:29.585   02 Jun 2027 04:18:05.064            35.479         17739.500
        13   02 Jun 2027 04:18:48.177   02 Jun 2027 04:18:51.169             2.992          1496.000
        14   02 Jun 2027 04:19:19.080   02 Jun 2027 04:19:24.581             5.501          2750.500
        15   02 Jun 2027 05:53:58.604   02 Jun 2027 05:56:53.644           175.040         87520.000
        16   02 Jun 2027 07:29:09.433   02 Jun 2027 07:32:47.623           218.190        109095.000
        17   02 Jun 2027 07:33:07.804   02 Jun 2027 07:33:27.347            19.543          9771.500
        18   02 Jun 2027 07:35:26.973   02 Jun 2027 07:35:33.330             6.357          3178.500
        19   02 Jun 2027 09:05:06.876   02 Jun 2027 09:08:37.776           210.900        105450.000
        20   02 Jun 2027 09:08:45.434   02 Jun 2027 09:08:54.338             8.904          3884.843
        21   02 Jun 2027 09:10:30.240   02 Jun 2027 09:10:31.376             1.136           568.000
        22   02 Jun 2027 10:42:57.158   02 Jun 2027 10:43:21.102            23.944         11303.719
        23   02 Jun 2027 10:46:06.407   02 Jun 2027 10:46:10.903             4.496          1224.937
        24   02 Jun 2027 10:46:39.198   02 Jun 2027 10:46:42.814             3.616           372.250
        25   02 Jun 2027 10:46:57.684   02 Jun 2027 10:46:58.638             0.954           464.687
        26   02 Jun 2027 10:47:12.554   02 Jun 2027 10:47:13.908             1.354           353.125
        27   03 Jun 2027 03:06:46.761   03 Jun 2027 03:07:24.013            37.252         18626.000
        28   03 Jun 2027 03:07:34.279   03 Jun 2027 03:07:50.633            16.354          8177.000
        29   03 Jun 2027 03:08:08.461   03 Jun 2027 03:08:39.447            30.986         15493.000
        30   03 Jun 2027 04:29:56.303   03 Jun 2027 04:30:39.992            43.689         21844.500
        31   03 Jun 2027 04:31:26.067   03 Jun 2027 04:31:59.584            33.517         16758.500
        32   03 Jun 2027 06:05:43.000   03 Jun 2027 06:08:08.162           145.162         72581.000
        33   03 Jun 2027 06:08:27.657   03 Jun 2027 06:08:27.657             0.000             0.000
        34   03 Jun 2027 07:40:26.410   03 Jun 2027 07:40:46.278            19.868          9350.250
        35   03 Jun 2027 07:41:14.419   03 Jun 2027 07:41:17.256             2.837           156.125
        36   03 Jun 2027 07:42:35.674   03 Jun 2027 07:42:37.462             1.788           331.844
        37   03 Jun 2027 07:43:50.325   03 Jun 2027 07:43:52.280             1.955           170.656
        38   03 Jun 2027 07:44:59.495   03 Jun 2027 07:45:04.669             5.174           842.750
        39   03 Jun 2027 07:45:13.166   03 Jun 2027 07:45:15.666             2.500           108.375
        40   03 Jun 2027 07:46:01.431   03 Jun 2027 07:46:04.976             3.545           458.031
        41   03 Jun 2027 07:46:29.879   03 Jun 2027 07:46:30.581             0.702           351.000
        42   03 Jun 2027 07:46:42.711   03 Jun 2027 07:46:44.127             1.416           708.000
        43   03 Jun 2027 07:47:08.136   03 Jun 2027 07:47:09.326             1.190           595.000
        44   03 Jun 2027 07:47:31.596   03 Jun 2027 07:47:35.204             3.608           949.500
        45   03 Jun 2027 07:47:51.986   03 Jun 2027 07:47:52.861             0.875           437.500
        46   03 Jun 2027 09:17:11.157   03 Jun 2027 09:17:21.519            10.362          4820.562
        47   03 Jun 2027 09:20:56.887   03 Jun 2027 09:20:57.419             0.532           190.531
        48   03 Jun 2027 09:21:36.024   03 Jun 2027 09:21:38.165             2.141           888.313
        49   03 Jun 2027 09:21:54.640   03 Jun 2027 09:22:00.195             5.555           396.156
        50   03 Jun 2027 09:22:28.658   03 Jun 2027 09:22:30.345             1.687           753.500
        51   03 Jun 2027 10:55:28.025   03 Jun 2027 10:55:41.839            13.814          5656.187
        52   03 Jun 2027 10:55:55.847   03 Jun 2027 10:56:01.074             5.227           437.750
        53   03 Jun 2027 10:57:27.274   03 Jun 2027 10:57:35.564             8.290          2345.031
        54   03 Jun 2027 10:57:55.682   03 Jun 2027 10:57:59.826             4.144            87.250
        55   03 Jun 2027 10:58:57.355   03 Jun 2027 10:59:01.265             3.910           451.813
        56   03 Jun 2027 10:59:10.791   03 Jun 2027 10:59:15.718             4.927           190.156
        57   04 Jun 2027 03:06:22.520   04 Jun 2027 03:06:37.775            15.255          7627.500
        58   04 Jun 2027 03:06:58.849   04 Jun 2027 03:07:02.140             3.291          1645.500
        59   04 Jun 2027 03:17:56.983   04 Jun 2027 03:19:25.479            88.496         44248.000
        60   04 Jun 2027 04:40:34.569   04 Jun 2027 04:41:32.843            58.274         29137.000
        61   04 Jun 2027 04:42:11.549   04 Jun 2027 04:42:54.195            42.646         21323.000
        62   04 Jun 2027 04:43:19.134   04 Jun 2027 04:43:23.381             4.247          2123.500
        63   04 Jun 2027 04:43:27.389   04 Jun 2027 04:43:30.049             2.660          1330.000
        64   04 Jun 2027 04:43:56.471   04 Jun 2027 04:44:19.975            23.504         11752.000
        65   04 Jun 2027 06:15:43.516   04 Jun 2027 06:16:57.128            73.612         34973.750
        66   04 Jun 2027 06:17:39.790   04 Jun 2027 06:17:46.087             6.297           901.062
        67   04 Jun 2027 06:18:49.013   04 Jun 2027 06:18:55.853             6.840          1762.594
        68   04 Jun 2027 06:19:17.851   04 Jun 2027 06:19:20.048             2.197           504.344
        69   04 Jun 2027 06:20:18.780   04 Jun 2027 06:20:21.576             2.796          1266.687
        70   04 Jun 2027 06:20:57.006   04 Jun 2027 06:20:57.006             0.000             0.000
        71   04 Jun 2027 06:21:39.334   04 Jun 2027 06:21:44.269             4.935          2271.094
        72   04 Jun 2027 06:22:01.874   04 Jun 2027 06:22:01.874             0.000             0.000
        73   04 Jun 2027 07:52:30.348   04 Jun 2027 07:52:37.370             7.022          2336.406
        74   04 Jun 2027 07:54:25.252   04 Jun 2027 07:54:31.177             5.925          2209.469
        75   04 Jun 2027 07:55:43.709   04 Jun 2027 07:55:44.422             0.713           244.406
        76   04 Jun 2027 07:57:05.481   04 Jun 2027 07:57:11.619             6.138           971.531
        77   04 Jun 2027 07:58:25.279   04 Jun 2027 07:58:29.034             3.755          1782.219
        78   04 Jun 2027 07:59:05.596   04 Jun 2027 07:59:07.635             2.039          1004.844
        79   04 Jun 2027 07:59:56.350   04 Jun 2027 07:59:56.866             0.516           160.094
        80   04 Jun 2027 09:29:31.378   04 Jun 2027 09:29:42.697            11.319          5295.688
        81   04 Jun 2027 09:33:11.188   04 Jun 2027 09:33:17.383             6.195          2214.656
        82   04 Jun 2027 09:33:45.502   04 Jun 2027 09:33:49.933             4.431           531.344
        83   04 Jun 2027 09:33:58.170   04 Jun 2027 09:34:01.954             3.784           207.812
        84   04 Jun 2027 09:34:22.147   04 Jun 2027 09:34:23.378             1.231           186.406
        85   04 Jun 2027 09:35:10.670   04 Jun 2027 09:35:13.464             2.794          1299.031
        86   04 Jun 2027 11:07:25.165   04 Jun 2027 11:07:39.759            14.594          6618.000
        87   04 Jun 2027 11:08:03.438   04 Jun 2027 11:08:06.506             3.068           465.062
        88   04 Jun 2027 11:08:47.284   04 Jun 2027 11:08:49.606             2.322          1156.656
        89   04 Jun 2027 11:09:28.830   04 Jun 2027 11:09:36.878             8.048           677.469
        90   04 Jun 2027 11:10:50.389   04 Jun 2027 11:10:56.607             6.218          2297.219
        91   04 Jun 2027 11:11:15.359   04 Jun 2027 11:11:17.583             2.224           408.500
        92   05 Jun 2027 03:17:42.444   05 Jun 2027 03:18:24.200            41.756         20878.000
        93   05 Jun 2027 03:29:56.114   05 Jun 2027 03:30:54.756            58.642         29321.000
        94   05 Jun 2027 04:52:10.464   05 Jun 2027 04:53:17.819            67.355         33677.500
        95   05 Jun 2027 04:54:06.339   05 Jun 2027 04:54:53.074            46.735         23367.500
        96   05 Jun 2027 04:55:18.004   05 Jun 2027 04:55:36.631            18.627          9313.500
        97   05 Jun 2027 04:55:46.135   05 Jun 2027 04:56:22.517            36.382         18191.000
        98   05 Jun 2027 06:27:03.577   05 Jun 2027 06:27:49.030            45.453         22192.281
        99   05 Jun 2027 06:28:20.029   05 Jun 2027 06:28:23.936             3.907           104.031
       100   05 Jun 2027 06:28:41.178   05 Jun 2027 06:28:43.993             2.815           329.188
       101   05 Jun 2027 06:29:14.804   05 Jun 2027 06:29:21.718             6.914           951.844
       102   05 Jun 2027 06:29:46.372   05 Jun 2027 06:29:50.149             3.777           486.313
       103   05 Jun 2027 06:30:17.889   05 Jun 2027 06:30:19.037             1.148            49.250
       104   05 Jun 2027 06:30:32.070   05 Jun 2027 06:30:32.958             0.888           251.531
       105   05 Jun 2027 06:30:40.903   05 Jun 2027 06:30:42.029             1.126           223.094
       106   05 Jun 2027 06:31:40.301   05 Jun 2027 06:31:43.536             3.235          1586.281
       107   05 Jun 2027 06:32:45.711   05 Jun 2027 06:32:47.741             2.030           943.875
       108   05 Jun 2027 06:32:58.533   05 Jun 2027 06:33:03.648             5.115           323.594
       109   05 Jun 2027 06:33:38.238   05 Jun 2027 06:33:39.152             0.914           219.531
       110   05 Jun 2027 06:34:07.483   05 Jun 2027 06:34:09.228             1.745           835.562
       111   05 Jun 2027 06:34:29.098   05 Jun 2027 06:34:30.722             1.624           320.875
       112   05 Jun 2027 06:35:29.310   05 Jun 2027 06:35:33.017             3.707          1830.875
       113   05 Jun 2027 08:04:38.188   05 Jun 2027 08:04:46.453             8.265           951.531
       114   05 Jun 2027 08:06:24.875   05 Jun 2027 08:06:32.291             7.416          2115.875
       115   05 Jun 2027 08:07:29.147   05 Jun 2027 08:07:32.817             3.670          1473.281
       116   05 Jun 2027 08:08:58.858   05 Jun 2027 08:09:00.534             1.676           152.469
       117   05 Jun 2027 08:09:23.886   05 Jun 2027 08:09:27.871             3.985           430.312
       118   05 Jun 2027 08:10:28.068   05 Jun 2027 08:10:33.890             5.822          1744.906
       119   05 Jun 2027 08:10:46.072   05 Jun 2027 08:10:47.946             1.874           311.063
       120   05 Jun 2027 08:11:46.189   05 Jun 2027 08:11:52.029             5.840          1767.094
       121   05 Jun 2027 09:41:21.064   05 Jun 2027 09:41:31.939            10.875          4914.344
       122   05 Jun 2027 09:44:00.970   05 Jun 2027 09:44:02.650             1.680            50.906
       123   05 Jun 2027 09:44:44.392   05 Jun 2027 09:44:51.870             7.478           426.031
       124   05 Jun 2027 09:45:27.187   05 Jun 2027 09:45:29.617             2.430           525.000
       125   05 Jun 2027 09:45:31.575   05 Jun 2027 09:45:32.348             0.773            61.187
       126   05 Jun 2027 09:45:35.016   05 Jun 2027 09:45:35.810             0.794            60.063
       127   05 Jun 2027 09:45:50.823   05 Jun 2027 09:45:52.242             1.419           453.125
       128   05 Jun 2027 09:46:32.007   05 Jun 2027 09:46:41.264             9.257           971.219
       129   05 Jun 2027 09:47:02.392   05 Jun 2027 09:47:04.593             2.201           660.250
       130   05 Jun 2027 09:47:20.972   05 Jun 2027 09:47:22.661             1.689           198.062
       131   05 Jun 2027 11:19:25.100   05 Jun 2027 11:19:35.356            10.256          5107.250
       132   05 Jun 2027 11:20:13.050   05 Jun 2027 11:20:16.823             3.773            58.812
       133   05 Jun 2027 11:21:49.497   05 Jun 2027 11:21:51.523             2.026           612.906
       134   05 Jun 2027 11:22:35.014   05 Jun 2027 11:22:42.225             7.211           130.687
       135   05 Jun 2027 11:23:25.800   05 Jun 2027 11:23:29.964             4.164          1165.125
       136   06 Jun 2027 03:29:48.195   06 Jun 2027 03:30:05.342            17.147          8573.500
       137   06 Jun 2027 03:30:25.006   06 Jun 2027 03:30:25.006             0.000             0.000
       138   06 Jun 2027 03:30:49.561   06 Jun 2027 03:31:02.937            13.376          6688.000
       139   06 Jun 2027 03:42:11.029   06 Jun 2027 03:42:29.327            18.298          9149.000
       140   06 Jun 2027 05:03:39.191   06 Jun 2027 05:06:28.705           169.514         84757.000
       141   06 Jun 2027 05:07:45.910   06 Jun 2027 05:08:09.688            23.778         11889.000
       142   06 Jun 2027 05:08:24.919   06 Jun 2027 05:08:29.227             4.308          2154.000
       143   06 Jun 2027 05:09:20.946   06 Jun 2027 05:09:30.504             9.558          4779.000
       144   06 Jun 2027 06:38:33.516   06 Jun 2027 06:39:42.871            69.355         32871.938
       145   06 Jun 2027 06:40:47.570   06 Jun 2027 06:40:51.326             3.756          1566.375
       146   06 Jun 2027 06:41:14.472   06 Jun 2027 06:41:15.369             0.897           209.781
       147   06 Jun 2027 06:42:04.633   06 Jun 2027 06:42:09.661             5.028          1202.719
       148   06 Jun 2027 06:42:34.344   06 Jun 2027 06:42:35.605             1.261           277.219
       149   06 Jun 2027 06:43:00.626   06 Jun 2027 06:43:03.622             2.996           738.375
       150   06 Jun 2027 06:43:41.014   06 Jun 2027 06:43:43.723             2.709           963.031
       151   06 Jun 2027 06:44:36.889   06 Jun 2027 06:44:38.057             1.168           563.437
       152   06 Jun 2027 06:45:12.644   06 Jun 2027 06:45:13.803             1.159           397.875
       153   06 Jun 2027 06:45:22.933   06 Jun 2027 06:45:25.608             2.675           180.125
       154   06 Jun 2027 06:45:46.761   06 Jun 2027 06:45:48.701             1.940           661.031
       155   06 Jun 2027 06:46:20.441   06 Jun 2027 06:46:20.441             0.000             0.000
       156   06 Jun 2027 06:46:32.407   06 Jun 2027 06:46:35.528             3.121          1030.812
       157   06 Jun 2027 08:16:33.199   06 Jun 2027 08:16:40.369             7.170          2442.125
       158   06 Jun 2027 08:17:22.342   06 Jun 2027 08:17:28.388             6.046           903.437
       159   06 Jun 2027 08:18:44.978   06 Jun 2027 08:18:49.031             4.053           661.219
       160   06 Jun 2027 08:20:28.329   06 Jun 2027 08:20:33.000             4.671          1988.438
       161   06 Jun 2027 08:21:25.667   06 Jun 2027 08:21:28.543             2.876          1062.375
       162   06 Jun 2027 08:22:38.259   06 Jun 2027 08:22:52.672            14.413          1504.594
       163   06 Jun 2027 08:23:07.835   06 Jun 2027 08:23:10.793             2.958           473.844
       164   06 Jun 2027 08:23:46.212   06 Jun 2027 08:23:52.680             6.468           564.281
       165   06 Jun 2027 09:53:29.173   06 Jun 2027 09:53:40.838            11.665          5573.094
       166   06 Jun 2027 09:55:29.321   06 Jun 2027 09:55:33.234             3.913          1843.719
       167   06 Jun 2027 09:57:16.842   06 Jun 2027 09:57:21.169             4.327           989.906
       168   06 Jun 2027 09:57:55.566   06 Jun 2027 09:57:57.809             2.243           475.531
       169   06 Jun 2027 09:58:02.887   06 Jun 2027 09:58:05.053             2.166           158.688
       170   06 Jun 2027 09:58:39.880   06 Jun 2027 09:58:43.002             3.122           992.938
       171   06 Jun 2027 09:59:05.946   06 Jun 2027 09:59:11.460             5.514           116.938
       172   06 Jun 2027 09:59:37.565   06 Jun 2027 09:59:39.633             2.068           793.187
       173   06 Jun 2027 11:31:02.590   06 Jun 2027 11:31:21.718            19.128          6602.187
       174   06 Jun 2027 11:31:28.082   06 Jun 2027 11:31:29.042             0.960           141.937
       175   06 Jun 2027 11:32:15.001   06 Jun 2027 11:32:18.938             3.937           910.031
       176   06 Jun 2027 11:33:18.034   06 Jun 2027 11:33:22.238             4.204           210.406
       177   06 Jun 2027 11:34:02.659   06 Jun 2027 11:34:05.314             2.655           512.875
       178   06 Jun 2027 11:34:27.910   06 Jun 2027 11:34:28.641             0.731           107.469
       179   06 Jun 2027 11:35:04.095   06 Jun 2027 11:35:05.942             1.847            33.531
       180   06 Jun 2027 11:35:19.743   06 Jun 2027 11:35:21.394             1.651           245.313
       181   07 Jun 2027 03:42:05.999   07 Jun 2027 03:42:26.494            20.495         10247.500
       182   07 Jun 2027 05:17:57.692   07 Jun 2027 05:21:05.420           187.728         93864.000
       183   07 Jun 2027 06:51:29.040   07 Jun 2027 06:53:11.077           102.037         50583.031
       184   07 Jun 2027 06:53:53.495   07 Jun 2027 06:53:54.792             1.297           407.969
       185   07 Jun 2027 06:54:14.155   07 Jun 2027 06:54:15.823             1.668           387.500
       186   07 Jun 2027 06:54:40.316   07 Jun 2027 06:54:41.060             0.744           123.000
       187   07 Jun 2027 06:55:43.671   07 Jun 2027 06:55:49.212             5.541          1697.750
       188   07 Jun 2027 06:57:40.296   07 Jun 2027 06:57:46.507             6.211          3105.500
       189   07 Jun 2027 06:58:35.712   07 Jun 2027 06:58:43.218             7.506          1543.750
       190   07 Jun 2027 06:59:44.070   07 Jun 2027 06:59:48.291             4.221          1462.406
       191   07 Jun 2027 07:00:02.839   07 Jun 2027 07:00:03.668             0.829           329.562
       192   07 Jun 2027 08:28:55.084   07 Jun 2027 08:28:59.888             4.804          1983.938
       193   07 Jun 2027 08:30:47.796   07 Jun 2027 08:30:50.824             3.028           637.719
       194   07 Jun 2027 08:31:22.603   07 Jun 2027 08:31:26.566             3.963           469.531
       195   07 Jun 2027 08:34:50.121   07 Jun 2027 08:34:55.704             5.583          2147.156
       196   07 Jun 2027 08:35:26.113   07 Jun 2027 08:35:30.565             4.452           950.281
       197   07 Jun 2027 10:05:58.072   07 Jun 2027 10:05:59.150             1.078           539.000
       198   07 Jun 2027 10:06:15.959   07 Jun 2027 10:06:28.911            12.952          5964.250
       199   07 Jun 2027 10:07:54.001   07 Jun 2027 10:07:55.299             1.298           585.969
       200   07 Jun 2027 10:09:45.400   07 Jun 2027 10:09:47.884             2.484          1007.875
       201   07 Jun 2027 10:10:15.944   07 Jun 2027 10:10:19.542             3.598           718.375
       202   07 Jun 2027 10:10:40.343   07 Jun 2027 10:10:42.553             2.210           487.156
       203   07 Jun 2027 10:11:27.521   07 Jun 2027 10:11:35.265             7.744          1157.094
       204   07 Jun 2027 11:42:45.223   07 Jun 2027 11:42:57.024            11.801          5013.094
       205   07 Jun 2027 11:44:21.887   07 Jun 2027 11:44:25.198             3.311           351.719
       206   07 Jun 2027 11:45:18.292   07 Jun 2027 11:45:23.987             5.695            66.625
       207   07 Jun 2027 11:45:40.349   07 Jun 2027 11:45:41.633             1.284           238.594
       208   07 Jun 2027 11:46:03.173   07 Jun 2027 11:46:05.644             2.471           405.531
       209   08 Jun 2027 03:53:36.237   08 Jun 2027 03:54:28.468            52.231         26115.500
       210   08 Jun 2027 05:30:02.796   08 Jun 2027 05:32:16.284           133.488         66744.000
       211   08 Jun 2027 05:33:25.205   08 Jun 2027 05:33:34.980             9.775          4887.500
       212   08 Jun 2027 07:02:12.260   08 Jun 2027 07:02:22.585            10.325          5162.500
       213   08 Jun 2027 07:04:06.951   08 Jun 2027 07:05:49.287           102.336         50319.375
       214   08 Jun 2027 07:05:53.142   08 Jun 2027 07:05:55.128             1.986           104.594
       215   08 Jun 2027 07:06:06.590   08 Jun 2027 07:06:09.612             3.022           272.469
       216   08 Jun 2027 07:06:38.152   08 Jun 2027 07:06:41.365             3.213           777.156
       217   08 Jun 2027 07:07:09.503   08 Jun 2027 07:07:11.750             2.247           807.219
       218   08 Jun 2027 07:09:38.307   08 Jun 2027 07:09:46.807             8.500          3897.938
       219   08 Jun 2027 07:10:23.940   08 Jun 2027 07:10:26.437             2.497           390.594
       220   08 Jun 2027 07:10:49.534   08 Jun 2027 07:10:53.779             4.245           329.938
       221   08 Jun 2027 07:11:32.932   08 Jun 2027 07:11:35.319             2.387           804.094
       222   08 Jun 2027 07:11:51.888   08 Jun 2027 07:11:54.364             2.476           474.125
       223   08 Jun 2027 07:12:00.541   08 Jun 2027 07:12:00.555             0.014             7.000
       224   08 Jun 2027 08:41:06.435   08 Jun 2027 08:41:18.195            11.760          3672.031
       225   08 Jun 2027 08:45:59.436   08 Jun 2027 08:45:59.734             0.298           118.312
       226   08 Jun 2027 08:47:01.396   08 Jun 2027 08:47:07.796             6.400          1292.156
       227   08 Jun 2027 10:18:09.395   08 Jun 2027 10:18:24.970            15.575          6715.813
       228   08 Jun 2027 10:21:24.148   08 Jun 2027 10:21:25.121             0.973            25.125
       229   08 Jun 2027 10:21:56.031   08 Jun 2027 10:21:58.305             2.274           484.250
       230   08 Jun 2027 10:22:04.220   08 Jun 2027 10:22:05.451             1.231            97.500
       231   08 Jun 2027 10:22:55.658   08 Jun 2027 10:22:58.404             2.746          1060.125
       232   08 Jun 2027 10:23:02.466   08 Jun 2027 10:23:02.647             0.181            74.875
       233   08 Jun 2027 11:54:49.233   08 Jun 2027 11:55:05.154            15.921          7345.625
       234   08 Jun 2027 11:55:39.377   08 Jun 2027 11:55:43.111             3.734           277.500
       235   08 Jun 2027 11:55:48.907   08 Jun 2027 11:55:49.355             0.448           177.344
       236   08 Jun 2027 11:56:31.217   08 Jun 2027 11:56:31.959             0.742           329.562
       237   08 Jun 2027 11:57:34.425   08 Jun 2027 11:57:35.557             1.132            84.188
       238   08 Jun 2027 11:58:22.013   08 Jun 2027 11:58:25.188             3.175           886.375
       239   08 Jun 2027 11:59:19.577   08 Jun 2027 11:59:24.113             4.536           104.719
       240   08 Jun 2027 11:59:45.192   08 Jun 2027 11:59:46.724             1.532           457.125
       241   09 Jun 2027 04:05:41.620   09 Jun 2027 04:06:30.809            49.189         24594.500
       242   09 Jun 2027 05:42:10.435   09 Jun 2027 05:44:38.417           147.982         73991.000
       243   09 Jun 2027 05:45:09.688   09 Jun 2027 05:45:30.205            20.517         10258.500
       244   09 Jun 2027 07:17:17.979   09 Jun 2027 07:18:54.626            96.647         48323.500
       245   09 Jun 2027 07:19:17.902   09 Jun 2027 07:19:23.842             5.940          1570.375
       246   09 Jun 2027 07:20:53.546   09 Jun 2027 07:20:58.412             4.866          1895.469
       247   09 Jun 2027 07:22:23.047   09 Jun 2027 07:22:28.690             5.643          2518.281
       248   09 Jun 2027 07:23:20.571   09 Jun 2027 07:23:24.654             4.083          1199.719
       249   09 Jun 2027 07:23:48.165   09 Jun 2027 07:23:51.077             2.912           595.688
       250   09 Jun 2027 08:53:39.559   09 Jun 2027 08:53:50.903            11.344          5360.719
       251   09 Jun 2027 08:55:04.115   09 Jun 2027 08:55:06.079             1.964           668.250
       252   09 Jun 2027 08:55:36.934   09 Jun 2027 08:55:37.911             0.977            24.000
       253   09 Jun 2027 08:56:52.926   09 Jun 2027 08:56:54.594             1.668           411.719
       254   09 Jun 2027 08:58:51.911   09 Jun 2027 08:59:02.524            10.613          2501.375
       255   09 Jun 2027 08:59:08.538   09 Jun 2027 08:59:09.562             1.024           187.938
       256   09 Jun 2027 08:59:44.850   09 Jun 2027 08:59:47.624             2.774          1102.750
       257   09 Jun 2027 10:31:05.485   09 Jun 2027 10:31:22.431            16.946          6287.719
       258   09 Jun 2027 10:33:44.603   09 Jun 2027 10:33:46.412             1.809           723.063
       259   09 Jun 2027 10:34:07.490   09 Jun 2027 10:34:09.450             1.960           498.844
       260   09 Jun 2027 10:35:01.989   09 Jun 2027 10:35:05.892             3.903          1641.844
       261   10 Jun 2027 04:17:44.617   10 Jun 2027 04:18:19.890            35.273         17636.500
       262   10 Jun 2027 04:20:30.091   10 Jun 2027 04:20:35.164             5.073          2536.500
       263   10 Jun 2027 05:54:13.484   10 Jun 2027 05:56:56.112           162.628         81314.000
       264   10 Jun 2027 05:57:27.154   10 Jun 2027 05:57:38.372            11.218          5609.000
       265   10 Jun 2027 07:29:24.924   10 Jun 2027 07:30:50.380            85.456         42250.812
       266   10 Jun 2027 07:31:43.585   10 Jun 2027 07:31:48.098             4.513           452.469
       267   10 Jun 2027 07:32:12.461   10 Jun 2027 07:32:13.160             0.699            63.469
       268   10 Jun 2027 07:32:47.429   10 Jun 2027 07:32:51.844             4.415           939.062
       269   10 Jun 2027 07:34:22.969   10 Jun 2027 07:34:32.109             9.140          2192.594
       270   10 Jun 2027 07:34:51.455   10 Jun 2027 07:34:52.633             1.178           247.375
       271   10 Jun 2027 07:35:21.811   10 Jun 2027 07:35:25.885             4.074           483.063
       272   10 Jun 2027 09:05:21.151   10 Jun 2027 09:05:31.062             9.911          4737.625
       273   10 Jun 2027 09:08:05.695   10 Jun 2027 09:08:06.921             1.226           495.219
       274   10 Jun 2027 09:09:36.797   10 Jun 2027 09:09:42.072             5.275          1360.906
       275   10 Jun 2027 09:10:41.956   10 Jun 2027 09:10:45.183             3.227          1099.656
       276   10 Jun 2027 10:43:12.659   10 Jun 2027 10:43:27.342            14.683          5541.094
       277   10 Jun 2027 10:46:42.859   10 Jun 2027 10:46:48.339             5.480          1879.437
       278   10 Jun 2027 10:47:19.572   10 Jun 2027 10:47:24.571             4.999           778.719
       279   10 Jun 2027 10:47:29.485   10 Jun 2027 10:47:30.096             0.611           153.562
       280   10 Jun 2027 10:47:39.739   10 Jun 2027 10:47:42.748             3.009           301.344
       281   11 Jun 2027 03:06:14.087   11 Jun 2027 03:06:56.112            42.025         21012.500
       282   11 Jun 2027 03:07:01.637   11 Jun 2027 03:07:25.659            24.022         12011.000
       283   11 Jun 2027 03:09:29.784   11 Jun 2027 03:09:45.831            16.047          8023.500
       284   11 Jun 2027 04:30:11.287   11 Jun 2027 04:30:39.573            28.286         14143.000
       285   11 Jun 2027 04:31:19.023   11 Jun 2027 04:31:19.779             0.756           378.000
       286   11 Jun 2027 04:31:40.954   11 Jun 2027 04:32:14.260            33.306         16653.000
       287   11 Jun 2027 06:05:57.616   11 Jun 2027 06:08:33.488           155.872         77936.000
       288   11 Jun 2027 06:09:27.263   11 Jun 2027 06:09:37.068             9.805          4178.844
       289   11 Jun 2027 07:40:40.664   11 Jun 2027 07:40:55.919            15.255          4818.062
       290   11 Jun 2027 07:41:31.224   11 Jun 2027 07:41:38.151             6.927           902.469
       291   11 Jun 2027 07:43:50.478   11 Jun 2027 07:44:00.638            10.160          1988.313
       292   11 Jun 2027 07:44:05.558   11 Jun 2027 07:44:07.708             2.150           127.437
       293   11 Jun 2027 07:44:49.541   11 Jun 2027 07:44:50.605             1.064           185.594
       294   11 Jun 2027 07:46:22.272   11 Jun 2027 07:46:26.618             4.346          2059.844
       295   11 Jun 2027 07:47:52.127   11 Jun 2027 07:48:01.320             9.193          2168.250
       296   11 Jun 2027 09:17:26.596   11 Jun 2027 09:17:37.021            10.425          5047.406
       297   11 Jun 2027 09:21:41.225   11 Jun 2027 09:21:45.060             3.835          1155.250
       298   11 Jun 2027 09:22:10.804   11 Jun 2027 09:22:12.496             1.692           444.500
       299   11 Jun 2027 09:22:44.311   11 Jun 2027 09:22:46.475             2.164           763.625
       300   11 Jun 2027 10:55:42.480   11 Jun 2027 10:55:54.583            12.103          5645.344
       301   11 Jun 2027 10:56:28.059   11 Jun 2027 10:56:29.387             1.328           521.906
       302   11 Jun 2027 10:58:01.809   11 Jun 2027 10:58:05.652             3.843           516.875
       303   11 Jun 2027 10:58:12.415   11 Jun 2027 10:58:13.338             0.923           151.219
       304   11 Jun 2027 10:59:22.294   11 Jun 2027 10:59:26.107             3.813           857.437
       305   11 Jun 2027 10:59:32.586   11 Jun 2027 10:59:34.456             1.870           112.188
       306   12 Jun 2027 03:06:36.314   12 Jun 2027 03:06:40.537             4.223          2111.500
       307   12 Jun 2027 03:06:52.850   12 Jun 2027 03:07:15.624            22.774         11387.000
       308   12 Jun 2027 03:18:12.276   12 Jun 2027 03:19:40.501            88.225         44112.500
       309   12 Jun 2027 04:40:48.765   12 Jun 2027 04:41:47.516            58.751         29375.500
       310   12 Jun 2027 04:42:26.932   12 Jun 2027 04:43:09.162            42.230         21115.000
       311   12 Jun 2027 04:43:35.204   12 Jun 2027 04:43:36.164             0.960           480.000
       312   12 Jun 2027 04:45:17.820   12 Jun 2027 04:45:22.635             4.815          2407.500
       313   12 Jun 2027 06:15:58.382   12 Jun 2027 06:17:12.501            74.119         37059.500
       314   12 Jun 2027 06:17:40.915   12 Jun 2027 06:17:52.078            11.163          5527.937
       315   12 Jun 2027 06:18:48.655   12 Jun 2027 06:18:55.880             7.225           209.031
       316   12 Jun 2027 06:19:58.739   12 Jun 2027 06:20:02.643             3.904          1669.625
       317   12 Jun 2027 06:20:43.564   12 Jun 2027 06:20:45.809             2.245           519.938
       318   12 Jun 2027 06:21:40.312   12 Jun 2027 06:21:44.683             4.371          1637.500
       319   12 Jun 2027 06:22:23.440   12 Jun 2027 06:22:26.871             3.431          1211.156
       320   12 Jun 2027 07:52:46.035   12 Jun 2027 07:52:55.512             9.477          3214.313
       321   12 Jun 2027 07:54:41.516   12 Jun 2027 07:54:45.958             4.442          2187.312
       322   12 Jun 2027 07:55:52.685   12 Jun 2027 07:55:53.398             0.713           244.812
       323   12 Jun 2027 07:56:00.554   12 Jun 2027 07:56:06.748             6.194            48.375
       324   12 Jun 2027 07:57:02.189   12 Jun 2027 07:57:05.198             3.009           358.094
       325   12 Jun 2027 07:57:36.520   12 Jun 2027 07:57:38.403             1.883           721.406
       326   12 Jun 2027 07:58:43.285   12 Jun 2027 07:58:46.726             3.441          1720.500
       327   12 Jun 2027 07:59:09.735   12 Jun 2027 07:59:13.118             3.383           889.000
       328   12 Jun 2027 07:59:21.127   12 Jun 2027 07:59:22.822             1.695           245.688
       329   12 Jun 2027 08:00:11.661   12 Jun 2027 08:00:12.079             0.418           171.375
       330   12 Jun 2027 09:29:47.065   12 Jun 2027 09:29:59.181            12.116          5331.594
       331   12 Jun 2027 09:31:09.014   12 Jun 2027 09:31:17.526             8.512           120.531
       332   12 Jun 2027 09:33:30.123   12 Jun 2027 09:33:32.419             2.296            71.969
       333   12 Jun 2027 09:34:01.024   12 Jun 2027 09:34:03.407             2.383           561.906
       334   12 Jun 2027 09:34:31.269   12 Jun 2027 09:34:36.683             5.414           601.094
       335   12 Jun 2027 09:35:29.739   12 Jun 2027 09:35:34.058             4.319          1658.000
       336   12 Jun 2027 09:35:47.301   12 Jun 2027 09:35:48.656             1.355           204.375
       337   12 Jun 2027 11:07:40.450   12 Jun 2027 11:07:52.805            12.355          5248.500
       338   12 Jun 2027 11:08:26.228   12 Jun 2027 11:08:29.438             3.210           911.875
       339   12 Jun 2027 11:09:22.919   12 Jun 2027 11:09:24.604             1.685           668.687
       340   12 Jun 2027 11:11:00.740   12 Jun 2027 11:11:04.910             4.170          2081.812
       341   12 Jun 2027 11:11:18.058   12 Jun 2027 11:11:23.325             5.267           410.875
       342   12 Jun 2027 11:11:30.776   12 Jun 2027 11:11:33.057             2.281           206.063
       343   13 Jun 2027 03:17:57.618   13 Jun 2027 03:18:40.330            42.712         21356.000
       344   13 Jun 2027 03:30:11.338   13 Jun 2027 03:31:09.526            58.188         29094.000
       345   13 Jun 2027 04:52:24.642   13 Jun 2027 04:53:33.138            68.496         34248.000
       346   13 Jun 2027 04:54:21.146   13 Jun 2027 04:55:12.285            51.139         25569.500
       347   13 Jun 2027 04:55:38.202   13 Jun 2027 04:55:51.471            13.269          6634.500
       348   13 Jun 2027 04:56:38.042   13 Jun 2027 04:56:38.042             0.000             0.000
       349   13 Jun 2027 04:57:20.525   13 Jun 2027 04:57:39.954            19.429          9714.500
       350   13 Jun 2027 06:27:18.328   13 Jun 2027 06:28:19.800            61.472         29764.907
       351   13 Jun 2027 06:28:30.847   13 Jun 2027 06:28:33.183             2.336           115.375
       352   13 Jun 2027 06:29:30.036   13 Jun 2027 06:29:37.740             7.704          1776.656
       353   13 Jun 2027 06:30:03.772   13 Jun 2027 06:30:04.956             1.184           582.062
       354   13 Jun 2027 06:30:38.926   13 Jun 2027 06:30:39.920             0.994           160.406
       355   13 Jun 2027 06:30:51.768   13 Jun 2027 06:30:54.272             2.504           102.969
       356   13 Jun 2027 06:31:15.922   13 Jun 2027 06:31:18.581             2.659           676.563
       357   13 Jun 2027 06:32:30.737   13 Jun 2027 06:32:34.513             3.776          1888.000
       358   13 Jun 2027 06:32:50.992   13 Jun 2027 06:32:57.643             6.651           643.438
       359   13 Jun 2027 06:33:15.499   13 Jun 2027 06:33:15.499             0.000             0.000
       360   13 Jun 2027 06:34:08.387   13 Jun 2027 06:34:13.780             5.393          2062.750
       361   13 Jun 2027 06:34:34.890   13 Jun 2027 06:34:35.742             0.852           372.156
       362   13 Jun 2027 06:35:46.812   13 Jun 2027 06:35:50.817             4.005          1880.469
       363   13 Jun 2027 08:04:53.068   13 Jun 2027 08:05:00.944             7.876           716.031
       364   13 Jun 2027 08:06:41.099   13 Jun 2027 08:06:46.602             5.503          2087.125
       365   13 Jun 2027 08:07:46.130   13 Jun 2027 08:07:49.807             3.677          1442.531
       366   13 Jun 2027 08:09:13.569   13 Jun 2027 08:09:14.606             1.037           142.594
       367   13 Jun 2027 08:09:38.341   13 Jun 2027 08:09:40.535             2.194           424.219
       368   13 Jun 2027 08:10:42.884   13 Jun 2027 08:10:48.540             5.656          1694.031
       369   13 Jun 2027 08:11:00.599   13 Jun 2027 08:11:02.903             2.304           213.375
       370   13 Jun 2027 08:12:01.122   13 Jun 2027 08:12:06.753             5.631          1675.125
       371   13 Jun 2027 08:12:15.247   13 Jun 2027 08:12:15.699             0.452           226.000
       372   13 Jun 2027 09:41:36.367   13 Jun 2027 09:41:48.084            11.717          4827.187
       373   13 Jun 2027 09:44:14.718   13 Jun 2027 09:44:22.801             8.083          2292.531
       374   13 Jun 2027 09:44:43.960   13 Jun 2027 09:44:46.263             2.303           313.750
       375   13 Jun 2027 09:45:24.827   13 Jun 2027 09:45:25.754             0.927            41.594
       376   13 Jun 2027 09:45:47.354   13 Jun 2027 09:45:48.340             0.986            47.469
       377   13 Jun 2027 09:45:55.978   13 Jun 2027 09:45:58.042             2.064             9.500
       378   13 Jun 2027 09:46:05.934   13 Jun 2027 09:46:08.310             2.376           246.625
       379   13 Jun 2027 09:46:46.463   13 Jun 2027 09:46:48.709             2.246           920.219
       380   13 Jun 2027 09:46:57.091   13 Jun 2027 09:47:00.909             3.818           261.938
       381   13 Jun 2027 09:47:30.950   13 Jun 2027 09:47:35.368             4.418           938.781
       382   13 Jun 2027 09:48:08.833   13 Jun 2027 09:48:12.056             3.223          1045.781
       383   13 Jun 2027 11:19:39.910   13 Jun 2027 11:19:54.838            14.928          6018.094
       384   13 Jun 2027 11:20:27.257   13 Jun 2027 11:20:32.772             5.515           854.344
       385   13 Jun 2027 11:21:59.017   13 Jun 2027 11:22:00.705             1.688           585.594
       386   13 Jun 2027 11:22:51.079   13 Jun 2027 11:22:57.667             6.588           182.719
       387   13 Jun 2027 11:23:26.184   13 Jun 2027 11:23:34.069             7.885           760.406
       388   13 Jun 2027 11:23:47.965   13 Jun 2027 11:23:49.544             1.579           434.250
