uniorb/output/strategy_4/Camera/Camera_KinoSat_110508.txt

KinoSat_110508
-------------------------
    Access    *     Start Time (UTCG)     *     Stop Time (UTCG)  *   Duration (s) *   Data (Mbytes)
         1   01 Jun 2027 03:19:43.881   01 Jun 2027 03:20:51.089            67.208         33604.000
         2   01 Jun 2027 03:21:24.768   01 Jun 2027 03:21:28.767             3.999          1999.500
         3   01 Jun 2027 03:22:01.289   01 Jun 2027 03:22:22.246            20.957         10478.500
         4   01 Jun 2027 03:22:41.546   01 Jun 2027 03:22:51.670            10.124          5062.000
         5   01 Jun 2027 03:23:07.097   01 Jun 2027 03:23:07.097             0.000             0.000
         6   01 Jun 2027 04:54:41.631   01 Jun 2027 04:56:51.152           129.521         64760.500
         7   01 Jun 2027 04:57:23.975   01 Jun 2027 04:57:39.308            15.333          7666.500
         8   01 Jun 2027 04:58:13.594   01 Jun 2027 04:58:17.098             3.504          1752.000
         9   01 Jun 2027 04:59:30.560   01 Jun 2027 04:59:57.179            26.619         13309.500
        10   01 Jun 2027 05:00:29.483   01 Jun 2027 05:00:41.838            12.355          6177.500
        11   01 Jun 2027 05:01:39.642   01 Jun 2027 05:01:43.059             3.417          1708.500
        12   01 Jun 2027 06:30:53.732   01 Jun 2027 06:33:15.819           142.087         71043.500
        13   01 Jun 2027 06:33:54.507   01 Jun 2027 06:34:01.864             7.357          3678.500
        14   01 Jun 2027 06:34:28.541   01 Jun 2027 06:34:41.643            13.102          6551.000
        15   01 Jun 2027 06:34:58.947   01 Jun 2027 06:35:13.935            14.988          7494.000
        16   01 Jun 2027 06:36:25.716   01 Jun 2027 06:36:34.229             8.513          4256.500
        17   01 Jun 2027 06:36:58.104   01 Jun 2027 06:37:20.119            22.015         11007.500
        18   01 Jun 2027 08:08:54.099   01 Jun 2027 08:11:33.323           159.224         79612.000
        19   01 Jun 2027 09:44:35.109   01 Jun 2027 09:47:45.778           190.669         95334.500
        20   01 Jun 2027 09:48:15.834   01 Jun 2027 09:48:33.629            17.795          8897.500
        21   01 Jun 2027 09:49:29.644   01 Jun 2027 09:49:32.953             3.309          1654.500
        22   01 Jun 2027 09:49:47.699   01 Jun 2027 09:50:00.511            12.812          6406.000
        23   02 Jun 2027 03:30:19.932   02 Jun 2027 03:30:25.872             5.940          2970.000
        24   02 Jun 2027 03:31:29.479   02 Jun 2027 03:35:56.169           266.690        133345.000
        25   02 Jun 2027 05:06:15.434   02 Jun 2027 05:10:15.823           240.389        120194.500
        26   02 Jun 2027 05:11:00.354   02 Jun 2027 05:12:08.944            68.590         34295.000
        27   02 Jun 2027 05:13:06.085   02 Jun 2027 05:13:22.958            16.873          8436.500
        28   02 Jun 2027 05:13:44.425   02 Jun 2027 05:13:48.325             3.900          1950.000
        29   02 Jun 2027 06:43:14.774   02 Jun 2027 06:49:22.883           368.109        184054.500
        30   02 Jun 2027 08:21:15.792   02 Jun 2027 08:25:12.440           236.648        118324.000
        31   02 Jun 2027 09:54:31.112   02 Jun 2027 10:00:59.889           388.777        194388.500
        32   02 Jun 2027 10:01:35.144   02 Jun 2027 10:02:22.378            47.234         23617.000
        33   03 Jun 2027 03:41:12.790   03 Jun 2027 03:42:39.829            87.039         43519.500
        34   03 Jun 2027 03:43:12.951   03 Jun 2027 03:48:09.573           296.622        148311.000
        35   03 Jun 2027 05:18:22.905   03 Jun 2027 05:25:48.992           446.087        223043.500
        36   03 Jun 2027 06:55:34.517   03 Jun 2027 07:01:28.976           354.459        177229.500
        37   03 Jun 2027 08:33:40.738   03 Jun 2027 08:37:15.139           214.401        107200.500
        38   03 Jun 2027 10:06:40.613   03 Jun 2027 10:13:18.125           397.512        198756.000
        39   03 Jun 2027 10:13:30.359   03 Jun 2027 10:13:50.136            19.777          9888.500
        40   04 Jun 2027 03:52:41.619   04 Jun 2027 04:00:30.902           469.283        234641.500
        41   04 Jun 2027 04:01:22.482   04 Jun 2027 04:01:46.774            24.292         12146.000
        42   04 Jun 2027 05:30:24.185   04 Jun 2027 05:37:50.825           446.640        223320.000
        43   04 Jun 2027 07:07:25.555   04 Jun 2027 07:13:06.509           340.954        170477.000
        44   04 Jun 2027 07:13:51.284   04 Jun 2027 07:13:55.178             3.894          1947.000
        45   04 Jun 2027 08:45:47.228   04 Jun 2027 08:49:24.145           216.917        108458.500
        46   04 Jun 2027 10:19:06.732   04 Jun 2027 10:25:18.351           371.619        185809.500
        47   05 Jun 2027 04:05:24.957   05 Jun 2027 04:12:44.341           439.384        219692.000
        48   05 Jun 2027 04:13:15.337   05 Jun 2027 04:13:54.471            39.134         19567.000
        49   05 Jun 2027 05:42:27.441   05 Jun 2027 05:49:48.537           441.096        220548.000
        50   05 Jun 2027 07:19:22.192   05 Jun 2027 07:24:25.689           303.497        151748.500
        51   05 Jun 2027 07:24:46.729   05 Jun 2027 07:25:43.722            56.993         28496.500
        52   05 Jun 2027 08:56:28.504   05 Jun 2027 09:01:22.204           293.700        146850.000
        53   05 Jun 2027 10:31:27.657   05 Jun 2027 10:32:14.132            46.475         23237.500
        54   05 Jun 2027 10:33:16.094   05 Jun 2027 10:36:30.534           194.440         97220.000
        55   06 Jun 2027 04:17:21.276   06 Jun 2027 04:25:53.683           512.407        256203.500
        56   06 Jun 2027 05:54:53.465   06 Jun 2027 06:01:38.640           405.175        202587.500
        57   06 Jun 2027 07:32:54.240   06 Jun 2027 07:36:15.927           201.687        100843.500
        58   06 Jun 2027 07:36:21.348   06 Jun 2027 07:37:37.064            75.716         37858.000
        59   06 Jun 2027 09:08:44.387   06 Jun 2027 09:13:12.548           268.161        134080.500
        60   06 Jun 2027 10:46:13.667   06 Jun 2027 10:48:17.514           123.847         61923.500
        61   07 Jun 2027 04:30:00.851   07 Jun 2027 04:36:47.727           406.876        203438.000
        62   07 Jun 2027 04:36:59.398   07 Jun 2027 04:37:48.537            49.139         24569.500
        63   07 Jun 2027 06:06:59.360   07 Jun 2027 06:13:42.892           403.532        201766.000
        64   07 Jun 2027 07:44:37.998   07 Jun 2027 07:49:07.729           269.731        134865.500
        65   07 Jun 2027 09:20:49.263   07 Jun 2027 09:25:31.470           282.207        141103.500
        66   07 Jun 2027 10:59:27.010   07 Jun 2027 10:59:30.167             3.157          1578.500
        67   08 Jun 2027 03:08:03.391   08 Jun 2027 03:11:38.421           215.030        107515.000
        68   08 Jun 2027 04:43:13.455   08 Jun 2027 04:49:50.244           396.789        198394.500
        69   08 Jun 2027 06:19:35.465   08 Jun 2027 06:25:49.178           373.713        186856.500
        70   08 Jun 2027 07:57:05.750   08 Jun 2027 08:01:28.974           263.224        131612.000
        71   08 Jun 2027 09:33:24.901   08 Jun 2027 09:37:45.576           260.675        130337.500
        72   09 Jun 2027 03:19:58.354   09 Jun 2027 03:23:37.721           219.367        109683.500
        73   09 Jun 2027 04:54:55.884   09 Jun 2027 05:01:57.722           421.838        210919.000
        74   09 Jun 2027 06:32:56.112   09 Jun 2027 06:37:35.005           278.893        139446.500
        75   09 Jun 2027 08:09:09.174   09 Jun 2027 08:13:20.261           251.087        125543.500
        76   09 Jun 2027 09:45:08.413   09 Jun 2027 09:49:13.000           244.587        122293.500
        77   09 Jun 2027 09:49:19.377   09 Jun 2027 09:50:15.931            56.554         28277.000
        78   10 Jun 2027 03:30:34.362   10 Jun 2027 03:30:40.808             6.446          3223.000
        79   10 Jun 2027 03:31:44.069   10 Jun 2027 03:36:10.900           266.831        133415.500
        80   10 Jun 2027 05:06:29.622   10 Jun 2027 05:14:02.910           453.288        226644.000
        81   10 Jun 2027 06:43:29.508   10 Jun 2027 06:49:37.302           367.794        183897.000
        82   10 Jun 2027 08:21:49.340   10 Jun 2027 08:25:27.103           217.763        108881.500
        83   10 Jun 2027 09:54:45.329   10 Jun 2027 10:01:14.569           389.240        194620.000
        84   10 Jun 2027 10:01:50.065   10 Jun 2027 10:02:37.014            46.949         23474.500
        85   11 Jun 2027 03:41:26.549   11 Jun 2027 03:42:59.000            92.451         46225.500
        86   11 Jun 2027 03:43:27.436   11 Jun 2027 03:48:24.417           296.981        148490.500
        87   11 Jun 2027 05:18:37.656   11 Jun 2027 05:25:36.383           418.727        209363.500
        88   11 Jun 2027 05:26:03.101   11 Jun 2027 05:26:03.629             0.528           264.000
        89   11 Jun 2027 06:55:34.960   11 Jun 2027 07:01:43.591           368.631        184315.500
        90   11 Jun 2027 08:33:57.069   11 Jun 2027 08:37:29.684           212.615        106307.500
        91   11 Jun 2027 10:06:55.694   11 Jun 2027 10:13:45.549           409.855        204927.500
        92   11 Jun 2027 10:14:06.463   11 Jun 2027 10:14:11.924             5.461          2730.500
        93   11 Jun 2027 10:14:28.793   11 Jun 2027 10:14:34.558             5.765          2882.500
        94   12 Jun 2027 03:52:55.938   12 Jun 2027 04:00:45.621           469.683        234841.500
        95   12 Jun 2027 04:01:38.448   12 Jun 2027 04:02:01.466            23.018         11509.000
        96   12 Jun 2027 05:30:38.917   12 Jun 2027 05:38:05.433           446.516        223258.000
        97   12 Jun 2027 07:07:40.260   12 Jun 2027 07:13:21.054           340.794        170397.000
        98   12 Jun 2027 07:14:05.767   12 Jun 2027 07:14:09.850             4.083          2041.500
        99   12 Jun 2027 08:45:29.420   12 Jun 2027 08:49:38.766           249.346        124673.000
       100   12 Jun 2027 10:19:21.442   12 Jun 2027 10:25:04.811           343.369        171684.500
       101   13 Jun 2027 04:05:39.539   13 Jun 2027 04:12:59.026           439.487        219743.500
       102   13 Jun 2027 04:13:40.996   13 Jun 2027 04:14:09.078            28.082         14041.000
       103   13 Jun 2027 05:42:42.217   13 Jun 2027 05:50:03.060           440.843        220421.500
       104   13 Jun 2027 07:19:37.033   13 Jun 2027 07:24:40.234           303.201        151600.500
       105   13 Jun 2027 07:25:08.063   13 Jun 2027 07:25:58.142            50.079         25039.500
       106   13 Jun 2027 08:56:43.108   13 Jun 2027 09:01:36.791           293.683        146841.500
       107   13 Jun 2027 10:31:42.871   13 Jun 2027 10:32:28.683            45.812         22906.000
       108   13 Jun 2027 10:33:31.254   13 Jun 2027 10:36:44.970           193.716         96858.000
