uniorb/output/strategy_4/Camera/Camera_KinoSat_111008.txt

KinoSat_111008
-------------------------
    Access    *     Start Time (UTCG)     *     Stop Time (UTCG)  *   Duration (s) *   Data (Mbytes)
         1   01 Jun 2027 03:00:00.000   01 Jun 2027 03:00:18.248            18.248          9124.000
         2   01 Jun 2027 03:10:41.087   01 Jun 2027 03:11:58.720            77.633         38816.500
         3   01 Jun 2027 03:12:10.684   01 Jun 2027 03:12:13.803             3.119          1559.500
         4   01 Jun 2027 03:12:48.451   01 Jun 2027 03:12:53.762             5.311          2655.500
         5   01 Jun 2027 03:13:15.174   01 Jun 2027 03:13:30.123            14.949          7474.500
         6   01 Jun 2027 04:33:38.346   01 Jun 2027 04:34:25.139            46.793         23396.500
         7   01 Jun 2027 04:36:01.518   01 Jun 2027 04:36:10.886             9.368          4684.000
         8   01 Jun 2027 04:36:29.467   01 Jun 2027 04:36:29.467             0.000             0.000
         9   01 Jun 2027 04:37:01.722   01 Jun 2027 04:37:04.579             2.857          1428.500
        10   01 Jun 2027 04:37:23.983   01 Jun 2027 04:37:24.342             0.359           179.500
        11   01 Jun 2027 06:09:05.522   01 Jun 2027 06:09:22.304            16.782          8391.000
        12   01 Jun 2027 06:10:21.005   01 Jun 2027 06:11:57.484            96.479         48239.500
        13   01 Jun 2027 06:13:22.381   01 Jun 2027 06:13:38.934            16.553          8276.500
        14   01 Jun 2027 07:45:06.399   01 Jun 2027 07:45:43.349            36.950         18475.000
        15   01 Jun 2027 07:45:57.120   01 Jun 2027 07:47:08.315            71.195         35597.500
        16   01 Jun 2027 07:47:19.574   01 Jun 2027 07:47:50.914            31.340         15670.000
        17   01 Jun 2027 07:48:16.008   01 Jun 2027 07:48:19.588             3.580          1790.000
        18   01 Jun 2027 07:49:17.523   01 Jun 2027 07:49:35.263            17.740          8870.000
        19   01 Jun 2027 07:50:30.397   01 Jun 2027 07:50:31.349             0.952           476.000
        20   01 Jun 2027 07:52:37.222   01 Jun 2027 07:52:40.808             3.586          1793.000
        21   01 Jun 2027 09:22:08.071   01 Jun 2027 09:25:20.941           192.870         96435.000
        22   01 Jun 2027 11:00:08.003   01 Jun 2027 11:02:44.592           156.589         78294.500
        23   01 Jun 2027 11:02:50.213   01 Jun 2027 11:02:52.085             1.872           936.000
        24   01 Jun 2027 11:03:04.229   01 Jun 2027 11:03:04.229             0.000             0.000
        25   01 Jun 2027 11:03:28.736   01 Jun 2027 11:03:33.471             4.735          2367.500
        26   02 Jun 2027 03:11:00.101   02 Jun 2027 03:11:04.252             4.151          2075.500
        27   02 Jun 2027 03:12:13.297   02 Jun 2027 03:12:20.795             7.498          3749.000
        28   02 Jun 2027 03:22:42.460   02 Jun 2027 03:24:02.691            80.231         40115.500
        29   02 Jun 2027 04:44:55.474   02 Jun 2027 04:46:08.768            73.294         36647.000
        30   02 Jun 2027 04:46:57.468   02 Jun 2027 04:47:04.273             6.805          3402.500
        31   02 Jun 2027 04:47:37.336   02 Jun 2027 04:47:58.251            20.915         10457.500
        32   02 Jun 2027 04:48:33.218   02 Jun 2027 04:48:33.218             0.000             0.000
        33   02 Jun 2027 04:49:51.558   02 Jun 2027 04:50:06.420            14.862          7431.000
        34   02 Jun 2027 06:20:02.685   02 Jun 2027 06:21:31.776            89.091         44545.500
        35   02 Jun 2027 06:22:04.559   02 Jun 2027 06:23:21.995            77.436         38718.000
        36   02 Jun 2027 06:25:02.988   02 Jun 2027 06:26:10.411            67.423         33711.500
        37   02 Jun 2027 07:57:16.346   02 Jun 2027 08:00:15.857           179.511         89755.500
        38   02 Jun 2027 08:03:42.213   02 Jun 2027 08:04:35.534            53.321         26660.500
        39   02 Jun 2027 09:34:12.241   02 Jun 2027 09:34:47.759            35.518         16736.438
        40   02 Jun 2027 09:35:27.520   02 Jun 2027 09:35:30.740             3.220          1121.344
        41   02 Jun 2027 09:35:48.170   02 Jun 2027 09:35:51.775             3.605           544.688
        42   02 Jun 2027 09:37:47.161   02 Jun 2027 09:37:52.472             5.311          1991.469
        43   02 Jun 2027 09:38:02.691   02 Jun 2027 09:38:03.362             0.671            73.063
        44   02 Jun 2027 09:38:22.094   02 Jun 2027 09:38:31.947             9.853           516.719
        45   02 Jun 2027 09:38:53.403   02 Jun 2027 09:38:54.329             0.926           339.875
        46   02 Jun 2027 09:39:02.540   02 Jun 2027 09:39:04.079             1.539           137.438
        47   02 Jun 2027 09:39:38.365   02 Jun 2027 09:39:43.696             5.331           779.063
        48   02 Jun 2027 09:40:07.557   02 Jun 2027 09:40:08.191             0.634           278.031
        49   02 Jun 2027 11:12:06.632   02 Jun 2027 11:12:21.628            14.996          6013.781
        50   02 Jun 2027 11:12:53.478   02 Jun 2027 11:12:57.142             3.664           893.406
        51   02 Jun 2027 11:14:21.743   02 Jun 2027 11:14:29.107             7.364           385.656
        52   02 Jun 2027 11:15:23.794   02 Jun 2027 11:15:30.143             6.349          1708.969
        53   02 Jun 2027 11:16:01.996   02 Jun 2027 11:16:03.153             1.157           322.187
        54   03 Jun 2027 03:22:28.335   03 Jun 2027 03:23:07.510            39.175         19587.500
        55   03 Jun 2027 03:24:34.845   03 Jun 2027 03:24:34.845             0.000             0.000
        56   03 Jun 2027 03:34:39.264   03 Jun 2027 03:35:18.578            39.314         19657.000
        57   03 Jun 2027 04:56:40.999   03 Jun 2027 04:58:01.945            80.946         40473.000
        58   03 Jun 2027 04:58:43.940   03 Jun 2027 04:59:48.858            64.918         32459.000
        59   03 Jun 2027 05:00:58.762   03 Jun 2027 05:01:10.390            11.628          5814.000
        60   03 Jun 2027 06:31:32.118   03 Jun 2027 06:32:53.265            81.147         39415.656
        61   03 Jun 2027 06:33:28.406   03 Jun 2027 06:33:30.918             2.512          1098.156
        62   03 Jun 2027 06:34:02.255   03 Jun 2027 06:34:06.576             4.321           867.125
        63   03 Jun 2027 06:35:32.764   03 Jun 2027 06:35:38.066             5.302          1887.375
        64   03 Jun 2027 06:37:02.435   03 Jun 2027 06:37:13.540            11.105          2478.156
        65   03 Jun 2027 06:38:10.818   03 Jun 2027 06:38:15.836             5.018          1651.406
        66   03 Jun 2027 06:38:39.412   03 Jun 2027 06:38:43.521             4.109           523.625
        67   03 Jun 2027 06:39:02.692   03 Jun 2027 06:39:05.359             2.667           424.469
        68   03 Jun 2027 06:39:13.098   03 Jun 2027 06:39:13.548             0.450           217.875
        69   03 Jun 2027 06:40:13.976   03 Jun 2027 06:40:21.098             7.122          1888.375
        70   03 Jun 2027 08:09:18.028   03 Jun 2027 08:09:22.109             4.081          1984.969
        71   03 Jun 2027 08:10:01.762   03 Jun 2027 08:10:06.094             4.332           886.219
        72   03 Jun 2027 08:11:25.817   03 Jun 2027 08:11:28.359             2.542           567.000
        73   03 Jun 2027 08:13:29.728   03 Jun 2027 08:13:35.090             5.362          1402.594
        74   03 Jun 2027 08:15:19.560   03 Jun 2027 08:15:23.574             4.014          1086.344
        75   03 Jun 2027 08:16:41.302   03 Jun 2027 08:16:43.565             2.263          1131.500
        76   03 Jun 2027 09:46:05.604   03 Jun 2027 09:46:18.682            13.078          6232.656
        77   03 Jun 2027 09:47:28.005   03 Jun 2027 09:47:33.577             5.572           705.594
        78   03 Jun 2027 09:49:45.039   03 Jun 2027 09:49:49.766             4.727          1562.812
        79   03 Jun 2027 09:50:15.162   03 Jun 2027 09:50:15.773             0.611           242.594
        80   03 Jun 2027 09:50:23.839   03 Jun 2027 09:50:25.334             1.495           229.219
        81   03 Jun 2027 09:50:49.368   03 Jun 2027 09:50:52.513             3.145           354.437
        82   03 Jun 2027 09:50:56.316   03 Jun 2027 09:51:00.247             3.931           114.781
        83   03 Jun 2027 09:51:18.429   03 Jun 2027 09:51:22.891             4.462           530.531
        84   03 Jun 2027 09:52:06.648   03 Jun 2027 09:52:12.079             5.431          1064.844
        85   03 Jun 2027 11:24:08.920   03 Jun 2027 11:24:22.754            13.834          6208.500
        86   03 Jun 2027 11:24:55.496   03 Jun 2027 11:25:01.600             6.104           872.062
        87   03 Jun 2027 11:26:26.486   03 Jun 2027 11:26:28.988             2.502           596.937
        88   03 Jun 2027 11:27:29.322   03 Jun 2027 11:27:34.118             4.796          1627.281
        89   03 Jun 2027 11:27:53.718   03 Jun 2027 11:27:57.266             3.548           550.437
        90   03 Jun 2027 11:28:12.988   03 Jun 2027 11:28:14.097             1.109           315.594
        91   04 Jun 2027 03:34:30.548   04 Jun 2027 03:34:35.899             5.351          2675.500
        92   04 Jun 2027 03:35:08.609   04 Jun 2027 03:35:09.061             0.452           226.000
        93   04 Jun 2027 03:35:13.050   04 Jun 2027 03:35:27.771            14.721          7360.500
        94   04 Jun 2027 03:35:41.657   04 Jun 2027 03:35:46.338             4.681          2340.500
        95   04 Jun 2027 05:10:27.937   04 Jun 2027 05:14:13.076           225.139        112569.500
        96   04 Jun 2027 06:44:17.723   04 Jun 2027 06:45:16.978            59.255         29259.376
        97   04 Jun 2027 06:46:02.331   04 Jun 2027 06:46:04.357             2.026           959.906
        98   04 Jun 2027 06:46:41.961   04 Jun 2027 06:46:45.593             3.632           882.156
        99   04 Jun 2027 06:47:01.294   04 Jun 2027 06:47:01.749             0.455            68.375
       100   04 Jun 2027 06:47:20.910   04 Jun 2027 06:47:22.554             1.644            82.469
       101   04 Jun 2027 06:48:24.549   04 Jun 2027 06:48:27.966             3.417          1619.187
       102   04 Jun 2027 06:49:01.981   04 Jun 2027 06:49:07.053             5.072          1062.969
       103   04 Jun 2027 06:49:52.515   04 Jun 2027 06:49:59.645             7.130           986.906
       104   04 Jun 2027 06:50:38.339   04 Jun 2027 06:50:44.838             6.499          1092.281
       105   04 Jun 2027 06:51:04.181   04 Jun 2027 06:51:06.637             2.456           381.531
       106   04 Jun 2027 06:51:47.606   04 Jun 2027 06:51:56.927             9.321          1040.187
       107   04 Jun 2027 06:52:23.421   04 Jun 2027 06:52:24.056             0.635           264.000
       108   04 Jun 2027 06:52:35.374   04 Jun 2027 06:52:38.305             2.931           353.687
       109   04 Jun 2027 08:21:21.180   04 Jun 2027 08:21:33.189            12.009          3015.969
       110   04 Jun 2027 08:23:06.324   04 Jun 2027 08:23:10.466             4.142          1821.812
       111   04 Jun 2027 08:25:54.870   04 Jun 2027 08:25:59.529             4.659          1030.062
       112   04 Jun 2027 08:26:30.561   04 Jun 2027 08:26:33.292             2.731           964.281
       113   04 Jun 2027 08:27:15.372   04 Jun 2027 08:27:16.621             1.249           189.031
       114   04 Jun 2027 08:27:39.741   04 Jun 2027 08:27:42.834             3.093           420.187
       115   04 Jun 2027 08:28:20.752   04 Jun 2027 08:28:22.964             2.212          1002.344
       116   04 Jun 2027 09:58:15.823   04 Jun 2027 09:58:30.835            15.012          5727.500
       117   04 Jun 2027 09:58:59.534   04 Jun 2027 09:59:06.724             7.190           405.031
       118   04 Jun 2027 10:00:59.624   04 Jun 2027 10:01:03.507             3.883           598.125
       119   04 Jun 2027 10:01:57.845   04 Jun 2027 10:02:03.445             5.600            82.875
       120   04 Jun 2027 10:02:28.778   04 Jun 2027 10:02:30.326             1.548            40.031
       121   04 Jun 2027 10:02:38.332   04 Jun 2027 10:02:39.510             1.178           250.187
       122   04 Jun 2027 10:02:55.753   04 Jun 2027 10:02:57.336             1.583           507.594
       123   04 Jun 2027 10:03:28.555   04 Jun 2027 10:03:32.229             3.674           697.844
       124   04 Jun 2027 10:04:09.277   04 Jun 2027 10:04:15.870             6.593          1157.750
       125   04 Jun 2027 11:35:22.009   04 Jun 2027 11:35:35.406            13.397          6007.531
       126   04 Jun 2027 11:38:04.231   04 Jun 2027 11:38:08.641             4.410          1991.625
       127   04 Jun 2027 11:38:38.968   04 Jun 2027 11:38:40.430             1.462           349.906
       128   04 Jun 2027 11:39:08.949   04 Jun 2027 11:39:09.589             0.640           313.062
       129   04 Jun 2027 11:39:58.162   04 Jun 2027 11:39:59.729             1.567            72.875
       130   04 Jun 2027 11:40:13.323   04 Jun 2027 11:40:14.274             0.951           310.344
       131   05 Jun 2027 03:46:24.555   05 Jun 2027 03:46:36.726            12.171          6085.500
       132   05 Jun 2027 03:47:10.304   05 Jun 2027 03:47:18.807             8.503          4251.500
       133   05 Jun 2027 05:22:46.585   05 Jun 2027 05:25:55.750           189.165         94582.500
       134   05 Jun 2027 06:56:15.842   05 Jun 2027 06:57:46.011            90.169         44062.156
       135   05 Jun 2027 06:58:34.670   05 Jun 2027 06:58:35.433             0.763            59.375
       136   05 Jun 2027 06:58:54.939   05 Jun 2027 06:58:59.788             4.849           590.375
       137   05 Jun 2027 06:59:24.249   05 Jun 2027 06:59:26.516             2.267           126.219
       138   05 Jun 2027 07:00:27.958   05 Jun 2027 07:00:36.020             8.062          1742.719
       139   05 Jun 2027 07:01:44.403   05 Jun 2027 07:01:50.772             6.369          2015.312
       140   05 Jun 2027 07:02:07.870   05 Jun 2027 07:02:09.739             1.869           301.656
       141   05 Jun 2027 07:02:35.091   05 Jun 2027 07:02:36.229             1.138           382.813
       142   05 Jun 2027 07:03:16.262   05 Jun 2027 07:03:17.027             0.765           342.187
       143   05 Jun 2027 07:04:38.119   05 Jun 2027 07:04:43.701             5.582          2450.375
       144   05 Jun 2027 08:33:47.460   05 Jun 2027 08:33:57.296             9.836          2039.656
       145   05 Jun 2027 08:36:39.826   05 Jun 2027 08:36:44.051             4.225          1896.844
       146   05 Jun 2027 08:38:27.595   05 Jun 2027 08:38:29.520             1.925           567.750
       147   05 Jun 2027 08:39:06.194   05 Jun 2027 08:39:09.362             3.168           243.844
       148   05 Jun 2027 08:39:38.865   05 Jun 2027 08:39:46.380             7.515            46.500
       149   05 Jun 2027 08:40:10.289   05 Jun 2027 08:40:12.325             2.036           585.219
       150   05 Jun 2027 10:10:42.663   05 Jun 2027 10:10:57.078            14.415          6452.312
       151   05 Jun 2027 10:12:28.742   05 Jun 2027 10:12:34.010             5.268          1769.063
       152   05 Jun 2027 10:14:22.773   05 Jun 2027 10:14:24.313             1.540            32.063
       153   05 Jun 2027 10:14:25.585   05 Jun 2027 10:14:27.480             1.895            39.750
       154   05 Jun 2027 10:14:36.883   05 Jun 2027 10:14:37.903             1.020           278.563
       155   05 Jun 2027 10:14:47.414   05 Jun 2027 10:14:50.307             2.893           293.375
       156   05 Jun 2027 10:15:11.242   05 Jun 2027 10:15:12.657             1.415           626.938
       157   05 Jun 2027 10:15:31.971   05 Jun 2027 10:15:33.725             1.754           335.250
       158   05 Jun 2027 10:15:59.861   05 Jun 2027 10:16:07.041             7.180           223.656
       159   05 Jun 2027 10:16:23.294   05 Jun 2027 10:16:24.535             1.241           442.875
       160   05 Jun 2027 11:47:33.224   05 Jun 2027 11:47:45.320            12.096          5661.406
       161   05 Jun 2027 11:50:34.500   05 Jun 2027 11:50:37.868             3.368          1086.594
       162   05 Jun 2027 11:51:05.660   05 Jun 2027 11:51:08.198             2.538           844.062
       163   05 Jun 2027 11:52:03.393   05 Jun 2027 11:52:05.806             2.413            96.500
       164   06 Jun 2027 03:58:15.530   06 Jun 2027 03:58:54.668            39.138         19569.000
       165   06 Jun 2027 05:34:48.236   06 Jun 2027 05:37:50.734           182.498         91249.000
       166   06 Jun 2027 07:09:17.251   06 Jun 2027 07:10:55.355            98.104         47757.375
       167   06 Jun 2027 07:11:27.616   06 Jun 2027 07:11:30.746             3.130           479.469
       168   06 Jun 2027 07:12:58.959   06 Jun 2027 07:13:06.852             7.893          1979.031
       169   06 Jun 2027 07:14:20.147   06 Jun 2027 07:14:26.523             6.376          2044.063
       170   06 Jun 2027 07:15:20.972   06 Jun 2027 07:15:22.954             1.982           819.719
       171   06 Jun 2027 07:15:44.586   06 Jun 2027 07:15:47.455             2.869           676.000
       172   06 Jun 2027 07:16:30.559   06 Jun 2027 07:16:33.935             3.376           737.781
       173   06 Jun 2027 07:16:38.723   06 Jun 2027 07:16:39.259             0.536           127.000
       174   06 Jun 2027 08:45:54.869   06 Jun 2027 08:46:06.846            11.977          3409.750
       175   06 Jun 2027 08:48:41.405   06 Jun 2027 08:48:49.699             8.294          1930.656
       176   06 Jun 2027 08:48:54.962   06 Jun 2027 08:48:55.070             0.108             4.250
       177   06 Jun 2027 08:51:01.588   06 Jun 2027 08:51:04.366             2.778           636.500
       178   06 Jun 2027 08:51:40.909   06 Jun 2027 08:51:46.130             5.221          1023.250
       179   06 Jun 2027 10:23:36.333   06 Jun 2027 10:23:52.015            15.682          6342.688
       180   06 Jun 2027 10:25:56.698   06 Jun 2027 10:25:58.943             2.245            28.125
       181   06 Jun 2027 10:26:49.572   06 Jun 2027 10:26:51.140             1.568           783.094
       182   06 Jun 2027 10:27:43.601   06 Jun 2027 10:27:51.884             8.283          1103.469
       183   06 Jun 2027 10:27:54.804   06 Jun 2027 10:27:58.551             3.747            91.250
       184   06 Jun 2027 11:59:35.687   06 Jun 2027 11:59:50.363            14.676          6618.219
       185   07 Jun 2027 04:10:25.814   07 Jun 2027 04:11:14.888            49.074         24537.000
       186   07 Jun 2027 04:13:06.230   07 Jun 2027 04:13:06.230             0.000             0.000
       187   07 Jun 2027 05:46:57.330   07 Jun 2027 05:49:40.232           162.902         81451.000
       188   07 Jun 2027 07:22:06.477   07 Jun 2027 07:23:50.274           103.797         51520.344
       189   07 Jun 2027 07:24:05.095   07 Jun 2027 07:24:08.332             3.237           273.406
       190   07 Jun 2027 07:25:03.176   07 Jun 2027 07:25:03.176             0.000             0.000
       191   07 Jun 2027 07:25:28.925   07 Jun 2027 07:25:31.698             2.773          1025.687
       192   07 Jun 2027 07:25:54.898   07 Jun 2027 07:25:54.898             0.000             0.000
       193   07 Jun 2027 07:27:06.291   07 Jun 2027 07:27:20.733            14.442          2956.031
       194   07 Jun 2027 07:28:14.396   07 Jun 2027 07:28:17.503             3.107          1508.625
       195   07 Jun 2027 07:28:21.234   07 Jun 2027 07:28:23.501             2.267           116.594
       196   07 Jun 2027 07:28:33.217   07 Jun 2027 07:28:38.640             5.423           303.625
       197   07 Jun 2027 08:58:29.938   07 Jun 2027 08:58:42.225            12.287          5305.469
       198   07 Jun 2027 09:02:55.216   07 Jun 2027 09:02:56.267             1.051           264.469
       199   07 Jun 2027 09:03:40.301   07 Jun 2027 09:03:44.444             4.143           217.969
       200   07 Jun 2027 10:35:43.966   07 Jun 2027 10:36:00.443            16.477          6735.875
       201   07 Jun 2027 10:37:30.103   07 Jun 2027 10:37:37.693             7.590           313.156
       202   07 Jun 2027 10:38:12.260   07 Jun 2027 10:38:14.501             2.241           160.719
       203   07 Jun 2027 10:38:25.652   07 Jun 2027 10:38:26.266             0.614           125.906
       204   07 Jun 2027 10:38:46.801   07 Jun 2027 10:38:50.438             3.637           604.031
       205   07 Jun 2027 10:38:54.898   07 Jun 2027 10:38:55.516             0.618           103.688
       206   07 Jun 2027 10:39:18.470   07 Jun 2027 10:39:18.652             0.182             6.656
       207   07 Jun 2027 10:40:18.855   07 Jun 2027 10:40:21.069             2.214           722.937
       208   07 Jun 2027 10:40:21.789   07 Jun 2027 10:40:22.565             0.776            22.500
       209   08 Jun 2027 03:00:07.671   08 Jun 2027 03:00:16.347             8.676          4338.000
       210   08 Jun 2027 03:00:23.246   08 Jun 2027 03:00:24.985             1.739           869.500
       211   08 Jun 2027 03:00:51.765   08 Jun 2027 03:01:02.195            10.430          5215.000
       212   08 Jun 2027 03:01:38.757   08 Jun 2027 03:01:41.094             2.337          1168.500
       213   08 Jun 2027 03:02:26.626   08 Jun 2027 03:02:35.239             8.613          4306.500
       214   08 Jun 2027 04:23:02.897   08 Jun 2027 04:23:37.324            34.427         17213.500
       215   08 Jun 2027 04:25:14.541   08 Jun 2027 04:25:37.974            23.433         11716.500
       216   08 Jun 2027 05:58:50.567   08 Jun 2027 06:01:02.491           131.924         65962.000
       217   08 Jun 2027 06:01:16.217   08 Jun 2027 06:01:25.737             9.520          4760.000
       218   08 Jun 2027 06:01:46.366   08 Jun 2027 06:02:04.191            17.825          8912.500
       219   08 Jun 2027 07:33:48.211   08 Jun 2027 07:34:45.862            57.651         28088.938
       220   08 Jun 2027 07:35:34.305   08 Jun 2027 07:35:36.218             1.913           318.500
       221   08 Jun 2027 07:36:17.421   08 Jun 2027 07:36:20.090             2.669          1258.438
       222   08 Jun 2027 07:36:52.078   08 Jun 2027 07:36:54.145             2.067            38.156
       223   08 Jun 2027 07:37:56.892   08 Jun 2027 07:37:59.711             2.819           802.937
       224   08 Jun 2027 07:38:05.746   08 Jun 2027 07:38:06.850             1.104           145.406
       225   08 Jun 2027 07:39:21.302   08 Jun 2027 07:39:25.539             4.237          1925.750
       226   08 Jun 2027 07:40:29.051   08 Jun 2027 07:40:32.225             3.174          1587.000
       227   08 Jun 2027 09:10:01.647   08 Jun 2027 09:10:16.777            15.130          6066.344
       228   08 Jun 2027 09:12:58.655   08 Jun 2027 09:13:00.342             1.687           672.687
       229   08 Jun 2027 09:14:46.642   08 Jun 2027 09:14:50.488             3.846          1796.750
       230   08 Jun 2027 09:15:16.166   08 Jun 2027 09:15:19.961             3.795           771.281
       231   08 Jun 2027 09:15:30.171   08 Jun 2027 09:15:31.004             0.833           160.219
       232   08 Jun 2027 09:16:02.554   08 Jun 2027 09:16:06.849             4.295           885.719
       233   08 Jun 2027 10:48:21.844   08 Jun 2027 10:48:34.465            12.621          5641.062
       234   08 Jun 2027 10:49:13.778   08 Jun 2027 10:49:16.002             2.224           206.562
       235   08 Jun 2027 10:50:27.991   08 Jun 2027 10:50:32.201             4.210            58.063
       236   08 Jun 2027 10:51:02.002   08 Jun 2027 10:51:03.793             1.791           574.156
       237   08 Jun 2027 10:51:18.160   08 Jun 2027 10:51:19.693             1.533           365.406
       238   08 Jun 2027 10:51:52.383   08 Jun 2027 10:51:58.680             6.297           636.281
       239   09 Jun 2027 03:00:00.000   09 Jun 2027 03:00:28.508            28.508         14254.000
       240   09 Jun 2027 03:10:56.204   09 Jun 2027 03:12:13.196            76.992         38496.000
       241   09 Jun 2027 03:12:52.483   09 Jun 2027 03:12:59.211             6.728          3364.000
       242   09 Jun 2027 03:13:33.134   09 Jun 2027 03:13:45.761            12.627          6313.500
       243   09 Jun 2027 04:33:53.005   09 Jun 2027 04:34:17.806            24.801         12400.500
       244   09 Jun 2027 04:35:20.428   09 Jun 2027 04:35:45.884            25.456         12728.000
       245   09 Jun 2027 04:36:44.930   09 Jun 2027 04:36:44.930             0.000             0.000
       246   09 Jun 2027 04:37:03.438   09 Jun 2027 04:37:17.260            13.822          6911.000
       247   09 Jun 2027 06:09:12.748   09 Jun 2027 06:09:38.195            25.447         12723.500
       248   09 Jun 2027 06:10:35.580   09 Jun 2027 06:12:28.028           112.448         55469.469
       249   09 Jun 2027 06:13:17.198   09 Jun 2027 06:13:20.766             3.568          1370.312
       250   09 Jun 2027 07:45:21.212   09 Jun 2027 07:45:30.797             9.585          3335.344
       251   09 Jun 2027 07:47:24.595   09 Jun 2027 07:47:30.452             5.857          2206.469
       252   09 Jun 2027 07:48:02.448   09 Jun 2027 07:48:06.443             3.995           859.156
       253   09 Jun 2027 07:48:32.763   09 Jun 2027 07:48:35.054             2.291           792.187
       254   09 Jun 2027 07:49:33.211   09 Jun 2027 07:49:36.250             3.039          1456.500
       255   09 Jun 2027 07:50:01.419   09 Jun 2027 07:50:04.611             3.192           188.188
       256   09 Jun 2027 07:50:14.431   09 Jun 2027 07:50:23.300             8.869           239.094
       257   09 Jun 2027 07:51:06.373   09 Jun 2027 07:51:09.610             3.237           643.437
       258   09 Jun 2027 07:51:52.633   09 Jun 2027 07:52:01.134             8.501          1216.719
       259   09 Jun 2027 07:52:12.850   09 Jun 2027 07:52:18.379             5.529           110.688
       260   09 Jun 2027 07:52:52.555   09 Jun 2027 07:52:54.205             1.650           366.906
       261   09 Jun 2027 09:22:23.455   09 Jun 2027 09:22:35.644            12.189          5134.250
       262   09 Jun 2027 09:24:08.004   09 Jun 2027 09:24:10.392             2.388           493.000
       263   09 Jun 2027 09:26:01.071   09 Jun 2027 09:26:05.342             4.271          1932.844
       264   09 Jun 2027 09:26:35.248   09 Jun 2027 09:26:37.008             1.760           313.875
       265   09 Jun 2027 09:27:03.144   09 Jun 2027 09:27:09.225             6.081           240.406
       266   09 Jun 2027 09:27:24.566   09 Jun 2027 09:27:26.825             2.259           211.719
       267   09 Jun 2027 11:00:23.168   09 Jun 2027 11:00:36.543            13.375          5422.781
       268   09 Jun 2027 11:02:07.453   09 Jun 2027 11:02:11.370             3.917          1788.375
       269   09 Jun 2027 11:02:33.756   09 Jun 2027 11:02:34.925             1.169           246.344
       270   09 Jun 2027 11:03:51.089   09 Jun 2027 11:03:52.282             1.193            59.594
       271   09 Jun 2027 11:04:14.995   09 Jun 2027 11:04:17.880             2.885           540.875
       272   10 Jun 2027 03:11:15.575   10 Jun 2027 03:11:37.434            21.859         10929.500
       273   10 Jun 2027 03:11:56.052   10 Jun 2027 03:11:56.052             0.000             0.000
       274   10 Jun 2027 03:12:38.036   10 Jun 2027 03:12:46.047             8.011          4005.500
       275   10 Jun 2027 03:22:57.829   10 Jun 2027 03:24:17.541            79.712         39856.000
       276   10 Jun 2027 04:45:10.851   10 Jun 2027 04:46:23.519            72.668         36334.000
       277   10 Jun 2027 04:47:12.658   10 Jun 2027 04:47:52.299            39.641         19820.500
       278   10 Jun 2027 06:20:17.347   10 Jun 2027 06:21:42.601            85.254         42627.000
       279   10 Jun 2027 06:22:19.406   10 Jun 2027 06:22:22.842             3.436          1130.938
       280   10 Jun 2027 06:23:48.669   10 Jun 2027 06:23:52.921             4.252          2045.187
       281   10 Jun 2027 06:24:05.569   10 Jun 2027 06:24:07.794             2.225           178.625
       282   10 Jun 2027 06:24:40.909   10 Jun 2027 06:24:40.909             0.000             0.000
       283   10 Jun 2027 06:25:17.060   10 Jun 2027 06:25:17.770             0.710           355.000
       284   10 Jun 2027 06:25:32.025   10 Jun 2027 06:25:36.777             4.752          2255.031
       285   10 Jun 2027 06:26:43.825   10 Jun 2027 06:26:50.634             6.809          1447.250
       286   10 Jun 2027 06:27:11.881   10 Jun 2027 06:27:16.975             5.094           663.969
       287   10 Jun 2027 06:28:27.207   10 Jun 2027 06:28:29.431             2.224          1112.000
       288   10 Jun 2027 07:57:32.432   10 Jun 2027 07:57:36.811             4.379           996.750
       289   10 Jun 2027 07:59:24.551   10 Jun 2027 07:59:34.633            10.082          2166.563
       290   10 Jun 2027 08:00:14.075   10 Jun 2027 08:00:15.761             1.686           656.125
       291   10 Jun 2027 08:00:42.566   10 Jun 2027 08:00:43.400             0.834           103.094
       292   10 Jun 2027 08:01:34.935   10 Jun 2027 08:01:40.033             5.098          1362.781
       293   10 Jun 2027 08:01:56.935   10 Jun 2027 08:01:59.503             2.568           104.250
       294   10 Jun 2027 08:03:03.291   10 Jun 2027 08:03:10.985             7.694          1709.438
       295   10 Jun 2027 08:03:34.903   10 Jun 2027 08:03:36.179             1.276           535.875
       296   10 Jun 2027 08:04:56.413   10 Jun 2027 08:04:56.986             0.573           286.500
       297   10 Jun 2027 09:34:26.968   10 Jun 2027 09:34:43.680            16.712          6356.469
       298   10 Jun 2027 09:36:04.295   10 Jun 2027 09:36:05.981             1.686           555.250
       299   10 Jun 2027 09:37:59.815   10 Jun 2027 09:38:05.442             5.627          1905.562
       300   10 Jun 2027 09:38:19.170   10 Jun 2027 09:38:19.696             0.526            24.062
       301   10 Jun 2027 09:38:58.643   10 Jun 2027 09:39:00.936             2.293           654.750
       302   10 Jun 2027 09:39:29.266   10 Jun 2027 09:39:48.046            18.780           630.031
       303   10 Jun 2027 11:12:23.093   10 Jun 2027 11:12:37.139            14.046          5830.000
       304   10 Jun 2027 11:13:45.909   10 Jun 2027 11:13:52.295             6.386           852.625
       305   10 Jun 2027 11:14:45.840   10 Jun 2027 11:14:48.734             2.894           214.531
       306   10 Jun 2027 11:16:08.064   10 Jun 2027 11:16:10.247             2.183          1032.562
       307   11 Jun 2027 03:22:44.152   11 Jun 2027 03:23:23.353            39.201         19600.500
       308   11 Jun 2027 03:24:49.417   11 Jun 2027 03:24:49.417             0.000             0.000
       309   11 Jun 2027 03:34:54.544   11 Jun 2027 03:35:33.419            38.875         19437.500
       310   11 Jun 2027 04:56:56.323   11 Jun 2027 04:58:16.899            80.576         40288.000
       311   11 Jun 2027 04:58:58.945   11 Jun 2027 04:59:56.033            57.088         28544.000
       312   11 Jun 2027 05:01:12.878   11 Jun 2027 05:01:41.461            28.583         14291.500
       313   11 Jun 2027 06:31:46.681   11 Jun 2027 06:32:58.832            72.151         36075.500
       314   11 Jun 2027 06:33:07.695   11 Jun 2027 06:33:07.695             0.000             0.000
       315   11 Jun 2027 06:33:30.103   11 Jun 2027 06:33:34.420             4.317          1577.032
       316   11 Jun 2027 06:34:13.547   11 Jun 2027 06:34:16.283             2.736          1181.125
       317   11 Jun 2027 06:34:49.827   11 Jun 2027 06:34:53.029             3.202          1048.250
       318   11 Jun 2027 06:35:20.928   11 Jun 2027 06:35:22.697             1.769           294.375
       319   11 Jun 2027 06:35:35.650   11 Jun 2027 06:35:35.910             0.260            98.969
       320   11 Jun 2027 06:35:39.309   11 Jun 2027 06:35:39.309             0.000             0.000
       321   11 Jun 2027 06:35:59.135   11 Jun 2027 06:36:01.644             2.509           676.063
       322   11 Jun 2027 06:37:11.904   11 Jun 2027 06:37:16.061             4.157          1947.375
       323   11 Jun 2027 06:37:35.069   11 Jun 2027 06:37:40.172             5.103           537.844
       324   11 Jun 2027 06:38:00.786   11 Jun 2027 06:38:08.072             7.286           100.656
       325   11 Jun 2027 06:38:47.052   11 Jun 2027 06:38:50.120             3.068           630.406
       326   11 Jun 2027 06:38:56.561   11 Jun 2027 06:38:57.826             1.265           183.062
       327   11 Jun 2027 06:39:18.750   11 Jun 2027 06:39:20.014             1.264           468.344
       328   11 Jun 2027 06:40:31.539   11 Jun 2027 06:40:31.539             0.000             0.000
       329   11 Jun 2027 06:40:37.872   11 Jun 2027 06:40:38.136             0.264           132.000
       330   11 Jun 2027 08:09:33.100   11 Jun 2027 08:09:38.194             5.094          1937.469
       331   11 Jun 2027 08:11:23.884   11 Jun 2027 08:11:35.979            12.095          2028.531
       332   11 Jun 2027 08:12:27.031   11 Jun 2027 08:12:30.012             2.981          1351.594
       333   11 Jun 2027 08:13:36.308   11 Jun 2027 08:13:38.082             1.774           398.188
       334   11 Jun 2027 08:15:00.613   11 Jun 2027 08:15:04.764             4.151          1316.063
       335   11 Jun 2027 08:15:57.888   11 Jun 2027 08:16:02.599             4.711           996.563
       336   11 Jun 2027 08:16:51.728   11 Jun 2027 08:16:55.921             4.193          1535.281
       337   11 Jun 2027 08:16:58.675   11 Jun 2027 08:16:58.735             0.060            30.000
       338   11 Jun 2027 09:46:18.403   11 Jun 2027 09:46:33.407            15.004          5776.281
       339   11 Jun 2027 09:49:59.428   11 Jun 2027 09:50:04.002             4.574          1591.969
       340   11 Jun 2027 09:50:33.733   11 Jun 2027 09:50:36.720             2.987           329.625
       341   11 Jun 2027 09:50:41.188   11 Jun 2027 09:50:43.498             2.310            47.406
       342   11 Jun 2027 09:51:16.042   11 Jun 2027 09:51:18.337             2.295           468.219
       343   11 Jun 2027 09:52:03.835   11 Jun 2027 09:52:09.182             5.347           920.156
       344   11 Jun 2027 09:52:21.316   11 Jun 2027 09:52:26.941             5.625           235.812
       345   11 Jun 2027 11:24:23.730   11 Jun 2027 11:24:40.600            16.870          6499.562
       346   11 Jun 2027 11:26:43.680   11 Jun 2027 11:26:45.881             2.201           654.813
       347   11 Jun 2027 11:27:44.931   11 Jun 2027 11:27:51.258             6.327          1585.437
       348   11 Jun 2027 11:28:10.097   11 Jun 2027 11:28:11.400             1.303           561.563
       349   11 Jun 2027 11:28:30.702   11 Jun 2027 11:28:32.115             1.413           400.594
       350   12 Jun 2027 03:34:45.451   12 Jun 2027 03:34:50.884             5.433          2716.500
       351   12 Jun 2027 03:35:42.839   12 Jun 2027 03:36:02.672            19.833          9916.500
       352   12 Jun 2027 05:10:43.374   12 Jun 2027 05:14:29.603           226.229        113114.500
       353   12 Jun 2027 06:44:32.698   12 Jun 2027 06:45:41.618            68.920         30638.906
       354   12 Jun 2027 06:46:59.573   12 Jun 2027 06:47:02.886             3.313           906.469
       355   12 Jun 2027 06:47:38.923   12 Jun 2027 06:47:41.318             2.395           133.219
       356   12 Jun 2027 06:48:11.452   12 Jun 2027 06:48:11.452             0.000             0.000
       357   12 Jun 2027 06:48:42.190   12 Jun 2027 06:48:43.824             1.634           817.000
       358   12 Jun 2027 06:49:17.381   12 Jun 2027 06:49:21.593             4.212          1894.625
       359   12 Jun 2027 06:50:08.357   12 Jun 2027 06:50:11.156             2.799           948.063
       360   12 Jun 2027 06:50:52.933   12 Jun 2027 06:50:58.962             6.029          1042.219
       361   12 Jun 2027 06:51:20.219   12 Jun 2027 06:51:21.289             1.070           388.906
       362   12 Jun 2027 06:52:02.923   12 Jun 2027 06:52:11.845             8.922          1093.875
       363   12 Jun 2027 08:21:36.921   12 Jun 2027 08:21:47.813            10.892          1103.750
       364   12 Jun 2027 08:23:22.488   12 Jun 2027 08:23:26.084             3.596          1778.437
       365   12 Jun 2027 08:25:39.165   12 Jun 2027 08:25:40.726             1.561            58.688
       366   12 Jun 2027 08:26:45.094   12 Jun 2027 08:26:48.292             3.198           928.406
       367   12 Jun 2027 08:26:57.232   12 Jun 2027 08:26:59.300             2.068            13.781
       368   12 Jun 2027 08:27:28.721   12 Jun 2027 08:27:29.362             0.641           144.250
       369   12 Jun 2027 08:27:54.376   12 Jun 2027 08:27:57.574             3.198           359.250
       370   12 Jun 2027 08:28:35.436   12 Jun 2027 08:28:36.979             1.543           707.875
       371   12 Jun 2027 09:58:35.508   12 Jun 2027 09:58:46.745            11.237          4641.000
       372   12 Jun 2027 10:01:29.958   12 Jun 2027 10:01:36.111             6.153           594.750
       373   12 Jun 2027 10:02:45.929   12 Jun 2027 10:02:50.039             4.110          1086.188
       374   12 Jun 2027 10:03:10.374   12 Jun 2027 10:03:12.604             2.230           513.312
       375   12 Jun 2027 10:03:28.440   12 Jun 2027 10:03:32.172             3.732           494.875
       376   12 Jun 2027 10:04:15.127   12 Jun 2027 10:04:20.569             5.442          1305.563
       377   12 Jun 2027 10:04:38.682   12 Jun 2027 10:04:46.025             7.343           514.094
       378   12 Jun 2027 11:35:37.527   12 Jun 2027 11:35:48.393            10.866          5083.187
       379   12 Jun 2027 11:38:43.342   12 Jun 2027 11:38:44.896             1.554            35.906
       380   12 Jun 2027 11:38:47.892   12 Jun 2027 11:38:48.429             0.537            85.344
       381   12 Jun 2027 11:40:11.219   12 Jun 2027 11:40:16.345             5.126          2350.063
       382   13 Jun 2027 03:46:39.663   13 Jun 2027 03:46:51.304            11.641          5820.500
       383   13 Jun 2027 05:23:02.366   13 Jun 2027 05:26:10.284           187.918         93959.000
       384   13 Jun 2027 06:56:30.813   13 Jun 2027 06:58:09.288            98.475         49090.718
       385   13 Jun 2027 06:58:49.019   13 Jun 2027 06:58:50.079             1.060            87.656
       386   13 Jun 2027 06:58:51.773   13 Jun 2027 06:58:52.654             0.881            41.938
       387   13 Jun 2027 06:59:36.580   13 Jun 2027 06:59:38.877             2.297           838.187
       388   13 Jun 2027 07:00:13.349   13 Jun 2027 07:00:13.349             0.000             0.000
       389   13 Jun 2027 07:00:45.765   13 Jun 2027 07:00:51.266             5.501          2090.250
       390   13 Jun 2027 07:02:01.328   13 Jun 2027 07:02:05.961             4.633          2075.062
       391   13 Jun 2027 07:02:24.843   13 Jun 2027 07:02:27.344             2.501           321.625
       392   13 Jun 2027 07:03:21.329   13 Jun 2027 07:03:24.311             2.982          1346.469
       393   13 Jun 2027 07:03:51.636   13 Jun 2027 07:03:56.934             5.298           816.125
       394   13 Jun 2027 07:04:45.169   13 Jun 2027 07:04:51.141             5.972          1327.062
       395   13 Jun 2027 07:04:55.621   13 Jun 2027 07:04:57.452             1.831           140.000
       396   13 Jun 2027 07:04:59.666   13 Jun 2027 07:05:01.748             2.082            43.531
       397   13 Jun 2027 08:34:03.421   13 Jun 2027 08:34:08.834             5.413          2681.531
       398   13 Jun 2027 08:35:42.154   13 Jun 2027 08:35:44.249             2.095            59.687
       399   13 Jun 2027 08:36:54.912   13 Jun 2027 08:36:59.073             4.161          1876.938
       400   13 Jun 2027 08:39:53.487   13 Jun 2027 08:40:00.994             7.507          2442.219
       401   13 Jun 2027 10:10:57.983   13 Jun 2027 10:11:09.741            11.758          5606.813
       402   13 Jun 2027 10:14:56.284   13 Jun 2027 10:15:00.363             4.079          1285.375
       403   13 Jun 2027 10:15:37.369   13 Jun 2027 10:15:43.565             6.196          1061.438
       404   13 Jun 2027 10:16:29.873   13 Jun 2027 10:16:33.768             3.895          1321.469
       405   13 Jun 2027 11:47:48.934   13 Jun 2027 11:48:07.301            18.367          6618.031
       406   13 Jun 2027 11:50:51.619   13 Jun 2027 11:50:54.538             2.919          1145.125
       407   13 Jun 2027 11:51:22.125   13 Jun 2027 11:51:24.181             2.056           862.094
       408   13 Jun 2027 11:52:08.331   13 Jun 2027 11:52:09.197             0.866           349.375
       409   13 Jun 2027 11:52:18.356   13 Jun 2027 11:52:21.010             2.654            38.469
