uniorb/output/strategy_4/Camera/Camera_KinoSat_110607.txt

KinoSat_110607
-------------------------
    Access    *     Start Time (UTCG)     *     Stop Time (UTCG)  *   Duration (s) *   Data (Mbytes)
         1   01 Jun 2027 03:24:48.572   01 Jun 2027 03:25:57.192            68.620         34310.000
         2   01 Jun 2027 03:26:24.921   01 Jun 2027 03:26:29.602             4.681          2340.500
         3   01 Jun 2027 03:26:58.066   01 Jun 2027 03:27:01.975             3.909          1954.500
         4   01 Jun 2027 04:58:53.813   01 Jun 2027 05:01:17.489           143.676         71838.000
         5   01 Jun 2027 05:04:42.515   01 Jun 2027 05:04:43.307             0.792           396.000
         6   01 Jun 2027 05:05:24.301   01 Jun 2027 05:05:34.107             9.806          4903.000
         7   01 Jun 2027 05:05:51.139   01 Jun 2027 05:05:51.139             0.000             0.000
         8   01 Jun 2027 05:05:54.380   01 Jun 2027 05:05:56.761             2.381          1190.500
         9   01 Jun 2027 05:06:38.330   01 Jun 2027 05:06:40.084             1.754           877.000
        10   01 Jun 2027 06:35:58.031   01 Jun 2027 06:38:06.601           128.570         64285.000
        11   01 Jun 2027 06:39:14.647   01 Jun 2027 06:39:15.868             1.221           610.500
        12   01 Jun 2027 06:39:40.047   01 Jun 2027 06:39:49.941             9.894          4947.000
        13   01 Jun 2027 08:12:55.662   01 Jun 2027 08:15:37.090           161.428         80714.000
        14   01 Jun 2027 08:16:16.721   01 Jun 2027 08:16:27.458            10.737          5368.500
        15   01 Jun 2027 09:49:41.782   01 Jun 2027 09:52:42.450           180.668         90334.000
        16   01 Jun 2027 11:27:53.297   01 Jun 2027 11:28:53.538            60.241         30120.500
        17   02 Jun 2027 03:36:55.215   02 Jun 2027 03:37:05.064             9.849          4924.500
        18   02 Jun 2027 03:37:45.226   02 Jun 2027 03:37:51.034             5.808          2904.000
        19   02 Jun 2027 03:38:11.643   02 Jun 2027 03:38:26.312            14.669          7334.500
        20   02 Jun 2027 05:12:03.059   02 Jun 2027 05:14:06.221           123.162         61581.000
        21   02 Jun 2027 05:15:04.999   02 Jun 2027 05:16:03.212            58.213         29106.500
        22   02 Jun 2027 05:16:12.310   02 Jun 2027 05:17:11.922            59.612         29806.000
        23   02 Jun 2027 05:18:43.599   02 Jun 2027 05:18:52.527             8.928          4464.000
        24   02 Jun 2027 06:48:24.001   02 Jun 2027 06:50:38.724           134.723         67361.500
        25   02 Jun 2027 06:51:40.019   02 Jun 2027 06:52:34.336            54.317         27158.500
        26   02 Jun 2027 06:52:47.644   02 Jun 2027 06:53:01.708            14.064          7032.000
        27   02 Jun 2027 06:53:43.532   02 Jun 2027 06:54:43.921            60.389         30194.500
        28   02 Jun 2027 08:25:57.359   02 Jun 2027 08:28:21.394           144.035         72017.500
        29   02 Jun 2027 08:29:08.508   02 Jun 2027 08:29:18.684            10.176          4615.625
        30   02 Jun 2027 08:29:54.980   02 Jun 2027 08:29:55.941             0.961           413.844
        31   02 Jun 2027 10:02:01.096   02 Jun 2027 10:02:21.209            20.113          8340.531
        32   02 Jun 2027 10:03:55.958   02 Jun 2027 10:04:00.572             4.614          1238.531
        33   03 Jun 2027 03:49:04.763   03 Jun 2027 03:49:26.240            21.477         10738.500
        34   03 Jun 2027 03:49:32.214   03 Jun 2027 03:49:33.125             0.911           455.500
        35   03 Jun 2027 05:24:14.784   03 Jun 2027 05:27:05.370           170.586         85293.000
        36   03 Jun 2027 05:29:55.151   03 Jun 2027 05:30:23.497            28.346         14173.000
        37   03 Jun 2027 07:00:32.018   03 Jun 2027 07:02:16.447           104.429         50431.218
        38   03 Jun 2027 07:03:42.116   03 Jun 2027 07:03:43.892             1.776           608.531
        39   03 Jun 2027 07:04:58.479   03 Jun 2027 07:05:03.534             5.055          2135.469
        40   03 Jun 2027 08:38:03.103   03 Jun 2027 08:38:10.876             7.773          3320.375
        41   03 Jun 2027 08:39:57.328   03 Jun 2027 08:40:04.641             7.313           412.281
        42   03 Jun 2027 08:40:14.088   03 Jun 2027 08:40:15.154             1.066           144.781
        43   03 Jun 2027 08:40:38.834   03 Jun 2027 08:40:40.380             1.546           537.406
        44   03 Jun 2027 08:41:24.739   03 Jun 2027 08:41:27.328             2.589           986.031
        45   03 Jun 2027 08:41:37.909   03 Jun 2027 08:41:41.475             3.566           243.375
        46   03 Jun 2027 10:14:04.649   03 Jun 2027 10:14:19.143            14.494          6920.125
        47   03 Jun 2027 10:15:28.159   03 Jun 2027 10:15:30.128             1.969           449.594
        48   04 Jun 2027 04:00:48.639   04 Jun 2027 04:01:22.482            33.843         16921.500
        49   04 Jun 2027 05:35:43.114   04 Jun 2027 05:38:51.838           188.724         94362.000
        50   04 Jun 2027 05:42:23.993   04 Jun 2027 05:43:00.796            36.803         18401.500
        51   04 Jun 2027 07:12:15.024   04 Jun 2027 07:13:21.354            66.330         32844.032
        52   04 Jun 2027 07:14:43.410   04 Jun 2027 07:14:47.897             4.487          1628.938
        53   04 Jun 2027 07:15:47.832   04 Jun 2027 07:15:49.915             2.083           813.344
        54   04 Jun 2027 07:16:45.443   04 Jun 2027 07:16:49.608             4.165          1669.531
        55   04 Jun 2027 07:17:10.224   04 Jun 2027 07:17:16.304             6.080           472.156
        56   04 Jun 2027 07:17:48.436   04 Jun 2027 07:17:54.710             6.274           780.500
        57   04 Jun 2027 08:50:32.608   04 Jun 2027 08:50:42.824            10.216          4636.719
        58   04 Jun 2027 08:50:55.348   04 Jun 2027 08:50:58.181             2.833            20.187
        59   04 Jun 2027 08:51:41.253   04 Jun 2027 08:51:42.359             1.106           272.437
        60   04 Jun 2027 08:51:51.895   04 Jun 2027 08:51:52.755             0.860           225.656
        61   04 Jun 2027 08:52:27.562   04 Jun 2027 08:52:31.803             4.241           552.125
        62   04 Jun 2027 08:52:54.732   04 Jun 2027 08:52:55.498             0.766           344.062
        63   04 Jun 2027 08:53:28.002   04 Jun 2027 08:53:30.597             2.595           347.531
        64   04 Jun 2027 10:25:53.955   04 Jun 2027 10:26:08.252            14.297          5451.313
        65   05 Jun 2027 04:11:03.330   05 Jun 2027 04:11:37.321            33.991         16995.500
        66   05 Jun 2027 04:11:57.146   05 Jun 2027 04:11:57.146             0.000             0.000
        67   05 Jun 2027 04:12:34.149   05 Jun 2027 04:12:39.599             5.450          2725.000
        68   05 Jun 2027 04:15:04.896   05 Jun 2027 04:15:16.780            11.884          5942.000
        69   05 Jun 2027 04:15:53.103   05 Jun 2027 04:16:17.702            24.599         12299.500
        70   05 Jun 2027 05:47:29.146   05 Jun 2027 05:49:54.195           145.049         72524.500
        71   05 Jun 2027 05:50:30.872   05 Jun 2027 05:51:08.172            37.300         18650.000
        72   05 Jun 2027 05:55:00.830   05 Jun 2027 05:55:00.986             0.156            78.000
        73   05 Jun 2027 07:24:35.399   05 Jun 2027 07:26:01.942            86.543         42679.343
        74   05 Jun 2027 07:27:58.288   05 Jun 2027 07:28:03.813             5.525          2355.094
        75   05 Jun 2027 07:28:51.672   05 Jun 2027 07:28:54.799             3.127          1176.375
        76   05 Jun 2027 07:29:19.135   05 Jun 2027 07:29:21.194             2.059           437.156
        77   05 Jun 2027 07:30:38.470   05 Jun 2027 07:30:40.403             1.933           127.500
        78   05 Jun 2027 09:02:30.361   05 Jun 2027 09:02:42.092            11.731          5072.188
        79   05 Jun 2027 09:04:58.511   05 Jun 2027 09:05:01.654             3.143           619.219
        80   05 Jun 2027 09:06:25.496   05 Jun 2027 09:06:26.340             0.844           225.437
        81   05 Jun 2027 10:35:36.300   05 Jun 2027 10:35:55.016            18.716          4774.375
        82   05 Jun 2027 10:39:59.152   05 Jun 2027 10:39:59.762             0.610            24.656
        83   06 Jun 2027 04:22:12.782   06 Jun 2027 04:23:50.892            98.110         49055.000
        84   06 Jun 2027 04:25:17.026   06 Jun 2027 04:25:35.221            18.195          9097.500
        85   06 Jun 2027 04:27:21.949   06 Jun 2027 04:27:42.476            20.527         10263.500
        86   06 Jun 2027 04:30:25.093   06 Jun 2027 04:30:40.000            14.907          7453.500
        87   06 Jun 2027 05:59:44.658   06 Jun 2027 06:01:48.929           124.271         62135.500
        88   06 Jun 2027 06:01:59.882   06 Jun 2027 06:02:41.786            41.904         20952.000
        89   06 Jun 2027 06:04:08.987   06 Jun 2027 06:04:28.579            19.592          9796.000
        90   06 Jun 2027 06:05:59.175   06 Jun 2027 06:06:17.993            18.818          5615.468
        91   06 Jun 2027 07:36:30.621   06 Jun 2027 07:36:35.654             5.033          1745.313
        92   06 Jun 2027 07:39:51.160   06 Jun 2027 07:39:55.270             4.110          2055.000
        93   06 Jun 2027 07:40:41.954   06 Jun 2027 07:40:48.063             6.109          1547.969
        94   06 Jun 2027 07:41:47.017   06 Jun 2027 07:41:49.260             2.243           629.875
        95   06 Jun 2027 09:14:30.316   06 Jun 2027 09:14:41.073            10.757          5282.219
        96   06 Jun 2027 09:18:26.223   06 Jun 2027 09:18:26.770             0.547           114.594
        97   06 Jun 2027 10:48:06.719   06 Jun 2027 10:48:11.665             4.946          1821.594
        98   07 Jun 2027 03:00:46.463   07 Jun 2027 03:00:48.450             1.987           993.500
        99   07 Jun 2027 03:01:13.550   07 Jun 2027 03:01:25.739            12.189          6094.500
       100   07 Jun 2027 03:03:20.963   07 Jun 2027 03:03:31.088            10.125          5062.500
       101   07 Jun 2027 03:03:53.905   07 Jun 2027 03:04:07.011            13.106          6553.000
       102   07 Jun 2027 04:33:43.706   07 Jun 2027 04:35:19.931            96.225         48112.500
       103   07 Jun 2027 04:36:03.826   07 Jun 2027 04:36:48.776            44.950         22475.000
       104   07 Jun 2027 04:36:59.398   07 Jun 2027 04:37:01.321             1.923           961.500
       105   07 Jun 2027 04:38:33.973   07 Jun 2027 04:38:47.322            13.349          6674.500
       106   07 Jun 2027 04:38:55.216   07 Jun 2027 04:38:55.713             0.497           248.500
       107   07 Jun 2027 04:38:58.923   07 Jun 2027 04:39:01.343             2.420          1210.000
       108   07 Jun 2027 04:40:04.658   07 Jun 2027 04:40:23.478            18.820          9410.000
       109   07 Jun 2027 04:42:35.881   07 Jun 2027 04:43:07.443            31.562         15781.000
       110   07 Jun 2027 06:11:39.514   07 Jun 2027 06:12:54.689            75.175         37194.874
       111   07 Jun 2027 06:13:56.940   07 Jun 2027 06:14:04.697             7.757          1246.375
       112   07 Jun 2027 06:14:23.418   07 Jun 2027 06:14:28.083             4.665           379.406
       113   07 Jun 2027 06:15:00.905   07 Jun 2027 06:15:04.364             3.459           944.656
       114   07 Jun 2027 06:16:18.820   07 Jun 2027 06:16:20.334             1.514           291.531
       115   07 Jun 2027 06:17:05.505   07 Jun 2027 06:17:11.213             5.708           650.938
       116   07 Jun 2027 07:48:27.077   07 Jun 2027 07:48:30.555             3.478           775.375
       117   07 Jun 2027 07:51:54.341   07 Jun 2027 07:51:56.594             2.253           954.969
       118   07 Jun 2027 07:52:15.003   07 Jun 2027 07:52:16.513             1.510           575.281
       119   07 Jun 2027 07:53:17.898   07 Jun 2027 07:53:21.970             4.072          1918.281
       120   07 Jun 2027 07:53:47.223   07 Jun 2027 07:53:48.352             1.129           450.188
       121   07 Jun 2027 09:26:17.442   07 Jun 2027 09:26:23.421             5.979          2588.594
       122   07 Jun 2027 11:02:16.091   07 Jun 2027 11:02:17.926             1.835           553.281
       123   08 Jun 2027 03:12:49.514   08 Jun 2027 03:13:04.083            14.569          7284.500
       124   08 Jun 2027 03:15:25.097   08 Jun 2027 03:16:06.686            41.589         20794.500
       125   08 Jun 2027 04:46:37.180   08 Jun 2027 04:49:21.104           163.924         81962.000
       126   08 Jun 2027 04:50:10.757   08 Jun 2027 04:50:35.161            24.404         12202.000
       127   08 Jun 2027 04:54:15.903   08 Jun 2027 04:54:26.553            10.650          5325.000
       128   08 Jun 2027 04:55:07.935   08 Jun 2027 04:55:08.779             0.844           422.000
       129   08 Jun 2027 06:23:51.411   08 Jun 2027 06:24:51.000            59.589         29053.094
       130   08 Jun 2027 06:26:12.698   08 Jun 2027 06:26:12.698             0.000             0.000
       131   08 Jun 2027 06:26:18.614   08 Jun 2027 06:26:20.267             1.653           579.063
       132   08 Jun 2027 06:26:55.174   08 Jun 2027 06:26:57.289             2.115           890.906
       133   08 Jun 2027 06:28:06.676   08 Jun 2027 06:28:09.710             3.034           110.344
       134   08 Jun 2027 06:28:16.334   08 Jun 2027 06:28:16.635             0.301            68.063
       135   08 Jun 2027 08:01:03.744   08 Jun 2027 08:01:06.764             3.020          1166.594
       136   08 Jun 2027 08:04:31.544   08 Jun 2027 08:04:34.079             2.535           782.781
       137   08 Jun 2027 08:04:51.311   08 Jun 2027 08:04:55.351             4.040           531.281
       138   08 Jun 2027 08:05:23.799   08 Jun 2027 08:05:27.187             3.388           728.313
       139   08 Jun 2027 09:37:46.544   08 Jun 2027 09:37:53.082             6.538          2819.844
       140   08 Jun 2027 09:39:18.040   08 Jun 2027 09:39:24.489             6.449          1783.062
       141   08 Jun 2027 11:12:59.015   08 Jun 2027 11:13:02.440             3.425           700.812
       142   09 Jun 2027 03:25:03.535   09 Jun 2027 03:25:09.227             5.692          2846.000
       143   09 Jun 2027 03:26:22.526   09 Jun 2027 03:26:29.536             7.010          3505.000
       144   09 Jun 2027 04:57:23.249   09 Jun 2027 04:57:56.354            33.105         16552.500
       145   09 Jun 2027 04:59:08.445   09 Jun 2027 04:59:28.220            19.775          9887.500
       146   09 Jun 2027 05:00:06.920   09 Jun 2027 05:02:10.082           123.162         61581.000
       147   09 Jun 2027 05:05:28.561   09 Jun 2027 05:06:02.743            34.182         17091.000
       148   09 Jun 2027 05:06:05.380   09 Jun 2027 05:06:45.241            39.861         19930.500
       149   09 Jun 2027 05:07:03.770   09 Jun 2027 05:07:06.454             2.684          1342.000
       150   09 Jun 2027 06:36:12.644   09 Jun 2027 06:36:55.253            42.609         21035.281
       151   09 Jun 2027 08:13:10.396   09 Jun 2027 08:13:16.129             5.733          2408.375
       152   09 Jun 2027 08:16:21.926   09 Jun 2027 08:16:27.576             5.650           732.750
       153   09 Jun 2027 08:16:38.572   09 Jun 2027 08:16:39.109             0.537           224.375
       154   09 Jun 2027 09:49:56.201   09 Jun 2027 09:50:05.792             9.591          3742.156
       155   09 Jun 2027 11:28:07.757   09 Jun 2027 11:28:11.083             3.326          1126.219
       156   10 Jun 2027 03:37:10.524   10 Jun 2027 03:37:28.799            18.275          9137.500
       157   10 Jun 2027 05:12:17.973   10 Jun 2027 05:12:48.953            30.980         15490.000
       158   10 Jun 2027 05:13:37.658   10 Jun 2027 05:14:15.349            37.691         18845.500
       159   10 Jun 2027 05:14:21.100   10 Jun 2027 05:15:19.623            58.523         29261.500
       160   10 Jun 2027 05:16:25.452   10 Jun 2027 05:18:06.574           101.122         50561.000
       161   10 Jun 2027 05:18:59.997   10 Jun 2027 05:19:07.184             7.187          3593.500
       162   10 Jun 2027 06:48:39.000   10 Jun 2027 06:49:36.852            57.852         28670.126
       163   10 Jun 2027 06:51:05.572   10 Jun 2027 06:51:08.303             2.731            26.156
       164   10 Jun 2027 08:26:11.922   10 Jun 2027 08:26:15.911             3.989          1625.531
       165   10 Jun 2027 08:27:58.977   10 Jun 2027 08:28:00.378             1.401           686.281
       166   10 Jun 2027 08:28:25.747   10 Jun 2027 08:28:26.791             1.044           444.094
       167   10 Jun 2027 08:28:46.976   10 Jun 2027 08:28:49.727             2.751           560.813
       168   10 Jun 2027 08:29:56.727   10 Jun 2027 08:30:00.462             3.735           252.344
       169   10 Jun 2027 10:02:15.827   10 Jun 2027 10:02:28.725            12.898          5892.313
       170   10 Jun 2027 10:04:29.146   10 Jun 2027 10:04:33.054             3.908           579.156
       171   11 Jun 2027 03:49:19.398   11 Jun 2027 03:49:42.040            22.642         11321.000
       172   11 Jun 2027 03:52:02.268   11 Jun 2027 03:52:02.268             0.000             0.000
       173   11 Jun 2027 05:24:29.373   11 Jun 2027 05:26:03.101            93.728         46864.000
       174   11 Jun 2027 05:26:30.515   11 Jun 2027 05:26:46.130            15.615          7807.500
       175   11 Jun 2027 05:27:20.034   11 Jun 2027 05:28:31.349            71.315         35657.500
       176   11 Jun 2027 05:29:25.319   11 Jun 2027 05:29:51.927            26.608         13304.000
       177   11 Jun 2027 05:30:17.492   11 Jun 2027 05:30:38.148            20.656         10328.000
       178   11 Jun 2027 07:00:46.673   11 Jun 2027 07:01:57.772            71.099         33686.813
       179   11 Jun 2027 07:03:58.304   11 Jun 2027 07:04:03.514             5.210           741.281
       180   11 Jun 2027 07:05:16.328   11 Jun 2027 07:05:18.464             2.136            19.813
       181   11 Jun 2027 08:38:18.987   11 Jun 2027 08:38:29.572            10.585          4861.156
       182   11 Jun 2027 08:39:59.128   11 Jun 2027 08:40:00.468             1.340           670.000
       183   11 Jun 2027 08:40:12.954   11 Jun 2027 08:40:19.244             6.290           399.281
       184   11 Jun 2027 08:40:36.778   11 Jun 2027 08:40:38.483             1.705           547.938
       185   11 Jun 2027 08:41:39.825   11 Jun 2027 08:41:44.433             4.608           961.250
       186   11 Jun 2027 08:41:52.616   11 Jun 2027 08:41:56.240             3.624           240.094
       187   11 Jun 2027 10:14:19.028   11 Jun 2027 10:14:34.175            15.147          6909.500
       188   11 Jun 2027 10:16:59.258   11 Jun 2027 10:17:04.640             5.382          1492.719
       189   12 Jun 2027 04:01:03.149   12 Jun 2027 04:01:30.196            27.047         13523.500
       190   12 Jun 2027 04:04:12.897   12 Jun 2027 04:04:12.897             0.000             0.000
       191   12 Jun 2027 04:04:26.638   12 Jun 2027 04:04:29.709             3.071          1535.500
       192   12 Jun 2027 04:04:32.327   12 Jun 2027 04:04:37.395             5.068          2534.000
       193   12 Jun 2027 05:35:56.599   12 Jun 2027 05:39:07.272           190.673         95336.500
       194   12 Jun 2027 05:43:11.150   12 Jun 2027 05:43:15.571             4.421          2210.500
       195   12 Jun 2027 07:12:29.986   12 Jun 2027 07:14:04.481            94.495         46479.187
       196   12 Jun 2027 07:16:09.862   12 Jun 2027 07:16:11.046             1.184           413.281
       197   12 Jun 2027 07:16:20.260   12 Jun 2027 07:16:21.877             1.617           251.969
       198   12 Jun 2027 07:17:25.994   12 Jun 2027 07:17:36.518            10.524           504.063
       199   12 Jun 2027 07:18:03.637   12 Jun 2027 07:18:10.271             6.634           804.188
       200   12 Jun 2027 08:50:47.289   12 Jun 2027 08:51:00.021            12.732          5956.906
       201   12 Jun 2027 08:51:11.340   12 Jun 2027 08:51:13.231             1.891            65.656
       202   12 Jun 2027 08:51:48.829   12 Jun 2027 08:51:51.308             2.479           337.031
       203   12 Jun 2027 08:52:00.315   12 Jun 2027 08:52:00.956             0.641            44.500
       204   12 Jun 2027 08:52:25.797   12 Jun 2027 08:52:27.270             1.473           603.031
       205   12 Jun 2027 08:52:54.345   12 Jun 2027 08:52:57.245             2.900           846.094
       206   12 Jun 2027 08:53:18.841   12 Jun 2027 08:53:21.260             2.419           674.875
       207   12 Jun 2027 08:53:43.073   12 Jun 2027 08:53:45.133             2.060           356.188
       208   12 Jun 2027 10:26:08.264   12 Jun 2027 10:26:20.173            11.909          5422.281
       209   13 Jun 2027 04:11:17.467   13 Jun 2027 04:11:51.957            34.490         17245.000
       210   13 Jun 2027 04:11:59.192   13 Jun 2027 04:12:12.029            12.837          6418.500
       211   13 Jun 2027 04:12:48.563   13 Jun 2027 04:12:54.818             6.255          3127.500
       212   13 Jun 2027 04:14:45.395   13 Jun 2027 04:14:45.395             0.000             0.000
       213   13 Jun 2027 04:16:33.760   13 Jun 2027 04:16:34.592             0.832           416.000
       214   13 Jun 2027 04:17:21.344   13 Jun 2027 04:17:33.402            12.058          6029.000
       215   13 Jun 2027 05:47:44.078   13 Jun 2027 05:50:23.355           159.277         79638.500
       216   13 Jun 2027 05:50:34.436   13 Jun 2027 05:50:45.429            10.993          5496.500
       217   13 Jun 2027 05:54:27.358   13 Jun 2027 05:54:38.174            10.816          5408.000
       218   13 Jun 2027 05:55:15.526   13 Jun 2027 05:55:15.841             0.315           157.500
       219   13 Jun 2027 07:24:50.644   13 Jun 2027 07:26:23.490            92.846         45820.781
       220   13 Jun 2027 07:27:54.753   13 Jun 2027 07:28:00.164             5.411           536.563
       221   13 Jun 2027 07:28:56.249   13 Jun 2027 07:28:59.506             3.257           995.094
       222   13 Jun 2027 07:29:54.737   13 Jun 2027 07:29:57.384             2.647           954.844
       223   13 Jun 2027 07:30:53.530   13 Jun 2027 07:30:53.812             0.282            72.969
       224   13 Jun 2027 09:02:45.026   13 Jun 2027 09:02:56.858            11.832          4563.687
       225   13 Jun 2027 09:05:13.391   13 Jun 2027 09:05:16.573             3.182           557.250
       226   13 Jun 2027 09:06:39.841   13 Jun 2027 09:06:40.265             0.424           208.531
       227   13 Jun 2027 10:35:51.231   13 Jun 2027 10:36:10.908            19.677          4667.781
       228   13 Jun 2027 10:40:13.811   13 Jun 2027 10:40:14.544             0.733             2.313
