uniorb/output/strategy_4/Camera/Camera_KinoSat_111806.txt

KinoSat_111806
-------------------------
    Access    *     Start Time (UTCG)     *     Stop Time (UTCG)  *   Duration (s) *   Data (Mbytes)
         1   01 Jun 2027 03:00:00.000   01 Jun 2027 03:00:12.057            12.057          6028.500
         2   01 Jun 2027 03:00:44.932   01 Jun 2027 03:00:47.489             2.557          1278.500
         3   01 Jun 2027 03:01:08.841   01 Jun 2027 03:01:21.229            12.388          6194.000
         4   01 Jun 2027 03:01:36.061   01 Jun 2027 03:01:48.740            12.679          6339.500
         5   01 Jun 2027 04:33:12.984   01 Jun 2027 04:34:14.264            61.280         30640.000
         6   01 Jun 2027 04:34:20.949   01 Jun 2027 04:35:10.012            49.063         24531.500
         7   01 Jun 2027 04:37:36.696   01 Jun 2027 04:37:58.037            21.341         10670.500
         8   01 Jun 2027 04:38:55.919   01 Jun 2027 04:38:58.142             2.223          1111.500
         9   01 Jun 2027 04:39:23.027   01 Jun 2027 04:39:25.186             2.159          1079.500
        10   01 Jun 2027 06:11:30.407   01 Jun 2027 06:13:22.027           111.620         55810.000
        11   01 Jun 2027 06:13:50.802   01 Jun 2027 06:14:04.801            13.999          6999.500
        12   01 Jun 2027 07:34:53.523   01 Jun 2027 07:37:22.756           149.233         74616.500
        13   01 Jun 2027 09:11:26.061   01 Jun 2027 09:13:12.688           106.627         53313.500
        14   01 Jun 2027 09:14:25.916   01 Jun 2027 09:14:58.025            32.109         16054.500
        15   01 Jun 2027 10:46:36.653   01 Jun 2027 10:48:11.727            95.074         47537.000
        16   01 Jun 2027 10:53:01.719   01 Jun 2027 10:53:12.559            10.840          5420.000
        17   02 Jun 2027 03:07:02.009   02 Jun 2027 03:07:19.124            17.115          8557.500
        18   02 Jun 2027 03:07:32.391   02 Jun 2027 03:08:28.812            56.421         28210.500
        19   02 Jun 2027 03:08:41.088   02 Jun 2027 03:08:53.423            12.335          6167.500
        20   02 Jun 2027 03:09:11.273   02 Jun 2027 03:09:13.810             2.537          1268.500
        21   02 Jun 2027 03:10:00.573   02 Jun 2027 03:10:21.119            20.546         10273.000
        22   02 Jun 2027 03:11:50.156   02 Jun 2027 03:11:55.017             4.861          2430.500
        23   02 Jun 2027 03:12:52.482   02 Jun 2027 03:12:53.939             1.457           728.500
        24   02 Jun 2027 03:13:40.814   02 Jun 2027 03:13:47.806             6.992          3496.000
        25   02 Jun 2027 03:13:49.960   02 Jun 2027 03:13:55.747             5.787          2893.500
        26   02 Jun 2027 04:46:19.696   02 Jun 2027 04:48:59.062           159.366         79683.000
        27   02 Jun 2027 04:49:56.350   02 Jun 2027 04:50:45.421            49.071         24535.500
        28   02 Jun 2027 04:53:16.768   02 Jun 2027 04:54:16.238            59.470         29735.000
        29   02 Jun 2027 06:23:27.390   02 Jun 2027 06:24:07.793            40.403         20201.500
        30   02 Jun 2027 06:24:25.501   02 Jun 2027 06:25:37.065            71.564         35782.000
        31   02 Jun 2027 06:25:39.362   02 Jun 2027 06:27:03.137            83.775         41887.500
        32   02 Jun 2027 07:46:55.098   02 Jun 2027 07:47:29.057            33.959         16979.500
        33   02 Jun 2027 07:47:55.029   02 Jun 2027 07:48:03.261             8.232          4116.000
        34   02 Jun 2027 09:23:18.068   02 Jun 2027 09:23:32.977            14.909          7454.500
        35   02 Jun 2027 09:25:01.501   02 Jun 2027 09:27:00.009           118.508         59008.499
        36   02 Jun 2027 10:58:11.568   02 Jun 2027 10:58:21.059             9.491          3439.969
        37   02 Jun 2027 11:00:17.734   02 Jun 2027 11:00:23.967             6.233          3021.938
        38   02 Jun 2027 11:01:11.262   02 Jun 2027 11:01:11.262             0.000             0.000
        39   02 Jun 2027 11:04:52.915   02 Jun 2027 11:05:08.020            15.105          7143.813
        40   03 Jun 2027 03:19:43.221   03 Jun 2027 03:21:56.838           133.617         66808.500
        41   03 Jun 2027 03:22:31.195   03 Jun 2027 03:22:52.175            20.980         10490.000
        42   03 Jun 2027 03:23:59.461   03 Jun 2027 03:24:00.506             1.045           522.500
        43   03 Jun 2027 04:58:23.843   03 Jun 2027 05:00:43.447           139.604         69653.125
        44   03 Jun 2027 05:04:48.288   03 Jun 2027 05:05:03.268            14.980          7114.094
        45   03 Jun 2027 06:24:10.481   03 Jun 2027 06:24:20.573            10.092          4764.937
        46   03 Jun 2027 06:24:49.879   03 Jun 2027 06:24:49.879             0.000             0.000
        47   03 Jun 2027 06:35:24.111   03 Jun 2027 06:35:31.469             7.358          3048.094
        48   03 Jun 2027 06:38:05.466   03 Jun 2027 06:38:06.994             1.528           764.000
        49   03 Jun 2027 07:58:00.807   03 Jun 2027 07:58:08.837             8.030          3641.531
        50   03 Jun 2027 07:59:08.258   03 Jun 2027 07:59:16.021             7.763          1590.344
        51   03 Jun 2027 07:59:24.940   03 Jun 2027 07:59:25.938             0.998           255.625
        52   03 Jun 2027 08:00:24.405   03 Jun 2027 08:00:28.714             4.309           843.625
        53   03 Jun 2027 09:33:35.409   03 Jun 2027 09:33:39.565             4.156          2078.000
        54   03 Jun 2027 09:34:11.127   03 Jun 2027 09:34:15.740             4.613          1858.625
        55   03 Jun 2027 09:36:03.057   03 Jun 2027 09:36:10.298             7.241          3341.844
        56   03 Jun 2027 09:37:49.633   03 Jun 2027 09:37:53.483             3.850          1925.000
        57   03 Jun 2027 09:39:28.669   03 Jun 2027 09:39:36.956             8.287          3299.062
        58   03 Jun 2027 11:10:20.034   03 Jun 2027 11:10:28.788             8.754          4032.500
        59   03 Jun 2027 11:12:49.903   03 Jun 2027 11:12:58.793             8.890          4051.938
        60   03 Jun 2027 11:14:10.016   03 Jun 2027 11:14:20.139            10.123          1927.469
        61   03 Jun 2027 11:14:49.355   03 Jun 2027 11:14:51.115             1.760           529.656
        62   03 Jun 2027 11:15:26.413   03 Jun 2027 11:15:30.540             4.127           847.625
        63   03 Jun 2027 11:16:34.617   03 Jun 2027 11:16:40.915             6.298          1849.719
        64   03 Jun 2027 11:17:22.151   03 Jun 2027 11:17:24.726             2.575          1224.594
        65   04 Jun 2027 03:31:49.227   04 Jun 2027 03:35:16.812           207.585        103792.500
        66   04 Jun 2027 03:36:44.199   04 Jun 2027 03:36:49.900             5.701          2850.500
        67   04 Jun 2027 03:37:42.125   04 Jun 2027 03:37:45.560             3.435          1717.500
        68   04 Jun 2027 05:10:53.937   04 Jun 2027 05:12:35.781           101.844         50295.969
        69   04 Jun 2027 05:13:07.543   04 Jun 2027 05:13:09.174             1.631           798.750
        70   04 Jun 2027 05:13:41.821   04 Jun 2027 05:13:45.096             3.275           921.969
        71   04 Jun 2027 05:15:16.982   04 Jun 2027 05:15:22.253             5.271          1465.938
        72   04 Jun 2027 05:15:41.810   04 Jun 2027 05:15:42.978             1.168           415.625
        73   04 Jun 2027 05:16:16.862   04 Jun 2027 05:16:19.031             2.169           489.469
        74   04 Jun 2027 05:16:45.613   04 Jun 2027 05:16:47.772             2.159           611.750
        75   04 Jun 2027 06:35:44.287   04 Jun 2027 06:35:50.886             6.599          3252.625
        76   04 Jun 2027 06:36:30.098   04 Jun 2027 06:36:36.120             6.022          1103.125
        77   04 Jun 2027 06:47:25.175   04 Jun 2027 06:47:32.735             7.560          3299.344
        78   04 Jun 2027 08:09:43.135   04 Jun 2027 08:10:00.445            17.310          7329.344
        79   04 Jun 2027 08:11:40.406   04 Jun 2027 08:11:43.037             2.631          1139.188
        80   04 Jun 2027 08:12:28.507   04 Jun 2027 08:12:30.997             2.490           905.094
        81   04 Jun 2027 08:14:13.860   04 Jun 2027 08:14:13.860             0.000             0.000
        82   04 Jun 2027 09:44:42.169   04 Jun 2027 09:44:52.411            10.242          3673.406
        83   04 Jun 2027 09:47:44.185   04 Jun 2027 09:47:45.945             1.760           739.625
        84   04 Jun 2027 09:49:50.487   04 Jun 2027 09:49:56.789             6.302          2787.531
        85   04 Jun 2027 09:51:15.924   04 Jun 2027 09:51:20.196             4.272          2097.781
        86   04 Jun 2027 11:22:08.543   04 Jun 2027 11:22:18.754            10.211          4137.125
        87   04 Jun 2027 11:23:32.786   04 Jun 2027 11:23:32.786             0.000             0.000
        88   04 Jun 2027 11:24:25.505   04 Jun 2027 11:24:35.397             9.892          3773.656
        89   04 Jun 2027 11:25:10.455   04 Jun 2027 11:25:10.455             0.000             0.000
        90   04 Jun 2027 11:28:24.201   04 Jun 2027 11:28:39.184            14.983          6600.594
        91   04 Jun 2027 11:29:19.519   04 Jun 2027 11:29:24.465             4.946           962.531
        92   05 Jun 2027 03:44:09.370   05 Jun 2027 03:44:36.009            26.639         13319.500
        93   05 Jun 2027 03:44:41.465   05 Jun 2027 03:45:15.240            33.775         16887.500
        94   05 Jun 2027 03:45:19.121   05 Jun 2027 03:46:14.506            55.385         27692.500
        95   05 Jun 2027 03:46:15.289   05 Jun 2027 03:48:02.726           107.437         53718.500
        96   05 Jun 2027 03:49:35.273   05 Jun 2027 03:49:41.464             6.191          3095.500
        97   05 Jun 2027 05:22:56.178   05 Jun 2027 05:24:26.067            89.889         42307.469
        98   05 Jun 2027 05:25:14.659   05 Jun 2027 05:25:16.275             1.616           637.188
        99   05 Jun 2027 05:27:42.324   05 Jun 2027 05:27:45.048             2.724           977.906
       100   05 Jun 2027 05:27:50.202   05 Jun 2027 05:27:50.946             0.744           161.062
       101   05 Jun 2027 05:28:31.569   05 Jun 2027 05:28:34.232             2.663           567.437
       102   05 Jun 2027 05:29:15.284   05 Jun 2027 05:29:23.884             8.600          1273.656
       103   05 Jun 2027 05:29:54.140   05 Jun 2027 05:29:55.916             1.776           656.781
       104   05 Jun 2027 06:47:16.697   05 Jun 2027 06:47:31.112            14.415          5194.625
       105   05 Jun 2027 06:48:24.006   05 Jun 2027 06:48:27.089             3.083          1492.094
       106   05 Jun 2027 06:48:43.170   05 Jun 2027 06:48:45.272             2.102           287.031
       107   05 Jun 2027 06:49:19.917   05 Jun 2027 06:49:22.684             2.767           420.344
       108   05 Jun 2027 06:59:32.909   05 Jun 2027 06:59:38.781             5.872          1961.281
       109   05 Jun 2027 08:21:21.777   05 Jun 2027 08:21:34.649            12.872          5680.406
       110   05 Jun 2027 08:22:20.808   05 Jun 2027 08:22:27.506             6.698          1090.937
       111   05 Jun 2027 08:23:33.246   05 Jun 2027 08:23:36.268             3.022          1345.219
       112   05 Jun 2027 08:24:35.240   05 Jun 2027 08:24:41.784             6.544          1057.875
       113   05 Jun 2027 08:25:31.573   05 Jun 2027 08:25:35.597             4.024          1241.531
       114   05 Jun 2027 09:56:10.184   05 Jun 2027 09:56:17.166             6.982          3355.719
       115   05 Jun 2027 09:58:15.120   05 Jun 2027 09:58:16.978             1.858           534.438
       116   05 Jun 2027 09:59:41.154   05 Jun 2027 09:59:45.996             4.842          1459.937
       117   05 Jun 2027 10:01:50.832   05 Jun 2027 10:02:00.666             9.834          3540.438
       118   05 Jun 2027 10:03:10.086   05 Jun 2027 10:03:11.483             1.397           181.031
       119   05 Jun 2027 10:04:33.206   05 Jun 2027 10:04:38.229             5.023          1776.875
       120   05 Jun 2027 10:04:55.573   05 Jun 2027 10:04:56.803             1.230           230.094
       121   05 Jun 2027 11:36:16.741   05 Jun 2027 11:36:35.904            19.163          8852.812
       122   05 Jun 2027 11:39:59.635   05 Jun 2027 11:40:13.454            13.819          6184.969
       123   05 Jun 2027 11:40:40.624   05 Jun 2027 11:40:43.128             2.504           601.813
       124   05 Jun 2027 11:40:57.243   05 Jun 2027 11:40:59.686             2.443           303.969
       125   06 Jun 2027 03:56:52.283   06 Jun 2027 03:57:07.056            14.773          7386.500
       126   06 Jun 2027 03:57:16.059   06 Jun 2027 03:58:27.959            71.900         35950.000
       127   06 Jun 2027 03:58:57.069   06 Jun 2027 04:00:40.959           103.890         51945.000
       128   06 Jun 2027 04:01:26.082   06 Jun 2027 04:01:30.337             4.255          2127.500
       129   06 Jun 2027 04:01:59.391   06 Jun 2027 04:02:04.762             5.371          2685.500
       130   06 Jun 2027 05:35:21.689   06 Jun 2027 05:36:44.603            82.914         41457.000
       131   06 Jun 2027 05:37:23.798   06 Jun 2027 05:38:04.213            40.415         18373.500
       132   06 Jun 2027 05:39:04.387   06 Jun 2027 05:39:05.756             1.369            96.969
       133   06 Jun 2027 05:40:14.863   06 Jun 2027 05:40:16.563             1.700           850.000
       134   06 Jun 2027 05:40:18.857   06 Jun 2027 05:40:20.667             1.810           116.000
       135   06 Jun 2027 06:59:14.448   06 Jun 2027 06:59:36.159            21.711          7574.750
       136   06 Jun 2027 07:00:12.108   06 Jun 2027 07:00:16.037             3.929          1091.688
       137   06 Jun 2027 07:01:22.271   06 Jun 2027 07:01:26.812             4.541          1923.906
       138   06 Jun 2027 08:35:12.564   06 Jun 2027 08:35:27.325            14.761          6505.437
       139   06 Jun 2027 08:35:36.603   06 Jun 2027 08:35:39.578             2.975            95.500
       140   06 Jun 2027 08:36:44.696   06 Jun 2027 08:36:45.131             0.435           217.500
       141   06 Jun 2027 08:38:15.621   06 Jun 2027 08:38:31.002            15.381          3916.469
       142   06 Jun 2027 10:09:01.169   06 Jun 2027 10:09:09.926             8.757          2364.250
       143   06 Jun 2027 10:10:36.902   06 Jun 2027 10:10:43.204             6.302          1179.187
       144   06 Jun 2027 10:11:18.465   06 Jun 2027 10:11:21.258             2.793           353.750
       145   06 Jun 2027 10:13:50.570   06 Jun 2027 10:14:08.526            17.956          4179.312
       146   06 Jun 2027 10:15:00.232   06 Jun 2027 10:15:02.815             2.583          1136.625
       147   06 Jun 2027 10:16:32.601   06 Jun 2027 10:16:35.842             3.241          1415.250
       148   06 Jun 2027 10:17:15.971   06 Jun 2027 10:17:21.622             5.651           375.500
       149   06 Jun 2027 11:46:10.211   06 Jun 2027 11:46:21.402            11.191          5336.094
       150   06 Jun 2027 11:51:18.096   06 Jun 2027 11:51:33.234            15.138          7533.531
       151   06 Jun 2027 11:52:24.166   06 Jun 2027 11:52:27.263             3.097           981.656
       152   06 Jun 2027 11:52:44.737   06 Jun 2027 11:52:45.287             0.550            77.469
       153   06 Jun 2027 11:52:49.833   06 Jun 2027 11:52:51.233             1.400           142.062
       154   06 Jun 2027 11:53:00.904   06 Jun 2027 11:53:03.777             2.873            12.250
       155   07 Jun 2027 04:09:36.273   07 Jun 2027 04:09:55.423            19.150          9575.000
       156   07 Jun 2027 04:10:09.140   07 Jun 2027 04:11:04.423            55.283         27641.500
       157   07 Jun 2027 04:11:04.728   07 Jun 2027 04:12:02.182            57.454         28727.000
       158   07 Jun 2027 04:13:17.196   07 Jun 2027 04:14:12.544            55.348         27674.000
       159   07 Jun 2027 04:14:48.119   07 Jun 2027 04:14:57.092             8.973          4486.500
       160   07 Jun 2027 05:47:43.885   07 Jun 2027 05:48:11.510            27.625         13812.500
       161   07 Jun 2027 05:48:32.702   07 Jun 2027 05:50:22.519           109.817         54822.157
       162   07 Jun 2027 05:51:21.792   07 Jun 2027 05:51:25.818             4.026          1828.125
       163   07 Jun 2027 07:11:07.260   07 Jun 2027 07:11:19.762            12.502          5151.344
       164   07 Jun 2027 07:12:26.949   07 Jun 2027 07:12:32.126             5.177          1755.000
       165   07 Jun 2027 07:12:48.930   07 Jun 2027 07:12:52.641             3.711           392.406
       166   07 Jun 2027 08:47:29.724   07 Jun 2027 08:47:51.865            22.141          9320.875
       167   07 Jun 2027 08:48:04.020   07 Jun 2027 08:48:06.848             2.828            71.937
       168   07 Jun 2027 08:48:08.160   07 Jun 2027 08:48:10.732             2.572            41.000
       169   07 Jun 2027 08:48:25.828   07 Jun 2027 08:48:26.532             0.704           337.844
       170   07 Jun 2027 08:49:25.627   07 Jun 2027 08:49:27.817             2.190           893.906
       171   07 Jun 2027 08:50:00.304   07 Jun 2027 08:50:05.311             5.007           812.656
       172   07 Jun 2027 10:21:24.140   07 Jun 2027 10:21:32.763             8.623          3369.281
       173   07 Jun 2027 10:23:25.483   07 Jun 2027 10:23:30.888             5.405          2676.031
       174   07 Jun 2027 10:24:11.964   07 Jun 2027 10:24:17.544             5.580          1283.625
       175   07 Jun 2027 10:26:48.819   07 Jun 2027 10:26:53.863             5.044          1850.531
       176   07 Jun 2027 10:28:31.775   07 Jun 2027 10:28:33.451             1.676           694.500
       177   07 Jun 2027 10:28:49.074   07 Jun 2027 10:28:50.339             1.265           261.969
       178   07 Jun 2027 10:29:12.467   07 Jun 2027 10:29:14.615             2.148           601.969
       179   07 Jun 2027 10:29:29.428   07 Jun 2027 10:29:31.049             1.621           396.594
       180   07 Jun 2027 11:58:36.321   07 Jun 2027 11:58:48.091            11.770          5708.031
       181   07 Jun 2027 11:59:43.390   07 Jun 2027 11:59:45.656             2.266           907.687
       182   08 Jun 2027 04:21:39.753   08 Jun 2027 04:22:36.283            56.530         28265.000
       183   08 Jun 2027 04:22:41.990   08 Jun 2027 04:23:18.012            36.022         18011.000
       184   08 Jun 2027 04:24:19.635   08 Jun 2027 04:25:31.586            71.951         35975.500
       185   08 Jun 2027 04:25:48.394   08 Jun 2027 04:26:01.345            12.951          6475.500
       186   08 Jun 2027 06:01:35.034   08 Jun 2027 06:03:54.910           139.876         69938.000
       187   08 Jun 2027 06:03:57.938   08 Jun 2027 06:04:06.093             8.155          4077.500
       188   08 Jun 2027 07:22:57.453   08 Jun 2027 07:23:17.379            19.926          6834.344
       189   08 Jun 2027 07:24:28.118   08 Jun 2027 07:24:33.582             5.464          2067.781
       190   08 Jun 2027 08:59:33.271   08 Jun 2027 08:59:39.322             6.051          2868.969
       191   08 Jun 2027 09:00:27.058   08 Jun 2027 09:00:29.673             2.615           755.406
       192   08 Jun 2027 10:34:41.610   08 Jun 2027 10:34:57.160            15.550          5556.094
       193   08 Jun 2027 10:37:47.788   08 Jun 2027 10:37:47.788             0.000             0.000
       194   08 Jun 2027 10:38:31.779   08 Jun 2027 10:38:44.548            12.769          5904.688
       195   08 Jun 2027 10:39:34.296   08 Jun 2027 10:39:36.991             2.695          1347.500
       196   08 Jun 2027 10:40:39.615   08 Jun 2027 10:40:44.861             5.246          2130.125
       197   08 Jun 2027 10:41:17.080   08 Jun 2027 10:41:18.722             1.642           745.625
       198   08 Jun 2027 10:41:25.130   08 Jun 2027 10:41:25.294             0.164            77.469
       199   09 Jun 2027 03:00:00.000   09 Jun 2027 03:00:27.845            27.845         13922.500
       200   09 Jun 2027 03:01:20.045   09 Jun 2027 03:01:23.640             3.595          1797.500
       201   09 Jun 2027 03:01:29.880   09 Jun 2027 03:01:32.498             2.618          1309.000
       202   09 Jun 2027 03:02:05.373   09 Jun 2027 03:02:27.958            22.585         11292.500
       203   09 Jun 2027 04:33:30.910   09 Jun 2027 04:34:29.547            58.637         29318.500
       204   09 Jun 2027 04:34:38.156   09 Jun 2027 04:35:25.049            46.893         23446.500
       205   09 Jun 2027 04:35:48.457   09 Jun 2027 04:36:14.119            25.662         12831.000
       206   09 Jun 2027 04:37:06.840   09 Jun 2027 04:37:38.529            31.689         15844.500
       207   09 Jun 2027 04:37:49.145   09 Jun 2027 04:37:51.178             2.033          1016.500
       208   09 Jun 2027 06:11:47.654   09 Jun 2027 06:13:33.910           106.256         53011.312
       209   09 Jun 2027 07:35:09.824   09 Jun 2027 07:35:20.849            11.025          4704.406
       210   09 Jun 2027 07:36:00.445   09 Jun 2027 07:36:02.341             1.896           687.594
       211   09 Jun 2027 07:36:40.437   09 Jun 2027 07:36:45.822             5.385           956.781
       212   09 Jun 2027 07:37:46.579   09 Jun 2027 07:37:49.878             3.299           163.063
       213   09 Jun 2027 07:38:00.762   09 Jun 2027 07:38:02.112             1.350           340.125
       214   09 Jun 2027 07:38:19.025   09 Jun 2027 07:38:19.833             0.808           329.375
       215   09 Jun 2027 09:11:57.279   09 Jun 2027 09:12:08.895            11.616          5597.125
       216   09 Jun 2027 09:14:14.951   09 Jun 2027 09:14:20.079             5.128          2525.437
       217   09 Jun 2027 09:14:44.028   09 Jun 2027 09:14:47.587             3.559           558.375
       218   09 Jun 2027 10:47:11.894   09 Jun 2027 10:47:23.445            11.551          4699.281
       219   09 Jun 2027 10:48:32.532   09 Jun 2027 10:48:36.024             3.492           704.219
       220   09 Jun 2027 10:49:49.307   09 Jun 2027 10:49:52.336             3.029           870.250
       221   09 Jun 2027 10:50:40.190   09 Jun 2027 10:50:43.379             3.189          1423.375
       222   09 Jun 2027 10:51:38.938   09 Jun 2027 10:51:41.156             2.218           707.688
       223   09 Jun 2027 10:52:28.866   09 Jun 2027 10:52:31.511             2.645          1146.688
       224   09 Jun 2027 10:53:01.984   09 Jun 2027 10:53:04.239             2.255           262.344
       225   09 Jun 2027 10:53:29.076   09 Jun 2027 10:53:30.197             1.121           560.500
       226   10 Jun 2027 03:07:19.421   10 Jun 2027 03:07:34.423            15.002          7501.000
       227   10 Jun 2027 03:07:47.650   10 Jun 2027 03:08:26.878            39.228         19614.000
       228   10 Jun 2027 03:08:36.542   10 Jun 2027 03:08:36.542             0.000             0.000
       229   10 Jun 2027 03:08:52.750   10 Jun 2027 03:09:08.239            15.489          7744.500
       230   10 Jun 2027 03:10:10.071   10 Jun 2027 03:10:15.656             5.585          2792.500
       231   10 Jun 2027 03:10:41.202   10 Jun 2027 03:10:50.286             9.084          4542.000
       232   10 Jun 2027 03:11:42.351   10 Jun 2027 03:11:54.365            12.014          6007.000
       233   10 Jun 2027 03:12:02.570   10 Jun 2027 03:12:05.413             2.843          1421.500
       234   10 Jun 2027 03:12:26.376   10 Jun 2027 03:12:34.683             8.307          4153.500
       235   10 Jun 2027 03:13:29.551   10 Jun 2027 03:13:31.811             2.260          1130.000
       236   10 Jun 2027 03:13:56.693   10 Jun 2027 03:14:12.997            16.304          8152.000
       237   10 Jun 2027 04:46:37.235   10 Jun 2027 04:49:12.566           155.331         77665.500
       238   10 Jun 2027 04:50:10.682   10 Jun 2027 04:50:36.847            26.165         12741.876
       239   10 Jun 2027 04:53:32.016   10 Jun 2027 04:53:43.789            11.773          4261.688
       240   10 Jun 2027 06:23:44.091   10 Jun 2027 06:23:59.845            15.754          6834.531
       241   10 Jun 2027 06:24:01.914   10 Jun 2027 06:24:02.603             0.689            64.656
       242   10 Jun 2027 06:25:52.089   10 Jun 2027 06:25:55.889             3.800           114.469
       243   10 Jun 2027 07:47:40.616   10 Jun 2027 07:47:49.685             9.069          3688.969
       244   10 Jun 2027 07:48:17.590   10 Jun 2027 07:48:18.174             0.584           162.562
       245   10 Jun 2027 07:49:46.404   10 Jun 2027 07:49:51.951             5.547          2401.250
       246   10 Jun 2027 09:23:33.459   10 Jun 2027 09:23:45.834            12.375          4460.562
       247   10 Jun 2027 09:25:21.774   10 Jun 2027 09:25:29.834             8.060          2886.562
       248   10 Jun 2027 09:25:52.971   10 Jun 2027 09:26:00.812             7.841           266.156
       249   10 Jun 2027 09:26:53.717   10 Jun 2027 09:26:57.967             4.250          1486.125
       250   10 Jun 2027 10:58:26.268   10 Jun 2027 10:58:35.993             9.725          2998.156
       251   10 Jun 2027 11:00:38.081   10 Jun 2027 11:00:45.528             7.447          3164.125
       252   10 Jun 2027 11:05:09.468   10 Jun 2027 11:05:23.635            14.167          7044.375
       253   11 Jun 2027 03:20:00.869   11 Jun 2027 03:22:53.046           172.177         86088.500
       254   11 Jun 2027 03:24:19.523   11 Jun 2027 03:24:21.453             1.930           965.000
       255   11 Jun 2027 03:25:45.296   11 Jun 2027 03:26:10.851            25.555         12777.500
       256   11 Jun 2027 04:58:42.260   11 Jun 2027 05:00:25.072           102.812         50980.594
       257   11 Jun 2027 05:00:41.287   11 Jun 2027 05:00:46.904             5.617           308.688
       258   11 Jun 2027 05:01:47.370   11 Jun 2027 05:01:49.980             2.610           890.437
       259   11 Jun 2027 05:02:14.042   11 Jun 2027 05:02:14.835             0.793           345.562
       260   11 Jun 2027 05:02:50.624   11 Jun 2027 05:02:52.360             1.736           852.625
       261   11 Jun 2027 05:03:28.167   11 Jun 2027 05:03:30.107             1.940           609.000
       262   11 Jun 2027 05:04:25.695   11 Jun 2027 05:04:29.166             3.471          1013.406
       263   11 Jun 2027 05:04:50.556   11 Jun 2027 05:04:55.184             4.628           512.375
       264   11 Jun 2027 05:05:12.729   11 Jun 2027 05:05:14.205             1.476           470.313
       265   11 Jun 2027 06:24:24.002   11 Jun 2027 06:24:37.871            13.869          6925.188
       266   11 Jun 2027 06:25:09.357   11 Jun 2027 06:25:14.359             5.002           983.938
       267   11 Jun 2027 06:35:41.746   11 Jun 2027 06:35:47.404             5.658          1496.406
       268   11 Jun 2027 07:58:16.975   11 Jun 2027 07:58:25.282             8.307          4132.406
       269   11 Jun 2027 07:58:26.535   11 Jun 2027 07:58:28.084             1.549            39.156
       270   11 Jun 2027 07:59:35.143   11 Jun 2027 07:59:38.739             3.596          1606.469
       271   11 Jun 2027 08:01:50.096   11 Jun 2027 08:02:00.627            10.531          2979.656
       272   11 Jun 2027 08:02:57.098   11 Jun 2027 08:02:58.341             1.243           621.500
       273   11 Jun 2027 09:33:48.943   11 Jun 2027 09:33:55.349             6.406          2297.687
       274   11 Jun 2027 09:34:12.666   11 Jun 2027 09:34:13.432             0.766            42.281
       275   11 Jun 2027 09:34:25.975   11 Jun 2027 09:34:30.318             4.343            36.250
       276   11 Jun 2027 09:36:18.917   11 Jun 2027 09:36:25.144             6.227          1270.562
       277   11 Jun 2027 09:38:07.409   11 Jun 2027 09:38:15.712             8.303          2320.813
       278   11 Jun 2027 09:38:30.924   11 Jun 2027 09:38:34.041             3.117           378.875
       279   11 Jun 2027 09:39:38.224   11 Jun 2027 09:39:40.712             2.488           997.844
       280   11 Jun 2027 11:10:35.186   11 Jun 2027 11:10:45.901            10.715          3599.781
       281   11 Jun 2027 11:13:10.676   11 Jun 2027 11:13:20.904            10.228          4194.156
       282   11 Jun 2027 11:14:32.975   11 Jun 2027 11:14:40.281             7.306          2189.375
       283   11 Jun 2027 11:14:51.805   11 Jun 2027 11:14:53.791             1.986           304.406
       284   11 Jun 2027 11:15:43.385   11 Jun 2027 11:15:45.288             1.903           840.938
       285   11 Jun 2027 11:16:19.955   11 Jun 2027 11:16:24.817             4.862           744.187
       286   11 Jun 2027 11:16:55.231   11 Jun 2027 11:16:57.145             1.914           694.219
       287   11 Jun 2027 11:17:39.978   11 Jun 2027 11:17:41.252             1.274           637.000
       288   12 Jun 2027 03:32:07.157   12 Jun 2027 03:34:18.734           131.577         65788.500
       289   12 Jun 2027 03:36:40.083   12 Jun 2027 03:37:24.908            44.825         22412.500
       290   12 Jun 2027 03:38:00.757   12 Jun 2027 03:38:12.578            11.821          5910.500
       291   12 Jun 2027 05:11:11.675   12 Jun 2027 05:13:04.664           112.989         56310.687
       292   12 Jun 2027 05:13:57.258   12 Jun 2027 05:14:01.115             3.857           981.844
       293   12 Jun 2027 05:15:32.097   12 Jun 2027 05:15:36.946             4.849          1391.906
       294   12 Jun 2027 05:15:59.319   12 Jun 2027 05:16:01.281             1.962           483.969
       295   12 Jun 2027 05:16:31.635   12 Jun 2027 05:16:35.202             3.567           378.906
       296   12 Jun 2027 05:17:01.224   12 Jun 2027 05:17:03.143             1.919           610.281
       297   12 Jun 2027 06:36:01.312   12 Jun 2027 06:36:12.224            10.912          5456.000
       298   12 Jun 2027 06:36:20.877   12 Jun 2027 06:36:26.041             5.164           596.094
       299   12 Jun 2027 06:37:17.346   12 Jun 2027 06:37:22.732             5.386          1353.187
       300   12 Jun 2027 06:47:41.318   12 Jun 2027 06:47:45.710             4.392          2004.312
       301   12 Jun 2027 08:10:00.323   12 Jun 2027 08:10:09.625             9.302          4651.000
       302   12 Jun 2027 08:10:11.340   12 Jun 2027 08:10:15.827             4.487          1452.844
       303   12 Jun 2027 08:10:37.216   12 Jun 2027 08:10:37.715             0.499           225.437
       304   12 Jun 2027 08:12:29.328   12 Jun 2027 08:12:37.148             7.820          2738.844
       305   12 Jun 2027 08:13:49.291   12 Jun 2027 08:13:57.658             8.367          1985.500
       306   12 Jun 2027 08:14:51.873   12 Jun 2027 08:14:57.195             5.322          1303.219
       307   12 Jun 2027 09:44:57.471   12 Jun 2027 09:45:05.211             7.740          2981.844
       308   12 Jun 2027 09:46:21.389   12 Jun 2027 09:46:23.746             2.357           996.812
       309   12 Jun 2027 09:50:08.218   12 Jun 2027 09:50:16.873             8.655          2867.094
       310   12 Jun 2027 09:51:30.547   12 Jun 2027 09:51:37.438             6.891          2015.313
       311   12 Jun 2027 11:25:27.326   12 Jun 2027 11:25:27.326             0.000             0.000
       312   12 Jun 2027 11:25:48.522   12 Jun 2027 11:26:17.394            28.872          9938.281
       313   12 Jun 2027 11:27:44.327   12 Jun 2027 11:27:49.703             5.376          1975.312
       314   12 Jun 2027 11:28:50.667   12 Jun 2027 11:28:56.452             5.785           586.281
       315   12 Jun 2027 11:29:11.254   12 Jun 2027 11:29:13.197             1.943           462.563
       316   13 Jun 2027 03:44:28.856   13 Jun 2027 03:44:53.666            24.810         12405.000
       317   13 Jun 2027 03:45:00.555   13 Jun 2027 03:45:31.997            31.442         15721.000
       318   13 Jun 2027 03:45:36.135   13 Jun 2027 03:46:29.612            53.477         26738.500
       319   13 Jun 2027 03:46:32.259   13 Jun 2027 03:47:17.300            45.041         22520.500
       320   13 Jun 2027 03:47:36.413   13 Jun 2027 03:48:18.530            42.117         21058.500
       321   13 Jun 2027 03:49:51.661   13 Jun 2027 03:49:52.457             0.796           398.000
       322   13 Jun 2027 05:23:15.017   13 Jun 2027 05:25:08.699           113.682         55722.906
       323   13 Jun 2027 05:26:06.682   13 Jun 2027 05:26:13.314             6.632          1811.969
       324   13 Jun 2027 05:27:56.838   13 Jun 2027 05:28:02.335             5.497           969.937
       325   13 Jun 2027 05:28:30.476   13 Jun 2027 05:28:35.901             5.425           879.406
       326   13 Jun 2027 05:29:34.256   13 Jun 2027 05:29:41.143             6.887          1475.469
       327   13 Jun 2027 06:47:34.777   13 Jun 2027 06:47:46.779            12.002          5727.531
       328   13 Jun 2027 06:48:41.286   13 Jun 2027 06:48:44.832             3.546          1500.094
       329   13 Jun 2027 06:49:22.597   13 Jun 2027 06:49:25.886             3.289           734.906
       330   13 Jun 2027 06:59:50.573   13 Jun 2027 07:00:02.873            12.300          2984.344
       331   13 Jun 2027 08:21:32.681   13 Jun 2027 08:21:43.669            10.988          5383.531
       332   13 Jun 2027 08:22:14.586   13 Jun 2027 08:22:16.370             1.784           152.594
       333   13 Jun 2027 08:23:41.944   13 Jun 2027 08:23:45.954             4.010          1011.469
       334   13 Jun 2027 08:24:28.315   13 Jun 2027 08:24:31.312             2.997          1126.625
       335   13 Jun 2027 08:25:09.649   13 Jun 2027 08:25:18.243             8.594           530.625
       336   13 Jun 2027 08:26:38.486   13 Jun 2027 08:26:47.699             9.213          1586.375
       337   13 Jun 2027 09:56:25.979   13 Jun 2027 09:56:31.489             5.510          2408.906
       338   13 Jun 2027 09:58:16.047   13 Jun 2027 09:58:21.400             5.353          1842.375
       339   13 Jun 2027 09:59:13.234   13 Jun 2027 09:59:17.933             4.699          1207.406
       340   13 Jun 2027 10:00:12.173   13 Jun 2027 10:00:15.442             3.269           442.406
       341   13 Jun 2027 10:02:10.630   13 Jun 2027 10:02:13.344             2.714           887.281
       342   13 Jun 2027 10:03:40.768   13 Jun 2027 10:03:43.137             2.369           532.875
       343   13 Jun 2027 10:05:23.371   13 Jun 2027 10:05:28.487             5.116          2324.969
       344   13 Jun 2027 11:34:20.244   13 Jun 2027 11:34:20.520             0.276           138.000
       345   13 Jun 2027 11:36:32.585   13 Jun 2027 11:36:50.953            18.368          8420.812
       346   13 Jun 2027 11:37:16.731   13 Jun 2027 11:37:16.731             0.000             0.000
       347   13 Jun 2027 11:40:14.450   13 Jun 2027 11:40:28.669            14.219          6186.625
       348   13 Jun 2027 11:40:57.905   13 Jun 2027 11:40:59.300             1.395           649.406
       349   13 Jun 2027 11:41:14.394   13 Jun 2027 11:41:16.772             2.378           404.156
