uniorb/output/strategy_4/Camera/Camera_KinoSat_111408.txt

KinoSat_111408
-------------------------
    Access    *     Start Time (UTCG)     *     Stop Time (UTCG)  *   Duration (s) *   Data (Mbytes)
         1   01 Jun 2027 04:31:28.045   01 Jun 2027 04:31:59.067            31.022         15511.000
         2   01 Jun 2027 04:32:17.613   01 Jun 2027 04:34:08.098           110.485         55242.500
         3   01 Jun 2027 04:35:06.428   01 Jun 2027 04:35:06.428             0.000             0.000
         4   01 Jun 2027 05:54:50.532   01 Jun 2027 05:56:05.325            74.793         37396.500
         5   01 Jun 2027 05:56:28.503   01 Jun 2027 05:56:59.516            31.013         15506.500
         6   01 Jun 2027 07:31:22.415   01 Jun 2027 07:33:31.445           129.030         64515.000
         7   01 Jun 2027 07:33:59.792   01 Jun 2027 07:34:13.553            13.761          6880.500
         8   01 Jun 2027 09:06:32.423   01 Jun 2027 09:08:48.215           135.792         67896.000
         9   01 Jun 2027 09:09:29.304   01 Jun 2027 09:09:49.242            19.938          9969.000
        10   01 Jun 2027 09:12:58.265   01 Jun 2027 09:13:08.975            10.710          5355.000
        11   01 Jun 2027 10:42:57.678   01 Jun 2027 10:44:57.411           119.733         59866.500
        12   01 Jun 2027 10:45:09.583   01 Jun 2027 10:45:28.566            18.983          9491.500
        13   01 Jun 2027 10:45:59.269   01 Jun 2027 10:46:11.156            11.887          5943.500
        14   01 Jun 2027 10:47:30.207   01 Jun 2027 10:47:58.794            28.587         14293.500
        15   02 Jun 2027 03:05:14.907   02 Jun 2027 03:05:22.996             8.089          4044.500
        16   02 Jun 2027 03:06:16.187   02 Jun 2027 03:07:16.393            60.206         30103.000
        17   02 Jun 2027 03:07:51.752   02 Jun 2027 03:08:11.003            19.251          9625.500
        18   02 Jun 2027 03:08:44.633   02 Jun 2027 03:08:47.694             3.061          1530.500
        19   02 Jun 2027 03:09:13.810   02 Jun 2027 03:09:25.035            11.225          5612.500
        20   02 Jun 2027 03:09:54.784   02 Jun 2027 03:10:00.573             5.789          2894.500
        21   02 Jun 2027 03:12:49.774   02 Jun 2027 03:13:09.795            20.021         10010.500
        22   02 Jun 2027 04:43:24.852   02 Jun 2027 04:44:03.869            39.017         19508.500
        23   02 Jun 2027 04:44:26.754   02 Jun 2027 04:46:46.212           139.458         69729.000
        24   02 Jun 2027 06:06:53.372   02 Jun 2027 06:07:56.192            62.820         31410.000
        25   02 Jun 2027 06:08:58.792   02 Jun 2027 06:09:38.516            39.724         19862.000
        26   02 Jun 2027 07:43:15.564   02 Jun 2027 07:45:58.040           162.476         81238.000
        27   02 Jun 2027 09:18:11.543   02 Jun 2027 09:20:21.986           130.443         65221.500
        28   02 Jun 2027 09:20:49.102   02 Jun 2027 09:20:56.556             7.454          2845.812
        29   02 Jun 2027 09:21:10.769   02 Jun 2027 09:21:14.549             3.780           132.531
        30   02 Jun 2027 09:21:52.365   02 Jun 2027 09:21:52.365             0.000             0.000
        31   02 Jun 2027 09:22:29.731   02 Jun 2027 09:22:40.575            10.844          2000.562
        32   02 Jun 2027 09:23:55.729   02 Jun 2027 09:23:56.513             0.784           382.469
        33   02 Jun 2027 09:24:38.625   02 Jun 2027 09:24:43.253             4.628           831.344
        34   02 Jun 2027 09:25:13.262   02 Jun 2027 09:25:16.198             2.936           130.344
        35   02 Jun 2027 10:54:30.565   02 Jun 2027 10:54:43.999            13.434          6340.625
        36   02 Jun 2027 10:56:41.644   02 Jun 2027 10:56:43.164             1.520           219.844
        37   02 Jun 2027 10:57:56.754   02 Jun 2027 10:57:59.966             3.212          1428.063
        38   02 Jun 2027 10:58:47.381   02 Jun 2027 10:58:57.748            10.367          1008.656
        39   02 Jun 2027 10:59:49.268   02 Jun 2027 11:00:02.067            12.799          1610.000
        40   02 Jun 2027 11:00:46.628   02 Jun 2027 11:00:50.587             3.959          1392.531
        41   03 Jun 2027 03:18:19.867   03 Jun 2027 03:20:53.324           153.457         76728.500
        42   03 Jun 2027 03:21:00.168   03 Jun 2027 03:21:14.954            14.786          7393.000
        43   03 Jun 2027 03:24:24.250   03 Jun 2027 03:24:42.547            18.297          9148.500
        44   03 Jun 2027 03:24:58.609   03 Jun 2027 03:24:58.609             0.000             0.000
        45   03 Jun 2027 03:25:20.365   03 Jun 2027 03:25:55.785            35.420         17710.000
        46   03 Jun 2027 04:44:10.040   03 Jun 2027 04:44:25.098            15.058          7529.000
        47   03 Jun 2027 04:44:46.464   03 Jun 2027 04:45:00.000            13.535          6767.500
        48   03 Jun 2027 04:55:21.177   03 Jun 2027 04:56:44.409            83.232         41472.469
        49   03 Jun 2027 04:58:16.786   03 Jun 2027 04:58:18.160             1.374           532.594
        50   03 Jun 2027 06:18:17.265   03 Jun 2027 06:18:27.338            10.073          3921.906
        51   03 Jun 2027 06:19:06.155   03 Jun 2027 06:19:09.169             3.014          1099.031
        52   03 Jun 2027 06:19:38.027   03 Jun 2027 06:19:40.374             2.347           827.438
        53   03 Jun 2027 06:19:50.920   03 Jun 2027 06:19:50.920             0.000             0.000
        54   03 Jun 2027 06:19:51.976   03 Jun 2027 06:19:52.741             0.765           362.562
        55   03 Jun 2027 06:21:42.302   03 Jun 2027 06:21:52.587            10.285          3216.031
        56   03 Jun 2027 06:22:17.041   03 Jun 2027 06:22:20.925             3.884           764.188
        57   03 Jun 2027 07:53:34.236   03 Jun 2027 07:53:37.154             2.918          1441.562
        58   03 Jun 2027 07:55:16.343   03 Jun 2027 07:55:23.352             7.009          1745.281
        59   03 Jun 2027 07:56:02.640   03 Jun 2027 07:56:07.115             4.475           716.219
        60   03 Jun 2027 07:56:42.466   03 Jun 2027 07:56:44.947             2.481          1104.719
        61   03 Jun 2027 07:57:30.004   03 Jun 2027 07:57:36.590             6.586           230.531
        62   03 Jun 2027 07:57:52.410   03 Jun 2027 07:57:55.342             2.932            82.719
        63   03 Jun 2027 07:58:08.013   03 Jun 2027 07:58:08.837             0.824           395.969
        64   03 Jun 2027 07:59:08.258   03 Jun 2027 07:59:16.021             7.763          1590.344
        65   03 Jun 2027 07:59:16.760   03 Jun 2027 07:59:18.934             2.174            23.094
        66   03 Jun 2027 09:29:44.995   03 Jun 2027 09:29:56.932            11.937          3253.750
        67   03 Jun 2027 09:30:35.252   03 Jun 2027 09:30:37.203             1.951           590.281
        68   03 Jun 2027 09:32:54.124   03 Jun 2027 09:32:57.420             3.296          1579.437
        69   03 Jun 2027 09:33:23.766   03 Jun 2027 09:33:24.058             0.292           121.781
        70   03 Jun 2027 09:33:59.369   03 Jun 2027 09:34:06.992             7.623          1094.938
        71   03 Jun 2027 09:35:01.168   03 Jun 2027 09:35:04.437             3.269           950.719
        72   03 Jun 2027 09:35:39.065   03 Jun 2027 09:35:40.781             1.716           550.500
        73   03 Jun 2027 09:35:44.189   03 Jun 2027 09:35:45.053             0.864           106.500
        74   03 Jun 2027 09:36:37.649   03 Jun 2027 09:36:42.266             4.617          1608.750
        75   03 Jun 2027 09:37:18.218   03 Jun 2027 09:37:19.297             1.079           506.594
        76   03 Jun 2027 11:06:50.238   03 Jun 2027 11:07:00.801            10.563          5118.375
        77   03 Jun 2027 11:08:32.514   03 Jun 2027 11:08:36.863             4.349           136.312
        78   03 Jun 2027 11:09:18.144   03 Jun 2027 11:09:21.354             3.210           418.687
        79   03 Jun 2027 11:09:57.918   03 Jun 2027 11:09:59.684             1.766           742.625
        80   03 Jun 2027 11:10:38.424   03 Jun 2027 11:10:39.135             0.711           301.125
        81   03 Jun 2027 11:11:02.063   03 Jun 2027 11:11:05.997             3.934           498.344
        82   03 Jun 2027 11:11:38.550   03 Jun 2027 11:11:42.462             3.912           845.375
        83   03 Jun 2027 11:12:49.237   03 Jun 2027 11:12:55.338             6.101          2086.719
        84   03 Jun 2027 11:12:57.067   03 Jun 2027 11:12:58.793             1.726            54.031
        85   04 Jun 2027 03:30:49.471   04 Jun 2027 03:32:21.096            91.625         45812.500
        86   04 Jun 2027 03:32:49.415   04 Jun 2027 03:34:12.865            83.450         41725.000
        87   04 Jun 2027 03:34:53.991   04 Jun 2027 03:35:50.012            56.021         28010.500
        88   04 Jun 2027 03:36:18.626   04 Jun 2027 03:36:44.199            25.573         12786.500
        89   04 Jun 2027 03:37:35.306   04 Jun 2027 03:37:38.478             3.172          1586.000
        90   04 Jun 2027 04:55:41.037   04 Jun 2027 04:55:53.971            12.934          6467.000
        91   04 Jun 2027 05:07:23.827   04 Jun 2027 05:08:33.274            69.447         34723.500
        92   04 Jun 2027 06:29:37.037   04 Jun 2027 06:29:47.517            10.480          4890.125
        93   04 Jun 2027 06:30:12.642   04 Jun 2027 06:30:14.880             2.238           676.375
        94   04 Jun 2027 06:30:32.541   04 Jun 2027 06:30:40.034             7.493           456.312
        95   04 Jun 2027 06:31:37.713   04 Jun 2027 06:31:43.701             5.988           678.281
        96   04 Jun 2027 06:31:52.866   04 Jun 2027 06:31:55.246             2.380           240.656
        97   04 Jun 2027 06:33:42.687   04 Jun 2027 06:33:45.002             2.315          1157.500
        98   04 Jun 2027 06:33:55.391   04 Jun 2027 06:34:01.991             6.600          2292.782
        99   04 Jun 2027 06:34:31.509   04 Jun 2027 06:34:31.509             0.000             0.000
       100   04 Jun 2027 08:04:40.545   04 Jun 2027 08:04:46.959             6.414          2847.281
       101   04 Jun 2027 08:05:56.761   04 Jun 2027 08:06:00.181             3.420          1160.750
       102   04 Jun 2027 08:08:28.164   04 Jun 2027 08:08:36.816             8.652          4069.937
       103   04 Jun 2027 08:09:53.035   04 Jun 2027 08:10:00.445             7.410          2257.688
       104   04 Jun 2027 08:10:28.215   04 Jun 2027 08:10:32.929             4.714           283.219
       105   04 Jun 2027 08:11:34.194   04 Jun 2027 08:11:40.406             6.212          1154.531
       106   04 Jun 2027 08:12:36.802   04 Jun 2027 08:12:39.401             2.599           905.094
       107   04 Jun 2027 09:42:03.716   04 Jun 2027 09:42:10.531             6.815          2820.656
       108   04 Jun 2027 09:44:06.210   04 Jun 2027 09:44:13.927             7.717            43.375
       109   04 Jun 2027 09:45:30.448   04 Jun 2027 09:45:31.457             1.009           411.156
       110   04 Jun 2027 09:45:44.366   04 Jun 2027 09:45:51.200             6.834           403.406
       111   04 Jun 2027 09:46:43.436   04 Jun 2027 09:46:46.856             3.420          1467.719
       112   04 Jun 2027 09:47:09.616   04 Jun 2027 09:47:11.532             1.916            74.500
       113   04 Jun 2027 09:47:22.347   04 Jun 2027 09:47:25.530             3.183           326.000
       114   04 Jun 2027 09:48:21.286   04 Jun 2027 09:48:26.014             4.728          1159.406
       115   04 Jun 2027 11:18:51.898   04 Jun 2027 11:19:07.147            15.249          6532.438
       116   04 Jun 2027 11:22:25.844   04 Jun 2027 11:22:34.927             9.083          1631.969
       117   04 Jun 2027 11:23:04.693   04 Jun 2027 11:23:05.893             1.200           569.187
       118   04 Jun 2027 11:23:17.755   04 Jun 2027 11:23:19.268             1.513           370.688
       119   04 Jun 2027 11:24:30.472   04 Jun 2027 11:24:35.397             4.925          2184.875
       120   04 Jun 2027 11:24:59.163   04 Jun 2027 11:25:04.263             5.100           309.219
       121   05 Jun 2027 03:42:49.931   05 Jun 2027 03:44:25.545            95.614         47807.000
       122   05 Jun 2027 03:44:54.037   05 Jun 2027 03:46:07.690            73.653         36826.500
       123   05 Jun 2027 03:46:22.684   05 Jun 2027 03:46:44.595            21.911         10955.500
       124   05 Jun 2027 03:46:48.925   05 Jun 2027 03:46:55.893             6.968          3484.000
       125   05 Jun 2027 03:49:48.287   05 Jun 2027 03:49:55.836             7.549          3774.500
       126   05 Jun 2027 05:07:11.784   05 Jun 2027 05:07:51.514            39.730         19865.000
       127   05 Jun 2027 05:19:25.182   05 Jun 2027 05:19:56.824            31.642         15821.000
       128   05 Jun 2027 06:41:20.839   05 Jun 2027 06:41:59.491            38.652         18273.531
       129   05 Jun 2027 06:43:23.744   05 Jun 2027 06:43:28.636             4.892          1509.188
       130   05 Jun 2027 06:43:36.106   05 Jun 2027 06:43:36.343             0.237           118.500
       131   05 Jun 2027 06:44:35.753   05 Jun 2027 06:44:35.753             0.000             0.000
       132   05 Jun 2027 06:45:07.748   05 Jun 2027 06:45:16.404             8.656          2918.437
       133   05 Jun 2027 06:45:47.968   05 Jun 2027 06:45:48.676             0.708           225.469
       134   05 Jun 2027 06:45:58.054   05 Jun 2027 06:46:00.793             2.739            63.719
       135   05 Jun 2027 06:46:24.096   05 Jun 2027 06:46:24.096             0.000             0.000
       136   05 Jun 2027 08:16:08.866   05 Jun 2027 08:16:13.710             4.844          2115.250
       137   05 Jun 2027 08:16:59.687   05 Jun 2027 08:17:02.687             3.000          1284.094
       138   05 Jun 2027 08:18:14.625   05 Jun 2027 08:18:15.624             0.999           227.500
       139   05 Jun 2027 08:19:11.922   05 Jun 2027 08:19:23.739            11.817          1759.312
       140   05 Jun 2027 08:19:34.606   05 Jun 2027 08:19:35.620             1.014            76.344
       141   05 Jun 2027 08:20:12.355   05 Jun 2027 08:20:14.626             2.271           440.594
       142   05 Jun 2027 08:21:45.898   05 Jun 2027 08:21:52.486             6.588          2416.500
       143   05 Jun 2027 08:21:56.364   05 Jun 2027 08:21:56.364             0.000             0.000
       144   05 Jun 2027 08:22:54.420   05 Jun 2027 08:23:01.113             6.693          1914.687
       145   05 Jun 2027 08:24:01.388   05 Jun 2027 08:24:05.991             4.603          1757.000
       146   05 Jun 2027 08:24:57.175   05 Jun 2027 08:25:02.491             5.316          1434.219
       147   05 Jun 2027 09:53:58.374   05 Jun 2027 09:54:07.651             9.277          4451.219
       148   05 Jun 2027 09:56:02.710   05 Jun 2027 09:56:10.184             7.474          2558.094
       149   05 Jun 2027 09:56:49.543   05 Jun 2027 09:56:55.252             5.709          1153.563
       150   05 Jun 2027 09:57:14.184   05 Jun 2027 09:57:23.081             8.897           535.844
       151   05 Jun 2027 09:58:14.608   05 Jun 2027 09:58:24.488             9.880          1215.094
       152   05 Jun 2027 09:59:01.072   05 Jun 2027 09:59:01.587             0.515           133.500
       153   05 Jun 2027 10:00:30.684   05 Jun 2027 10:00:36.611             5.927          2136.563
       154   05 Jun 2027 10:00:43.277   05 Jun 2027 10:00:43.705             0.428           104.781
       155   05 Jun 2027 10:01:08.759   05 Jun 2027 10:01:11.466             2.707           594.125
       156   05 Jun 2027 10:01:21.394   05 Jun 2027 10:01:24.387             2.993            80.375
       157   05 Jun 2027 11:30:42.785   05 Jun 2027 11:30:57.336            14.551          6551.312
       158   05 Jun 2027 11:31:13.120   05 Jun 2027 11:31:19.457             6.337           314.156
       159   05 Jun 2027 11:32:03.506   05 Jun 2027 11:32:07.164             3.658             0.375
       160   05 Jun 2027 11:33:25.663   05 Jun 2027 11:33:30.559             4.896          1875.750
       161   05 Jun 2027 11:34:08.925   05 Jun 2027 11:34:25.637            16.712          1154.719
       162   05 Jun 2027 11:34:35.441   05 Jun 2027 11:34:36.866             1.425           286.687
       163   05 Jun 2027 11:34:50.898   05 Jun 2027 11:34:51.271             0.373           186.500
       164   05 Jun 2027 11:35:08.558   05 Jun 2027 11:35:10.159             1.601           792.219
       165   05 Jun 2027 11:36:01.911   05 Jun 2027 11:36:09.761             7.850          1382.719
       166   05 Jun 2027 11:36:33.421   05 Jun 2027 11:36:35.904             2.483           456.312
       167   05 Jun 2027 11:37:04.566   05 Jun 2027 11:37:08.618             4.052           502.313
       168   05 Jun 2027 11:37:20.741   05 Jun 2027 11:37:28.734             7.993             3.000
       169   06 Jun 2027 03:55:09.483   06 Jun 2027 03:56:28.506            79.023         39511.500
       170   06 Jun 2027 03:57:16.036   06 Jun 2027 03:59:38.924           142.888         71444.000
       171   06 Jun 2027 05:19:10.524   06 Jun 2027 05:19:46.799            36.275         18137.500
       172   06 Jun 2027 06:55:07.216   06 Jun 2027 06:56:26.523            79.307         38397.625
       173   06 Jun 2027 06:56:47.114   06 Jun 2027 06:56:48.968             1.854           297.875
       174   06 Jun 2027 06:57:37.878   06 Jun 2027 06:57:40.583             2.705          1206.969
       175   06 Jun 2027 06:57:51.135   06 Jun 2027 06:57:54.476             3.341           310.625
       176   06 Jun 2027 06:58:12.599   06 Jun 2027 06:58:16.031             3.432           377.094
       177   06 Jun 2027 06:58:25.885   06 Jun 2027 06:58:25.885             0.000             0.000
       178   06 Jun 2027 06:59:01.717   06 Jun 2027 06:59:03.818             2.101          1050.500
       179   06 Jun 2027 08:28:57.709   06 Jun 2027 08:29:05.276             7.567          2523.781
       180   06 Jun 2027 08:31:21.980   06 Jun 2027 08:31:24.617             2.637           578.500
       181   06 Jun 2027 08:32:14.638   06 Jun 2027 08:32:19.800             5.162          1385.531
       182   06 Jun 2027 08:33:38.198   06 Jun 2027 08:33:43.781             5.583          2177.969
       183   06 Jun 2027 08:33:59.521   06 Jun 2027 08:34:03.982             4.461           214.469
       184   06 Jun 2027 08:35:20.590   06 Jun 2027 08:35:24.612             4.022          1822.156
       185   06 Jun 2027 08:35:36.603   06 Jun 2027 08:35:39.578             2.975            95.500
       186   06 Jun 2027 08:36:44.696   06 Jun 2027 08:36:47.432             2.736          1306.156
       187   06 Jun 2027 10:06:05.124   06 Jun 2027 10:06:20.697            15.573          5627.719
       188   06 Jun 2027 10:08:19.818   06 Jun 2027 10:08:22.462             2.644           447.625
       189   06 Jun 2027 10:09:03.860   06 Jun 2027 10:09:09.926             6.066          1293.688
       190   06 Jun 2027 10:09:30.347   06 Jun 2027 10:09:40.097             9.750           511.500
       191   06 Jun 2027 10:09:52.053   06 Jun 2027 10:09:55.947             3.894           369.969
       192   06 Jun 2027 10:10:30.539   06 Jun 2027 10:10:33.475             2.936           580.250
       193   06 Jun 2027 10:11:07.145   06 Jun 2027 10:11:12.397             5.252           945.094
       194   06 Jun 2027 10:11:47.473   06 Jun 2027 10:11:50.082             2.609           569.125
       195   06 Jun 2027 10:12:49.997   06 Jun 2027 10:12:52.355             2.358           842.500
       196   06 Jun 2027 11:43:08.196   06 Jun 2027 11:43:19.850            11.654          5656.125
       197   06 Jun 2027 11:43:33.116   06 Jun 2027 11:43:34.241             1.125           409.094
       198   06 Jun 2027 11:45:29.036   06 Jun 2027 11:45:34.119             5.083          1902.187
       199   06 Jun 2027 11:46:27.206   06 Jun 2027 11:46:29.806             2.600           644.219
       200   06 Jun 2027 11:46:44.274   06 Jun 2027 11:46:45.784             1.510           240.094
       201   06 Jun 2027 11:47:23.429   06 Jun 2027 11:47:30.028             6.599           958.625
       202   06 Jun 2027 11:47:45.203   06 Jun 2027 11:47:53.210             8.007           301.531
       203   06 Jun 2027 11:48:29.400   06 Jun 2027 11:48:30.168             0.768           116.313
       204   06 Jun 2027 11:48:52.547   06 Jun 2027 11:48:54.243             1.696           556.344
       205   07 Jun 2027 04:07:43.420   07 Jun 2027 04:10:20.865           157.445         78722.500
       206   07 Jun 2027 04:10:26.632   07 Jun 2027 04:10:28.428             1.796           898.000
       207   07 Jun 2027 04:11:04.068   07 Jun 2027 04:11:11.180             7.112          3556.000
       208   07 Jun 2027 04:11:17.576   07 Jun 2027 04:11:30.796            13.220          6610.000
       209   07 Jun 2027 05:31:04.941   07 Jun 2027 05:31:57.212            52.271         26135.500
       210   07 Jun 2027 07:07:29.086   07 Jun 2027 07:08:59.522            90.436         42374.843
       211   07 Jun 2027 07:10:17.719   07 Jun 2027 07:10:22.237             4.518          1672.531
       212   07 Jun 2027 08:41:11.854   07 Jun 2027 08:41:17.348             5.494          2196.156
       213   07 Jun 2027 08:43:10.143   07 Jun 2027 08:43:17.838             7.695           426.563
       214   07 Jun 2027 08:43:28.221   07 Jun 2027 08:43:28.221             0.000             0.000
       215   07 Jun 2027 08:44:13.176   07 Jun 2027 08:44:14.101             0.925           462.500
       216   07 Jun 2027 08:44:27.872   07 Jun 2027 08:44:31.016             3.144          1490.719
       217   07 Jun 2027 08:45:51.456   07 Jun 2027 08:45:56.114             4.658          1900.469
       218   07 Jun 2027 08:46:44.252   07 Jun 2027 08:46:47.148             2.896          1303.563
       219   07 Jun 2027 08:48:07.087   07 Jun 2027 08:48:08.160             1.073           399.844
       220   07 Jun 2027 08:48:15.017   07 Jun 2027 08:48:16.386             1.369           214.281
       221   07 Jun 2027 08:48:57.022   07 Jun 2027 08:49:05.108             8.086          1171.406
       222   07 Jun 2027 10:18:31.649   07 Jun 2027 10:18:46.019            14.370          5430.031
       223   07 Jun 2027 10:21:15.131   07 Jun 2027 10:21:16.930             1.799           445.344
       224   07 Jun 2027 10:21:43.933   07 Jun 2027 10:21:45.121             1.188           349.063
       225   07 Jun 2027 10:23:00.418   07 Jun 2027 10:23:07.878             7.460          1513.781
       226   07 Jun 2027 10:23:36.311   07 Jun 2027 10:23:38.690             2.379           539.594
       227   07 Jun 2027 10:24:41.788   07 Jun 2027 10:24:46.458             4.670          1313.562
       228   07 Jun 2027 11:55:28.421   07 Jun 2027 11:55:43.287            14.866          6069.063
       229   07 Jun 2027 11:57:16.460   07 Jun 2027 11:57:18.330             1.870           330.250
       230   07 Jun 2027 11:58:16.267   07 Jun 2027 11:58:20.499             4.232          1810.531
       231   07 Jun 2027 11:59:45.656   07 Jun 2027 11:59:49.385             3.729          1864.500
       232   07 Jun 2027 11:59:51.791   07 Jun 2027 11:59:55.857             4.066           381.563
       233   08 Jun 2027 04:19:58.279   08 Jun 2027 04:22:29.634           151.355         75677.500
       234   08 Jun 2027 04:23:30.784   08 Jun 2027 04:23:33.080             2.296          1148.000
       235   08 Jun 2027 04:23:42.514   08 Jun 2027 04:23:58.962            16.448          8224.000
       236   08 Jun 2027 05:42:52.192   08 Jun 2027 05:43:27.307            35.115         17557.500
       237   08 Jun 2027 05:43:59.903   08 Jun 2027 05:44:07.932             8.029          4014.500
       238   08 Jun 2027 05:44:18.262   08 Jun 2027 05:44:18.262             0.000             0.000
       239   08 Jun 2027 07:19:32.442   08 Jun 2027 07:21:07.730            95.288         47354.375
       240   08 Jun 2027 07:21:18.923   08 Jun 2027 07:21:18.923             0.000             0.000
       241   08 Jun 2027 07:21:28.356   08 Jun 2027 07:21:29.401             1.045           328.156
       242   08 Jun 2027 07:22:17.300   08 Jun 2027 07:22:20.138             2.838          1297.313
       243   08 Jun 2027 08:54:31.454   08 Jun 2027 08:54:44.908            13.454          3081.469
       244   08 Jun 2027 08:55:33.339   08 Jun 2027 08:55:34.508             1.169           523.969
       245   08 Jun 2027 08:56:18.358   08 Jun 2027 08:56:26.524             8.166           932.188
       246   08 Jun 2027 08:57:48.304   08 Jun 2027 08:57:52.638             4.334          1535.094
       247   08 Jun 2027 08:58:27.714   08 Jun 2027 08:58:31.216             3.502           697.438
       248   08 Jun 2027 09:00:04.698   08 Jun 2027 09:00:11.658             6.960          2521.344
       249   08 Jun 2027 09:00:37.307   08 Jun 2027 09:00:43.045             5.738           198.094
       250   08 Jun 2027 09:01:14.960   08 Jun 2027 09:01:16.996             2.036            80.875
       251   08 Jun 2027 10:30:39.706   08 Jun 2027 10:30:48.416             8.710          4002.750
       252   08 Jun 2027 10:32:50.466   08 Jun 2027 10:32:51.829             1.363           333.812
       253   08 Jun 2027 10:33:16.654   08 Jun 2027 10:33:17.708             1.054           268.813
       254   08 Jun 2027 10:35:04.545   08 Jun 2027 10:35:07.094             2.549           230.781
       255   08 Jun 2027 10:36:26.567   08 Jun 2027 10:36:32.943             6.376          2467.906
       256   08 Jun 2027 10:36:45.823   08 Jun 2027 10:36:49.043             3.220           402.500
       257   08 Jun 2027 10:36:50.212   08 Jun 2027 10:36:51.221             1.009            36.531
       258   08 Jun 2027 10:37:12.370   08 Jun 2027 10:37:13.689             1.319           357.281
       259   09 Jun 2027 04:31:44.388   09 Jun 2027 04:32:15.957            31.569         15784.500
       260   09 Jun 2027 04:32:33.970   09 Jun 2027 04:34:25.211           111.241         55620.500
       261   09 Jun 2027 04:35:20.973   09 Jun 2027 04:35:35.660            14.687          7343.500
       262   09 Jun 2027 05:55:06.765   09 Jun 2027 05:56:02.174            55.409         27704.500
       263   09 Jun 2027 05:57:56.292   09 Jun 2027 05:57:58.696             2.404          1202.000
       264   09 Jun 2027 07:31:38.723   09 Jun 2027 07:33:04.364            85.641         41580.032
       265   09 Jun 2027 07:33:21.026   09 Jun 2027 07:33:22.326             1.300           361.906
       266   09 Jun 2027 07:33:23.355   09 Jun 2027 07:33:23.699             0.344            32.156
       267   09 Jun 2027 07:34:16.263   09 Jun 2027 07:34:16.263             0.000             0.000
       268   09 Jun 2027 07:34:31.646   09 Jun 2027 07:34:35.264             3.618          1309.219
       269   09 Jun 2027 09:06:49.123   09 Jun 2027 09:06:58.862             9.739          4138.250
       270   09 Jun 2027 09:08:12.457   09 Jun 2027 09:08:16.421             3.964          1982.000
       271   09 Jun 2027 09:08:19.690   09 Jun 2027 09:08:21.261             1.571           197.031
       272   09 Jun 2027 09:09:46.321   09 Jun 2027 09:09:49.087             2.766          1117.875
       273   09 Jun 2027 09:10:44.651   09 Jun 2027 09:10:51.736             7.085          1278.187
       274   09 Jun 2027 09:12:06.698   09 Jun 2027 09:12:08.895             2.197          1053.844
       275   09 Jun 2027 09:12:35.363   09 Jun 2027 09:12:39.437             4.074           304.063
       276   09 Jun 2027 09:13:14.106   09 Jun 2027 09:13:16.701             2.595           286.812
       277   09 Jun 2027 10:43:12.057   09 Jun 2027 10:43:24.659            12.602          5262.938
       278   09 Jun 2027 10:45:21.752   09 Jun 2027 10:45:24.109             2.357           541.656
       279   09 Jun 2027 10:45:49.018   09 Jun 2027 10:45:49.616             0.598           179.812
       280   09 Jun 2027 10:46:21.861   09 Jun 2027 10:46:23.505             1.644           717.625
       281   09 Jun 2027 10:47:10.317   09 Jun 2027 10:47:23.445            13.128          1444.469
       282   09 Jun 2027 10:48:19.623   09 Jun 2027 10:48:23.891             4.268           995.719
       283   10 Jun 2027 03:06:32.499   10 Jun 2027 03:07:15.489            42.990         21495.000
       284   10 Jun 2027 03:07:22.743   10 Jun 2027 03:07:28.134             5.391          2695.500
       285   10 Jun 2027 03:07:45.499   10 Jun 2027 03:08:07.981            22.482         11241.000
       286   10 Jun 2027 03:09:08.239   10 Jun 2027 03:09:11.336             3.097          1548.500
       287   10 Jun 2027 03:09:50.650   10 Jun 2027 03:10:10.071            19.421          9710.500
       288   10 Jun 2027 03:11:28.100   10 Jun 2027 03:11:35.524             7.424          3712.000
       289   10 Jun 2027 04:43:41.187   10 Jun 2027 04:44:20.258            39.071         19535.500
       290   10 Jun 2027 04:44:42.181   10 Jun 2027 04:47:14.058           151.877         75938.500
       291   10 Jun 2027 06:07:36.393   10 Jun 2027 06:08:01.003            24.610         12010.625
       292   10 Jun 2027 06:09:58.146   10 Jun 2027 06:09:58.146             0.000             0.000
       293   10 Jun 2027 06:09:59.504   10 Jun 2027 06:10:06.438             6.934          3467.000
       294   10 Jun 2027 07:43:31.277   10 Jun 2027 07:43:39.697             8.420          1881.937
       295   10 Jun 2027 07:44:43.821   10 Jun 2027 07:44:48.977             5.156          1918.156
       296   10 Jun 2027 07:45:11.241   10 Jun 2027 07:45:14.779             3.538           248.750
       297   10 Jun 2027 07:45:35.864   10 Jun 2027 07:45:39.499             3.635           364.500
       298   10 Jun 2027 07:46:26.394   10 Jun 2027 07:46:29.529             3.135          1424.062
       299   10 Jun 2027 07:46:51.075   10 Jun 2027 07:46:51.075             0.000             0.000
       300   10 Jun 2027 07:47:17.612   10 Jun 2027 07:47:25.387             7.775          1376.219
       301   10 Jun 2027 09:18:26.715   10 Jun 2027 09:18:34.302             7.587          3541.344
       302   10 Jun 2027 09:20:20.604   10 Jun 2027 09:20:26.432             5.828          2782.219
       303   10 Jun 2027 09:21:07.680   10 Jun 2027 09:21:13.531             5.851           852.969
       304   10 Jun 2027 09:22:10.495   10 Jun 2027 09:22:13.427             2.932          1443.219
       305   10 Jun 2027 09:24:04.391   10 Jun 2027 09:24:09.750             5.359          2393.438
       306   10 Jun 2027 09:25:23.949   10 Jun 2027 09:25:29.834             5.885          2268.062
       307   10 Jun 2027 10:54:46.532   10 Jun 2027 10:54:59.136            12.604          5849.750
       308   10 Jun 2027 10:56:58.896   10 Jun 2027 10:56:59.846             0.950            82.531
       309   10 Jun 2027 10:57:17.055   10 Jun 2027 10:57:18.315             1.260           180.625
       310   10 Jun 2027 10:57:27.329   10 Jun 2027 10:57:28.675             1.346           134.250
       311   10 Jun 2027 10:57:45.809   10 Jun 2027 10:57:46.838             1.029           159.281
       312   10 Jun 2027 10:58:32.012   10 Jun 2027 10:58:35.993             3.981          1302.625
       313   10 Jun 2027 10:59:03.384   10 Jun 2027 10:59:04.637             1.253           526.406
       314   10 Jun 2027 10:59:52.274   10 Jun 2027 10:59:56.705             4.431          1488.656
       315   10 Jun 2027 11:00:24.597   10 Jun 2027 11:00:26.355             1.758           867.219
       316   10 Jun 2027 11:00:42.396   10 Jun 2027 11:00:43.035             0.639           282.094
       317   10 Jun 2027 11:01:09.164   10 Jun 2027 11:01:11.152             1.988           816.531
       318   11 Jun 2027 03:18:36.144   11 Jun 2027 03:21:08.147           152.003         76001.500
       319   11 Jun 2027 03:21:14.687   11 Jun 2027 03:21:32.163            17.476          8738.000
       320   11 Jun 2027 03:23:08.561   11 Jun 2027 03:23:11.469             2.908          1454.000
       321   11 Jun 2027 03:23:48.989   11 Jun 2027 03:24:07.727            18.738          9369.000
       322   11 Jun 2027 03:25:37.470   11 Jun 2027 03:25:44.509             7.039          3519.500
       323   11 Jun 2027 03:26:10.851   11 Jun 2027 03:26:13.484             2.633          1316.500
       324   11 Jun 2027 04:44:23.864   11 Jun 2027 04:44:39.868            16.004          8002.000
       325   11 Jun 2027 04:45:02.411   11 Jun 2027 04:45:17.964            15.553          7776.500
       326   11 Jun 2027 04:55:37.220   11 Jun 2027 04:56:58.888            81.668         40828.844
       327   11 Jun 2027 04:58:16.076   11 Jun 2027 04:58:21.159             5.083          2184.094
       328   11 Jun 2027 06:18:13.805   11 Jun 2027 06:18:22.688             8.883          4304.813
       329   11 Jun 2027 06:19:22.512   11 Jun 2027 06:19:26.029             3.517          1079.531
       330   11 Jun 2027 06:19:55.052   11 Jun 2027 06:19:55.820             0.768           384.000
       331   11 Jun 2027 06:20:06.694   11 Jun 2027 06:20:09.641             2.947           777.938
       332   11 Jun 2027 06:21:59.000   11 Jun 2027 06:22:09.353            10.353          3183.531
       333   11 Jun 2027 06:22:32.935   11 Jun 2027 06:22:36.347             3.412           736.938
       334   11 Jun 2027 07:53:48.923   11 Jun 2027 07:53:52.297             3.374          1390.406
       335   11 Jun 2027 07:55:15.907   11 Jun 2027 07:55:16.739             0.832           416.000
       336   11 Jun 2027 07:55:31.689   11 Jun 2027 07:55:33.753             2.064           989.406
       337   11 Jun 2027 07:56:18.927   11 Jun 2027 07:56:23.756             4.829           728.594
       338   11 Jun 2027 07:56:58.034   11 Jun 2027 07:57:01.498             3.464          1038.812
       339   11 Jun 2027 07:58:11.687   11 Jun 2027 07:58:16.692             5.005           516.500
       340   11 Jun 2027 07:58:26.535   11 Jun 2027 07:58:28.084             1.549           188.156
       341   11 Jun 2027 07:59:17.231   11 Jun 2027 07:59:20.022             2.791          1392.219
       342   11 Jun 2027 09:30:00.622   11 Jun 2027 09:30:06.860             6.238          2993.187
       343   11 Jun 2027 09:30:53.199   11 Jun 2027 09:30:56.374             3.175           688.375
       344   11 Jun 2027 09:33:12.815   11 Jun 2027 09:33:17.153             4.338          1618.438
       345   11 Jun 2027 09:33:42.365   11 Jun 2027 09:33:44.085             1.720           198.906
       346   11 Jun 2027 09:34:53.537   11 Jun 2027 09:34:59.286             5.749          1319.500
       347   11 Jun 2027 09:35:24.894   11 Jun 2027 09:35:25.408             0.514           176.844
       348   11 Jun 2027 09:36:07.242   11 Jun 2027 09:36:13.810             6.568          1018.188
       349   11 Jun 2027 09:37:16.816   11 Jun 2027 09:37:24.739             7.923          1792.125
       350   11 Jun 2027 11:07:06.846   11 Jun 2027 11:07:18.678            11.832          4953.500
       351   11 Jun 2027 11:08:47.014   11 Jun 2027 11:08:48.266             1.252           123.094
       352   11 Jun 2027 11:09:09.922   11 Jun 2027 11:09:12.341             2.419           676.750
       353   11 Jun 2027 11:09:34.490   11 Jun 2027 11:09:38.270             3.780           377.531
       354   11 Jun 2027 11:09:50.316   11 Jun 2027 11:09:53.130             2.814           236.094
       355   11 Jun 2027 11:11:01.204   11 Jun 2027 11:11:04.687             3.483          1324.188
       356   11 Jun 2027 11:11:27.385   11 Jun 2027 11:11:29.026             1.641           709.313
       357   11 Jun 2027 11:11:56.013   11 Jun 2027 11:11:58.451             2.438           583.031
       358   11 Jun 2027 11:13:04.946   11 Jun 2027 11:13:09.443             4.497          2077.969
       359   11 Jun 2027 11:13:10.156   11 Jun 2027 11:13:10.676             0.520            22.281
       360   12 Jun 2027 03:31:05.548   12 Jun 2027 03:34:28.990           203.442        101721.000
       361   12 Jun 2027 03:35:14.552   12 Jun 2027 03:35:38.354            23.802         11901.000
       362   12 Jun 2027 03:37:52.305   12 Jun 2027 03:38:13.380            21.075         10537.500
       363   12 Jun 2027 04:55:56.893   12 Jun 2027 04:56:09.672            12.779          6389.500
       364   12 Jun 2027 05:07:39.801   12 Jun 2027 05:08:41.788            61.987         30993.500
       365   12 Jun 2027 06:29:54.280   12 Jun 2027 06:30:08.953            14.673          6599.375
       366   12 Jun 2027 06:30:24.674   12 Jun 2027 06:30:26.810             2.136           491.281
       367   12 Jun 2027 06:30:49.510   12 Jun 2027 06:30:54.825             5.315           632.156
       368   12 Jun 2027 06:31:53.360   12 Jun 2027 06:31:58.425             5.065           367.281
       369   12 Jun 2027 06:32:20.400   12 Jun 2027 06:32:21.216             0.816           408.000
       370   12 Jun 2027 06:33:20.190   12 Jun 2027 06:33:24.629             4.439          2077.281
       371   12 Jun 2027 06:34:32.950   12 Jun 2027 06:34:32.950             0.000             0.000
       372   12 Jun 2027 06:34:40.495   12 Jun 2027 06:34:45.224             4.729          1997.437
       373   12 Jun 2027 08:04:55.552   12 Jun 2027 08:05:03.741             8.189          2059.906
       374   12 Jun 2027 08:06:15.570   12 Jun 2027 08:06:19.026             3.456          1165.156
       375   12 Jun 2027 08:07:16.160   12 Jun 2027 08:07:18.937             2.777          1297.312
       376   12 Jun 2027 08:08:45.634   12 Jun 2027 08:08:51.337             5.703          2593.656
       377   12 Jun 2027 08:10:09.625   12 Jun 2027 08:10:15.827             6.202          2240.750
       378   12 Jun 2027 08:11:38.369   12 Jun 2027 08:11:47.134             8.765          2136.469
       379   12 Jun 2027 09:42:20.661   12 Jun 2027 09:42:28.842             8.181          2736.625
       380   12 Jun 2027 09:44:20.869   12 Jun 2027 09:44:28.306             7.437          2684.625
       381   12 Jun 2027 09:46:03.226   12 Jun 2027 09:46:11.546             8.320          1102.156
       382   12 Jun 2027 09:47:01.976   12 Jun 2027 09:47:05.279             3.303          1482.500
       383   12 Jun 2027 09:47:24.601   12 Jun 2027 09:47:25.843             1.242            25.656
       384   12 Jun 2027 09:47:38.058   12 Jun 2027 09:47:40.300             2.242           256.406
       385   12 Jun 2027 09:48:36.471   12 Jun 2027 09:48:41.902             5.431          1104.187
       386   12 Jun 2027 11:19:08.210   12 Jun 2027 11:19:19.776            11.566          4913.312
       387   12 Jun 2027 11:20:43.431   12 Jun 2027 11:20:50.770             7.339           507.500
       388   12 Jun 2027 11:21:50.122   12 Jun 2027 11:21:52.658             2.536           428.156
       389   12 Jun 2027 11:22:33.338   12 Jun 2027 11:22:36.487             3.149          1107.594
       390   12 Jun 2027 11:22:56.647   12 Jun 2027 11:22:58.010             1.363           630.000
       391   12 Jun 2027 11:23:30.220   12 Jun 2027 11:23:33.460             3.240           750.812
       392   12 Jun 2027 11:23:54.540   12 Jun 2027 11:23:57.113             2.573           658.750
       393   12 Jun 2027 11:24:29.035   12 Jun 2027 11:24:33.900             4.865           939.469
       394   12 Jun 2027 11:25:09.972   12 Jun 2027 11:25:13.414             3.442           732.281
       395   13 Jun 2027 03:43:06.724   13 Jun 2027 03:44:43.791            97.067         48533.500
       396   13 Jun 2027 03:45:08.872   13 Jun 2027 03:46:14.676            65.804         32902.000
       397   13 Jun 2027 03:46:38.476   13 Jun 2027 03:46:44.131             5.655          2827.500
       398   13 Jun 2027 03:48:41.044   13 Jun 2027 03:49:18.267            37.223         18611.500
       399   13 Jun 2027 03:49:56.266   13 Jun 2027 03:49:56.266             0.000             0.000
       400   13 Jun 2027 03:50:05.186   13 Jun 2027 03:50:10.812             5.626          2813.000
       401   13 Jun 2027 05:07:28.737   13 Jun 2027 05:08:07.645            38.908         19454.000
       402   13 Jun 2027 05:19:41.653   13 Jun 2027 05:20:13.138            31.485         15742.500
       403   13 Jun 2027 06:41:35.929   13 Jun 2027 06:42:24.656            48.727         21642.843
       404   13 Jun 2027 06:43:39.214   13 Jun 2027 06:43:39.572             0.358           179.000
       405   13 Jun 2027 06:44:20.110   13 Jun 2027 06:44:25.584             5.474          2454.406
       406   13 Jun 2027 06:44:45.135   13 Jun 2027 06:44:48.705             3.570           500.719
       407   13 Jun 2027 06:45:22.608   13 Jun 2027 06:45:22.608             0.000             0.000
       408   13 Jun 2027 06:46:33.747   13 Jun 2027 06:46:42.174             8.427          3137.625
       409   13 Jun 2027 08:16:24.356   13 Jun 2027 08:16:30.138             5.782          2347.500
       410   13 Jun 2027 08:17:15.636   13 Jun 2027 08:17:18.719             3.083          1221.375
       411   13 Jun 2027 08:18:32.272   13 Jun 2027 08:18:33.329             1.057           183.656
       412   13 Jun 2027 08:19:14.730   13 Jun 2027 08:19:28.369            13.639          1293.781
       413   13 Jun 2027 08:20:45.999   13 Jun 2027 08:20:51.585             5.586          2353.781
       414   13 Jun 2027 08:22:09.703   13 Jun 2027 08:22:14.586             4.883          2213.969
       415   13 Jun 2027 08:23:11.533   13 Jun 2027 08:23:20.532             8.999          1779.594
       416   13 Jun 2027 08:24:18.676   13 Jun 2027 08:24:22.401             3.725          1817.000
       417   13 Jun 2027 08:25:07.002   13 Jun 2027 08:25:09.649             2.647          1208.969
       418   13 Jun 2027 09:54:14.750   13 Jun 2027 09:54:24.800            10.050          4834.281
       419   13 Jun 2027 09:56:20.034   13 Jun 2027 09:56:25.381             5.347          2523.781
       420   13 Jun 2027 09:57:21.291   13 Jun 2027 09:57:26.605             5.314          1646.687
       421   13 Jun 2027 09:57:52.607   13 Jun 2027 09:57:54.461             1.854           812.563
       422   13 Jun 2027 09:58:27.767   13 Jun 2027 09:58:29.862             2.095           366.250
       423   13 Jun 2027 09:59:37.983   13 Jun 2027 09:59:43.539             5.556          2088.375
       424   13 Jun 2027 10:00:10.505   13 Jun 2027 10:00:12.173             1.668           497.094
       425   13 Jun 2027 10:00:35.247   13 Jun 2027 10:00:41.427             6.180           704.531
       426   13 Jun 2027 10:00:53.540   13 Jun 2027 10:00:54.587             1.047           214.187
       427   13 Jun 2027 10:00:55.388   13 Jun 2027 10:00:55.792             0.404            25.031
       428   13 Jun 2027 10:01:24.508   13 Jun 2027 10:01:25.975             1.467           588.500
       429   13 Jun 2027 10:01:36.002   13 Jun 2027 10:01:38.759             2.757            63.969
       430   13 Jun 2027 11:30:59.475   13 Jun 2027 11:31:12.660            13.185          5459.906
       431   13 Jun 2027 11:31:30.621   13 Jun 2027 11:31:34.582             3.961           409.594
       432   13 Jun 2027 11:31:57.101   13 Jun 2027 11:31:58.088             0.987           209.656
       433   13 Jun 2027 11:32:19.687   13 Jun 2027 11:32:22.224             2.537            20.250
       434   13 Jun 2027 11:33:48.398   13 Jun 2027 11:33:50.531             2.133           128.656
       435   13 Jun 2027 11:33:58.558   13 Jun 2027 11:34:00.526             1.968           149.156
       436   13 Jun 2027 11:34:45.250   13 Jun 2027 11:34:50.432             5.182          1142.438
       437   13 Jun 2027 11:35:21.514   13 Jun 2027 11:35:22.631             1.117           425.719
       438   13 Jun 2027 11:35:46.261   13 Jun 2027 11:35:50.471             4.210           633.344
       439   13 Jun 2027 11:36:18.763   13 Jun 2027 11:36:24.547             5.784           791.250
       440   13 Jun 2027 11:36:46.872   13 Jun 2027 11:36:48.169             1.297           330.375
       441   13 Jun 2027 11:37:09.098   13 Jun 2027 11:37:10.955             1.857           638.250
       442   13 Jun 2027 11:37:36.597   13 Jun 2027 11:37:44.932             8.335           801.313
