uniorb/output/strategy_4/Camera/Camera_KinoSat_110706.txt

KinoSat_110706
-------------------------
    Access    *     Start Time (UTCG)     *     Stop Time (UTCG)  *   Duration (s) *   Data (Mbytes)
         1   01 Jun 2027 03:28:08.436   01 Jun 2027 03:29:14.981            66.545         33272.500
         2   01 Jun 2027 03:30:10.922   01 Jun 2027 03:30:18.438             7.516          3758.000
         3   01 Jun 2027 03:31:20.347   01 Jun 2027 03:31:37.272            16.925          8462.500
         4   01 Jun 2027 03:33:15.128   01 Jun 2027 03:33:43.057            27.929         13964.500
         5   01 Jun 2027 05:02:56.949   01 Jun 2027 05:04:42.515           105.566         52783.000
         6   01 Jun 2027 05:05:42.725   01 Jun 2027 05:05:51.139             8.414          4207.000
         7   01 Jun 2027 05:06:30.088   01 Jun 2027 05:06:30.088             0.000             0.000
         8   01 Jun 2027 05:09:30.696   01 Jun 2027 05:09:30.696             0.000             0.000
         9   01 Jun 2027 05:09:42.649   01 Jun 2027 05:09:50.519             7.870          3935.000
        10   01 Jun 2027 05:11:41.962   01 Jun 2027 05:11:52.678            10.716          5358.000
        11   01 Jun 2027 06:40:45.344   01 Jun 2027 06:42:21.336            95.992         47996.000
        12   01 Jun 2027 06:42:56.064   01 Jun 2027 06:43:16.036            19.972          9986.000
        13   01 Jun 2027 06:44:40.665   01 Jun 2027 06:44:43.313             2.648          1324.000
        14   01 Jun 2027 06:47:32.137   01 Jun 2027 06:47:33.925             1.788           894.000
        15   01 Jun 2027 06:48:07.074   01 Jun 2027 06:48:10.980             3.906          1953.000
        16   01 Jun 2027 08:17:29.929   01 Jun 2027 08:19:18.845           108.916         54458.000
        17   01 Jun 2027 08:20:01.590   01 Jun 2027 08:20:50.722            49.132         24566.000
        18   01 Jun 2027 08:21:02.679   01 Jun 2027 08:21:11.992             9.313          4656.500
        19   01 Jun 2027 08:22:24.748   01 Jun 2027 08:22:31.262             6.514          3257.000
        20   01 Jun 2027 09:55:37.007   01 Jun 2027 09:58:17.185           160.178         80089.000
        21   01 Jun 2027 09:58:22.354   01 Jun 2027 09:58:27.776             5.422          2711.000
        22   01 Jun 2027 11:29:28.122   01 Jun 2027 11:31:37.617           129.495         64747.500
        23   01 Jun 2027 11:31:59.634   01 Jun 2027 11:32:10.224            10.590          5295.000
        24   01 Jun 2027 11:32:52.926   01 Jun 2027 11:33:04.289            11.363          5681.500
        25   02 Jun 2027 03:41:54.260   02 Jun 2027 03:42:16.975            22.715         11357.500
        26   02 Jun 2027 05:15:45.075   02 Jun 2027 05:18:47.458           182.383         91191.500
        27   02 Jun 2027 05:19:06.742   02 Jun 2027 05:19:39.423            32.681         16340.500
        28   02 Jun 2027 06:52:51.737   02 Jun 2027 06:55:50.582           178.845         89422.500
        29   02 Jun 2027 06:56:23.697   02 Jun 2027 06:56:39.265            15.568          7784.000
        30   02 Jun 2027 06:59:03.078   02 Jun 2027 07:00:10.775            67.697         33848.500
        31   02 Jun 2027 08:29:53.725   02 Jun 2027 08:32:34.640           160.915         80457.500
        32   02 Jun 2027 08:34:18.723   02 Jun 2027 08:34:44.485            25.762         12881.000
        33   02 Jun 2027 08:34:51.341   02 Jun 2027 08:34:53.827             2.486            94.376
        34   02 Jun 2027 08:35:43.024   02 Jun 2027 08:35:53.662            10.638           942.844
        35   02 Jun 2027 10:06:50.919   02 Jun 2027 10:07:07.200            16.281          7969.187
        36   02 Jun 2027 10:08:35.233   02 Jun 2027 10:08:38.967             3.734          1102.813
        37   02 Jun 2027 10:08:51.463   02 Jun 2027 10:08:54.239             2.776           286.625
        38   02 Jun 2027 10:10:01.260   02 Jun 2027 10:10:03.875             2.615           387.062
        39   02 Jun 2027 10:10:38.401   02 Jun 2027 10:10:40.376             1.975           238.469
        40   02 Jun 2027 10:10:52.433   02 Jun 2027 10:10:53.430             0.997           343.594
        41   02 Jun 2027 10:11:25.347   02 Jun 2027 10:11:28.451             3.104           762.969
        42   02 Jun 2027 11:41:54.867   02 Jun 2027 11:41:58.237             3.370           625.188
        43   03 Jun 2027 03:54:15.744   03 Jun 2027 03:54:40.312            24.568         12284.000
        44   03 Jun 2027 05:27:43.424   03 Jun 2027 05:30:51.275           187.851         93925.500
        45   03 Jun 2027 05:34:42.581   03 Jun 2027 05:35:11.885            29.304         14652.000
        46   03 Jun 2027 05:35:12.927   03 Jun 2027 05:35:25.640            12.713          6356.500
        47   03 Jun 2027 05:35:56.778   03 Jun 2027 05:36:14.057            17.279          8639.500
        48   03 Jun 2027 07:05:17.411   03 Jun 2027 07:06:15.782            58.371         28220.156
        49   03 Jun 2027 07:07:16.439   03 Jun 2027 07:07:18.310             1.871           737.500
        50   03 Jun 2027 07:08:22.094   03 Jun 2027 07:08:24.269             2.175           972.562
        51   03 Jun 2027 07:09:16.232   03 Jun 2027 07:09:20.315             4.083          1528.844
        52   03 Jun 2027 07:10:36.683   03 Jun 2027 07:10:47.081            10.398          2075.969
        53   03 Jun 2027 08:42:11.161   03 Jun 2027 08:42:19.980             8.819          4252.688
        54   03 Jun 2027 08:44:39.997   03 Jun 2027 08:44:41.122             1.125           487.594
        55   03 Jun 2027 08:47:33.502   03 Jun 2027 08:47:37.790             4.288           493.906
        56   03 Jun 2027 10:19:05.058   03 Jun 2027 10:19:21.537            16.479          7324.125
        57   03 Jun 2027 10:20:58.469   03 Jun 2027 10:21:05.910             7.441          1281.375
        58   03 Jun 2027 10:21:18.975   03 Jun 2027 10:21:20.611             1.636           371.188
        59   03 Jun 2027 11:56:44.428   03 Jun 2027 11:56:46.728             2.300            82.938
        60   04 Jun 2027 04:06:17.078   04 Jun 2027 04:06:37.726            20.648         10324.000
        61   04 Jun 2027 04:07:39.291   04 Jun 2027 04:07:44.030             4.739          2369.500
        62   04 Jun 2027 05:41:12.101   04 Jun 2027 05:43:42.067           149.966         74983.000
        63   04 Jun 2027 05:47:28.293   04 Jun 2027 05:48:10.283            41.990         20995.000
        64   04 Jun 2027 07:17:24.575   04 Jun 2027 07:19:02.232            97.657         48112.531
        65   04 Jun 2027 07:20:30.440   04 Jun 2027 07:20:37.961             7.521           975.938
        66   04 Jun 2027 07:21:31.839   04 Jun 2027 07:21:37.960             6.121           434.031
        67   04 Jun 2027 07:23:18.567   04 Jun 2027 07:23:19.969             1.402           580.375
        68   04 Jun 2027 08:55:07.670   04 Jun 2027 08:55:23.106            15.436          6059.469
        69   04 Jun 2027 08:56:35.985   04 Jun 2027 08:56:38.899             2.914           195.375
        70   04 Jun 2027 08:57:08.582   04 Jun 2027 08:57:11.116             2.534           894.344
        71   04 Jun 2027 10:31:12.098   04 Jun 2027 10:31:24.136            12.038          5846.469
        72   05 Jun 2027 04:18:24.819   05 Jun 2027 04:19:20.032            55.213         27606.500
        73   05 Jun 2027 04:20:12.193   05 Jun 2027 04:20:18.894             6.701          3350.500
        74   05 Jun 2027 05:53:34.781   05 Jun 2027 05:56:08.200           153.419         76709.500
        75   05 Jun 2027 05:59:09.905   05 Jun 2027 05:59:53.800            43.895         21947.500
        76   05 Jun 2027 05:59:59.780   05 Jun 2027 06:00:11.433            11.653          5826.500
        77   05 Jun 2027 07:30:00.176   05 Jun 2027 07:30:49.327            49.151         23736.156
        78   05 Jun 2027 07:33:07.920   05 Jun 2027 07:33:10.116             2.196          1088.719
        79   05 Jun 2027 07:34:21.540   05 Jun 2027 07:34:27.528             5.988          2041.625
        80   05 Jun 2027 07:35:27.551   05 Jun 2027 07:35:29.401             1.850           146.406
        81   05 Jun 2027 09:07:14.647   05 Jun 2027 09:07:31.879            17.232          4925.187
        82   05 Jun 2027 09:11:18.476   05 Jun 2027 09:11:23.513             5.037           452.750
        83   05 Jun 2027 10:43:29.254   05 Jun 2027 10:43:41.216            11.962          5921.469
        84   05 Jun 2027 10:45:17.476   05 Jun 2027 10:45:20.511             3.035           643.188
        85   05 Jun 2027 10:45:36.413   05 Jun 2027 10:45:39.260             2.847           496.938
        86   05 Jun 2027 10:48:08.535   05 Jun 2027 10:48:11.323             2.788             4.281
        87   06 Jun 2027 04:30:17.761   06 Jun 2027 04:30:25.093             7.332          3666.000
        88   06 Jun 2027 04:31:54.140   06 Jun 2027 04:32:49.751            55.611         27805.500
        89   06 Jun 2027 04:33:42.655   06 Jun 2027 04:34:19.900            37.245         18622.500
        90   06 Jun 2027 06:05:14.098   06 Jun 2027 06:07:49.890           155.792         77896.000
        91   06 Jun 2027 06:08:13.722   06 Jun 2027 06:08:48.935            35.213         16646.938
        92   06 Jun 2027 06:10:53.247   06 Jun 2027 06:10:53.247             0.000             0.000
        93   06 Jun 2027 06:11:27.483   06 Jun 2027 06:11:38.108            10.625          4404.437
        94   06 Jun 2027 06:11:50.767   06 Jun 2027 06:11:52.184             1.417           168.406
        95   06 Jun 2027 07:41:32.466   06 Jun 2027 07:41:36.840             4.374          1219.156
        96   06 Jun 2027 07:42:57.697   06 Jun 2027 07:43:01.745             4.048           251.594
        97   06 Jun 2027 07:44:09.613   06 Jun 2027 07:44:12.098             2.485           603.938
        98   06 Jun 2027 07:44:24.583   06 Jun 2027 07:44:25.213             0.630           179.063
        99   06 Jun 2027 07:45:35.733   06 Jun 2027 07:45:45.971            10.238          1350.219
       100   06 Jun 2027 07:46:48.465   06 Jun 2027 07:46:51.599             3.134          1042.937
       101   06 Jun 2027 07:47:37.895   06 Jun 2027 07:47:39.564             1.669           414.781
       102   06 Jun 2027 09:19:48.109   06 Jun 2027 09:20:02.784            14.675          6250.344
       103   06 Jun 2027 09:20:48.401   06 Jun 2027 09:20:51.081             2.680          1145.000
       104   06 Jun 2027 09:21:37.312   06 Jun 2027 09:21:45.242             7.930          1444.719
       105   06 Jun 2027 09:22:26.155   06 Jun 2027 09:22:27.125             0.970           475.844
       106   06 Jun 2027 09:23:00.794   06 Jun 2027 09:23:04.118             3.324            77.781
       107   06 Jun 2027 09:23:16.708   06 Jun 2027 09:23:20.440             3.732           296.000
       108   06 Jun 2027 10:55:08.183   06 Jun 2027 10:55:21.810            13.627          6799.844
       109   06 Jun 2027 10:56:51.124   06 Jun 2027 10:56:52.280             1.156            67.969
       110   06 Jun 2027 10:57:18.508   06 Jun 2027 10:57:19.193             0.685           287.438
       111   07 Jun 2027 03:05:19.780   07 Jun 2027 03:05:30.167            10.387          5193.500
       112   07 Jun 2027 03:06:03.327   07 Jun 2027 03:06:05.103             1.776           888.000
       113   07 Jun 2027 03:06:26.488   07 Jun 2027 03:06:28.130             1.642           821.000
       114   07 Jun 2027 03:07:00.428   07 Jun 2027 03:07:03.289             2.861          1430.500
       115   07 Jun 2027 03:07:37.953   07 Jun 2027 03:07:49.963            12.010          6005.000
       116   07 Jun 2027 04:40:36.467   07 Jun 2027 04:41:09.922            33.455         16727.500
       117   07 Jun 2027 04:42:01.598   07 Jun 2027 04:43:50.515           108.917         54458.500
       118   07 Jun 2027 04:45:22.595   07 Jun 2027 04:46:01.910            39.315         19657.500
       119   07 Jun 2027 06:16:47.356   07 Jun 2027 06:18:28.369           101.013         48835.094
       120   07 Jun 2027 06:19:48.093   07 Jun 2027 06:19:51.000             2.907           678.844
       121   07 Jun 2027 06:20:49.459   07 Jun 2027 06:20:51.699             2.240          1120.000
       122   07 Jun 2027 06:20:59.942   07 Jun 2027 06:21:02.080             2.138           964.438
       123   07 Jun 2027 06:22:00.971   07 Jun 2027 06:22:00.971             0.000             0.000
       124   07 Jun 2027 06:22:24.984   07 Jun 2027 06:22:29.067             4.083          1049.531
       125   07 Jun 2027 06:22:35.901   07 Jun 2027 06:22:39.530             3.629           213.563
       126   07 Jun 2027 06:22:45.264   07 Jun 2027 06:22:52.221             6.957           179.188
       127   07 Jun 2027 07:53:51.720   07 Jun 2027 07:53:55.536             3.816          1479.594
       128   07 Jun 2027 07:56:02.625   07 Jun 2027 07:56:08.341             5.716          1445.375
       129   07 Jun 2027 07:57:30.048   07 Jun 2027 07:57:33.816             3.768          1663.969
       130   07 Jun 2027 07:58:09.367   07 Jun 2027 07:58:13.523             4.156          1110.969
       131   07 Jun 2027 07:58:42.418   07 Jun 2027 07:58:44.749             2.331           845.750
       132   07 Jun 2027 08:00:07.880   07 Jun 2027 08:00:12.109             4.229          1833.281
       133   07 Jun 2027 09:31:50.909   07 Jun 2027 09:32:05.457            14.548          4607.844
       134   07 Jun 2027 09:32:54.774   07 Jun 2027 09:33:00.591             5.817          1541.156
       135   07 Jun 2027 09:33:19.863   07 Jun 2027 09:33:23.847             3.984           444.312
       136   07 Jun 2027 09:34:36.580   07 Jun 2027 09:34:40.801             4.221          1856.344
       137   07 Jun 2027 09:35:18.173   07 Jun 2027 09:35:19.788             1.615           255.625
       138   07 Jun 2027 11:05:00.075   07 Jun 2027 11:05:12.704            12.629          5094.563
       139   07 Jun 2027 11:12:44.499   07 Jun 2027 11:12:46.788             2.289           252.875
       140   08 Jun 2027 03:16:38.791   08 Jun 2027 03:16:44.825             6.034          3017.000
       141   08 Jun 2027 03:17:43.503   08 Jun 2027 03:17:47.535             4.032          2016.000
       142   08 Jun 2027 03:18:39.540   08 Jun 2027 03:18:55.435            15.895          7947.500
       143   08 Jun 2027 04:51:43.166   08 Jun 2027 04:53:26.331           103.165         51582.500
       144   08 Jun 2027 04:53:46.133   08 Jun 2027 04:54:45.106            58.973         29486.500
       145   08 Jun 2027 04:57:05.657   08 Jun 2027 04:57:13.580             7.923          3961.500
       146   08 Jun 2027 04:59:37.726   08 Jun 2027 04:59:59.126            21.400         10700.000
       147   08 Jun 2027 06:29:04.489   08 Jun 2027 06:30:47.431           102.942         48627.781
       148   08 Jun 2027 06:31:24.911   08 Jun 2027 06:31:31.434             6.523           167.531
       149   08 Jun 2027 06:31:52.507   08 Jun 2027 06:31:53.257             0.750           316.750
       150   08 Jun 2027 06:32:11.537   08 Jun 2027 06:32:13.253             1.716           332.437
       151   08 Jun 2027 06:33:30.594   08 Jun 2027 06:33:34.532             3.938          1901.281
       152   08 Jun 2027 06:34:39.524   08 Jun 2027 06:34:43.595             4.071          1539.406
       153   08 Jun 2027 06:35:22.158   08 Jun 2027 06:35:27.156             4.998           350.469
       154   08 Jun 2027 08:05:53.417   08 Jun 2027 08:05:58.298             4.881           722.531
       155   08 Jun 2027 08:07:39.582   08 Jun 2027 08:07:43.497             3.915           870.625
       156   08 Jun 2027 08:08:37.792   08 Jun 2027 08:08:43.820             6.028          1089.375
       157   08 Jun 2027 08:09:09.653   08 Jun 2027 08:09:14.966             5.313           706.937
       158   08 Jun 2027 08:09:41.415   08 Jun 2027 08:09:42.418             1.003           289.875
       159   08 Jun 2027 08:09:50.138   08 Jun 2027 08:09:51.840             1.702            88.688
       160   08 Jun 2027 08:10:09.037   08 Jun 2027 08:10:13.943             4.906           497.594
       161   08 Jun 2027 08:11:16.672   08 Jun 2027 08:11:22.954             6.282          1619.625
       162   08 Jun 2027 09:43:50.416   08 Jun 2027 09:44:00.895            10.479          5186.125
       163   08 Jun 2027 09:44:21.114   08 Jun 2027 09:44:28.786             7.672           217.563
       164   08 Jun 2027 09:45:00.538   08 Jun 2027 09:45:02.595             2.057           311.375
       165   08 Jun 2027 09:46:45.617   08 Jun 2027 09:46:46.897             1.280           614.531
       166   08 Jun 2027 09:47:12.237   08 Jun 2027 09:47:14.097             1.860            12.938
       167   08 Jun 2027 09:47:39.486   08 Jun 2027 09:47:45.489             6.003           482.937
       168   08 Jun 2027 11:17:27.003   08 Jun 2027 11:17:29.602             2.599           465.813
       169   09 Jun 2027 03:28:22.945   09 Jun 2027 03:28:27.446             4.501          2250.500
       170   09 Jun 2027 03:29:26.180   09 Jun 2027 03:29:28.977             2.797          1398.500
       171   09 Jun 2027 03:29:40.535   09 Jun 2027 03:29:43.111             2.576          1288.000
       172   09 Jun 2027 03:30:25.515   09 Jun 2027 03:30:30.976             5.461          2730.500
       173   09 Jun 2027 03:33:13.448   09 Jun 2027 03:33:21.709             8.261          4130.500
       174   09 Jun 2027 05:03:11.366   09 Jun 2027 05:07:03.770           232.404        116202.000
       175   09 Jun 2027 05:11:50.112   09 Jun 2027 05:11:50.112             0.000             0.000
       176   09 Jun 2027 05:11:59.378   09 Jun 2027 05:12:07.849             8.471          4235.500
       177   09 Jun 2027 06:41:00.016   09 Jun 2027 06:42:01.008            60.992         26903.719
       178   09 Jun 2027 06:42:19.136   09 Jun 2027 06:42:22.794             3.658           563.000
       179   09 Jun 2027 06:43:38.202   09 Jun 2027 06:43:40.404             2.202           979.500
       180   09 Jun 2027 06:44:14.840   09 Jun 2027 06:44:17.300             2.460           981.781
       181   09 Jun 2027 06:44:37.139   09 Jun 2027 06:44:37.139             0.000             0.000
       182   09 Jun 2027 06:45:48.316   09 Jun 2027 06:45:56.922             8.606          2718.687
       183   09 Jun 2027 06:46:04.006   09 Jun 2027 06:46:06.424             2.418           216.156
       184   09 Jun 2027 06:46:36.085   09 Jun 2027 06:46:39.425             3.340           926.906
       185   09 Jun 2027 06:46:58.340   09 Jun 2027 06:47:06.446             8.106           492.281
       186   09 Jun 2027 08:17:44.452   09 Jun 2027 08:17:48.281             3.829          1472.937
       187   09 Jun 2027 08:20:18.259   09 Jun 2027 08:20:21.176             2.917          1401.906
       188   09 Jun 2027 08:21:12.684   09 Jun 2027 08:21:16.511             3.827          1079.812
       189   09 Jun 2027 08:22:37.135   09 Jun 2027 08:22:44.309             7.174          2201.312
       190   09 Jun 2027 08:23:04.690   09 Jun 2027 08:23:04.929             0.239           100.031
       191   09 Jun 2027 08:24:28.500   09 Jun 2027 08:24:30.283             1.783           891.500
       192   09 Jun 2027 09:55:51.940   09 Jun 2027 09:56:02.815            10.875          4219.094
       193   09 Jun 2027 09:57:34.397   09 Jun 2027 09:57:41.423             7.026           895.437
       194   09 Jun 2027 09:59:13.936   09 Jun 2027 09:59:17.303             3.367           635.563
       195   09 Jun 2027 09:59:44.757   09 Jun 2027 09:59:45.416             0.659           322.906
       196   09 Jun 2027 11:29:43.015   09 Jun 2027 11:29:44.069             1.054           522.187
       197   10 Jun 2027 03:42:08.752   10 Jun 2027 03:42:17.192             8.440          4220.000
       198   10 Jun 2027 03:45:02.928   10 Jun 2027 03:45:10.531             7.603          3801.500
       199   10 Jun 2027 05:15:59.782   10 Jun 2027 05:18:59.997           180.215         90107.500
       200   10 Jun 2027 05:23:07.222   10 Jun 2027 05:23:18.568            11.346          5673.000
       201   10 Jun 2027 05:23:29.589   10 Jun 2027 05:23:52.689            23.100         11550.000
       202   10 Jun 2027 05:24:01.875   10 Jun 2027 05:24:29.737            27.862         13931.000
       203   10 Jun 2027 06:53:06.434   10 Jun 2027 06:54:00.259            53.825         26912.500
       204   10 Jun 2027 06:54:22.036   10 Jun 2027 06:54:27.327             5.291          2351.344
       205   10 Jun 2027 06:55:00.420   10 Jun 2027 06:55:01.985             1.565           512.062
       206   10 Jun 2027 06:56:00.318   10 Jun 2027 06:56:03.902             3.584           908.562
       207   10 Jun 2027 06:56:18.144   10 Jun 2027 06:56:27.655             9.511           445.062
       208   10 Jun 2027 06:57:24.705   10 Jun 2027 06:57:29.967             5.262          1447.313
       209   10 Jun 2027 06:58:06.041   10 Jun 2027 06:58:08.895             2.854          1127.313
       210   10 Jun 2027 06:58:15.700   10 Jun 2027 06:58:17.270             1.570           212.656
       211   10 Jun 2027 08:30:08.787   10 Jun 2027 08:30:14.434             5.647          1752.094
       212   10 Jun 2027 08:31:52.886   10 Jun 2027 08:31:58.177             5.291           715.969
       213   10 Jun 2027 08:32:58.033   10 Jun 2027 08:33:02.289             4.256           298.219
       214   10 Jun 2027 08:33:39.734   10 Jun 2027 08:33:41.821             2.087          1043.500
       215   10 Jun 2027 08:34:04.146   10 Jun 2027 08:34:08.626             4.480           824.313
       216   10 Jun 2027 08:34:40.058   10 Jun 2027 08:34:42.929             2.871           443.687
       217   10 Jun 2027 08:35:57.613   10 Jun 2027 08:36:08.325            10.712           901.469
       218   10 Jun 2027 10:07:06.044   10 Jun 2027 10:07:20.327            14.283          6326.719
       219   10 Jun 2027 10:08:50.532   10 Jun 2027 10:08:53.792             3.260           981.812
       220   10 Jun 2027 10:11:15.035   10 Jun 2027 10:11:16.117             1.082           446.500
       221   10 Jun 2027 10:11:41.661   10 Jun 2027 10:11:44.211             2.550           798.250
       222   10 Jun 2027 11:42:09.754   10 Jun 2027 11:42:12.245             2.491           598.438
       223   11 Jun 2027 03:54:30.491   11 Jun 2027 03:54:31.562             1.071           535.500
       224   11 Jun 2027 03:55:29.549   11 Jun 2027 03:55:39.151             9.602          4801.000
       225   11 Jun 2027 03:55:51.429   11 Jun 2027 03:55:58.270             6.841          3420.500
       226   11 Jun 2027 03:57:22.655   11 Jun 2027 03:57:29.299             6.644          3322.000
       227   11 Jun 2027 05:27:58.396   11 Jun 2027 05:31:05.994           187.598         93799.000
       228   11 Jun 2027 05:34:56.950   11 Jun 2027 05:35:09.072            12.122          6061.000
       229   11 Jun 2027 05:35:40.294   11 Jun 2027 05:36:04.994            24.700         12350.000
       230   11 Jun 2027 05:36:26.286   11 Jun 2027 05:36:28.746             2.460          1230.000
       231   11 Jun 2027 07:05:32.247   11 Jun 2027 07:06:42.142            69.895         34520.469
       232   11 Jun 2027 07:08:05.939   11 Jun 2027 07:08:14.821             8.882          1728.469
       233   11 Jun 2027 07:09:06.597   11 Jun 2027 07:09:13.148             6.551          1536.406
       234   11 Jun 2027 07:09:13.885   11 Jun 2027 07:09:15.600             1.715            23.031
       235   11 Jun 2027 07:10:51.291   11 Jun 2027 07:11:03.079            11.788          2078.375
       236   11 Jun 2027 07:11:39.256   11 Jun 2027 07:11:41.477             2.221           169.906
       237   11 Jun 2027 08:42:26.360   11 Jun 2027 08:42:38.017            11.657          4907.875
       238   11 Jun 2027 08:44:54.783   11 Jun 2027 08:44:57.597             2.814           435.187
       239   11 Jun 2027 10:19:19.855   11 Jun 2027 10:19:37.437            17.582          7319.906
       240   11 Jun 2027 10:21:16.030   11 Jun 2027 10:21:21.430             5.400          1252.250
       241   11 Jun 2027 10:21:57.447   11 Jun 2027 10:22:00.639             3.192           147.375
       242   11 Jun 2027 11:56:59.510   11 Jun 2027 11:57:01.687             2.177           541.844
       243   12 Jun 2027 04:06:32.078   12 Jun 2027 04:06:52.928            20.850         10425.000
       244   12 Jun 2027 04:07:22.642   12 Jun 2027 04:07:29.498             6.856          3428.000
       245   12 Jun 2027 04:09:32.723   12 Jun 2027 04:10:02.867            30.144         15072.000
       246   12 Jun 2027 05:41:27.084   12 Jun 2027 05:43:11.150           104.066         52033.000
       247   12 Jun 2027 05:43:42.757   12 Jun 2027 05:43:58.337            15.580          7790.000
       248   12 Jun 2027 05:45:18.384   12 Jun 2027 05:45:35.439            17.055          8527.500
       249   12 Jun 2027 05:46:44.044   12 Jun 2027 05:47:05.575            21.531         10765.500
       250   12 Jun 2027 05:47:42.937   12 Jun 2027 05:48:02.151            19.214          9607.000
       251   12 Jun 2027 05:48:08.065   12 Jun 2027 05:48:25.078            17.013          8506.500
       252   12 Jun 2027 07:17:39.652   12 Jun 2027 07:19:05.328            85.676         42182.719
       253   12 Jun 2027 07:21:37.025   12 Jun 2027 07:21:42.499             5.474          2605.063
       254   12 Jun 2027 07:21:55.507   12 Jun 2027 07:21:57.239             1.732           173.906
       255   12 Jun 2027 07:23:34.325   12 Jun 2027 07:23:35.696             1.371           618.937
       256   12 Jun 2027 08:55:23.024   12 Jun 2027 08:55:35.016            11.992          4972.031
       257   12 Jun 2027 08:56:54.841   12 Jun 2027 08:56:58.038             3.197           580.063
       258   12 Jun 2027 10:31:29.310   12 Jun 2027 10:31:41.727            12.417          5873.687
       259   12 Jun 2027 10:33:31.856   12 Jun 2027 10:33:34.433             2.577           323.844
       260   13 Jun 2027 04:18:39.505   13 Jun 2027 04:19:28.885            49.380         24690.000
       261   13 Jun 2027 04:19:46.509   13 Jun 2027 04:19:46.509             0.000             0.000
       262   13 Jun 2027 04:20:29.431   13 Jun 2027 04:20:34.948             5.517          2758.500
       263   13 Jun 2027 04:21:06.002   13 Jun 2027 04:21:32.484            26.482         13241.000
       264   13 Jun 2027 05:53:49.569   13 Jun 2027 05:55:56.532           126.963         63481.500
       265   13 Jun 2027 05:57:00.911   13 Jun 2027 05:58:05.349            64.438         32219.000
       266   13 Jun 2027 05:59:19.095   13 Jun 2027 05:59:25.252             6.157          3078.500
       267   13 Jun 2027 06:00:14.366   13 Jun 2027 06:00:26.143            11.777          5888.500
       268   13 Jun 2027 07:30:14.733   13 Jun 2027 07:30:45.513            30.780         13825.062
       269   13 Jun 2027 07:32:47.755   13 Jun 2027 07:32:51.284             3.529          1364.469
       270   13 Jun 2027 07:33:32.682   13 Jun 2027 07:33:38.607             5.925           400.687
       271   13 Jun 2027 07:34:36.170   13 Jun 2027 07:34:40.690             4.520          1382.219
       272   13 Jun 2027 07:34:56.617   13 Jun 2027 07:34:58.800             2.183           425.625
       273   13 Jun 2027 07:35:44.319   13 Jun 2027 07:35:45.395             1.076           212.188
       274   13 Jun 2027 09:07:29.632   13 Jun 2027 09:07:45.870            16.238          6159.750
       275   13 Jun 2027 09:11:33.332   13 Jun 2027 09:11:34.936             1.604           438.875
       276   13 Jun 2027 10:43:44.042   13 Jun 2027 10:43:57.654            13.612          5894.562
       277   13 Jun 2027 10:45:08.464   13 Jun 2027 10:45:10.117             1.653           619.062
       278   13 Jun 2027 10:45:29.855   13 Jun 2027 10:45:31.157             1.302           560.250
       279   13 Jun 2027 10:46:08.744   13 Jun 2027 10:46:11.488             2.744          1141.781
