uniorb/output/strategy_4/Camera/Camera_KinoSat_110710.txt

KinoSat_110710
-------------------------
    Access    *     Start Time (UTCG)     *     Stop Time (UTCG)  *   Duration (s) *   Data (Mbytes)
         1   01 Jun 2027 04:27:46.414   01 Jun 2027 04:29:53.992           127.578         63789.000
         2   01 Jun 2027 04:30:43.239   01 Jun 2027 04:30:43.239             0.000             0.000
         3   01 Jun 2027 04:30:57.673   01 Jun 2027 04:31:14.438            16.765          8382.500
         4   01 Jun 2027 06:02:44.381   01 Jun 2027 06:04:47.911           123.530         61765.000
         5   01 Jun 2027 06:05:11.626   01 Jun 2027 06:05:15.318             3.692          1846.000
         6   01 Jun 2027 06:08:58.300   01 Jun 2027 06:09:11.145            12.845          6422.500
         7   01 Jun 2027 06:09:43.925   01 Jun 2027 06:09:43.925             0.000             0.000
         8   01 Jun 2027 07:38:56.205   01 Jun 2027 07:41:25.005           148.800         74400.000
         9   01 Jun 2027 07:43:56.831   01 Jun 2027 07:44:07.434            10.603          5301.500
        10   01 Jun 2027 07:44:31.976   01 Jun 2027 07:44:44.984            13.008          6504.000
        11   01 Jun 2027 07:44:51.484   01 Jun 2027 07:44:55.886             4.402          2201.000
        12   01 Jun 2027 09:16:56.218   01 Jun 2027 09:20:13.112           196.894         98447.000
        13   01 Jun 2027 09:20:13.393   01 Jun 2027 09:20:16.885             3.492          1746.000
        14   01 Jun 2027 09:20:39.329   01 Jun 2027 09:20:39.329             0.000             0.000
        15   01 Jun 2027 10:52:37.845   01 Jun 2027 10:55:10.662           152.817         76408.500
        16   01 Jun 2027 10:55:45.985   01 Jun 2027 10:56:05.093            19.108          9554.000
        17   02 Jun 2027 03:03:08.520   02 Jun 2027 03:03:21.191            12.671          6335.500
        18   02 Jun 2027 03:03:39.478   02 Jun 2027 03:03:39.478             0.000             0.000
        19   02 Jun 2027 03:03:51.792   02 Jun 2027 03:03:54.574             2.782          1391.000
        20   02 Jun 2027 03:04:26.770   02 Jun 2027 03:04:30.421             3.651          1825.500
        21   02 Jun 2027 03:05:53.667   02 Jun 2027 03:05:54.467             0.800           400.000
        22   02 Jun 2027 03:06:38.322   02 Jun 2027 03:06:51.331            13.009          6504.500
        23   02 Jun 2027 04:38:22.554   02 Jun 2027 04:38:28.110             5.556          2778.000
        24   02 Jun 2027 04:39:31.880   02 Jun 2027 04:41:55.060           143.180         71590.000
        25   02 Jun 2027 04:43:04.181   02 Jun 2027 04:43:18.882            14.701          7350.500
        26   02 Jun 2027 04:43:51.365   02 Jun 2027 04:43:53.297             1.932           966.000
        27   02 Jun 2027 06:14:17.973   02 Jun 2027 06:17:22.802           184.829         92414.500
        28   02 Jun 2027 06:17:44.466   02 Jun 2027 06:18:12.218            27.752         13876.000
        29   02 Jun 2027 06:19:02.863   02 Jun 2027 06:19:15.982            13.119          6559.500
        30   02 Jun 2027 06:21:08.700   02 Jun 2027 06:21:50.733            42.033         21016.500
        31   02 Jun 2027 07:51:10.808   02 Jun 2027 07:53:37.363           146.555         73277.500
        32   02 Jun 2027 07:54:54.183   02 Jun 2027 07:55:02.614             8.431          4215.500
        33   02 Jun 2027 07:55:21.692   02 Jun 2027 07:55:25.851             4.159          2079.500
        34   02 Jun 2027 07:56:29.858   02 Jun 2027 07:57:22.242            52.384         26192.000
        35   02 Jun 2027 09:29:18.044   02 Jun 2027 09:29:52.808            34.764         17276.312
        36   02 Jun 2027 09:30:34.242   02 Jun 2027 09:30:36.795             2.553           698.562
        37   02 Jun 2027 09:32:00.281   02 Jun 2027 09:32:07.370             7.089          1747.344
        38   02 Jun 2027 09:32:36.319   02 Jun 2027 09:32:38.186             1.867           789.188
        39   02 Jun 2027 09:33:09.566   02 Jun 2027 09:33:11.399             1.833           880.188
        40   02 Jun 2027 11:02:33.885   02 Jun 2027 11:02:44.188            10.303          4886.313
        41   03 Jun 2027 03:14:06.629   03 Jun 2027 03:14:14.276             7.647          3823.500
        42   03 Jun 2027 03:15:10.629   03 Jun 2027 03:15:11.599             0.970           485.000
        43   03 Jun 2027 03:16:24.996   03 Jun 2027 03:16:28.647             3.651          1825.500
        44   03 Jun 2027 03:17:17.435   03 Jun 2027 03:17:39.541            22.106         11053.000
        45   03 Jun 2027 04:49:17.074   03 Jun 2027 04:50:42.377            85.303         42651.500
        46   03 Jun 2027 04:51:15.476   03 Jun 2027 04:53:24.734           129.258         64629.000
        47   03 Jun 2027 04:53:44.436   03 Jun 2027 04:53:44.436             0.000             0.000
        48   03 Jun 2027 04:55:09.600   03 Jun 2027 04:55:21.759            12.159          6079.500
        49   03 Jun 2027 06:26:25.047   03 Jun 2027 06:27:27.933            62.886         30821.688
        50   03 Jun 2027 06:27:41.248   03 Jun 2027 06:27:43.500             2.252           416.094
        51   03 Jun 2027 06:28:56.067   03 Jun 2027 06:29:01.015             4.948           378.687
        52   03 Jun 2027 06:31:17.459   03 Jun 2027 06:31:29.164            11.705          3163.281
        53   03 Jun 2027 06:32:06.887   03 Jun 2027 06:32:06.887             0.000             0.000
        54   03 Jun 2027 06:32:43.694   03 Jun 2027 06:32:48.464             4.770          2329.063
        55   03 Jun 2027 08:03:22.717   03 Jun 2027 08:03:25.502             2.785          1272.562
        56   03 Jun 2027 08:04:19.247   03 Jun 2027 08:04:20.561             1.314           419.094
        57   03 Jun 2027 08:04:45.247   03 Jun 2027 08:04:56.903            11.656           676.750
        58   03 Jun 2027 08:05:25.176   03 Jun 2027 08:05:28.163             2.987           540.906
        59   03 Jun 2027 08:05:49.259   03 Jun 2027 08:05:56.571             7.312           371.500
        60   03 Jun 2027 08:06:14.577   03 Jun 2027 08:06:19.893             5.316           423.469
        61   03 Jun 2027 08:07:01.166   03 Jun 2027 08:07:03.311             2.145           773.375
        62   03 Jun 2027 08:07:07.540   03 Jun 2027 08:07:08.012             0.472           132.156
        63   03 Jun 2027 08:07:35.397   03 Jun 2027 08:07:37.430             2.033           777.031
        64   03 Jun 2027 08:08:31.054   03 Jun 2027 08:08:35.707             4.653          1646.125
        65   03 Jun 2027 08:08:55.536   03 Jun 2027 08:08:57.536             2.000           433.437
        66   03 Jun 2027 08:09:24.377   03 Jun 2027 08:09:31.111             6.734           447.250
        67   03 Jun 2027 09:41:15.803   03 Jun 2027 09:41:28.355            12.552          5927.969
        68   03 Jun 2027 09:42:30.621   03 Jun 2027 09:42:35.681             5.060           275.844
        69   03 Jun 2027 09:44:09.615   03 Jun 2027 09:44:10.764             1.149           437.375
        70   03 Jun 2027 09:44:45.204   03 Jun 2027 09:44:46.287             1.083           204.063
        71   03 Jun 2027 11:14:42.548   03 Jun 2027 11:14:49.355             6.807          2043.813
        72   04 Jun 2027 03:25:51.512   04 Jun 2027 03:26:11.407            19.895          9947.500
        73   04 Jun 2027 03:31:02.173   04 Jun 2027 03:31:24.719            22.546         11273.000
        74   04 Jun 2027 05:00:44.391   04 Jun 2027 05:03:39.461           175.070         87535.000
        75   04 Jun 2027 05:04:01.323   04 Jun 2027 05:04:11.750            10.427          5213.500
        76   04 Jun 2027 05:04:39.981   04 Jun 2027 05:05:25.314            45.333         22666.500
        77   04 Jun 2027 06:38:26.542   04 Jun 2027 06:39:20.585            54.043         26682.344
        78   04 Jun 2027 06:41:28.624   04 Jun 2027 06:41:33.102             4.478          1683.187
        79   04 Jun 2027 06:42:02.091   04 Jun 2027 06:42:02.091             0.000             0.000
        80   04 Jun 2027 06:43:15.694   04 Jun 2027 06:43:21.532             5.838          2919.000
        81   04 Jun 2027 06:43:31.860   04 Jun 2027 06:43:33.636             1.776           408.719
        82   04 Jun 2027 06:44:14.987   04 Jun 2027 06:44:17.723             2.736          1292.219
        83   04 Jun 2027 08:15:14.581   04 Jun 2027 08:15:22.413             7.832          1573.250
        84   04 Jun 2027 08:17:41.469   04 Jun 2027 08:17:46.104             4.635          1231.844
        85   04 Jun 2027 08:19:02.447   04 Jun 2027 08:19:05.228             2.781          1390.500
        86   04 Jun 2027 08:19:28.038   04 Jun 2027 08:19:31.129             3.091          1107.281
        87   04 Jun 2027 08:19:53.824   04 Jun 2027 08:19:55.517             1.693           709.219
        88   04 Jun 2027 08:20:27.158   04 Jun 2027 08:20:29.512             2.354           659.063
        89   04 Jun 2027 08:21:33.189   04 Jun 2027 08:21:38.191             5.002          1401.125
        90   04 Jun 2027 09:53:16.169   04 Jun 2027 09:53:26.116             9.947          3799.313
        91   04 Jun 2027 09:54:31.008   04 Jun 2027 09:54:37.893             6.885          1326.438
        92   04 Jun 2027 09:56:26.157   04 Jun 2027 09:56:28.605             2.448           260.187
        93   04 Jun 2027 09:56:59.408   04 Jun 2027 09:57:02.266             2.858           748.063
        94   04 Jun 2027 09:57:13.824   04 Jun 2027 09:57:15.390             1.566           243.594
        95   04 Jun 2027 11:27:09.050   04 Jun 2027 11:27:09.868             0.818            58.125
        96   05 Jun 2027 03:37:27.245   05 Jun 2027 03:37:34.548             7.303          3651.500
        97   05 Jun 2027 03:37:39.463   05 Jun 2027 03:37:53.804            14.341          7170.500
        98   05 Jun 2027 03:38:11.649   05 Jun 2027 03:38:12.141             0.492           246.000
        99   05 Jun 2027 05:12:19.731   05 Jun 2027 05:15:42.595           202.864        101432.000
       100   05 Jun 2027 05:16:13.352   05 Jun 2027 05:16:26.676            13.324          6662.000
       101   05 Jun 2027 05:17:27.855   05 Jun 2027 05:17:35.450             7.595          3797.500
       102   05 Jun 2027 05:20:56.352   05 Jun 2027 05:21:03.321             6.969          3484.500
       103   05 Jun 2027 05:21:28.515   05 Jun 2027 05:21:32.173             3.658          1829.000
       104   05 Jun 2027 06:50:29.699   05 Jun 2027 06:51:39.983            70.284         33242.281
       105   05 Jun 2027 06:52:14.255   05 Jun 2027 06:52:21.560             7.305           844.844
       106   05 Jun 2027 06:53:22.108   05 Jun 2027 06:53:26.435             4.327           652.375
       107   05 Jun 2027 06:53:42.849   05 Jun 2027 06:53:42.849             0.000             0.000
       108   05 Jun 2027 06:54:10.426   05 Jun 2027 06:54:13.329             2.903          1262.000
       109   05 Jun 2027 06:54:24.081   05 Jun 2027 06:54:26.633             2.552           307.156
       110   05 Jun 2027 06:54:50.336   05 Jun 2027 06:54:55.813             5.477           483.719
       111   05 Jun 2027 06:55:24.665   05 Jun 2027 06:55:26.270             1.605           363.750
       112   05 Jun 2027 06:56:23.361   05 Jun 2027 06:56:28.668             5.307          1761.594
       113   05 Jun 2027 08:27:24.464   05 Jun 2027 08:27:30.283             5.819          2534.594
       114   05 Jun 2027 08:29:30.567   05 Jun 2027 08:29:34.282             3.715          1122.063
       115   05 Jun 2027 08:30:25.421   05 Jun 2027 08:30:29.362             3.941          1598.094
       116   05 Jun 2027 08:31:12.836   05 Jun 2027 08:31:20.049             7.213           950.188
       117   05 Jun 2027 08:32:54.158   05 Jun 2027 08:32:58.062             3.904          1714.625
       118   05 Jun 2027 10:04:30.944   05 Jun 2027 10:04:44.226            13.282          5690.062
       119   05 Jun 2027 10:06:24.623   05 Jun 2027 10:06:33.090             8.467          1356.844
       120   05 Jun 2027 10:07:48.345   05 Jun 2027 10:07:49.450             1.105           464.375
       121   05 Jun 2027 10:08:41.731   05 Jun 2027 10:08:43.210             1.479           517.750
       122   05 Jun 2027 11:39:29.519   05 Jun 2027 11:39:32.297             2.778          1356.969
       123   06 Jun 2027 03:51:54.312   06 Jun 2027 03:51:59.735             5.423          2711.500
       124   06 Jun 2027 03:52:56.713   06 Jun 2027 03:53:12.471            15.758          7879.000
       125   06 Jun 2027 05:25:23.553   06 Jun 2027 05:28:05.152           161.599         80799.500
       126   06 Jun 2027 05:33:06.882   06 Jun 2027 05:33:56.137            49.255         24627.500
       127   06 Jun 2027 07:02:55.931   06 Jun 2027 07:04:23.095            87.164         42988.125
       128   06 Jun 2027 07:06:08.501   06 Jun 2027 07:06:10.891             2.390          1115.438
       129   06 Jun 2027 07:07:20.565   06 Jun 2027 07:07:24.738             4.173           737.375
       130   06 Jun 2027 07:08:49.230   06 Jun 2027 07:08:50.948             1.718           215.656
       131   06 Jun 2027 08:39:51.424   06 Jun 2027 08:40:01.016             9.592          4319.250
       132   06 Jun 2027 08:42:25.067   06 Jun 2027 08:42:28.458             3.391           626.062
       133   06 Jun 2027 08:42:58.049   06 Jun 2027 08:43:00.845             2.796           612.531
       134   06 Jun 2027 08:43:34.953   06 Jun 2027 08:43:40.702             5.749           634.031
       135   06 Jun 2027 10:16:42.715   06 Jun 2027 10:16:55.561            12.846          6311.906
       136   06 Jun 2027 10:19:25.315   06 Jun 2027 10:19:26.166             0.851            37.563
       137   06 Jun 2027 11:54:15.430   06 Jun 2027 11:54:24.070             8.640          2157.031
       138   07 Jun 2027 04:03:55.561   07 Jun 2027 04:04:01.805             6.244          3122.000
       139   07 Jun 2027 04:05:59.466   07 Jun 2027 04:06:01.605             2.139          1069.500
       140   07 Jun 2027 04:06:05.797   07 Jun 2027 04:06:19.460            13.663          6831.500
       141   07 Jun 2027 05:38:03.088   07 Jun 2027 05:40:05.823           122.735         61367.500
       142   07 Jun 2027 05:40:37.358   07 Jun 2027 05:41:11.701            34.343         17171.500
       143   07 Jun 2027 05:44:06.475   07 Jun 2027 05:44:33.596            27.121         13560.500
       144   07 Jun 2027 05:45:09.681   07 Jun 2027 05:45:32.981            23.300         11650.000
       145   07 Jun 2027 05:45:49.551   07 Jun 2027 05:45:50.792             1.241           620.500
       146   07 Jun 2027 07:15:01.650   07 Jun 2027 07:16:35.572            93.922         46595.125
       147   07 Jun 2027 07:17:45.316   07 Jun 2027 07:17:48.017             2.701           911.875
       148   07 Jun 2027 07:18:42.282   07 Jun 2027 07:18:49.582             7.300          1526.906
       149   07 Jun 2027 07:20:12.109   07 Jun 2027 07:20:15.909             3.800          1795.094
       150   07 Jun 2027 07:20:58.607   07 Jun 2027 07:21:02.526             3.919           457.156
       151   07 Jun 2027 08:52:38.495   07 Jun 2027 08:52:52.782            14.287          5875.719
       152   07 Jun 2027 08:54:04.683   07 Jun 2027 08:54:10.347             5.664           534.438
       153   07 Jun 2027 08:55:18.364   07 Jun 2027 08:55:22.744             4.380          2086.937
       154   07 Jun 2027 08:57:04.376   07 Jun 2027 08:57:05.492             1.116            32.031
       155   07 Jun 2027 10:28:46.276   07 Jun 2027 10:28:58.698            12.422          6133.219
       156   08 Jun 2027 04:16:05.733   08 Jun 2027 04:16:44.700            38.967         19483.500
       157   08 Jun 2027 04:18:27.688   08 Jun 2027 04:18:31.697             4.009          2004.500
       158   08 Jun 2027 05:51:15.867   08 Jun 2027 05:53:21.702           125.835         62917.500
       159   08 Jun 2027 05:53:54.141   08 Jun 2027 05:54:08.179            14.038          7019.000
       160   08 Jun 2027 05:54:23.338   08 Jun 2027 05:55:30.189            66.851         33425.500
       161   08 Jun 2027 05:57:43.134   08 Jun 2027 05:57:52.674             9.540          4770.000
       162   08 Jun 2027 07:27:37.799   08 Jun 2027 07:28:33.592            55.793         27578.719
       163   08 Jun 2027 07:30:47.714   08 Jun 2027 07:30:49.556             1.842           916.250
       164   08 Jun 2027 07:30:59.073   08 Jun 2027 07:30:59.860             0.787           293.156
       165   08 Jun 2027 07:31:28.586   08 Jun 2027 07:31:34.344             5.758           617.000
       166   08 Jun 2027 07:33:12.415   08 Jun 2027 07:33:13.272             0.857           251.406
       167   08 Jun 2027 09:04:56.069   08 Jun 2027 09:05:07.323            11.254          4359.656
       168   08 Jun 2027 09:06:21.655   08 Jun 2027 09:06:25.701             4.046           707.688
       169   08 Jun 2027 09:07:07.939   08 Jun 2027 09:07:09.165             1.226           557.281
       170   08 Jun 2027 09:08:57.279   08 Jun 2027 09:08:58.680             1.401           371.188
       171   08 Jun 2027 10:41:07.818   08 Jun 2027 10:41:22.335            14.517          5963.187
       172   08 Jun 2027 10:42:59.186   08 Jun 2027 10:43:00.970             1.784           602.563
       173   09 Jun 2027 04:28:00.948   09 Jun 2027 04:29:52.778           111.830         55915.000
       174   09 Jun 2027 04:31:12.526   09 Jun 2027 04:31:12.526             0.000             0.000
       175   09 Jun 2027 04:31:32.968   09 Jun 2027 04:31:35.345             2.377          1188.500
       176   09 Jun 2027 06:02:58.661   09 Jun 2027 06:05:59.745           181.084         90542.000
       177   09 Jun 2027 06:06:28.534   09 Jun 2027 06:06:38.266             9.732          4207.750
       178   09 Jun 2027 06:09:34.605   09 Jun 2027 06:09:42.678             8.073          3834.062
       179   09 Jun 2027 07:39:10.798   09 Jun 2027 07:39:14.304             3.506          1085.500
       180   09 Jun 2027 07:40:42.336   09 Jun 2027 07:40:43.515             1.179           375.844
       181   09 Jun 2027 07:41:10.613   09 Jun 2027 07:41:13.221             2.608           674.531
       182   09 Jun 2027 07:42:16.696   09 Jun 2027 07:42:17.829             1.133           273.437
       183   09 Jun 2027 07:42:57.514   09 Jun 2027 07:42:59.158             1.644           643.875
       184   09 Jun 2027 07:43:58.176   09 Jun 2027 07:44:03.110             4.934          1236.719
       185   09 Jun 2027 07:45:13.540   09 Jun 2027 07:45:21.073             7.533           231.125
       186   09 Jun 2027 09:17:11.222   09 Jun 2027 09:17:32.331            21.109          7042.844
       187   09 Jun 2027 09:18:29.570   09 Jun 2027 09:18:35.923             6.353          1091.625
       188   09 Jun 2027 09:19:35.865   09 Jun 2027 09:19:37.502             1.637           521.187
       189   09 Jun 2027 09:20:39.735   09 Jun 2027 09:20:42.018             2.283          1029.375
       190   09 Jun 2027 10:52:52.140   09 Jun 2027 10:53:04.239            12.099          5010.969
       191   09 Jun 2027 10:54:44.061   09 Jun 2027 10:54:44.814             0.753           243.531
       192   10 Jun 2027 03:03:23.137   10 Jun 2027 03:03:35.377            12.240          6120.000
       193   10 Jun 2027 03:03:44.621   10 Jun 2027 03:03:47.900             3.279          1639.500
       194   10 Jun 2027 03:05:15.516   10 Jun 2027 03:05:15.516             0.000             0.000
       195   10 Jun 2027 03:05:32.170   10 Jun 2027 03:05:37.033             4.863          2431.500
       196   10 Jun 2027 03:07:03.874   10 Jun 2027 03:07:04.453             0.579           289.500
       197   10 Jun 2027 04:38:36.983   10 Jun 2027 04:38:42.975             5.992          2996.000
       198   10 Jun 2027 04:39:46.568   10 Jun 2027 04:42:31.176           164.608         82304.000
       199   10 Jun 2027 04:43:43.679   10 Jun 2027 04:43:52.299             8.620          4310.000
       200   10 Jun 2027 06:14:32.492   10 Jun 2027 06:16:21.018           108.526         52308.063
       201   10 Jun 2027 06:17:11.125   10 Jun 2027 06:17:16.590             5.465           817.844
       202   10 Jun 2027 06:18:31.852   10 Jun 2027 06:18:36.074             4.222          1783.000
       203   10 Jun 2027 06:19:04.697   10 Jun 2027 06:19:07.510             2.813           774.687
       204   10 Jun 2027 06:19:43.098   10 Jun 2027 06:19:43.098             0.000             0.000
       205   10 Jun 2027 06:19:48.972   10 Jun 2027 06:19:53.309             4.337           479.250
       206   10 Jun 2027 06:20:20.394   10 Jun 2027 06:20:21.954             1.560           235.844
       207   10 Jun 2027 06:21:23.208   10 Jun 2027 06:21:28.694             5.486          1795.000
       208   10 Jun 2027 07:51:31.884   10 Jun 2027 07:51:34.861             2.977          1425.156
       209   10 Jun 2027 07:52:30.062   10 Jun 2027 07:52:34.580             4.518           163.562
       210   10 Jun 2027 07:53:32.247   10 Jun 2027 07:53:36.857             4.610           172.594
       211   10 Jun 2027 07:53:52.208   10 Jun 2027 07:53:56.759             4.551           396.594
       212   10 Jun 2027 07:54:55.436   10 Jun 2027 07:54:57.774             2.338           982.344
       213   10 Jun 2027 07:55:18.952   10 Jun 2027 07:55:20.347             1.395           307.500
       214   10 Jun 2027 07:56:07.628   10 Jun 2027 07:56:10.147             2.519           844.375
       215   10 Jun 2027 07:56:50.010   10 Jun 2027 07:56:52.680             2.670          1245.719
       216   10 Jun 2027 09:29:32.909   10 Jun 2027 09:29:44.893            11.984          4895.531
       217   10 Jun 2027 09:30:50.695   10 Jun 2027 09:30:53.854             3.159          1183.812
       218   10 Jun 2027 09:32:17.508   10 Jun 2027 09:32:22.856             5.348          1778.687
       219   10 Jun 2027 09:32:51.595   10 Jun 2027 09:32:54.051             2.456           796.469
       220   10 Jun 2027 09:33:28.899   10 Jun 2027 09:33:29.536             0.637           318.500
       221   10 Jun 2027 11:02:48.115   10 Jun 2027 11:03:01.450            13.335          5551.719
       222   11 Jun 2027 03:14:21.149   11 Jun 2027 03:14:27.285             6.136          3068.000
       223   11 Jun 2027 03:15:27.735   11 Jun 2027 03:15:31.347             3.612          1806.000
       224   11 Jun 2027 03:16:41.804   11 Jun 2027 03:16:42.403             0.599           299.500
       225   11 Jun 2027 03:17:18.937   11 Jun 2027 03:17:33.549            14.612          7306.000
       226   11 Jun 2027 03:17:57.400   11 Jun 2027 03:18:10.476            13.076          6538.000
       227   11 Jun 2027 04:49:29.715   11 Jun 2027 04:51:00.879            91.164         45582.000
       228   11 Jun 2027 04:51:30.032   11 Jun 2027 04:53:38.489           128.457         64228.500
       229   11 Jun 2027 04:57:24.763   11 Jun 2027 04:57:29.179             4.416          2208.000
       230   11 Jun 2027 06:26:40.067   11 Jun 2027 06:27:34.309            54.242         26459.219
       231   11 Jun 2027 06:27:58.351   11 Jun 2027 06:27:59.567             1.216           468.094
       232   11 Jun 2027 06:29:11.634   11 Jun 2027 06:29:12.911             1.277           366.531
       233   11 Jun 2027 06:29:35.907   11 Jun 2027 06:29:41.637             5.730           576.594
       234   11 Jun 2027 06:29:53.972   11 Jun 2027 06:29:55.718             1.746           344.187
       235   11 Jun 2027 06:30:49.544   11 Jun 2027 06:30:53.651             4.107          1214.969
       236   11 Jun 2027 06:32:22.891   11 Jun 2027 06:32:32.269             9.378          1571.188
       237   11 Jun 2027 06:33:07.695   11 Jun 2027 06:33:08.381             0.686           276.969
       238   11 Jun 2027 08:03:37.414   11 Jun 2027 08:03:44.614             7.200          2284.594
       239   11 Jun 2027 08:04:33.892   11 Jun 2027 08:04:35.408             1.516           408.156
       240   11 Jun 2027 08:04:59.660   11 Jun 2027 08:05:01.675             2.015           669.906
       241   11 Jun 2027 08:05:42.091   11 Jun 2027 08:05:43.731             1.640           613.969
       242   11 Jun 2027 08:06:07.306   11 Jun 2027 08:06:10.093             2.787           472.156
       243   11 Jun 2027 08:06:29.177   11 Jun 2027 08:06:30.034             0.857           412.500
       244   11 Jun 2027 08:07:47.169   11 Jun 2027 08:07:50.883             3.714           973.844
       245   11 Jun 2027 08:08:06.665   11 Jun 2027 08:08:09.486             2.821           493.187
       246   11 Jun 2027 08:09:09.227   11 Jun 2027 08:09:10.003             0.776           361.469
       247   11 Jun 2027 09:41:30.450   11 Jun 2027 09:41:44.620            14.170          5709.563
       248   11 Jun 2027 09:42:41.930   11 Jun 2027 09:42:43.221             1.291            62.062
       249   11 Jun 2027 09:44:53.934   11 Jun 2027 09:44:56.392             2.458           849.250
       250   11 Jun 2027 09:45:10.890   11 Jun 2027 09:45:11.676             0.786           344.187
       251   11 Jun 2027 11:14:57.837   11 Jun 2027 11:15:01.218             3.381           624.937
       252   12 Jun 2027 03:26:06.105   12 Jun 2027 03:26:27.731            21.626         10813.000
       253   12 Jun 2027 05:00:58.649   12 Jun 2027 05:04:33.472           214.823        107411.500
       254   12 Jun 2027 05:04:43.137   12 Jun 2027 05:04:46.540             3.403          1701.500
       255   12 Jun 2027 05:05:41.447   12 Jun 2027 05:05:41.447             0.000             0.000
       256   12 Jun 2027 05:05:52.698   12 Jun 2027 05:05:59.890             7.192          3596.000
       257   12 Jun 2027 05:09:48.013   12 Jun 2027 05:10:03.875            15.862          7931.000
       258   12 Jun 2027 06:38:41.327   12 Jun 2027 06:39:35.981            54.654         27131.781
       259   12 Jun 2027 06:40:49.946   12 Jun 2027 06:40:54.284             4.338          1517.813
       260   12 Jun 2027 06:41:27.310   12 Jun 2027 06:41:27.310             0.000             0.000
       261   12 Jun 2027 06:41:44.676   12 Jun 2027 06:41:47.539             2.863           880.750
       262   12 Jun 2027 06:41:57.270   12 Jun 2027 06:41:57.270             0.000             0.000
       263   12 Jun 2027 06:42:18.065   12 Jun 2027 06:42:23.846             5.781           712.719
       264   12 Jun 2027 06:42:57.912   12 Jun 2027 06:42:59.558             1.646           406.906
       265   12 Jun 2027 06:43:20.258   12 Jun 2027 06:43:20.609             0.351            70.031
       266   12 Jun 2027 06:43:48.603   12 Jun 2027 06:43:49.576             0.973           276.125
       267   12 Jun 2027 06:44:19.036   12 Jun 2027 06:44:24.865             5.829           920.625
       268   12 Jun 2027 06:44:45.635   12 Jun 2027 06:44:46.734             1.099           480.656
       269   12 Jun 2027 08:15:29.526   12 Jun 2027 08:15:32.069             2.543          1076.188
       270   12 Jun 2027 08:17:16.604   12 Jun 2027 08:17:22.103             5.499          1290.688
       271   12 Jun 2027 08:18:27.237   12 Jun 2027 08:18:32.742             5.505          1126.406
       272   12 Jun 2027 08:19:23.800   12 Jun 2027 08:19:25.972             2.172           775.094
       273   12 Jun 2027 08:19:46.181   12 Jun 2027 08:19:48.122             1.941           631.531
       274   12 Jun 2027 08:20:25.385   12 Jun 2027 08:20:27.001             1.616           514.969
       275   12 Jun 2027 08:20:49.193   12 Jun 2027 08:20:51.356             2.163           405.594
       276   12 Jun 2027 08:21:47.813   12 Jun 2027 08:21:52.609             4.796          1359.500
       277   12 Jun 2027 09:53:31.274   12 Jun 2027 09:53:37.829             6.555          3031.375
       278   12 Jun 2027 09:54:03.010   12 Jun 2027 09:54:04.723             1.713           781.469
       279   12 Jun 2027 09:54:40.084   12 Jun 2027 09:54:45.660             5.576          1100.375
       280   12 Jun 2027 09:56:40.304   12 Jun 2027 09:56:41.111             0.807           168.781
       281   12 Jun 2027 09:56:49.709   12 Jun 2027 09:56:52.064             2.355            80.219
       282   12 Jun 2027 09:57:14.840   12 Jun 2027 09:57:17.271             2.431           703.531
       283   12 Jun 2027 11:27:23.871   12 Jun 2027 11:27:25.257             1.386           465.375
       284   13 Jun 2027 03:37:41.553   13 Jun 2027 03:37:50.966             9.413          4706.500
       285   13 Jun 2027 03:38:26.575   13 Jun 2027 03:38:31.659             5.084          2542.000
       286   13 Jun 2027 03:40:40.084   13 Jun 2027 03:40:50.051             9.967          4983.500
       287   13 Jun 2027 03:41:14.680   13 Jun 2027 03:41:14.680             0.000             0.000
       288   13 Jun 2027 03:42:17.013   13 Jun 2027 03:42:32.379            15.366          7683.000
       289   13 Jun 2027 05:13:42.073   13 Jun 2027 05:16:55.149           193.076         96538.000
       290   13 Jun 2027 05:18:01.018   13 Jun 2027 05:18:08.576             7.558          3779.000
       291   13 Jun 2027 05:20:39.992   13 Jun 2027 05:20:53.431            13.439          6719.500
       292   13 Jun 2027 05:21:43.380   13 Jun 2027 05:21:44.478             1.098           549.000
       293   13 Jun 2027 06:50:44.616   13 Jun 2027 06:52:04.190            79.574         39549.062
       294   13 Jun 2027 06:52:30.132   13 Jun 2027 06:52:35.704             5.572           807.219
       295   13 Jun 2027 06:53:46.075   13 Jun 2027 06:53:46.075             0.000             0.000
       296   13 Jun 2027 06:54:00.575   13 Jun 2027 06:54:04.272             3.697          1398.938
       297   13 Jun 2027 06:55:32.926   13 Jun 2027 06:55:38.377             5.451          2294.844
       298   13 Jun 2027 06:56:38.915   13 Jun 2027 06:56:43.398             4.483          1815.906
       299   13 Jun 2027 08:27:39.383   13 Jun 2027 08:27:50.480            11.097          4631.594
       300   13 Jun 2027 08:29:44.036   13 Jun 2027 08:29:47.598             3.562          1032.063
       301   13 Jun 2027 08:30:54.760   13 Jun 2027 08:30:57.128             2.368          1094.719
       302   13 Jun 2027 08:31:27.723   13 Jun 2027 08:31:30.358             2.635           956.094
       303   13 Jun 2027 08:32:14.445   13 Jun 2027 08:32:15.029             0.584            89.563
       304   13 Jun 2027 08:32:54.182   13 Jun 2027 08:32:55.791             1.609           743.406
       305   13 Jun 2027 08:33:41.055   13 Jun 2027 08:33:49.816             8.761           968.094
       306   13 Jun 2027 10:04:45.630   13 Jun 2027 10:04:58.400            12.770          5762.594
       307   13 Jun 2027 10:05:38.700   13 Jun 2027 10:05:40.177             1.477           292.031
       308   13 Jun 2027 10:06:01.703   13 Jun 2027 10:06:02.905             1.202           128.000
       309   13 Jun 2027 10:08:56.953   13 Jun 2027 10:08:58.246             1.293           461.438
       310   13 Jun 2027 10:09:25.055   13 Jun 2027 10:09:26.643             1.588            23.344
       311   13 Jun 2027 11:39:44.969   13 Jun 2027 11:39:47.080             2.111           556.187
