uniorb/output/strategy_4/Camera/Camera_KinoSat_111609.txt

KinoSat_111609
-------------------------
    Access    *     Start Time (UTCG)     *     Stop Time (UTCG)  *   Duration (s) *   Data (Mbytes)
         1   01 Jun 2027 04:13:25.203   01 Jun 2027 04:15:24.580           119.377         59688.500
         2   01 Jun 2027 04:16:28.153   01 Jun 2027 04:16:51.538            23.385         11692.500
         3   01 Jun 2027 04:17:50.347   01 Jun 2027 04:18:11.548            21.201         10600.500
         4   01 Jun 2027 04:19:21.035   01 Jun 2027 04:19:21.934             0.899           449.500
         5   01 Jun 2027 04:20:15.365   01 Jun 2027 04:20:47.862            32.497         16248.500
         6   01 Jun 2027 05:38:34.825   01 Jun 2027 05:39:54.777            79.952         39976.000
         7   01 Jun 2027 05:50:09.822   01 Jun 2027 05:51:05.785            55.963         27981.500
         8   01 Jun 2027 07:12:45.495   01 Jun 2027 07:13:44.120            58.625         29312.500
         9   01 Jun 2027 07:14:22.776   01 Jun 2027 07:15:37.272            74.496         37248.000
        10   01 Jun 2027 08:47:54.502   01 Jun 2027 08:49:08.474            73.972         36986.000
        11   01 Jun 2027 08:49:37.276   01 Jun 2027 08:49:57.313            20.037         10018.500
        12   01 Jun 2027 08:50:57.544   01 Jun 2027 08:51:39.188            41.644         20822.000
        13   01 Jun 2027 10:24:41.948   01 Jun 2027 10:24:51.158             9.210          4605.000
        14   01 Jun 2027 10:26:33.636   01 Jun 2027 10:27:56.304            82.668         41334.000
        15   01 Jun 2027 10:29:14.481   01 Jun 2027 10:30:22.967            68.486         34243.000
        16   01 Jun 2027 10:31:18.119   01 Jun 2027 10:31:26.723             8.604          4302.000
        17   01 Jun 2027 10:32:07.368   01 Jun 2027 10:32:07.780             0.412           206.000
        18   02 Jun 2027 04:25:41.227   02 Jun 2027 04:27:00.338            79.111         39555.500
        19   02 Jun 2027 04:27:19.391   02 Jun 2027 04:28:17.783            58.392         29196.000
        20   02 Jun 2027 04:29:37.168   02 Jun 2027 04:30:04.830            27.662         13831.000
        21   02 Jun 2027 04:31:23.656   02 Jun 2027 04:31:51.495            27.839         13919.500
        22   02 Jun 2027 05:49:53.924   02 Jun 2027 05:50:19.499            25.575         12787.500
        23   02 Jun 2027 05:50:28.510   02 Jun 2027 05:50:37.013             8.503          4251.500
        24   02 Jun 2027 05:51:41.232   02 Jun 2027 05:51:44.286             3.054          1527.000
        25   02 Jun 2027 05:51:53.865   02 Jun 2027 05:52:05.501            11.636          5818.000
        26   02 Jun 2027 06:02:07.575   02 Jun 2027 06:03:03.283            55.708         27854.000
        27   02 Jun 2027 07:24:21.282   02 Jun 2027 07:25:29.310            68.028         34014.000
        28   02 Jun 2027 07:26:17.809   02 Jun 2027 07:27:53.343            95.534         47767.000
        29   02 Jun 2027 08:59:14.529   02 Jun 2027 09:00:59.958           105.429         52714.500
        30   02 Jun 2027 09:01:39.086   02 Jun 2027 09:02:23.199            44.113         22056.500
        31   02 Jun 2027 09:02:39.947   02 Jun 2027 09:02:55.461            15.514          7757.000
        32   02 Jun 2027 09:05:17.502   02 Jun 2027 09:05:52.904            35.402         17701.000
        33   02 Jun 2027 10:36:49.370   02 Jun 2027 10:37:56.427            67.057         33344.906
        34   02 Jun 2027 10:38:22.454   02 Jun 2027 10:38:24.716             2.262           644.812
        35   02 Jun 2027 10:42:58.831   02 Jun 2027 10:43:17.556            18.725          8289.312
        36   02 Jun 2027 10:44:01.971   02 Jun 2027 10:44:05.873             3.902          1387.969
        37   03 Jun 2027 03:00:00.261   03 Jun 2027 03:00:14.780            14.519          7259.500
        38   03 Jun 2027 03:00:35.610   03 Jun 2027 03:00:35.610             0.000             0.000
        39   03 Jun 2027 03:01:20.142   03 Jun 2027 03:01:27.965             7.823          3911.500
        40   03 Jun 2027 03:02:14.920   03 Jun 2027 03:02:27.294            12.374          6187.000
        41   03 Jun 2027 03:03:10.109   03 Jun 2027 03:03:32.323            22.214         11107.000
        42   03 Jun 2027 03:04:51.182   03 Jun 2027 03:04:58.436             7.254          3627.000
        43   03 Jun 2027 04:37:47.552   03 Jun 2027 04:39:49.274           121.722         60861.000
        44   03 Jun 2027 04:40:07.143   03 Jun 2027 04:41:09.246            62.103         31051.500
        45   03 Jun 2027 04:41:26.219   03 Jun 2027 04:41:42.532            16.313          8156.500
        46   03 Jun 2027 04:42:12.941   03 Jun 2027 04:42:14.227             1.286           643.000
        47   03 Jun 2027 04:42:44.380   03 Jun 2027 04:42:58.691            14.311          7155.500
        48   03 Jun 2027 04:43:44.014   03 Jun 2027 04:44:10.434            26.420         13210.000
        49   03 Jun 2027 06:01:59.860   03 Jun 2027 06:02:30.447            30.587         15293.500
        50   03 Jun 2027 06:03:42.374   03 Jun 2027 06:03:54.186            11.812          5906.000
        51   03 Jun 2027 06:14:30.918   03 Jun 2027 06:14:34.874             3.956          1978.000
        52   03 Jun 2027 07:35:50.259   03 Jun 2027 07:36:07.700            17.441          8413.437
        53   03 Jun 2027 07:36:53.964   03 Jun 2027 07:36:55.690             1.726           669.813
        54   03 Jun 2027 07:37:40.731   03 Jun 2027 07:37:42.462             1.731           740.562
        55   03 Jun 2027 07:38:05.205   03 Jun 2027 07:38:06.663             1.458           365.469
        56   03 Jun 2027 07:38:35.967   03 Jun 2027 07:38:41.862             5.895           690.031
        57   03 Jun 2027 07:39:16.288   03 Jun 2027 07:39:16.288             0.000             0.000
        58   03 Jun 2027 07:40:13.076   03 Jun 2027 07:40:22.713             9.637          2850.437
        59   03 Jun 2027 07:40:44.977   03 Jun 2027 07:40:46.278             1.301           494.625
        60   03 Jun 2027 09:10:44.830   03 Jun 2027 09:10:50.152             5.322          2530.687
        61   03 Jun 2027 09:12:56.529   03 Jun 2027 09:12:57.382             0.853            75.938
        62   03 Jun 2027 09:13:49.343   03 Jun 2027 09:13:58.365             9.022          1255.938
        63   03 Jun 2027 09:14:27.307   03 Jun 2027 09:14:29.181             1.874           237.594
        64   03 Jun 2027 09:15:19.255   03 Jun 2027 09:15:22.023             2.768          1147.156
        65   03 Jun 2027 09:17:46.222   03 Jun 2027 09:17:51.174             4.952          2099.250
        66   03 Jun 2027 09:18:12.640   03 Jun 2027 09:18:14.755             2.115           603.406
        67   03 Jun 2027 09:19:21.005   03 Jun 2027 09:19:23.993             2.988          1314.125
        68   03 Jun 2027 10:48:45.080   03 Jun 2027 10:48:55.677            10.597          4946.687
        69   03 Jun 2027 10:49:33.669   03 Jun 2027 10:49:34.236             0.567           283.500
        70   03 Jun 2027 10:49:42.737   03 Jun 2027 10:49:46.232             3.495           807.125
        71   03 Jun 2027 10:50:06.117   03 Jun 2027 10:50:06.722             0.605           180.156
        72   03 Jun 2027 10:50:57.389   03 Jun 2027 10:51:00.057             2.668          1033.500
        73   03 Jun 2027 10:51:43.397   03 Jun 2027 10:51:46.304             2.907          1354.375
        74   03 Jun 2027 10:52:45.604   03 Jun 2027 10:52:48.951             3.347           686.469
        75   03 Jun 2027 10:54:29.474   03 Jun 2027 10:54:36.462             6.988          3026.313
        76   03 Jun 2027 10:55:16.754   03 Jun 2027 10:55:21.119             4.365           928.219
        77   03 Jun 2027 10:55:41.839   03 Jun 2027 10:55:43.430             1.591           145.062
        78   04 Jun 2027 03:11:39.405   04 Jun 2027 03:11:49.082             9.677          4838.500
        79   04 Jun 2027 03:12:01.337   04 Jun 2027 03:13:03.005            61.668         30834.000
        80   04 Jun 2027 03:13:08.018   04 Jun 2027 03:13:34.692            26.674         13337.000
        81   04 Jun 2027 03:13:50.337   04 Jun 2027 03:13:57.750             7.413          3706.500
        82   04 Jun 2027 03:14:44.131   04 Jun 2027 03:15:01.647            17.516          8758.000
        83   04 Jun 2027 03:15:30.161   04 Jun 2027 03:15:30.664             0.503           251.500
        84   04 Jun 2027 03:16:13.425   04 Jun 2027 03:16:15.646             2.221          1110.500
        85   04 Jun 2027 03:16:31.619   04 Jun 2027 03:16:36.764             5.145          2572.500
        86   04 Jun 2027 03:17:00.906   04 Jun 2027 03:17:16.460            15.554          7777.000
        87   04 Jun 2027 04:50:25.808   04 Jun 2027 04:53:02.026           156.218         78109.000
        88   04 Jun 2027 04:53:15.497   04 Jun 2027 04:53:19.039             3.542           469.282
        89   04 Jun 2027 04:54:22.234   04 Jun 2027 04:54:26.794             4.560          1563.656
        90   04 Jun 2027 06:13:56.310   04 Jun 2027 06:14:16.337            20.027          7685.000
        91   04 Jun 2027 06:14:42.198   04 Jun 2027 06:14:49.945             7.747           760.625
        92   04 Jun 2027 06:15:11.725   04 Jun 2027 06:15:12.109             0.384           184.719
        93   04 Jun 2027 06:15:32.603   04 Jun 2027 06:15:33.037             0.434           217.000
        94   04 Jun 2027 06:15:35.017   04 Jun 2027 06:15:36.644             1.627           485.313
        95   04 Jun 2027 07:50:08.636   04 Jun 2027 07:50:17.403             8.767          4140.156
        96   04 Jun 2027 07:50:39.379   04 Jun 2027 07:50:43.149             3.770           361.594
        97   04 Jun 2027 07:50:57.238   04 Jun 2027 07:51:02.689             5.451           440.281
        98   04 Jun 2027 07:51:54.258   04 Jun 2027 07:51:58.936             4.678          1449.813
        99   04 Jun 2027 07:52:14.892   04 Jun 2027 07:52:15.260             0.368           147.844
       100   04 Jun 2027 07:52:47.483   04 Jun 2027 07:52:48.371             0.888           192.156
       101   04 Jun 2027 09:23:41.582   04 Jun 2027 09:23:51.613            10.031          3622.219
       102   04 Jun 2027 09:25:25.969   04 Jun 2027 09:25:29.325             3.356           972.188
       103   04 Jun 2027 09:26:04.200   04 Jun 2027 09:26:06.956             2.756           887.125
       104   04 Jun 2027 09:27:23.246   04 Jun 2027 09:27:28.954             5.708          2138.031
       105   04 Jun 2027 09:30:05.465   04 Jun 2027 09:30:12.696             7.231          3284.469
       106   04 Jun 2027 09:30:35.947   04 Jun 2027 09:30:35.947             0.000             0.000
       107   04 Jun 2027 09:30:40.467   04 Jun 2027 09:30:43.047             2.580           166.656
       108   04 Jun 2027 09:30:46.548   04 Jun 2027 09:30:48.886             2.338           109.406
       109   04 Jun 2027 09:32:15.236   04 Jun 2027 09:32:16.099             0.863           431.500
       110   04 Jun 2027 11:01:07.433   04 Jun 2027 11:01:20.218            12.785          5848.594
       111   04 Jun 2027 11:03:11.516   04 Jun 2027 11:03:15.008             3.492          1322.437
       112   04 Jun 2027 11:05:22.129   04 Jun 2027 11:05:30.215             8.086          3669.469
       113   04 Jun 2027 11:05:43.260   04 Jun 2027 11:05:44.846             1.586           407.656
       114   04 Jun 2027 11:06:08.122   04 Jun 2027 11:06:08.791             0.669           109.906
       115   04 Jun 2027 11:06:17.598   04 Jun 2027 11:06:20.470             2.872           230.438
       116   04 Jun 2027 11:07:08.827   04 Jun 2027 11:07:11.942             3.115          1242.313
       117   04 Jun 2027 11:07:22.704   04 Jun 2027 11:07:23.638             0.934           129.250
       118   04 Jun 2027 11:07:56.758   04 Jun 2027 11:08:00.042             3.284           797.562
       119   05 Jun 2027 03:24:06.982   05 Jun 2027 03:24:35.265            28.283         14141.500
       120   05 Jun 2027 03:24:39.880   05 Jun 2027 03:26:58.502           138.622         69311.000
       121   05 Jun 2027 03:29:28.449   05 Jun 2027 03:29:34.320             5.871          2935.500
       122   05 Jun 2027 05:02:07.533   05 Jun 2027 05:04:18.867           131.334         65226.281
       123   05 Jun 2027 05:04:50.527   05 Jun 2027 05:04:52.171             1.644           755.531
       124   05 Jun 2027 05:05:43.886   05 Jun 2027 05:05:46.683             2.797          1068.594
       125   05 Jun 2027 05:06:24.877   05 Jun 2027 05:06:25.120             0.243           105.469
       126   05 Jun 2027 05:06:59.689   05 Jun 2027 05:07:00.481             0.792           396.000
       127   05 Jun 2027 06:25:47.775   05 Jun 2027 06:26:00.044            12.269          5909.188
       128   05 Jun 2027 06:27:38.424   05 Jun 2027 06:27:46.121             7.697          2484.000
       129   05 Jun 2027 06:28:12.068   05 Jun 2027 06:28:14.099             2.031           597.281
       130   05 Jun 2027 08:02:14.962   05 Jun 2027 08:02:27.731            12.769          6080.719
       131   05 Jun 2027 08:02:45.201   05 Jun 2027 08:02:46.082             0.881           233.406
       132   05 Jun 2027 08:03:39.411   05 Jun 2027 08:03:45.137             5.726          1410.594
       133   05 Jun 2027 08:03:50.394   05 Jun 2027 08:03:51.660             1.266            45.562
       134   05 Jun 2027 08:04:06.062   05 Jun 2027 08:04:06.062             0.000             0.000
       135   05 Jun 2027 08:04:49.759   05 Jun 2027 08:04:55.484             5.725          1469.219
       136   05 Jun 2027 09:34:26.149   05 Jun 2027 09:34:31.898             5.749          2858.187
       137   05 Jun 2027 09:36:20.403   05 Jun 2027 09:36:23.064             2.661           517.250
       138   05 Jun 2027 09:38:00.143   05 Jun 2027 09:38:06.108             5.965          2032.469
       139   05 Jun 2027 09:38:23.331   05 Jun 2027 09:38:25.131             1.800           472.750
       140   05 Jun 2027 09:39:14.606   05 Jun 2027 09:39:16.595             1.989           863.312
       141   05 Jun 2027 09:40:36.890   05 Jun 2027 09:40:41.794             4.904          2094.437
       142   05 Jun 2027 09:42:38.579   05 Jun 2027 09:42:45.485             6.906          2548.875
       143   05 Jun 2027 09:43:59.341   05 Jun 2027 09:44:02.650             3.309          1654.500
       144   05 Jun 2027 09:44:11.189   05 Jun 2027 09:44:13.829             2.640           920.344
       145   05 Jun 2027 11:13:18.380   05 Jun 2027 11:13:32.225            13.845          5391.219
       146   05 Jun 2027 11:15:55.017   05 Jun 2027 11:15:59.684             4.667           566.344
       147   05 Jun 2027 11:16:16.896   05 Jun 2027 11:16:21.024             4.128           435.594
       148   05 Jun 2027 11:17:00.633   05 Jun 2027 11:17:06.733             6.100           914.531
       149   05 Jun 2027 11:17:35.927   05 Jun 2027 11:17:36.990             1.063           484.562
       150   05 Jun 2027 11:17:47.189   05 Jun 2027 11:17:51.341             4.152           209.656
       151   05 Jun 2027 11:18:42.696   05 Jun 2027 11:18:52.800            10.104          1428.688
       152   05 Jun 2027 11:19:20.248   05 Jun 2027 11:19:22.930             2.682           451.656
       153   05 Jun 2027 11:19:40.474   05 Jun 2027 11:19:43.499             3.025           500.250
       154   06 Jun 2027 03:36:13.047   06 Jun 2027 03:37:16.521            63.474         31737.000
       155   06 Jun 2027 03:37:23.656   06 Jun 2027 03:37:43.453            19.797          9898.500
       156   06 Jun 2027 03:38:39.238   06 Jun 2027 03:39:46.055            66.817         33408.500
       157   06 Jun 2027 03:40:13.637   06 Jun 2027 03:40:56.344            42.707         21353.500
       158   06 Jun 2027 05:15:31.139   06 Jun 2027 05:17:15.779           104.640         52320.000
       159   06 Jun 2027 05:18:07.579   06 Jun 2027 05:18:13.209             5.630          2182.969
       160   06 Jun 2027 06:37:54.210   06 Jun 2027 06:38:07.754            13.544          5511.187
       161   06 Jun 2027 06:39:08.015   06 Jun 2027 06:39:12.588             4.573          1883.156
       162   06 Jun 2027 06:39:55.568   06 Jun 2027 06:39:57.446             1.878           939.000
       163   06 Jun 2027 06:40:31.637   06 Jun 2027 06:40:34.992             3.355          1406.812
       164   06 Jun 2027 06:40:51.326   06 Jun 2027 06:40:51.326             0.000             0.000
       165   06 Jun 2027 08:14:22.798   06 Jun 2027 08:14:31.636             8.838          2938.906
       166   06 Jun 2027 08:15:09.080   06 Jun 2027 08:15:11.444             2.364           944.250
       167   06 Jun 2027 08:15:18.000   06 Jun 2027 08:15:18.000             0.000             0.000
       168   06 Jun 2027 08:16:16.531   06 Jun 2027 08:16:23.896             7.365          2033.969
       169   06 Jun 2027 08:17:03.354   06 Jun 2027 08:17:03.354             0.000             0.000
       170   06 Jun 2027 09:49:31.398   06 Jun 2027 09:49:39.930             8.532          2930.500
       171   06 Jun 2027 09:50:45.404   06 Jun 2027 09:50:45.404             0.000             0.000
       172   06 Jun 2027 09:50:48.746   06 Jun 2027 09:50:54.055             5.309          1545.875
       173   06 Jun 2027 09:52:34.491   06 Jun 2027 09:52:41.946             7.455          1727.312
       174   06 Jun 2027 09:53:16.342   06 Jun 2027 09:53:17.636             1.294           387.781
       175   06 Jun 2027 09:54:44.685   06 Jun 2027 09:54:48.614             3.929           923.219
       176   06 Jun 2027 09:56:01.893   06 Jun 2027 09:56:05.609             3.716           846.406
       177   06 Jun 2027 11:25:52.640   06 Jun 2027 11:26:03.825            11.185          4994.188
       178   06 Jun 2027 11:27:46.249   06 Jun 2027 11:27:50.243             3.994          1111.000
       179   06 Jun 2027 11:28:34.061   06 Jun 2027 11:28:42.436             8.375          1369.312
       180   06 Jun 2027 11:29:53.446   06 Jun 2027 11:29:57.730             4.284          1493.500
       181   06 Jun 2027 11:30:12.591   06 Jun 2027 11:30:15.147             2.556           463.125
       182   06 Jun 2027 11:31:12.987   06 Jun 2027 11:31:21.718             8.731          1622.031
       183   06 Jun 2027 11:31:26.362   06 Jun 2027 11:31:28.082             1.720           144.219
       184   06 Jun 2027 11:31:45.880   06 Jun 2027 11:31:49.017             3.137           556.187
       185   07 Jun 2027 03:48:16.828   07 Jun 2027 03:48:58.053            41.225         20612.500
       186   07 Jun 2027 03:49:20.982   07 Jun 2027 03:51:13.297           112.315         56157.500
       187   07 Jun 2027 03:54:23.557   07 Jun 2027 03:54:24.790             1.233           616.500
       188   07 Jun 2027 05:26:29.486   07 Jun 2027 05:27:06.683            37.197         18598.500
       189   07 Jun 2027 05:27:24.498   07 Jun 2027 05:29:08.810           104.312         51989.125
       190   07 Jun 2027 06:49:56.996   07 Jun 2027 06:50:06.933             9.937          4854.031
       191   07 Jun 2027 06:50:41.048   07 Jun 2027 06:50:42.255             1.207           321.875
       192   07 Jun 2027 06:51:15.042   07 Jun 2027 06:51:16.417             1.375           687.500
       193   07 Jun 2027 06:52:31.215   07 Jun 2027 06:52:32.214             0.999           499.500
       194   07 Jun 2027 06:52:50.742   07 Jun 2027 06:52:56.075             5.333          2498.969
       195   07 Jun 2027 08:26:25.600   07 Jun 2027 08:26:34.338             8.738          2491.781
       196   07 Jun 2027 08:27:13.030   07 Jun 2027 08:27:15.927             2.897          1209.125
       197   07 Jun 2027 08:27:52.975   07 Jun 2027 08:27:53.643             0.668           249.750
       198   07 Jun 2027 08:28:31.222   07 Jun 2027 08:28:34.690             3.468          1120.312
       199   07 Jun 2027 10:01:37.989   07 Jun 2027 10:01:43.695             5.706          2764.250
       200   07 Jun 2027 10:02:50.133   07 Jun 2027 10:02:54.698             4.565          1967.375
       201   07 Jun 2027 10:03:26.698   07 Jun 2027 10:03:27.897             1.199           481.938
       202   07 Jun 2027 10:04:30.962   07 Jun 2027 10:04:33.982             3.020          1235.125
       203   07 Jun 2027 10:06:42.338   07 Jun 2027 10:06:50.726             8.388          3964.969
       204   07 Jun 2027 10:08:07.093   07 Jun 2027 10:08:11.537             4.444           415.906
       205   07 Jun 2027 11:37:32.809   07 Jun 2027 11:37:44.307            11.498          4718.094
       206   07 Jun 2027 11:39:22.367   07 Jun 2027 11:39:26.897             4.530          1043.500
       207   07 Jun 2027 11:40:10.271   07 Jun 2027 11:40:13.423             3.152          1004.406
       208   07 Jun 2027 11:40:38.907   07 Jun 2027 11:40:41.090             2.183            92.750
       209   07 Jun 2027 11:40:57.213   07 Jun 2027 11:40:59.771             2.558           503.844
       210   07 Jun 2027 11:41:52.088   07 Jun 2027 11:41:58.090             6.002          1186.188
       211   07 Jun 2027 11:43:08.536   07 Jun 2027 11:43:13.740             5.204          1320.063
       212   07 Jun 2027 11:43:36.062   07 Jun 2027 11:43:39.341             3.279           468.125
       213   08 Jun 2027 04:01:21.529   08 Jun 2027 04:03:42.491           140.962         70481.000
       214   08 Jun 2027 04:04:03.259   08 Jun 2027 04:05:36.533            93.274         46637.000
       215   08 Jun 2027 04:06:43.173   08 Jun 2027 04:06:43.545             0.372           186.000
       216   08 Jun 2027 04:07:36.195   08 Jun 2027 04:07:46.428            10.233          5116.500
       217   08 Jun 2027 04:08:05.528   08 Jun 2027 04:08:21.426            15.898          7949.000
       218   08 Jun 2027 05:27:33.488   08 Jun 2027 05:27:43.242             9.754          4877.000
       219   08 Jun 2027 05:38:26.015   08 Jun 2027 05:39:40.075            74.060         36874.313
       220   08 Jun 2027 05:40:49.350   08 Jun 2027 05:40:54.077             4.727           911.594
       221   08 Jun 2027 05:41:30.059   08 Jun 2027 05:41:43.346            13.287           522.750
       222   08 Jun 2027 07:02:23.868   08 Jun 2027 07:02:37.827            13.959          6261.937
       223   08 Jun 2027 07:02:48.734   08 Jun 2027 07:02:52.817             4.083           340.844
       224   08 Jun 2027 07:04:32.298   08 Jun 2027 07:04:44.457            12.159          3108.781
       225   08 Jun 2027 08:38:09.039   08 Jun 2027 08:38:16.406             7.367          2342.687
       226   08 Jun 2027 08:40:24.558   08 Jun 2027 08:40:32.722             8.164          3720.594
       227   08 Jun 2027 08:40:42.505   08 Jun 2027 08:40:46.028             3.523           150.125
       228   08 Jun 2027 08:40:59.986   08 Jun 2027 08:41:00.711             0.725           360.500
       229   08 Jun 2027 10:12:52.348   08 Jun 2027 10:13:00.033             7.685          3163.875
       230   08 Jun 2027 10:14:51.096   08 Jun 2027 10:14:57.013             5.917          2521.781
       231   08 Jun 2027 10:16:06.681   08 Jun 2027 10:16:11.646             4.965           790.969
       232   08 Jun 2027 10:16:26.014   08 Jun 2027 10:16:28.797             2.783            88.000
       233   08 Jun 2027 10:17:47.239   08 Jun 2027 10:17:47.891             0.652           233.062
       234   08 Jun 2027 10:18:20.530   08 Jun 2027 10:18:24.970             4.440           936.437
       235   08 Jun 2027 10:18:50.577   08 Jun 2027 10:18:52.858             2.281           757.844
       236   08 Jun 2027 10:20:19.904   08 Jun 2027 10:20:24.426             4.522           972.625
       237   08 Jun 2027 11:49:39.742   08 Jun 2027 11:49:51.364            11.622          5134.563
       238   08 Jun 2027 11:51:04.502   08 Jun 2027 11:51:05.291             0.789           125.812
       239   08 Jun 2027 11:51:30.111   08 Jun 2027 11:51:32.096             1.985           497.906
       240   08 Jun 2027 11:52:04.377   08 Jun 2027 11:52:08.225             3.848          1008.781
       241   08 Jun 2027 11:53:36.945   08 Jun 2027 11:53:42.472             5.527          2043.125
       242   08 Jun 2027 11:53:46.619   08 Jun 2027 11:53:47.388             0.769           129.594
       243   08 Jun 2027 11:54:30.710   08 Jun 2027 11:54:34.570             3.860          1353.813
       244   08 Jun 2027 11:55:08.368   08 Jun 2027 11:55:13.776             5.408           634.344
       245   08 Jun 2027 11:55:32.442   08 Jun 2027 11:55:33.626             1.184           374.438
       246   08 Jun 2027 11:55:45.114   08 Jun 2027 11:55:46.556             1.442           359.000
       247   09 Jun 2027 04:13:43.010   09 Jun 2027 04:16:58.834           195.824         97912.000
       248   09 Jun 2027 04:18:27.277   09 Jun 2027 04:18:34.797             7.520          3760.000
       249   09 Jun 2027 04:19:04.510   09 Jun 2027 04:19:14.875            10.365          5182.500
       250   09 Jun 2027 05:38:48.135   09 Jun 2027 05:39:17.928            29.793         14896.500
       251   09 Jun 2027 05:39:30.312   09 Jun 2027 05:39:38.654             8.342          4171.000
       252   09 Jun 2027 05:50:26.938   09 Jun 2027 05:51:51.953            85.015         41529.782
       253   09 Jun 2027 07:13:00.085   09 Jun 2027 07:13:20.220            20.135          8213.938
       254   09 Jun 2027 07:13:46.520   09 Jun 2027 07:13:53.675             7.155           798.250
       255   09 Jun 2027 07:14:40.121   09 Jun 2027 07:14:41.455             1.334           238.156
       256   09 Jun 2027 07:14:54.993   09 Jun 2027 07:15:01.186             6.193           236.781
       257   09 Jun 2027 07:16:18.662   09 Jun 2027 07:16:24.942             6.280          2179.344
       258   09 Jun 2027 07:16:56.816   09 Jun 2027 07:16:59.785             2.969           781.469
       259   09 Jun 2027 08:48:03.753   09 Jun 2027 08:48:12.690             8.937          2692.531
       260   09 Jun 2027 08:48:27.490   09 Jun 2027 08:48:27.490             0.000             0.000
       261   09 Jun 2027 08:49:08.894   09 Jun 2027 08:49:15.908             7.014          1756.375
       262   09 Jun 2027 08:49:53.360   09 Jun 2027 08:49:55.733             2.373           761.125
       263   09 Jun 2027 08:51:53.739   09 Jun 2027 08:52:02.936             9.197          3150.250
       264   09 Jun 2027 08:53:04.460   09 Jun 2027 08:53:05.040             0.580           270.906
       265   09 Jun 2027 08:53:54.366   09 Jun 2027 08:53:56.340             1.974           701.250
       266   09 Jun 2027 08:54:15.051   09 Jun 2027 08:54:15.556             0.505           225.750
       267   09 Jun 2027 10:25:00.548   09 Jun 2027 10:25:05.723             5.175          2278.750
       268   09 Jun 2027 10:26:51.556   09 Jun 2027 10:26:58.825             7.269          3303.031
       269   09 Jun 2027 10:29:36.313   09 Jun 2027 10:29:41.719             5.406          2407.813
       270   09 Jun 2027 10:30:16.750   09 Jun 2027 10:30:22.012             5.262           544.188
       271   09 Jun 2027 10:31:41.890   09 Jun 2027 10:31:50.570             8.680          2496.187
       272   09 Jun 2027 10:32:24.541   09 Jun 2027 10:32:25.110             0.569           284.500
       273   10 Jun 2027 04:25:59.807   10 Jun 2027 04:28:32.942           153.135         76567.500
       274   10 Jun 2027 04:31:03.179   10 Jun 2027 04:31:53.544            50.365         25182.500
       275   10 Jun 2027 04:32:47.139   10 Jun 2027 04:33:00.183            13.044          6522.000
       276   10 Jun 2027 05:50:09.213   10 Jun 2027 05:50:16.427             7.214          3607.000
       277   10 Jun 2027 05:51:59.593   10 Jun 2027 05:52:23.236            23.643         11821.500
       278   10 Jun 2027 06:02:24.272   10 Jun 2027 06:03:19.441            55.169         27584.500
       279   10 Jun 2027 07:24:30.013   10 Jun 2027 07:25:08.581            38.568         18766.501
       280   10 Jun 2027 07:27:08.267   10 Jun 2027 07:27:19.412            11.145          2497.844
       281   10 Jun 2027 07:27:58.962   10 Jun 2027 07:28:02.600             3.638          1152.062
       282   10 Jun 2027 08:59:28.516   10 Jun 2027 08:59:36.752             8.236          4060.281
       283   10 Jun 2027 09:01:10.448   10 Jun 2027 09:01:14.934             4.486           662.531
       284   10 Jun 2027 09:01:54.193   10 Jun 2027 09:01:54.193             0.000             0.000
       285   10 Jun 2027 09:03:16.343   10 Jun 2027 09:03:32.737            16.394          3723.375
       286   10 Jun 2027 09:04:56.261   10 Jun 2027 09:05:03.172             6.911          2523.250
       287   10 Jun 2027 09:07:35.511   10 Jun 2027 09:07:44.253             8.742          2895.438
       288   10 Jun 2027 10:37:04.916   10 Jun 2027 10:37:21.625            16.709          4724.094
       289   10 Jun 2027 10:38:55.316   10 Jun 2027 10:38:57.411             2.095           504.562
       290   10 Jun 2027 10:40:04.717   10 Jun 2027 10:40:10.122             5.405           243.281
       291   10 Jun 2027 10:40:47.054   10 Jun 2027 10:40:52.031             4.977          1154.125
       292   10 Jun 2027 10:42:38.265   10 Jun 2027 10:42:48.488            10.223          3165.875
       293   10 Jun 2027 10:43:14.990   10 Jun 2027 10:43:19.363             4.373           828.187
       294   10 Jun 2027 10:44:17.897   10 Jun 2027 10:44:22.904             5.007          1414.625
       295   11 Jun 2027 03:00:00.000   11 Jun 2027 03:00:04.236             4.236          2118.000
       296   11 Jun 2027 03:00:05.516   11 Jun 2027 03:00:14.282             8.766          4383.000
       297   11 Jun 2027 03:00:44.759   11 Jun 2027 03:01:02.637            17.878          8939.000
       298   11 Jun 2027 03:01:12.642   11 Jun 2027 03:01:29.810            17.168          8584.000
       299   11 Jun 2027 03:04:44.627   11 Jun 2027 03:05:03.255            18.628          9314.000
       300   11 Jun 2027 04:38:07.039   11 Jun 2027 04:40:24.899           137.860         68930.000
       301   11 Jun 2027 04:41:01.303   11 Jun 2027 04:42:29.033            87.730         43865.000
       302   11 Jun 2027 04:42:59.114   11 Jun 2027 04:43:09.313            10.199          5099.500
       303   11 Jun 2027 06:02:16.220   11 Jun 2027 06:02:47.830            31.610         15805.000
       304   11 Jun 2027 07:36:05.967   11 Jun 2027 07:36:25.727            19.760          8280.969
       305   11 Jun 2027 07:37:34.572   11 Jun 2027 07:37:39.405             4.833          1753.312
       306   11 Jun 2027 07:37:58.043   11 Jun 2027 07:37:58.958             0.915           457.500
       307   11 Jun 2027 07:38:47.708   11 Jun 2027 07:38:52.303             4.595          1629.875
       308   11 Jun 2027 07:38:58.525   11 Jun 2027 07:38:58.840             0.315           134.406
       309   11 Jun 2027 07:39:54.030   11 Jun 2027 07:39:58.374             4.344          1471.813
       310   11 Jun 2027 07:41:20.715   11 Jun 2027 07:41:25.773             5.058          2372.969
       311   11 Jun 2027 09:10:58.844   11 Jun 2027 09:11:04.749             5.905          2648.687
       312   11 Jun 2027 09:11:51.840   11 Jun 2027 09:11:54.459             2.619           151.250
       313   11 Jun 2027 09:13:27.446   11 Jun 2027 09:13:29.958             2.512           494.844
       314   11 Jun 2027 09:14:36.004   11 Jun 2027 09:14:37.929             1.925           888.937
       315   11 Jun 2027 09:15:00.686   11 Jun 2027 09:15:03.089             2.403           598.219
       316   11 Jun 2027 09:15:16.760   11 Jun 2027 09:15:16.760             0.000             0.000
       317   11 Jun 2027 09:16:45.750   11 Jun 2027 09:16:53.325             7.575          2975.063
       318   11 Jun 2027 09:18:02.009   11 Jun 2027 09:18:06.778             4.769          2057.437
       319   11 Jun 2027 09:18:30.987   11 Jun 2027 09:18:32.585             1.598           603.437
       320   11 Jun 2027 09:19:39.210   11 Jun 2027 09:19:42.671             3.461          1325.688
       321   11 Jun 2027 10:49:03.484   11 Jun 2027 10:49:23.241            19.757          5065.656
       322   11 Jun 2027 10:51:57.669   11 Jun 2027 10:52:16.323            18.654          4635.438
       323   11 Jun 2027 10:53:01.239   11 Jun 2027 10:53:04.362             3.123           627.531
       324   11 Jun 2027 10:54:43.673   11 Jun 2027 10:54:51.658             7.985          2841.344
       325   11 Jun 2027 10:55:31.991   11 Jun 2027 10:55:37.785             5.794           929.500
       326   11 Jun 2027 10:55:53.675   11 Jun 2027 10:55:54.583             0.908           349.531
       327   11 Jun 2027 10:56:11.358   11 Jun 2027 10:56:20.124             8.766           431.937
       328   12 Jun 2027 03:11:57.011   12 Jun 2027 03:12:04.182             7.171          3585.500
       329   12 Jun 2027 03:12:28.544   12 Jun 2027 03:13:19.601            51.057         25528.500
       330   12 Jun 2027 03:13:24.457   12 Jun 2027 03:13:57.314            32.857         16428.500
       331   12 Jun 2027 03:14:07.523   12 Jun 2027 03:14:08.786             1.263           631.500
       332   12 Jun 2027 03:15:25.989   12 Jun 2027 03:15:46.966            20.977         10488.500
       333   12 Jun 2027 03:17:09.885   12 Jun 2027 03:17:25.972            16.087          8043.500
       334   12 Jun 2027 04:50:43.506   12 Jun 2027 04:53:24.573           161.067         80515.312
       335   12 Jun 2027 04:53:46.393   12 Jun 2027 04:53:47.948             1.555           429.219
       336   12 Jun 2027 04:54:41.353   12 Jun 2027 04:54:43.084             1.731           154.625
       337   12 Jun 2027 04:55:12.492   12 Jun 2027 04:55:15.234             2.742           205.812
       338   12 Jun 2027 06:14:14.046   12 Jun 2027 06:14:32.027            17.981          6919.125
       339   12 Jun 2027 06:14:50.414   12 Jun 2027 06:14:50.671             0.257           128.500
       340   12 Jun 2027 06:14:58.966   12 Jun 2027 06:15:05.305             6.339           660.313
       341   12 Jun 2027 06:16:21.733   12 Jun 2027 06:16:26.659             4.926          1852.250
       342   12 Jun 2027 07:50:14.611   12 Jun 2027 07:50:27.837            13.226          6417.313
       343   12 Jun 2027 07:50:57.627   12 Jun 2027 07:50:59.787             2.160           411.344
       344   12 Jun 2027 07:51:13.709   12 Jun 2027 07:51:18.118             4.409           435.063
       345   12 Jun 2027 07:52:12.737   12 Jun 2027 07:52:21.818             9.081          1462.219
       346   12 Jun 2027 07:52:31.417   12 Jun 2027 07:52:32.150             0.733           178.562
       347   12 Jun 2027 07:53:04.832   12 Jun 2027 07:53:12.296             7.464           291.250
       348   12 Jun 2027 09:23:58.380   12 Jun 2027 09:24:06.899             8.519          3605.375
       349   12 Jun 2027 09:25:48.213   12 Jun 2027 09:25:49.229             1.016           116.656
       350   12 Jun 2027 09:26:31.030   12 Jun 2027 09:26:34.836             3.806           250.156
       351   12 Jun 2027 09:28:32.231   12 Jun 2027 09:28:39.863             7.632          3372.250
       352   12 Jun 2027 09:29:51.935   12 Jun 2027 09:29:56.831             4.896          1765.937
       353   12 Jun 2027 09:31:05.157   12 Jun 2027 09:31:07.419             2.262           586.406
       354   12 Jun 2027 09:32:10.203   12 Jun 2027 09:32:15.734             5.531          1912.156
       355   12 Jun 2027 11:01:25.999   12 Jun 2027 11:01:42.030            16.031          6864.281
       356   12 Jun 2027 11:03:50.792   12 Jun 2027 11:03:55.269             4.477          2020.562
       357   12 Jun 2027 11:04:17.707   12 Jun 2027 11:04:19.196             1.489           701.188
       358   12 Jun 2027 11:04:39.848   12 Jun 2027 11:04:41.821             1.973           321.500
       359   12 Jun 2027 11:05:15.818   12 Jun 2027 11:05:18.340             2.522           952.031
       360   12 Jun 2027 11:05:33.044   12 Jun 2027 11:05:34.418             1.374            36.688
       361   12 Jun 2027 11:05:45.575   12 Jun 2027 11:05:47.788             2.213           348.656
       362   12 Jun 2027 11:05:58.563   12 Jun 2027 11:05:58.860             0.297            88.094
       363   12 Jun 2027 11:06:34.484   12 Jun 2027 11:06:35.131             0.647           254.188
       364   12 Jun 2027 11:07:27.527   12 Jun 2027 11:07:30.211             2.684          1332.187
       365   12 Jun 2027 11:07:39.382   12 Jun 2027 11:07:40.450             1.068           174.469
       366   12 Jun 2027 11:07:59.507   12 Jun 2027 11:08:02.942             3.435           403.344
       367   13 Jun 2027 03:24:23.590   13 Jun 2027 03:24:51.043            27.453         13726.500
       368   13 Jun 2027 03:24:54.836   13 Jun 2027 03:27:22.532           147.696         73848.000
       369   13 Jun 2027 03:28:07.023   13 Jun 2027 03:28:11.331             4.308          2154.000
       370   13 Jun 2027 03:29:28.812   13 Jun 2027 03:29:29.136             0.324           162.000
       371   13 Jun 2027 03:29:49.810   13 Jun 2027 03:29:58.121             8.311          4155.500
       372   13 Jun 2027 05:02:24.433   13 Jun 2027 05:04:05.931           101.498         50749.000
       373   13 Jun 2027 05:04:44.291   13 Jun 2027 05:04:47.265             2.974          1428.875
       374   13 Jun 2027 05:05:04.371   13 Jun 2027 05:05:05.342             0.971           478.969
       375   13 Jun 2027 05:05:32.921   13 Jun 2027 05:05:34.684             1.763           229.031
       376   13 Jun 2027 05:06:37.787   13 Jun 2027 05:06:41.987             4.200          1239.469
       377   13 Jun 2027 05:07:16.157   13 Jun 2027 05:07:17.268             1.111           555.500
       378   13 Jun 2027 06:26:03.949   13 Jun 2027 06:26:15.922            11.973          5667.375
       379   13 Jun 2027 06:27:55.218   13 Jun 2027 06:28:01.729             6.511          2542.906
       380   13 Jun 2027 06:28:27.155   13 Jun 2027 06:28:28.688             1.533           556.094
       381   13 Jun 2027 08:02:30.854   13 Jun 2027 08:02:37.973             7.119          3282.156
       382   13 Jun 2027 08:03:00.336   13 Jun 2027 08:03:00.996             0.660           294.438
       383   13 Jun 2027 08:03:11.087   13 Jun 2027 08:03:14.923             3.836           315.344
       384   13 Jun 2027 08:03:27.784   13 Jun 2027 08:03:27.784             0.000             0.000
       385   13 Jun 2027 08:03:41.071   13 Jun 2027 08:03:44.099             3.028           488.687
       386   13 Jun 2027 08:04:03.586   13 Jun 2027 08:04:05.680             2.094           222.625
       387   13 Jun 2027 08:04:19.457   13 Jun 2027 08:04:21.218             1.761           430.531
       388   13 Jun 2027 08:05:07.086   13 Jun 2027 08:05:10.662             3.576          1423.062
       389   13 Jun 2027 09:34:40.315   13 Jun 2027 09:34:49.916             9.601          3551.500
       390   13 Jun 2027 09:37:12.521   13 Jun 2027 09:37:28.702            16.181          2728.406
       391   13 Jun 2027 09:38:42.032   13 Jun 2027 09:38:43.627             1.595           720.781
       392   13 Jun 2027 09:39:34.464   13 Jun 2027 09:39:37.419             2.955           918.594
       393   13 Jun 2027 09:41:38.219   13 Jun 2027 09:41:48.084             9.865          3435.969
       394   13 Jun 2027 09:42:45.890   13 Jun 2027 09:42:47.067             1.177           565.625
       395   13 Jun 2027 09:43:22.061   13 Jun 2027 09:43:26.026             3.965           710.031
       396   13 Jun 2027 09:44:03.899   13 Jun 2027 09:44:06.138             2.239           627.375
       397   13 Jun 2027 09:44:18.387   13 Jun 2027 09:44:22.801             4.414           114.656
       398   13 Jun 2027 11:13:35.766   13 Jun 2027 11:13:48.021            12.255          5295.312
       399   13 Jun 2027 11:15:56.662   13 Jun 2027 11:16:07.645            10.983           507.375
       400   13 Jun 2027 11:16:31.410   13 Jun 2027 11:16:36.608             5.198           366.125
       401   13 Jun 2027 11:17:17.741   13 Jun 2027 11:17:23.795             6.054           905.469
       402   13 Jun 2027 11:17:51.689   13 Jun 2027 11:17:53.355             1.666           475.062
       403   13 Jun 2027 11:18:16.021   13 Jun 2027 11:18:17.325             1.304           464.844
       404   13 Jun 2027 11:18:33.318   13 Jun 2027 11:18:34.710             1.392           477.000
       405   13 Jun 2027 11:19:17.803   13 Jun 2027 11:19:21.147             3.344          1237.406
       406   13 Jun 2027 11:19:36.938   13 Jun 2027 11:19:37.670             0.732           294.094
       407   13 Jun 2027 11:19:59.918   13 Jun 2027 11:20:03.507             3.589           695.250
