uniorb/output/strategy_4/Camera/Camera_KinoSat_110405.txt

KinoSat_110405
-------------------------
    Access    *     Start Time (UTCG)     *     Stop Time (UTCG)  *   Duration (s) *   Data (Mbytes)
         1   01 Jun 2027 03:49:11.773   01 Jun 2027 03:49:22.107            10.334          5167.000
         2   01 Jun 2027 03:51:09.795   01 Jun 2027 03:52:50.263           100.468         50234.000
         3   01 Jun 2027 03:53:35.042   01 Jun 2027 03:53:35.042             0.000             0.000
         4   01 Jun 2027 03:54:12.440   01 Jun 2027 03:54:36.146            23.706         11853.000
         5   01 Jun 2027 03:55:05.690   01 Jun 2027 03:55:11.665             5.975          2987.500
         6   01 Jun 2027 03:55:41.456   01 Jun 2027 03:55:41.780             0.324           162.000
         7   01 Jun 2027 03:57:17.941   01 Jun 2027 03:57:52.722            34.781         17390.500
         8   01 Jun 2027 03:58:07.571   01 Jun 2027 03:58:34.989            27.418         13709.000
         9   01 Jun 2027 03:58:58.603   01 Jun 2027 03:58:58.834             0.231           115.500
        10   01 Jun 2027 05:28:08.679   01 Jun 2027 05:31:02.602           173.923         86961.500
        11   01 Jun 2027 05:33:12.766   01 Jun 2027 05:33:52.519            39.753         19876.500
        12   01 Jun 2027 05:34:27.300   01 Jun 2027 05:34:46.938            19.638          9819.000
        13   01 Jun 2027 07:05:30.582   01 Jun 2027 07:07:59.987           149.405         74702.500
        14   01 Jun 2027 07:08:27.017   01 Jun 2027 07:08:33.550             6.533          3266.500
        15   01 Jun 2027 07:09:29.268   01 Jun 2027 07:09:33.872             4.604          2302.000
        16   01 Jun 2027 07:09:36.317   01 Jun 2027 07:09:41.309             4.992          2496.000
        17   01 Jun 2027 07:09:47.460   01 Jun 2027 07:10:06.574            19.114          9557.000
        18   01 Jun 2027 08:41:54.046   01 Jun 2027 08:44:22.662           148.616         74308.000
        19   01 Jun 2027 08:44:35.548   01 Jun 2027 08:44:35.548             0.000             0.000
        20   01 Jun 2027 08:44:55.553   01 Jun 2027 08:45:01.191             5.638          2819.000
        21   01 Jun 2027 08:45:22.554   01 Jun 2027 08:45:56.269            33.715         16857.500
        22   01 Jun 2027 10:20:10.510   01 Jun 2027 10:20:51.048            40.538         20269.000
        23   02 Jun 2027 04:04:23.657   02 Jun 2027 04:10:46.777           383.120        191560.000
        24   02 Jun 2027 04:10:58.216   02 Jun 2027 04:11:00.991             2.775          1387.500
        25   02 Jun 2027 05:40:42.204   02 Jun 2027 05:44:59.216           257.012        128506.000
        26   02 Jun 2027 07:18:05.118   02 Jun 2027 07:22:37.860           272.742        136371.000
        27   02 Jun 2027 08:54:19.172   02 Jun 2027 08:58:51.514           272.342        136171.000
        28   03 Jun 2027 04:16:25.023   03 Jun 2027 04:23:07.000           401.977        200988.500
        29   03 Jun 2027 05:52:20.705   03 Jun 2027 05:58:40.630           379.925        189962.500
        30   03 Jun 2027 07:30:19.220   03 Jun 2027 07:34:43.960           264.740        132370.000
        31   03 Jun 2027 09:06:11.488   03 Jun 2027 09:10:24.403           252.915        126457.500
        32   03 Jun 2027 09:10:47.946   03 Jun 2027 09:11:22.394            34.448         17224.000
        33   04 Jun 2027 04:27:40.512   04 Jun 2027 04:35:13.565           453.053        226526.500
        34   04 Jun 2027 06:04:30.329   04 Jun 2027 06:10:43.269           372.940        186470.000
        35   04 Jun 2027 07:43:16.613   04 Jun 2027 07:46:38.475           201.862        100931.000
        36   04 Jun 2027 09:15:59.654   04 Jun 2027 09:22:22.560           382.906        191453.000
        37   04 Jun 2027 09:22:42.396   04 Jun 2027 09:23:45.052            62.656         31328.000
        38   05 Jun 2027 03:02:49.277   05 Jun 2027 03:04:08.625            79.348         39674.000
        39   05 Jun 2027 03:04:40.097   05 Jun 2027 03:09:34.261           294.164        147082.000
        40   05 Jun 2027 04:39:48.327   05 Jun 2027 04:47:13.147           444.820        222410.000
        41   05 Jun 2027 06:16:46.334   05 Jun 2027 06:22:40.469           354.135        177067.500
        42   05 Jun 2027 07:54:42.492   05 Jun 2027 07:58:41.088           238.596        119298.000
        43   05 Jun 2027 09:28:21.516   05 Jun 2027 09:35:32.719           431.203        215601.500
        44   06 Jun 2027 03:14:12.507   06 Jun 2027 03:21:54.191           461.684        230842.000
        45   06 Jun 2027 03:22:26.472   06 Jun 2027 03:22:53.769            27.297         13648.500
        46   06 Jun 2027 04:51:50.186   06 Jun 2027 04:59:16.389           446.203        223101.500
        47   06 Jun 2027 06:28:36.533   06 Jun 2027 06:34:33.499           356.966        178483.000
        48   06 Jun 2027 06:35:12.487   06 Jun 2027 06:35:18.949             6.462          3231.000
        49   06 Jun 2027 08:06:54.602   06 Jun 2027 08:10:49.954           235.352        117676.000
        50   06 Jun 2027 09:40:29.550   06 Jun 2027 09:46:22.445           352.895        176447.500
        51   07 Jun 2027 03:25:45.203   07 Jun 2027 03:34:01.506           496.303        248151.500
        52   07 Jun 2027 03:34:20.594   07 Jun 2027 03:35:19.844            59.250         29625.000
        53   07 Jun 2027 05:03:50.920   07 Jun 2027 05:11:17.599           446.679        223339.500
        54   07 Jun 2027 06:40:45.407   07 Jun 2027 06:45:51.985           306.578        153289.000
        55   07 Jun 2027 06:46:03.422   07 Jun 2027 06:47:11.433            68.011         34005.500
        56   07 Jun 2027 08:17:54.157   07 Jun 2027 08:22:48.224           294.067        147033.500
        57   07 Jun 2027 09:52:44.522   07 Jun 2027 09:53:41.227            56.705         28352.500
        58   07 Jun 2027 09:54:41.575   07 Jun 2027 09:57:57.689           196.114         98057.000
        59   08 Jun 2027 03:38:45.667   08 Jun 2027 03:47:19.181           513.514        256757.000
        60   08 Jun 2027 05:16:16.955   08 Jun 2027 05:23:03.084           406.129        203064.500
        61   08 Jun 2027 06:53:13.100   08 Jun 2027 06:57:42.713           269.613        134806.500
        62   08 Jun 2027 06:58:00.763   08 Jun 2027 06:59:04.322            63.559         31779.500
        63   08 Jun 2027 08:30:07.042   08 Jun 2027 08:34:42.422           275.380        137690.000
        64   08 Jun 2027 10:07:17.213   08 Jun 2027 10:09:44.460           147.247         73623.500
        65   09 Jun 2027 03:49:25.966   09 Jun 2027 03:49:36.698            10.732          5366.000
        66   09 Jun 2027 03:51:24.373   09 Jun 2027 03:58:12.448           408.075        204037.500
        67   09 Jun 2027 03:58:15.441   09 Jun 2027 03:59:13.476            58.035         29017.500
        68   09 Jun 2027 05:28:23.196   09 Jun 2027 05:35:07.646           404.450        202225.000
        69   09 Jun 2027 07:05:47.400   09 Jun 2027 07:09:48.658           241.258        120629.000
        70   09 Jun 2027 07:09:51.228   09 Jun 2027 07:10:30.049            38.821         19410.500
        71   09 Jun 2027 08:42:33.057   09 Jun 2027 08:47:13.925           280.868        140434.000
        72   09 Jun 2027 10:20:55.503   09 Jun 2027 10:21:04.908             9.405          4702.500
        73   10 Jun 2027 04:04:38.393   10 Jun 2027 04:11:15.635           397.242        198621.000
        74   10 Jun 2027 05:40:56.965   10 Jun 2027 05:47:13.570           376.605        188302.500
        75   10 Jun 2027 07:18:33.649   10 Jun 2027 07:22:52.640           258.991        129495.500
        76   10 Jun 2027 08:55:14.983   10 Jun 2027 08:59:06.402           231.419        115709.500
        77   11 Jun 2027 04:16:39.455   11 Jun 2027 04:23:21.749           402.294        201147.000
        78   11 Jun 2027 05:52:35.471   11 Jun 2027 05:58:55.446           379.975        189987.500
        79   11 Jun 2027 07:30:33.627   11 Jun 2027 07:34:58.542           264.915        132457.500
        80   11 Jun 2027 09:06:26.794   11 Jun 2027 09:10:38.991           252.197        126098.500
        81   11 Jun 2027 09:11:04.749   11 Jun 2027 09:11:37.304            32.555         16277.500
        82   12 Jun 2027 04:27:55.194   12 Jun 2027 04:35:28.197           453.003        226501.500
        83   12 Jun 2027 06:04:44.889   12 Jun 2027 06:11:04.221           379.332        189666.000
        84   12 Jun 2027 07:42:56.169   12 Jun 2027 07:46:53.117           236.948        118474.000
        85   12 Jun 2027 09:16:14.156   12 Jun 2027 09:22:37.487           383.331        191665.500
        86   12 Jun 2027 09:22:58.324   12 Jun 2027 09:23:59.902            61.578         30789.000
        87   13 Jun 2027 03:03:02.249   13 Jun 2027 03:04:23.137            80.888         40444.000
        88   13 Jun 2027 03:04:54.527   13 Jun 2027 03:09:48.967           294.440        147220.000
        89   13 Jun 2027 04:40:02.864   13 Jun 2027 04:47:28.039           445.175        222587.500
        90   13 Jun 2027 06:17:00.835   13 Jun 2027 06:22:55.341           354.506        177253.000
        91   13 Jun 2027 07:54:57.338   13 Jun 2027 07:59:03.504           246.166        123083.000
        92   13 Jun 2027 09:28:17.431   13 Jun 2027 09:35:47.328           449.897        224948.500
