uniorb/output/strategy_4/Camera/Camera_KinoSat_111004.txt

KinoSat_111004
-------------------------
    Access    *     Start Time (UTCG)     *     Stop Time (UTCG)  *   Duration (s) *   Data (Mbytes)
         1   01 Jun 2027 03:36:47.365   01 Jun 2027 03:38:03.974            76.609         38304.500
         2   01 Jun 2027 05:12:44.500   01 Jun 2027 05:14:31.492           106.992         53496.000
         3   01 Jun 2027 05:15:34.321   01 Jun 2027 05:16:19.398            45.077         22538.500
         4   01 Jun 2027 06:46:33.434   01 Jun 2027 06:48:12.711            99.277         49638.500
         5   01 Jun 2027 06:50:02.873   01 Jun 2027 06:50:10.825             7.952          3976.000
         6   01 Jun 2027 06:50:42.000   01 Jun 2027 06:50:42.000             0.000             0.000
         7   01 Jun 2027 06:52:43.292   01 Jun 2027 06:52:53.941            10.649          5324.500
         8   01 Jun 2027 06:53:14.196   01 Jun 2027 06:53:14.406             0.210           105.000
         9   01 Jun 2027 06:53:29.310   01 Jun 2027 06:53:29.310             0.000             0.000
        10   01 Jun 2027 06:54:05.018   01 Jun 2027 06:54:10.347             5.329          2664.500
        11   01 Jun 2027 06:54:33.853   01 Jun 2027 06:54:41.199             7.346          3673.000
        12   01 Jun 2027 08:23:42.628   01 Jun 2027 08:25:28.873           106.245         53122.500
        13   01 Jun 2027 08:25:50.364   01 Jun 2027 08:26:16.189            25.825         12912.500
        14   01 Jun 2027 08:28:48.221   01 Jun 2027 08:28:59.366            11.145          5572.500
        15   01 Jun 2027 08:29:23.942   01 Jun 2027 08:29:26.889             2.947          1473.500
        16   01 Jun 2027 08:30:16.670   01 Jun 2027 08:30:23.261             6.591          3295.500
        17   01 Jun 2027 10:00:45.341   01 Jun 2027 10:02:56.612           131.271         65635.500
        18   01 Jun 2027 10:04:11.452   01 Jun 2027 10:04:35.979            24.527         12263.500
        19   01 Jun 2027 10:04:46.920   01 Jun 2027 10:04:58.974            12.054          6027.000
        20   01 Jun 2027 11:37:41.359   01 Jun 2027 11:40:21.329           159.970         79985.000
        21   02 Jun 2027 03:48:40.149   02 Jun 2027 03:49:12.120            31.971         15985.500
        22   02 Jun 2027 05:25:02.729   02 Jun 2027 05:28:05.021           182.292         91146.000
        23   02 Jun 2027 06:58:53.956   02 Jun 2027 07:02:45.751           231.795        115897.500
        24   02 Jun 2027 07:05:47.838   02 Jun 2027 07:06:02.246            14.408          7204.000
        25   02 Jun 2027 07:06:03.334   02 Jun 2027 07:06:13.464            10.130          5065.000
        26   02 Jun 2027 07:07:01.710   02 Jun 2027 07:07:04.202             2.492          1246.000
        27   02 Jun 2027 08:36:08.966   02 Jun 2027 08:39:34.544           205.578        102506.749
        28   02 Jun 2027 08:40:52.673   02 Jun 2027 08:40:53.653             0.980           490.000
        29   02 Jun 2027 10:13:09.745   02 Jun 2027 10:13:31.176            21.431          9930.406
        30   02 Jun 2027 10:13:50.769   02 Jun 2027 10:14:00.830            10.061           269.750
        31   02 Jun 2027 10:16:35.702   02 Jun 2027 10:16:36.438             0.736           323.000
        32   02 Jun 2027 10:16:40.964   02 Jun 2027 10:16:42.658             1.694           141.438
        33   02 Jun 2027 10:17:20.298   02 Jun 2027 10:17:22.487             2.189          1011.188
        34   02 Jun 2027 10:17:52.402   02 Jun 2027 10:17:52.890             0.488           205.688
        35   02 Jun 2027 10:18:22.909   02 Jun 2027 10:18:24.558             1.649           738.781
        36   02 Jun 2027 11:49:54.978   02 Jun 2027 11:50:17.791            22.813          8034.000
        37   02 Jun 2027 11:50:38.769   02 Jun 2027 11:50:39.413             0.644           151.281
        38   02 Jun 2027 11:50:49.063   02 Jun 2027 11:50:50.259             1.196           295.281
        39   02 Jun 2027 11:51:28.018   02 Jun 2027 11:51:28.809             0.791           190.594
        40   02 Jun 2027 11:51:32.119   02 Jun 2027 11:51:44.201            12.082            58.719
        41   02 Jun 2027 11:52:16.545   02 Jun 2027 11:52:20.474             3.929           998.375
        42   02 Jun 2027 11:53:00.087   02 Jun 2027 11:53:04.231             4.144           707.156
        43   03 Jun 2027 04:00:28.652   03 Jun 2027 04:00:54.146            25.494         12747.000
        44   03 Jun 2027 05:37:06.161   03 Jun 2027 05:39:58.502           172.341         86170.500
        45   03 Jun 2027 05:40:30.002   03 Jun 2027 05:40:39.274             9.272          4636.000
        46   03 Jun 2027 07:12:08.531   03 Jun 2027 07:14:08.739           120.208         56385.469
        47   03 Jun 2027 07:15:16.332   03 Jun 2027 07:15:22.809             6.477          1924.406
        48   03 Jun 2027 07:15:44.129   03 Jun 2027 07:15:46.969             2.840           376.906
        49   03 Jun 2027 07:16:16.291   03 Jun 2027 07:16:17.507             1.216           119.125
        50   03 Jun 2027 07:17:39.591   03 Jun 2027 07:17:40.506             0.915           457.500
        51   03 Jun 2027 07:18:08.363   03 Jun 2027 07:18:11.694             3.331          1375.156
        52   03 Jun 2027 07:18:45.954   03 Jun 2027 07:18:50.087             4.133           577.063
        53   03 Jun 2027 07:18:56.571   03 Jun 2027 07:18:58.427             1.856           202.625
        54   03 Jun 2027 08:48:18.250   03 Jun 2027 08:48:28.347            10.097          4817.969
        55   03 Jun 2027 08:50:30.476   03 Jun 2027 08:50:35.444             4.968           949.094
        56   03 Jun 2027 08:52:25.563   03 Jun 2027 08:52:29.452             3.889            77.094
        57   03 Jun 2027 08:53:54.771   03 Jun 2027 08:54:02.925             8.154          2623.906
        58   03 Jun 2027 08:54:06.041   03 Jun 2027 08:54:07.215             1.174            97.375
        59   03 Jun 2027 08:54:40.844   03 Jun 2027 08:54:43.953             3.109           646.656
        60   03 Jun 2027 10:26:01.569   03 Jun 2027 10:26:16.617            15.048          6495.312
        61   03 Jun 2027 10:28:33.079   03 Jun 2027 10:28:36.218             3.139           762.125
        62   03 Jun 2027 10:29:12.786   03 Jun 2027 10:29:15.794             3.008           943.375
        63   03 Jun 2027 10:30:18.896   03 Jun 2027 10:30:25.314             6.418          1804.250
        64   04 Jun 2027 04:12:42.707   04 Jun 2027 04:13:32.484            49.777         24888.500
        65   04 Jun 2027 05:49:15.489   04 Jun 2027 05:51:50.491           155.002         77501.000
        66   04 Jun 2027 07:24:25.936   04 Jun 2027 07:26:08.721           102.785         49872.500
        67   04 Jun 2027 07:27:13.275   04 Jun 2027 07:27:17.995             4.720          1550.312
        68   04 Jun 2027 07:27:41.450   04 Jun 2027 07:27:41.450             0.000             0.000
        69   04 Jun 2027 07:27:46.585   04 Jun 2027 07:27:53.739             7.154           893.437
        70   04 Jun 2027 07:29:23.890   04 Jun 2027 07:29:31.616             7.726          2232.937
        71   04 Jun 2027 07:30:11.368   04 Jun 2027 07:30:14.759             3.391           913.406
        72   04 Jun 2027 07:30:37.003   04 Jun 2027 07:30:38.611             1.608           289.844
        73   04 Jun 2027 07:31:01.157   04 Jun 2027 07:31:01.767             0.610           305.000
        74   04 Jun 2027 09:00:47.806   04 Jun 2027 09:01:01.297            13.491          5947.563
        75   04 Jun 2027 09:03:58.490   04 Jun 2027 09:04:01.612             3.122           492.594
        76   04 Jun 2027 09:04:35.960   04 Jun 2027 09:04:41.323             5.363           980.969
        77   04 Jun 2027 09:05:11.817   04 Jun 2027 09:05:12.808             0.991           204.500
        78   04 Jun 2027 09:05:53.185   04 Jun 2027 09:05:54.479             1.294           100.094
        79   04 Jun 2027 09:06:14.325   04 Jun 2027 09:06:18.005             3.680             5.000
        80   04 Jun 2027 10:38:05.739   04 Jun 2027 10:38:19.786            14.047          6765.062
        81   04 Jun 2027 10:40:43.620   04 Jun 2027 10:40:44.628             1.008           112.938
        82   04 Jun 2027 10:41:16.820   04 Jun 2027 10:41:17.703             0.883            64.625
        83   04 Jun 2027 10:41:42.452   04 Jun 2027 10:41:43.994             1.542           117.594
        84   04 Jun 2027 10:42:32.120   04 Jun 2027 10:42:34.726             2.606           987.531
        85   04 Jun 2027 10:42:36.032   04 Jun 2027 10:42:36.875             0.843            20.937
        86   05 Jun 2027 03:01:17.624   05 Jun 2027 03:01:31.147            13.523          6761.500
        87   05 Jun 2027 03:01:56.221   05 Jun 2027 03:01:56.664             0.443           221.500
        88   05 Jun 2027 03:02:19.537   05 Jun 2027 03:02:41.597            22.060         11030.000
        89   05 Jun 2027 03:03:09.991   05 Jun 2027 03:03:09.991             0.000             0.000
        90   05 Jun 2027 03:03:18.591   05 Jun 2027 03:03:58.024            39.433         19716.500
        91   05 Jun 2027 04:25:12.260   05 Jun 2027 04:25:35.552            23.292         11646.000
        92   05 Jun 2027 04:26:41.637   05 Jun 2027 04:27:28.979            47.342         23671.000
        93   05 Jun 2027 06:01:07.142   05 Jun 2027 06:03:34.256           147.114         73557.000
        94   05 Jun 2027 06:04:09.344   05 Jun 2027 06:04:34.599            25.255         12627.500
        95   05 Jun 2027 07:36:01.621   05 Jun 2027 07:36:20.406            18.785          8891.750
        96   05 Jun 2027 07:37:03.189   05 Jun 2027 07:37:05.420             2.231           908.156
        97   05 Jun 2027 07:39:48.815   05 Jun 2027 07:39:52.216             3.401           948.781
        98   05 Jun 2027 07:41:23.476   05 Jun 2027 07:41:28.276             4.800          2143.875
        99   05 Jun 2027 07:42:05.848   05 Jun 2027 07:42:07.221             1.373           644.094
       100   05 Jun 2027 07:42:30.284   05 Jun 2027 07:42:37.133             6.849           720.719
       101   05 Jun 2027 07:43:09.561   05 Jun 2027 07:43:10.762             1.201           600.500
       102   05 Jun 2027 09:12:23.061   05 Jun 2027 09:12:36.860            13.799          5762.812
       103   05 Jun 2027 09:16:08.515   05 Jun 2027 09:16:09.336             0.821           308.719
       104   05 Jun 2027 09:17:02.756   05 Jun 2027 09:17:06.255             3.499          1534.719
       105   05 Jun 2027 09:17:29.639   05 Jun 2027 09:17:38.381             8.742           617.875
       106   05 Jun 2027 10:50:39.945   05 Jun 2027 10:50:52.643            12.698          6004.500
       107   05 Jun 2027 10:51:20.731   05 Jun 2027 10:51:28.589             7.858           877.750
       108   05 Jun 2027 10:52:43.971   05 Jun 2027 10:52:53.223             9.252          2294.969
       109   05 Jun 2027 10:53:26.650   05 Jun 2027 10:53:28.461             1.811           406.656
       110   05 Jun 2027 10:54:22.116   05 Jun 2027 10:54:24.607             2.491          1232.656
       111   05 Jun 2027 10:54:25.754   05 Jun 2027 10:54:28.473             2.719            35.844
       112   06 Jun 2027 03:01:57.821   06 Jun 2027 03:02:19.039            21.218         10609.000
       113   06 Jun 2027 03:13:13.899   06 Jun 2027 03:15:48.883           154.984         77492.000
       114   06 Jun 2027 04:35:49.762   06 Jun 2027 04:36:07.957            18.195          9097.500
       115   06 Jun 2027 04:36:52.948   06 Jun 2027 04:37:05.749            12.801          6400.500
       116   06 Jun 2027 04:38:35.330   06 Jun 2027 04:38:36.159             0.829           414.500
       117   06 Jun 2027 04:40:28.971   06 Jun 2027 04:40:29.393             0.422           211.000
       118   06 Jun 2027 06:11:24.483   06 Jun 2027 06:12:07.595            43.112         21556.000
       119   06 Jun 2027 06:12:50.918   06 Jun 2027 06:14:05.606            74.688         37344.000
       120   06 Jun 2027 06:14:23.300   06 Jun 2027 06:14:30.598             7.298          3036.032
       121   06 Jun 2027 06:15:08.213   06 Jun 2027 06:15:08.213             0.000             0.000
       122   06 Jun 2027 06:15:35.165   06 Jun 2027 06:15:38.003             2.838          1419.000
       123   06 Jun 2027 06:16:13.455   06 Jun 2027 06:16:13.455             0.000             0.000
       124   06 Jun 2027 06:16:52.446   06 Jun 2027 06:17:03.212            10.766          2456.000
       125   06 Jun 2027 07:47:36.819   06 Jun 2027 07:47:42.073             5.254          2476.406
       126   06 Jun 2027 07:49:42.121   06 Jun 2027 07:49:46.873             4.752          2213.969
       127   06 Jun 2027 07:51:50.781   06 Jun 2027 07:51:54.480             3.699          1486.219
       128   06 Jun 2027 07:52:28.589   06 Jun 2027 07:52:34.224             5.635           272.969
       129   06 Jun 2027 07:53:30.139   06 Jun 2027 07:53:33.731             3.592          1023.469
       130   06 Jun 2027 07:55:01.648   06 Jun 2027 07:55:07.289             5.641          2401.938
       131   06 Jun 2027 09:24:43.199   06 Jun 2027 09:24:57.348            14.149          4910.469
       132   06 Jun 2027 09:28:21.423   06 Jun 2027 09:28:28.403             6.980          2011.625
       133   06 Jun 2027 09:29:22.590   06 Jun 2027 09:29:25.470             2.880          1182.500
       134   06 Jun 2027 09:29:41.413   06 Jun 2027 09:29:42.852             1.439           211.563
       135   06 Jun 2027 09:30:43.724   06 Jun 2027 09:30:50.189             6.465          1827.063
       136   06 Jun 2027 11:02:41.258   06 Jun 2027 11:02:56.237            14.979          6454.969
       137   06 Jun 2027 11:03:27.488   06 Jun 2027 11:03:29.266             1.778           828.750
       138   06 Jun 2027 11:04:23.045   06 Jun 2027 11:04:30.363             7.318          1680.594
       139   06 Jun 2027 11:04:51.938   06 Jun 2027 11:04:52.765             0.827           261.688
       140   06 Jun 2027 11:05:11.678   06 Jun 2027 11:05:13.829             2.151            93.562
       141   06 Jun 2027 11:05:40.345   06 Jun 2027 11:05:42.843             2.498           739.219
       142   06 Jun 2027 11:06:10.779   06 Jun 2027 11:06:13.002             2.223           140.813
       143   06 Jun 2027 11:06:33.402   06 Jun 2027 11:06:37.544             4.142           637.500
       144   07 Jun 2027 03:13:32.738   07 Jun 2027 03:13:40.312             7.574          3787.000
       145   07 Jun 2027 03:14:39.739   07 Jun 2027 03:15:06.638            26.899         13449.500
       146   07 Jun 2027 03:25:16.663   07 Jun 2027 03:26:26.104            69.441         34720.500
       147   07 Jun 2027 04:47:31.639   07 Jun 2027 04:48:38.427            66.788         33394.000
       148   07 Jun 2027 04:49:28.939   07 Jun 2027 04:50:35.451            66.512         33256.000
       149   07 Jun 2027 06:22:31.297   07 Jun 2027 06:23:37.259            65.962         32202.126
       150   07 Jun 2027 06:23:46.866   07 Jun 2027 06:23:47.985             1.119           255.281
       151   07 Jun 2027 06:24:00.277   07 Jun 2027 06:24:05.699             5.422           369.906
       152   07 Jun 2027 06:25:12.370   07 Jun 2027 06:25:15.380             3.010          1393.375
       153   07 Jun 2027 06:25:41.829   07 Jun 2027 06:25:41.829             0.000             0.000
       154   07 Jun 2027 06:25:48.028   07 Jun 2027 06:25:49.906             1.878           234.250
       155   07 Jun 2027 06:26:17.154   07 Jun 2027 06:26:19.677             2.523           851.500
       156   07 Jun 2027 06:26:57.754   07 Jun 2027 06:27:01.515             3.761          1023.500
       157   07 Jun 2027 06:27:49.801   07 Jun 2027 06:27:50.792             0.991           442.094
       158   07 Jun 2027 06:28:15.029   07 Jun 2027 06:28:16.216             1.187           584.625
       159   07 Jun 2027 06:28:51.927   07 Jun 2027 06:28:53.299             1.372            39.781
       160   07 Jun 2027 06:30:27.842   07 Jun 2027 06:30:32.959             5.117          2290.656
       161   07 Jun 2027 07:59:56.787   07 Jun 2027 07:59:58.714             1.927           670.812
       162   07 Jun 2027 08:01:41.977   07 Jun 2027 08:01:53.253            11.276          2157.500
       163   07 Jun 2027 08:02:33.475   07 Jun 2027 08:02:41.278             7.803           933.094
       164   07 Jun 2027 08:03:07.575   07 Jun 2027 08:03:08.344             0.769           378.031
       165   07 Jun 2027 08:04:27.499   07 Jun 2027 08:04:30.239             2.740          1095.281
       166   07 Jun 2027 08:04:52.455   07 Jun 2027 08:05:06.023            13.568           673.344
       167   07 Jun 2027 08:05:33.636   07 Jun 2027 08:05:36.550             2.914           577.500
       168   07 Jun 2027 08:05:58.283   07 Jun 2027 08:06:03.646             5.363           421.812
       169   07 Jun 2027 08:06:44.611   07 Jun 2027 08:06:49.021             4.410          1128.406
       170   07 Jun 2027 09:36:44.053   07 Jun 2027 09:37:00.214            16.161          6029.875
       171   07 Jun 2027 09:40:07.670   07 Jun 2027 09:40:12.526             4.856          1599.687
       172   07 Jun 2027 09:40:38.819   07 Jun 2027 09:40:40.003             1.184           130.094
       173   07 Jun 2027 09:40:52.286   07 Jun 2027 09:40:53.270             0.984           383.844
       174   07 Jun 2027 09:41:36.752   07 Jun 2027 09:41:41.657             4.905           625.094
       175   07 Jun 2027 09:42:03.186   07 Jun 2027 09:42:04.850             1.664           484.437
       176   07 Jun 2027 09:42:33.802   07 Jun 2027 09:42:35.708             1.906            30.094
       177   07 Jun 2027 09:43:00.250   07 Jun 2027 09:43:03.796             3.546           116.375
       178   07 Jun 2027 11:14:41.659   07 Jun 2027 11:14:53.346            11.687          5433.156
       179   07 Jun 2027 11:15:16.887   07 Jun 2027 11:15:17.808             0.921           261.094
       180   07 Jun 2027 11:15:42.763   07 Jun 2027 11:15:45.908             3.145           484.156
       181   07 Jun 2027 11:16:25.133   07 Jun 2027 11:16:28.072             2.939           875.125
       182   07 Jun 2027 11:16:57.069   07 Jun 2027 11:17:06.337             9.268           461.406
       183   07 Jun 2027 11:17:55.419   07 Jun 2027 11:17:59.408             3.989           653.469
       184   07 Jun 2027 11:18:35.203   07 Jun 2027 11:18:39.859             4.656           290.281
       185   07 Jun 2027 11:18:46.229   07 Jun 2027 11:18:47.592             1.363           156.219
       186   08 Jun 2027 03:25:04.901   08 Jun 2027 03:25:34.850            29.949         14974.500
       187   08 Jun 2027 03:37:17.502   08 Jun 2027 03:37:49.211            31.709         15854.500
       188   08 Jun 2027 04:59:11.703   08 Jun 2027 05:00:25.076            73.373         36686.500
       189   08 Jun 2027 05:01:14.661   08 Jun 2027 05:02:31.830            77.169         38584.500
       190   08 Jun 2027 05:03:59.394   08 Jun 2027 05:03:59.394             0.000             0.000
       191   08 Jun 2027 05:04:20.246   08 Jun 2027 05:04:27.322             7.076          3538.000
       192   08 Jun 2027 06:34:00.099   08 Jun 2027 06:35:35.687            95.588         47783.375
       193   08 Jun 2027 06:36:03.512   08 Jun 2027 06:36:06.594             3.082           484.594
       194   08 Jun 2027 06:36:38.006   08 Jun 2027 06:36:40.591             2.585           778.719
       195   08 Jun 2027 06:38:06.558   08 Jun 2027 06:38:10.885             4.327          1811.156
       196   08 Jun 2027 06:39:35.648   08 Jun 2027 06:39:44.656             9.008          2461.688
       197   08 Jun 2027 06:40:42.087   08 Jun 2027 06:40:42.087             0.000             0.000
       198   08 Jun 2027 06:40:42.806   08 Jun 2027 06:40:47.221             4.415          1561.719
       199   08 Jun 2027 06:41:11.433   08 Jun 2027 06:41:13.090             1.657           253.000
       200   08 Jun 2027 06:42:20.717   08 Jun 2027 06:42:27.242             6.525          1937.594
       201   08 Jun 2027 06:42:50.413   08 Jun 2027 06:42:52.676             2.263           388.875
       202   08 Jun 2027 08:11:50.789   08 Jun 2027 08:11:53.525             2.736          1160.438
       203   08 Jun 2027 08:12:37.131   08 Jun 2027 08:12:41.400             4.269           904.156
       204   08 Jun 2027 08:13:43.104   08 Jun 2027 08:13:50.797             7.693           215.094
       205   08 Jun 2027 08:15:35.350   08 Jun 2027 08:15:40.156             4.806          1569.781
       206   08 Jun 2027 08:15:53.760   08 Jun 2027 08:15:54.432             0.672           123.156
       207   08 Jun 2027 08:17:09.328   08 Jun 2027 08:17:12.956             3.628          1308.531
       208   08 Jun 2027 08:17:46.379   08 Jun 2027 08:17:48.248             1.869           898.469
       209   08 Jun 2027 08:18:12.651   08 Jun 2027 08:18:18.395             5.744           713.531
       210   08 Jun 2027 08:18:51.494   08 Jun 2027 08:18:53.717             2.223          1034.344
       211   08 Jun 2027 09:48:35.489   08 Jun 2027 09:48:50.978            15.489          5917.969
       212   08 Jun 2027 09:49:06.933   08 Jun 2027 09:49:08.044             1.111           279.500
       213   08 Jun 2027 09:52:38.326   08 Jun 2027 09:52:41.710             3.384           802.125
       214   08 Jun 2027 09:53:02.139   08 Jun 2027 09:53:04.095             1.956           288.094
       215   08 Jun 2027 09:53:19.020   08 Jun 2027 09:53:20.655             1.635           350.531
       216   08 Jun 2027 09:53:21.249   08 Jun 2027 09:53:22.243             0.994            10.656
       217   08 Jun 2027 09:53:23.002   08 Jun 2027 09:53:23.683             0.681            23.719
       218   08 Jun 2027 09:53:53.428   08 Jun 2027 09:53:55.785             2.357           813.781
       219   08 Jun 2027 09:54:39.124   08 Jun 2027 09:54:45.331             6.207          1354.344
       220   08 Jun 2027 09:55:17.220   08 Jun 2027 09:55:19.636             2.416           639.531
       221   08 Jun 2027 11:26:44.218   08 Jun 2027 11:26:57.313            13.095          5869.437
       222   08 Jun 2027 11:29:31.615   08 Jun 2027 11:29:35.362             3.747           935.219
       223   08 Jun 2027 11:29:50.402   08 Jun 2027 11:30:03.168            12.766            97.844
       224   08 Jun 2027 11:30:13.371   08 Jun 2027 11:30:16.799             3.428           159.563
       225   08 Jun 2027 11:30:36.024   08 Jun 2027 11:30:36.835             0.811           251.875
       226   08 Jun 2027 11:30:48.267   08 Jun 2027 11:30:48.805             0.538            26.937
       227   09 Jun 2027 03:37:02.549   09 Jun 2027 03:37:35.316            32.767         16383.500
       228   09 Jun 2027 05:12:59.996   09 Jun 2027 05:16:19.004           199.008         99504.000
       229   09 Jun 2027 05:16:33.955   09 Jun 2027 05:16:46.874            12.919          6459.500
       230   09 Jun 2027 06:46:48.431   09 Jun 2027 06:47:57.502            69.071         34184.500
       231   09 Jun 2027 06:48:51.126   09 Jun 2027 06:48:54.603             3.477           290.750
       232   09 Jun 2027 06:49:18.732   09 Jun 2027 06:49:21.580             2.848           582.625
       233   09 Jun 2027 06:49:33.082   09 Jun 2027 06:49:34.197             1.115           167.844
       234   09 Jun 2027 06:49:56.385   09 Jun 2027 06:49:58.588             2.203           121.094
       235   09 Jun 2027 06:50:59.675   09 Jun 2027 06:51:06.091             6.416          1664.469
       236   09 Jun 2027 06:51:35.055   09 Jun 2027 06:51:38.143             3.088           552.594
       237   09 Jun 2027 06:52:22.192   09 Jun 2027 06:52:28.632             6.440           825.938
       238   09 Jun 2027 06:53:08.523   09 Jun 2027 06:53:09.242             0.719           359.500
       239   09 Jun 2027 06:53:45.172   09 Jun 2027 06:53:49.155             3.983          1782.657
       240   09 Jun 2027 06:54:31.743   09 Jun 2027 06:54:33.889             2.146          1066.187
       241   09 Jun 2027 06:54:57.825   09 Jun 2027 06:55:03.860             6.035           493.594
       242   09 Jun 2027 08:23:57.943   09 Jun 2027 08:24:06.450             8.507          3893.375
       243   09 Jun 2027 08:25:39.651   09 Jun 2027 08:25:43.884             4.233          1216.000
       244   09 Jun 2027 08:26:31.059   09 Jun 2027 08:26:40.341             9.282           843.281
       245   09 Jun 2027 08:27:54.666   09 Jun 2027 08:28:00.628             5.962          2322.656
       246   09 Jun 2027 08:29:01.545   09 Jun 2027 08:29:03.360             1.815           846.500
       247   09 Jun 2027 08:29:05.114   09 Jun 2027 08:29:13.571             8.457             1.937
       248   09 Jun 2027 08:29:41.674   09 Jun 2027 08:29:42.057             0.383           136.781
       249   09 Jun 2027 08:30:12.413   09 Jun 2027 08:30:14.648             2.235           306.438
       250   09 Jun 2027 08:30:34.861   09 Jun 2027 08:30:35.371             0.510            22.031
       251   09 Jun 2027 08:30:57.262   09 Jun 2027 08:30:59.403             2.141           684.094
       252   09 Jun 2027 10:01:01.076   09 Jun 2027 10:01:10.746             9.670          4702.531
       253   09 Jun 2027 10:03:40.785   09 Jun 2027 10:03:44.312             3.527           360.437
       254   09 Jun 2027 10:04:55.702   09 Jun 2027 10:04:58.302             2.600           882.594
       255   09 Jun 2027 10:05:22.246   09 Jun 2027 10:05:23.480             1.234           542.313
       256   09 Jun 2027 10:06:02.651   09 Jun 2027 10:06:07.577             4.926          1045.281
       257   09 Jun 2027 10:06:43.923   09 Jun 2027 10:06:46.845             2.922           904.125
       258   09 Jun 2027 11:37:55.680   09 Jun 2027 11:38:09.392            13.712          5610.906
       259   09 Jun 2027 11:40:36.620   09 Jun 2027 11:40:43.600             6.980          1905.375
       260   09 Jun 2027 11:41:28.083   09 Jun 2027 11:41:32.108             4.025           695.781
       261   09 Jun 2027 11:42:47.913   09 Jun 2027 11:42:50.258             2.345          1172.500
       262   10 Jun 2027 03:48:55.097   10 Jun 2027 03:48:58.277             3.180          1590.000
       263   10 Jun 2027 03:50:21.303   10 Jun 2027 03:50:25.097             3.794          1897.000
       264   10 Jun 2027 03:50:37.253   10 Jun 2027 03:50:43.375             6.122          3061.000
       265   10 Jun 2027 05:25:17.435   10 Jun 2027 05:28:46.083           208.648        104324.000
       266   10 Jun 2027 06:59:09.458   10 Jun 2027 07:00:34.193            84.735         42115.875
       267   10 Jun 2027 07:01:05.107   10 Jun 2027 07:01:05.670             0.563            11.625
       268   10 Jun 2027 07:01:15.210   10 Jun 2027 07:01:15.210             0.000             0.000
       269   10 Jun 2027 07:01:26.321   10 Jun 2027 07:01:27.802             1.481           594.062
       270   10 Jun 2027 07:02:30.593   10 Jun 2027 07:02:32.266             1.673           568.844
       271   10 Jun 2027 07:04:18.741   10 Jun 2027 07:04:31.277            12.536          2348.531
       272   10 Jun 2027 07:04:52.891   10 Jun 2027 07:04:56.674             3.783           675.438
       273   10 Jun 2027 07:05:50.176   10 Jun 2027 07:05:54.341             4.165          1670.375
       274   10 Jun 2027 07:05:55.144   10 Jun 2027 07:05:55.144             0.000             0.000
       275   10 Jun 2027 07:06:29.655   10 Jun 2027 07:06:31.978             2.323          1083.063
       276   10 Jun 2027 07:07:13.334   10 Jun 2027 07:07:16.778             3.444          1046.813
       277   10 Jun 2027 08:36:24.643   10 Jun 2027 08:36:36.543            11.900          3369.062
       278   10 Jun 2027 08:39:13.609   10 Jun 2027 08:39:16.572             2.963          1442.719
       279   10 Jun 2027 08:39:29.455   10 Jun 2027 08:39:31.657             2.202           110.094
       280   10 Jun 2027 08:40:53.021   10 Jun 2027 08:40:53.223             0.202            57.250
       281   10 Jun 2027 08:41:09.957   10 Jun 2027 08:41:12.795             2.838           522.938
       282   10 Jun 2027 08:42:22.339   10 Jun 2027 08:42:30.611             8.272          1377.687
       283   10 Jun 2027 10:13:25.862   10 Jun 2027 10:13:39.082            13.220          5492.344
       284   10 Jun 2027 10:14:46.885   10 Jun 2027 10:14:50.948             4.063          1245.563
       285   10 Jun 2027 10:16:27.763   10 Jun 2027 10:16:28.725             0.962           252.563
       286   10 Jun 2027 10:16:30.929   10 Jun 2027 10:16:35.235             4.306            37.094
       287   10 Jun 2027 10:16:50.049   10 Jun 2027 10:16:51.304             1.255           225.406
       288   10 Jun 2027 10:16:56.465   10 Jun 2027 10:16:57.871             1.406           161.281
       289   10 Jun 2027 10:17:35.662   10 Jun 2027 10:17:40.774             5.112          1015.062
       290   10 Jun 2027 10:18:12.382   10 Jun 2027 10:18:15.540             3.158           325.031
       291   10 Jun 2027 10:18:37.794   10 Jun 2027 10:18:41.168             3.374           695.438
       292   10 Jun 2027 11:50:10.049   10 Jun 2027 11:50:32.179            22.130          8040.375
       293   10 Jun 2027 11:53:08.479   10 Jun 2027 11:53:12.338             3.859          1146.719
       294   10 Jun 2027 11:54:32.260   10 Jun 2027 11:54:39.801             7.541          2344.125
       295   11 Jun 2027 04:00:43.989   11 Jun 2027 04:01:07.062            23.073         11536.500
       296   11 Jun 2027 04:01:46.770   11 Jun 2027 04:02:02.100            15.330          7665.000
       297   11 Jun 2027 05:37:20.835   11 Jun 2027 05:39:06.689           105.854         52927.000
       298   11 Jun 2027 05:40:13.144   11 Jun 2027 05:40:44.712            31.568         15784.000
       299   11 Jun 2027 07:12:27.144   11 Jun 2027 07:14:45.439           138.295         68541.218
       300   11 Jun 2027 07:15:48.268   11 Jun 2027 07:15:50.914             2.646           518.656
       301   11 Jun 2027 07:16:28.982   11 Jun 2027 07:16:30.614             1.632           816.000
       302   11 Jun 2027 07:17:39.725   11 Jun 2027 07:17:48.098             8.373          2212.343
       303   11 Jun 2027 07:17:54.502   11 Jun 2027 07:17:55.521             1.019           106.844
       304   11 Jun 2027 07:18:24.408   11 Jun 2027 07:18:26.387             1.979           818.250
       305   11 Jun 2027 07:19:02.367   11 Jun 2027 07:19:05.809             3.442           580.375
       306   11 Jun 2027 07:19:11.593   11 Jun 2027 07:19:16.421             4.828           180.750
       307   11 Jun 2027 08:48:47.866   11 Jun 2027 08:48:57.154             9.288          4463.750
       308   11 Jun 2027 08:50:41.892   11 Jun 2027 08:50:43.997             2.105           797.031
       309   11 Jun 2027 08:51:32.487   11 Jun 2027 08:51:34.111             1.624           115.563
       310   11 Jun 2027 08:52:46.436   11 Jun 2027 08:52:47.375             0.939           209.594
       311   11 Jun 2027 08:53:33.302   11 Jun 2027 08:53:34.899             1.597           536.063
       312   11 Jun 2027 08:54:12.366   11 Jun 2027 08:54:17.767             5.401           531.312
       313   11 Jun 2027 08:54:22.454   11 Jun 2027 08:54:25.942             3.488           146.469
       314   11 Jun 2027 08:54:58.068   11 Jun 2027 08:55:00.146             2.078           721.344
       315   11 Jun 2027 10:26:17.796   11 Jun 2027 10:26:30.036            12.240          5793.156
       316   11 Jun 2027 10:28:50.480   11 Jun 2027 10:28:52.629             2.149           843.906
       317   11 Jun 2027 10:29:28.104   11 Jun 2027 10:29:31.750             3.646           938.344
       318   11 Jun 2027 10:30:21.327   11 Jun 2027 10:30:24.775             3.448          1187.281
       319   12 Jun 2027 04:12:57.552   12 Jun 2027 04:13:47.381            49.829         24914.500
       320   12 Jun 2027 04:15:45.633   12 Jun 2027 04:15:45.633             0.000             0.000
       321   12 Jun 2027 05:49:31.181   12 Jun 2027 05:51:57.989           146.808         73404.000
       322   12 Jun 2027 05:52:54.355   12 Jun 2027 05:53:00.768             6.413          3206.500
       323   12 Jun 2027 07:24:41.145   12 Jun 2027 07:26:24.595           103.450         51333.594
       324   12 Jun 2027 07:27:28.574   12 Jun 2027 07:27:32.846             4.272          1525.594
       325   12 Jun 2027 07:27:55.420   12 Jun 2027 07:27:59.094             3.674           657.906
       326   12 Jun 2027 07:29:39.855   12 Jun 2027 07:29:47.383             7.528          3007.219
       327   12 Jun 2027 07:30:25.420   12 Jun 2027 07:30:27.785             2.365           887.656
       328   12 Jun 2027 07:30:57.009   12 Jun 2027 07:30:57.009             0.000             0.000
       329   12 Jun 2027 07:31:07.315   12 Jun 2027 07:31:12.179             4.864          1045.250
       330   12 Jun 2027 09:01:02.596   12 Jun 2027 09:01:13.253            10.657          4876.062
       331   12 Jun 2027 09:03:35.196   12 Jun 2027 09:03:35.511             0.315           135.500
       332   12 Jun 2027 09:03:58.061   12 Jun 2027 09:03:59.439             1.378           384.406
       333   12 Jun 2027 09:06:05.733   12 Jun 2027 09:06:19.029            13.296          2317.625
       334   12 Jun 2027 10:38:20.977   12 Jun 2027 10:38:35.869            14.892          6827.719
       335   12 Jun 2027 10:40:57.354   12 Jun 2027 10:40:59.622             2.268           942.813
       336   12 Jun 2027 10:41:33.438   12 Jun 2027 10:41:33.626             0.188            90.281
       337   12 Jun 2027 10:41:57.863   12 Jun 2027 10:42:00.654             2.791           113.719
       338   12 Jun 2027 10:42:47.686   12 Jun 2027 10:42:49.665             1.979           984.031
       339   12 Jun 2027 10:42:51.545   12 Jun 2027 10:42:53.266             1.721            47.125
       340   13 Jun 2027 03:01:32.961   13 Jun 2027 03:01:49.982            17.021          8510.500
       341   13 Jun 2027 03:02:10.847   13 Jun 2027 03:02:11.941             1.094           547.000
       342   13 Jun 2027 03:02:34.321   13 Jun 2027 03:02:37.855             3.534          1767.000
       343   13 Jun 2027 03:03:38.661   13 Jun 2027 03:04:13.700            35.039         17519.500
       344   13 Jun 2027 03:05:05.184   13 Jun 2027 03:05:05.764             0.580           290.000
       345   13 Jun 2027 04:25:27.233   13 Jun 2027 04:26:10.763            43.530         21765.000
       346   13 Jun 2027 04:26:26.084   13 Jun 2027 04:26:26.084             0.000             0.000
       347   13 Jun 2027 04:26:56.504   13 Jun 2027 04:27:43.639            47.135         23567.500
       348   13 Jun 2027 06:01:21.894   13 Jun 2027 06:03:47.623           145.729         72864.500
       349   13 Jun 2027 06:04:24.641   13 Jun 2027 06:04:28.391             3.750          1875.000
       350   13 Jun 2027 06:04:53.014   13 Jun 2027 06:05:12.572            19.558          9288.250
       351   13 Jun 2027 07:36:15.647   13 Jun 2027 07:36:24.527             8.880          3356.531
       352   13 Jun 2027 07:37:23.846   13 Jun 2027 07:37:28.123             4.277          1099.313
       353   13 Jun 2027 07:38:23.748   13 Jun 2027 07:38:25.873             2.125           221.062
       354   13 Jun 2027 07:39:34.797   13 Jun 2027 07:39:37.108             2.311           329.281
       355   13 Jun 2027 07:40:31.675   13 Jun 2027 07:40:37.597             5.922           807.656
       356   13 Jun 2027 07:40:37.846   13 Jun 2027 07:40:40.013             2.167             7.781
       357   13 Jun 2027 07:41:18.375   13 Jun 2027 07:41:22.523             4.148           578.438
       358   13 Jun 2027 07:42:04.402   13 Jun 2027 07:42:14.144             9.742           781.000
       359   13 Jun 2027 07:42:24.030   13 Jun 2027 07:42:26.591             2.561           280.781
       360   13 Jun 2027 07:42:44.168   13 Jun 2027 07:42:45.276             1.108           111.281
       361   13 Jun 2027 09:12:39.014   13 Jun 2027 09:12:49.165            10.151          4595.844
       362   13 Jun 2027 09:16:56.191   13 Jun 2027 09:17:00.802             4.611          1415.562
       363   13 Jun 2027 09:17:44.889   13 Jun 2027 09:17:51.492             6.603           588.844
       364   13 Jun 2027 10:50:55.467   13 Jun 2027 10:51:09.130            13.663          6076.469
       365   13 Jun 2027 10:51:36.170   13 Jun 2027 10:51:45.228             9.058           845.000
       366   13 Jun 2027 10:52:59.400   13 Jun 2027 10:53:07.173             7.773          2284.000
       367   13 Jun 2027 10:54:08.533   13 Jun 2027 10:54:13.670             5.137          1789.406
       368   13 Jun 2027 10:54:35.489   13 Jun 2027 10:54:38.113             2.624            69.656
