uniorb/output/strategy_4/Camera/Camera_KinoSat_111103.txt

KinoSat_111103
-------------------------
    Access    *     Start Time (UTCG)     *     Stop Time (UTCG)  *   Duration (s) *   Data (Mbytes)
         1   01 Jun 2027 03:43:01.034   01 Jun 2027 03:44:27.866            86.832         43416.000
         2   01 Jun 2027 03:54:45.136   01 Jun 2027 03:55:43.299            58.163         29081.500
         3   01 Jun 2027 05:16:58.684   01 Jun 2027 05:18:04.908            66.224         33112.000
         4   01 Jun 2027 05:18:56.787   01 Jun 2027 05:19:19.434            22.647         11323.500
         5   01 Jun 2027 06:51:54.219   01 Jun 2027 06:53:32.272            98.053         49026.500
         6   01 Jun 2027 06:54:10.347   01 Jun 2027 06:54:19.374             9.027          4513.500
         7   01 Jun 2027 06:54:38.629   01 Jun 2027 06:55:05.473            26.844         13422.000
         8   01 Jun 2027 06:58:28.189   01 Jun 2027 06:58:38.138             9.949          4974.500
         9   01 Jun 2027 06:58:53.664   01 Jun 2027 06:59:07.863            14.199          7099.500
        10   01 Jun 2027 08:29:24.952   01 Jun 2027 08:31:18.894           113.942         56971.000
        11   01 Jun 2027 08:34:56.043   01 Jun 2027 08:34:56.043             0.000             0.000
        12   01 Jun 2027 08:35:22.525   01 Jun 2027 08:36:10.387            47.862         23931.000
        13   01 Jun 2027 08:36:32.135   01 Jun 2027 08:36:38.331             6.196          3098.000
        14   01 Jun 2027 08:36:44.159   01 Jun 2027 08:36:44.373             0.214           107.000
        15   01 Jun 2027 10:06:10.268   01 Jun 2027 10:08:16.647           126.379         63189.500
        16   01 Jun 2027 10:10:08.009   01 Jun 2027 10:10:11.679             3.670          1835.000
        17   01 Jun 2027 10:10:22.931   01 Jun 2027 10:10:26.367             3.436          1718.000
        18   01 Jun 2027 10:11:56.407   01 Jun 2027 10:12:00.590             4.183          2091.500
        19   01 Jun 2027 10:12:42.525   01 Jun 2027 10:12:43.775             1.250           625.000
        20   01 Jun 2027 11:44:09.292   01 Jun 2027 11:46:33.759           144.467         72233.500
        21   02 Jun 2027 03:54:34.232   02 Jun 2027 03:55:18.445            44.213         22106.500
        22   02 Jun 2027 03:56:35.919   02 Jun 2027 03:56:35.919             0.000             0.000
        23   02 Jun 2027 04:06:49.921   02 Jun 2027 04:07:17.573            27.652         13826.000
        24   02 Jun 2027 05:28:30.789   02 Jun 2027 05:29:50.469            79.680         39840.000
        25   02 Jun 2027 05:30:38.694   02 Jun 2027 05:31:35.526            56.832         28416.000
        26   02 Jun 2027 05:32:00.601   02 Jun 2027 05:32:15.567            14.966          7483.000
        27   02 Jun 2027 07:03:24.129   02 Jun 2027 07:06:47.538           203.409        101704.500
        28   02 Jun 2027 07:07:47.907   02 Jun 2027 07:08:27.645            39.738         19869.000
        29   02 Jun 2027 07:10:06.055   02 Jun 2027 07:10:06.864             0.809           404.500
        30   02 Jun 2027 08:41:19.578   02 Jun 2027 08:44:13.858           174.280         87140.000
        31   02 Jun 2027 08:46:52.802   02 Jun 2027 08:46:52.802             0.000             0.000
        32   02 Jun 2027 08:47:08.890   02 Jun 2027 08:47:45.673            36.783         18391.500
        33   02 Jun 2027 08:48:30.934   02 Jun 2027 08:48:35.743             4.809          2404.500
        34   02 Jun 2027 10:18:06.792   02 Jun 2027 10:18:24.846            18.054          9027.000
        35   02 Jun 2027 10:18:39.490   02 Jun 2027 10:18:45.780             6.290          2085.188
        36   02 Jun 2027 10:19:37.922   02 Jun 2027 10:19:40.368             2.446           898.437
        37   02 Jun 2027 10:21:00.359   02 Jun 2027 10:21:03.622             3.263           441.406
        38   02 Jun 2027 10:22:10.251   02 Jun 2027 10:22:14.453             4.202          1181.969
        39   02 Jun 2027 10:22:33.175   02 Jun 2027 10:22:35.410             2.235           273.813
        40   02 Jun 2027 10:22:56.133   02 Jun 2027 10:22:57.872             1.739           216.938
        41   02 Jun 2027 10:22:58.686   02 Jun 2027 10:23:00.265             1.579            25.437
        42   02 Jun 2027 10:24:17.374   02 Jun 2027 10:24:22.104             4.730          1847.656
        43   02 Jun 2027 11:55:57.209   02 Jun 2027 11:56:11.496            14.287          6987.094
        44   02 Jun 2027 11:58:02.796   02 Jun 2027 11:58:11.334             8.538          2029.719
        45   02 Jun 2027 11:58:38.487   02 Jun 2027 11:58:44.506             6.019           848.531
        46   02 Jun 2027 11:59:34.469   02 Jun 2027 11:59:37.492             3.023          1465.812
        47   03 Jun 2027 04:06:29.831   03 Jun 2027 04:06:57.678            27.847         13923.500
        48   03 Jun 2027 04:07:20.053   03 Jun 2027 04:07:25.335             5.282          2641.000
        49   03 Jun 2027 04:07:43.254   03 Jun 2027 04:07:57.694            14.440          7220.000
        50   03 Jun 2027 04:08:21.971   03 Jun 2027 04:08:27.224             5.253          2626.500
        51   03 Jun 2027 05:42:29.540   03 Jun 2027 05:45:15.551           166.011         83005.500
        52   03 Jun 2027 05:45:24.262   03 Jun 2027 05:45:26.404             2.142          1071.000
        53   03 Jun 2027 07:16:17.507   03 Jun 2027 07:18:06.141           108.634         53731.281
        54   03 Jun 2027 07:18:27.488   03 Jun 2027 07:18:27.488             0.000             0.000
        55   03 Jun 2027 07:18:45.954   03 Jun 2027 07:18:50.087             4.133          1174.719
        56   03 Jun 2027 07:18:56.571   03 Jun 2027 07:18:58.427             1.856           202.625
        57   03 Jun 2027 07:19:43.514   03 Jun 2027 07:19:46.603             3.089          1408.969
        58   03 Jun 2027 07:20:30.065   03 Jun 2027 07:20:32.975             2.910          1112.906
        59   03 Jun 2027 07:21:53.561   03 Jun 2027 07:21:58.883             5.322          1961.531
        60   03 Jun 2027 07:22:27.800   03 Jun 2027 07:22:28.970             1.170           540.906
        61   03 Jun 2027 07:23:20.983   03 Jun 2027 07:23:24.799             3.816          1474.906
        62   03 Jun 2027 07:24:01.720   03 Jun 2027 07:24:03.635             1.915           891.625
        63   03 Jun 2027 07:24:24.576   03 Jun 2027 07:24:28.928             4.352            71.938
        64   03 Jun 2027 08:53:30.801   03 Jun 2027 08:53:43.107            12.306          5489.531
        65   03 Jun 2027 08:55:58.517   03 Jun 2027 08:56:01.003             2.486           893.313
        66   03 Jun 2027 08:57:30.282   03 Jun 2027 08:57:35.647             5.365          2520.438
        67   03 Jun 2027 08:59:18.881   03 Jun 2027 08:59:24.301             5.420          2209.438
        68   03 Jun 2027 09:00:14.571   03 Jun 2027 09:00:17.810             3.239           984.000
        69   03 Jun 2027 09:00:40.547   03 Jun 2027 09:00:41.091             0.544            57.156
        70   03 Jun 2027 10:30:43.612   03 Jun 2027 10:30:48.114             4.502          2251.000
        71   03 Jun 2027 10:30:57.879   03 Jun 2027 10:31:10.998            13.119          4101.563
        72   03 Jun 2027 10:34:27.007   03 Jun 2027 10:34:29.694             2.687           202.437
        73   03 Jun 2027 10:35:03.567   03 Jun 2027 10:35:05.401             1.834           195.531
        74   03 Jun 2027 10:35:22.981   03 Jun 2027 10:35:27.398             4.417           549.375
        75   03 Jun 2027 10:36:14.396   03 Jun 2027 10:36:17.580             3.184          1026.437
        76   03 Jun 2027 10:36:25.440   03 Jun 2027 10:36:32.979             7.539           106.250
        77   04 Jun 2027 04:18:21.767   04 Jun 2027 04:19:20.000            58.233         29116.500
        78   04 Jun 2027 04:19:50.518   04 Jun 2027 04:19:58.831             8.313          4156.500
        79   04 Jun 2027 04:20:07.302   04 Jun 2027 04:20:08.058             0.756           378.000
        80   04 Jun 2027 05:54:43.222   04 Jun 2027 05:57:31.797           168.575         84287.500
        81   04 Jun 2027 07:28:47.413   04 Jun 2027 07:29:52.078            64.665         31939.782
        82   04 Jun 2027 07:30:42.222   04 Jun 2027 07:30:42.222             0.000             0.000
        83   04 Jun 2027 07:30:44.629   04 Jun 2027 07:30:45.825             1.196           238.313
        84   04 Jun 2027 07:31:25.566   04 Jun 2027 07:31:28.616             3.050          1121.344
        85   04 Jun 2027 07:32:02.880   04 Jun 2027 07:32:02.880             0.000             0.000
        86   04 Jun 2027 07:33:05.465   04 Jun 2027 07:33:12.554             7.089          2912.875
        87   04 Jun 2027 07:33:34.855   04 Jun 2027 07:33:40.832             5.977           153.594
        88   04 Jun 2027 07:35:05.018   04 Jun 2027 07:35:09.639             4.621          2202.813
        89   04 Jun 2027 07:35:33.823   04 Jun 2027 07:35:34.615             0.792           396.000
        90   04 Jun 2027 07:35:52.875   04 Jun 2027 07:35:55.932             3.057           930.375
        91   04 Jun 2027 07:36:00.134   04 Jun 2027 07:36:05.307             5.173             1.688
        92   04 Jun 2027 07:36:21.041   04 Jun 2027 07:36:22.670             1.629           372.750
        93   04 Jun 2027 07:36:44.445   04 Jun 2027 07:36:44.928             0.483           109.719
        94   04 Jun 2027 09:05:52.868   04 Jun 2027 09:06:04.408            11.540          4441.969
        95   04 Jun 2027 09:09:32.848   04 Jun 2027 09:09:37.154             4.306          1061.344
        96   04 Jun 2027 09:11:18.123   04 Jun 2027 09:11:25.061             6.938          1992.625
        97   04 Jun 2027 09:11:57.778   04 Jun 2027 09:11:59.376             1.598           142.625
        98   04 Jun 2027 09:12:29.356   04 Jun 2027 09:12:30.513             1.157            33.188
        99   04 Jun 2027 10:42:50.471   04 Jun 2027 10:43:01.172            10.701          5306.188
       100   04 Jun 2027 10:44:33.681   04 Jun 2027 10:44:38.213             4.532          1423.656
       101   04 Jun 2027 10:45:12.228   04 Jun 2027 10:45:16.723             4.495          1062.969
       102   04 Jun 2027 10:45:54.177   04 Jun 2027 10:46:00.449             6.272            89.562
       103   04 Jun 2027 10:46:15.591   04 Jun 2027 10:46:18.749             3.158           378.594
       104   04 Jun 2027 10:46:29.073   04 Jun 2027 10:46:31.347             2.274           255.625
       105   04 Jun 2027 10:46:46.160   04 Jun 2027 10:46:49.652             3.492           319.594
       106   04 Jun 2027 10:47:37.646   04 Jun 2027 10:47:44.844             7.198          1252.500
       107   05 Jun 2027 03:07:19.775   05 Jun 2027 03:08:24.535            64.760         32380.000
       108   05 Jun 2027 03:08:32.099   05 Jun 2027 03:08:32.711             0.612           306.000
       109   05 Jun 2027 03:08:41.423   05 Jun 2027 03:08:41.423             0.000             0.000
       110   05 Jun 2027 03:09:13.914   05 Jun 2027 03:09:20.786             6.872          3436.000
       111   05 Jun 2027 03:09:30.525   05 Jun 2027 03:09:31.893             1.368           684.000
       112   05 Jun 2027 03:10:58.109   05 Jun 2027 03:11:04.957             6.848          3424.000
       113   05 Jun 2027 03:11:19.402   05 Jun 2027 03:11:22.262             2.860          1430.000
       114   05 Jun 2027 04:30:24.582   05 Jun 2027 04:31:24.578            59.996         29998.000
       115   05 Jun 2027 04:32:58.201   05 Jun 2027 04:32:58.201             0.000             0.000
       116   05 Jun 2027 06:06:49.887   05 Jun 2027 06:08:15.125            85.238         42619.000
       117   05 Jun 2027 06:08:26.878   05 Jun 2027 06:09:49.307            82.429         38838.000
       118   05 Jun 2027 07:41:57.930   05 Jun 2027 07:42:08.234            10.304          4872.156
       119   05 Jun 2027 07:43:05.119   05 Jun 2027 07:43:08.044             2.925           769.375
       120   05 Jun 2027 07:43:28.989   05 Jun 2027 07:43:32.680             3.691           229.156
       121   05 Jun 2027 07:44:11.354   05 Jun 2027 07:44:14.542             3.188          1175.000
       122   05 Jun 2027 07:45:14.477   05 Jun 2027 07:45:15.266             0.789           353.938
       123   05 Jun 2027 07:45:50.541   05 Jun 2027 07:45:55.175             4.634           408.375
       124   05 Jun 2027 07:47:16.454   05 Jun 2027 07:47:22.520             6.066          2215.719
       125   05 Jun 2027 07:47:48.472   05 Jun 2027 07:47:50.041             1.569           665.906
       126   05 Jun 2027 07:48:01.731   05 Jun 2027 07:48:14.363            12.632           211.062
       127   05 Jun 2027 07:48:32.346   05 Jun 2027 07:48:34.979             2.633           248.781
       128   05 Jun 2027 09:18:18.856   05 Jun 2027 09:18:32.874            14.018          6638.031
       129   05 Jun 2027 09:20:27.072   05 Jun 2027 09:20:28.237             1.165           203.531
       130   05 Jun 2027 09:20:29.025   05 Jun 2027 09:20:31.917             2.892            24.625
       131   05 Jun 2027 09:21:32.437   05 Jun 2027 09:21:34.596             2.159           964.438
       132   05 Jun 2027 09:22:19.943   05 Jun 2027 09:22:22.098             2.155           585.688
       133   05 Jun 2027 09:22:52.214   05 Jun 2027 09:22:54.812             2.598           415.469
       134   05 Jun 2027 09:23:44.405   05 Jun 2027 09:23:56.934            12.529          1549.781
       135   05 Jun 2027 09:24:38.674   05 Jun 2027 09:24:41.125             2.451          1193.344
       136   05 Jun 2027 10:55:52.342   05 Jun 2027 10:56:06.302            13.960          5746.625
       137   05 Jun 2027 10:57:16.936   05 Jun 2027 10:57:21.465             4.529          1417.188
       138   05 Jun 2027 10:57:49.202   05 Jun 2027 10:57:50.811             1.609           300.125
       139   05 Jun 2027 10:58:30.566   05 Jun 2027 10:58:32.952             2.386            70.125
       140   05 Jun 2027 10:58:55.212   05 Jun 2027 10:58:56.818             1.606           575.969
       141   05 Jun 2027 10:59:50.351   05 Jun 2027 10:59:55.282             4.931          1672.906
       142   05 Jun 2027 11:00:08.538   05 Jun 2027 11:00:13.064             4.526           414.250
       143   06 Jun 2027 03:19:03.591   06 Jun 2027 03:19:38.471            34.880         17440.000
       144   06 Jun 2027 03:19:52.155   06 Jun 2027 03:22:07.711           135.556         67778.000
       145   06 Jun 2027 04:42:22.880   06 Jun 2027 04:43:11.626            48.746         24373.000
       146   06 Jun 2027 06:18:59.800   06 Jun 2027 06:20:37.568            97.768         48671.750
       147   06 Jun 2027 06:20:53.892   06 Jun 2027 06:20:56.144             2.252           408.938
       148   06 Jun 2027 06:21:29.867   06 Jun 2027 06:21:29.867             0.000             0.000
       149   06 Jun 2027 06:22:03.136   06 Jun 2027 06:22:07.034             3.898          1912.125
       150   06 Jun 2027 07:54:09.833   06 Jun 2027 07:54:16.741             6.908          1689.375
       151   06 Jun 2027 07:55:29.253   06 Jun 2027 07:55:33.230             3.977          1909.625
       152   06 Jun 2027 07:56:08.064   06 Jun 2027 07:56:16.256             8.192          1036.906
       153   06 Jun 2027 07:56:59.787   06 Jun 2027 07:57:03.215             3.428          1160.812
       154   06 Jun 2027 07:57:39.889   06 Jun 2027 07:57:45.349             5.460           740.469
       155   06 Jun 2027 07:57:53.478   06 Jun 2027 07:57:55.426             1.948           146.125
       156   06 Jun 2027 07:58:30.251   06 Jun 2027 07:58:32.485             2.234           789.875
       157   06 Jun 2027 07:59:15.556   06 Jun 2027 07:59:18.960             3.404          1326.094
       158   06 Jun 2027 08:00:24.294   06 Jun 2027 08:00:27.919             3.625          1642.219
       159   06 Jun 2027 09:30:27.060   06 Jun 2027 09:30:38.612            11.552          5197.094
       160   06 Jun 2027 09:33:03.468   06 Jun 2027 09:33:07.111             3.643           160.125
       161   06 Jun 2027 09:33:24.593   06 Jun 2027 09:33:25.281             0.688           167.094
       162   06 Jun 2027 09:33:27.227   06 Jun 2027 09:33:29.277             2.050            46.969
       163   06 Jun 2027 09:34:45.527   06 Jun 2027 09:34:49.429             3.902          1918.625
       164   06 Jun 2027 09:35:35.150   06 Jun 2027 09:35:38.088             2.938          1101.344
       165   06 Jun 2027 09:35:56.231   06 Jun 2027 09:35:58.894             2.663           549.906
       166   06 Jun 2027 11:07:57.923   06 Jun 2027 11:08:13.530            15.607          7171.906
       167   06 Jun 2027 11:09:25.988   06 Jun 2027 11:09:26.325             0.337            24.219
       168   06 Jun 2027 11:10:14.971   06 Jun 2027 11:10:18.601             3.630           143.281
       169   06 Jun 2027 11:10:35.010   06 Jun 2027 11:10:37.234             2.224           111.906
       170   06 Jun 2027 11:11:31.789   06 Jun 2027 11:11:40.424             8.635           910.031
       171   06 Jun 2027 11:12:09.102   06 Jun 2027 11:12:10.305             1.203           132.813
       172   07 Jun 2027 03:31:00.178   07 Jun 2027 03:31:41.051            40.873         20436.500
       173   07 Jun 2027 03:31:50.174   07 Jun 2027 03:34:34.997           164.823         82411.500
       174   07 Jun 2027 04:54:58.990   07 Jun 2027 04:55:17.724            18.734          9367.000
       175   07 Jun 2027 06:30:43.811   07 Jun 2027 06:31:56.839            73.028         36447.313
       176   07 Jun 2027 06:32:41.242   07 Jun 2027 06:32:45.995             4.753          1326.875
       177   07 Jun 2027 06:33:18.307   07 Jun 2027 06:33:18.307             0.000             0.000
       178   07 Jun 2027 06:33:27.800   07 Jun 2027 06:33:30.320             2.520          1209.406
       179   07 Jun 2027 06:33:42.290   07 Jun 2027 06:33:43.321             1.031           161.531
       180   07 Jun 2027 06:34:09.203   07 Jun 2027 06:34:10.154             0.951           134.344
       181   07 Jun 2027 08:05:38.182   07 Jun 2027 08:05:44.785             6.603          2682.000
       182   07 Jun 2027 08:06:23.769   07 Jun 2027 08:06:30.153             6.384           981.156
       183   07 Jun 2027 08:07:15.197   07 Jun 2027 08:07:15.668             0.471           138.844
       184   07 Jun 2027 08:07:40.802   07 Jun 2027 08:07:43.720             2.918           262.563
       185   07 Jun 2027 08:08:36.890   07 Jun 2027 08:08:40.585             3.695          1233.844
       186   07 Jun 2027 08:09:04.155   07 Jun 2027 08:09:05.084             0.929           282.406
       187   07 Jun 2027 08:10:10.365   07 Jun 2027 08:10:12.551             2.186           884.406
       188   07 Jun 2027 08:11:00.972   07 Jun 2027 08:11:06.642             5.670          1292.812
       189   07 Jun 2027 08:11:17.341   07 Jun 2027 08:11:28.291            10.950           266.500
       190   07 Jun 2027 08:12:18.501   07 Jun 2027 08:12:21.942             3.441          1365.656
       191   07 Jun 2027 09:42:10.297   07 Jun 2027 09:42:23.459            13.162          5234.687
       192   07 Jun 2027 09:44:52.002   07 Jun 2027 09:44:52.541             0.539           176.125
       193   07 Jun 2027 09:45:09.387   07 Jun 2027 09:45:13.355             3.968           176.563
       194   07 Jun 2027 09:46:29.523   07 Jun 2027 09:46:36.549             7.026          1502.844
       195   07 Jun 2027 09:47:04.217   07 Jun 2027 09:47:07.385             3.168           864.625
       196   07 Jun 2027 09:47:23.332   07 Jun 2027 09:47:28.473             5.141           419.594
       197   07 Jun 2027 09:47:47.941   07 Jun 2027 09:47:51.723             3.782           608.375
       198   07 Jun 2027 11:20:27.757   07 Jun 2027 11:20:41.314            13.557          6036.219
       199   07 Jun 2027 11:21:21.436   07 Jun 2027 11:21:23.102             1.666           546.094
       200   07 Jun 2027 11:22:51.739   07 Jun 2027 11:23:01.291             9.552          1814.344
       201   07 Jun 2027 11:23:04.976   07 Jun 2027 11:23:05.749             0.773            11.969
       202   07 Jun 2027 11:23:50.433   07 Jun 2027 11:23:51.311             0.878           315.500
       203   07 Jun 2027 11:24:06.586   07 Jun 2027 11:24:08.512             1.926           218.938
       204   08 Jun 2027 03:31:31.348   08 Jun 2027 03:31:59.587            28.239         14119.500
       205   08 Jun 2027 03:42:57.010   08 Jun 2027 03:44:36.774            99.764         49882.000
       206   08 Jun 2027 05:05:34.594   08 Jun 2027 05:06:35.441            60.847         30423.500
       207   08 Jun 2027 05:06:49.516   08 Jun 2027 05:07:00.565            11.049          5524.500
       208   08 Jun 2027 05:09:40.773   08 Jun 2027 05:09:45.865             5.092          2546.000
       209   08 Jun 2027 05:10:10.296   08 Jun 2027 05:10:11.598             1.302           651.000
       210   08 Jun 2027 06:40:58.326   08 Jun 2027 06:41:53.974            55.648         27824.000
       211   08 Jun 2027 06:42:29.380   08 Jun 2027 06:43:13.252            43.872         21847.313
       212   08 Jun 2027 06:43:30.652   08 Jun 2027 06:43:31.602             0.950           231.000
       213   08 Jun 2027 06:43:41.605   08 Jun 2027 06:43:44.824             3.219            42.875
       214   08 Jun 2027 06:44:06.983   08 Jun 2027 06:44:10.973             3.990           229.156
       215   08 Jun 2027 06:44:22.621   08 Jun 2027 06:44:24.690             2.069           364.000
       216   08 Jun 2027 06:45:23.065   08 Jun 2027 06:45:24.743             1.678           839.000
       217   08 Jun 2027 06:45:37.279   08 Jun 2027 06:45:40.328             3.049           945.719
       218   08 Jun 2027 06:46:10.159   08 Jun 2027 06:46:13.274             3.115           932.219
       219   08 Jun 2027 06:46:51.141   08 Jun 2027 06:46:53.013             1.872           889.594
       220   08 Jun 2027 08:17:24.495   08 Jun 2027 08:17:35.735            11.240          2344.875
       221   08 Jun 2027 08:17:54.927   08 Jun 2027 08:17:55.629             0.702           267.125
       222   08 Jun 2027 08:19:18.334   08 Jun 2027 08:19:23.833             5.499            51.219
       223   08 Jun 2027 08:20:01.366   08 Jun 2027 08:20:03.152             1.786           709.719
       224   08 Jun 2027 08:20:40.774   08 Jun 2027 08:20:41.565             0.791           333.031
       225   08 Jun 2027 08:20:54.275   08 Jun 2027 08:20:54.275             0.000             0.000
       226   08 Jun 2027 08:21:43.963   08 Jun 2027 08:21:53.393             9.430          1723.469
       227   08 Jun 2027 08:22:31.752   08 Jun 2027 08:22:34.038             2.286           868.250
       228   08 Jun 2027 08:23:18.299   08 Jun 2027 08:23:23.795             5.496          1326.531
       229   08 Jun 2027 08:24:08.751   08 Jun 2027 08:24:15.025             6.274           969.812
       230   08 Jun 2027 08:24:55.933   08 Jun 2027 08:24:56.081             0.148            74.000
       231   08 Jun 2027 09:54:30.882   08 Jun 2027 09:54:45.331            14.449          4773.157
       232   08 Jun 2027 09:58:09.674   08 Jun 2027 09:58:14.442             4.768          2031.344
       233   08 Jun 2027 09:58:23.746   08 Jun 2027 09:58:24.615             0.869           290.750
       234   08 Jun 2027 09:58:36.706   08 Jun 2027 09:58:39.416             2.710           377.844
       235   08 Jun 2027 09:58:41.387   08 Jun 2027 09:58:41.653             0.266            49.344
       236   08 Jun 2027 09:59:07.760   08 Jun 2027 09:59:14.447             6.687           416.688
       237   08 Jun 2027 10:00:23.088   08 Jun 2027 10:00:27.844             4.756          2057.937
       238   08 Jun 2027 11:32:25.626   08 Jun 2027 11:32:40.053            14.427          5627.344
       239   08 Jun 2027 11:33:19.681   08 Jun 2027 11:33:26.374             6.693           718.313
       240   08 Jun 2027 11:34:46.560   08 Jun 2027 11:34:49.871             3.311           486.969
       241   08 Jun 2027 11:36:13.323   08 Jun 2027 11:36:18.496             5.173          1078.406
       242   09 Jun 2027 03:43:04.265   09 Jun 2027 03:43:34.191            29.926         14963.000
       243   09 Jun 2027 03:54:57.305   09 Jun 2027 03:55:58.246            60.941         30470.500
       244   09 Jun 2027 05:17:13.527   09 Jun 2027 05:18:19.928            66.401         33200.500
       245   09 Jun 2027 05:19:07.955   09 Jun 2027 05:20:18.601            70.646         35323.000
       246   09 Jun 2027 05:21:23.820   09 Jun 2027 05:21:35.770            11.950          5975.000
       247   09 Jun 2027 05:22:03.800   09 Jun 2027 05:22:05.185             1.385           692.500
       248   09 Jun 2027 06:52:07.667   09 Jun 2027 06:53:22.737            75.070         37503.313
       249   09 Jun 2027 06:53:38.060   09 Jun 2027 06:53:39.610             1.550           251.281
       250   09 Jun 2027 06:54:20.254   09 Jun 2027 06:54:25.167             4.913          1096.313
       251   09 Jun 2027 06:55:20.576   09 Jun 2027 06:55:20.576             0.000             0.000
       252   09 Jun 2027 06:55:26.431   09 Jun 2027 06:55:31.097             4.666          1709.000
       253   09 Jun 2027 06:55:42.743   09 Jun 2027 06:55:45.267             2.524           279.812
       254   09 Jun 2027 06:56:03.954   09 Jun 2027 06:56:03.954             0.000             0.000
       255   09 Jun 2027 06:57:23.450   09 Jun 2027 06:57:30.338             6.888          2751.156
       256   09 Jun 2027 06:58:38.218   09 Jun 2027 06:58:42.551             4.333          1710.813
       257   09 Jun 2027 06:58:43.910   09 Jun 2027 06:58:44.608             0.698            42.469
       258   09 Jun 2027 07:00:09.459   09 Jun 2027 07:00:14.919             5.460          1567.906
       259   09 Jun 2027 08:29:39.910   09 Jun 2027 08:29:44.498             4.588          2059.750
       260   09 Jun 2027 08:31:35.418   09 Jun 2027 08:31:42.186             6.768          2140.313
       261   09 Jun 2027 08:32:33.942   09 Jun 2027 08:32:38.099             4.157          1617.375
       262   09 Jun 2027 08:32:40.158   09 Jun 2027 08:32:40.367             0.209            64.344
       263   09 Jun 2027 08:33:08.147   09 Jun 2027 08:33:14.343             6.196           868.125
       264   09 Jun 2027 08:33:45.533   09 Jun 2027 08:33:52.708             7.175           953.250
       265   09 Jun 2027 08:34:06.674   09 Jun 2027 08:34:08.978             2.304           351.719
       266   09 Jun 2027 08:35:12.159   09 Jun 2027 08:35:16.719             4.560          1454.625
       267   09 Jun 2027 08:36:01.614   09 Jun 2027 08:36:10.121             8.507          1352.125
       268   09 Jun 2027 08:36:53.410   09 Jun 2027 08:36:54.404             0.994           340.406
       269   09 Jun 2027 10:06:25.987   09 Jun 2027 10:06:40.143            14.156          5408.125
       270   09 Jun 2027 10:07:22.112   09 Jun 2027 10:07:24.920             2.808          1079.031
       271   09 Jun 2027 10:08:58.120   09 Jun 2027 10:08:59.086             0.966           274.281
       272   09 Jun 2027 10:09:38.984   09 Jun 2027 10:09:40.806             1.822           879.437
       273   09 Jun 2027 10:10:10.364   09 Jun 2027 10:10:13.167             2.803           209.406
       274   09 Jun 2027 10:10:38.843   09 Jun 2027 10:10:41.028             2.185           254.000
       275   09 Jun 2027 10:10:57.299   09 Jun 2027 10:11:01.793             4.494           395.938
       276   09 Jun 2027 10:11:10.528   09 Jun 2027 10:11:12.657             2.129            39.000
       277   09 Jun 2027 10:12:08.408   09 Jun 2027 10:12:13.008             4.600          1704.031
       278   09 Jun 2027 10:12:44.610   09 Jun 2027 10:12:50.243             5.633           494.656
       279   09 Jun 2027 11:44:25.773   09 Jun 2027 11:44:36.854            11.081          5267.188
       280   09 Jun 2027 11:46:16.741   09 Jun 2027 11:46:23.672             6.931          2244.000
       281   09 Jun 2027 11:46:35.270   09 Jun 2027 11:46:37.344             2.074           181.437
       282   09 Jun 2027 11:47:29.855   09 Jun 2027 11:47:37.961             8.106          1197.937
       283   09 Jun 2027 11:47:54.349   09 Jun 2027 11:47:59.100             4.751           299.125
       284   09 Jun 2027 11:48:16.076   09 Jun 2027 11:48:20.557             4.481            50.062
       285   09 Jun 2027 11:48:30.895   09 Jun 2027 11:48:31.998             1.103           323.063
       286   10 Jun 2027 03:54:49.721   10 Jun 2027 03:54:53.662             3.941          1970.500
       287   10 Jun 2027 03:55:03.438   10 Jun 2027 03:55:35.170            31.732         15866.000
       288   10 Jun 2027 04:07:05.242   10 Jun 2027 04:07:32.721            27.479         13739.500
       289   10 Jun 2027 05:28:45.003   10 Jun 2027 05:30:05.631            80.628         40314.000
       290   10 Jun 2027 05:30:53.935   10 Jun 2027 05:32:08.262            74.327         37163.500
       291   10 Jun 2027 05:32:18.545   10 Jun 2027 05:32:18.545             0.000             0.000
       292   10 Jun 2027 05:32:36.836   10 Jun 2027 05:32:56.843            20.007         10003.500
       293   10 Jun 2027 07:03:38.682   10 Jun 2027 07:05:06.828            88.146         43057.562
       294   10 Jun 2027 07:05:39.101   10 Jun 2027 07:05:41.399             2.298           592.969
       295   10 Jun 2027 07:05:55.144   10 Jun 2027 07:05:59.009             3.865             4.594
       296   10 Jun 2027 07:06:01.781   10 Jun 2027 07:06:06.257             4.476            86.625
       297   10 Jun 2027 07:07:16.778   10 Jun 2027 07:07:17.805             1.027           107.625
       298   10 Jun 2027 07:07:29.775   10 Jun 2027 07:07:32.268             2.493           156.750
       299   10 Jun 2027 07:07:45.058   10 Jun 2027 07:07:45.058             0.000             0.000
       300   10 Jun 2027 07:08:10.253   10 Jun 2027 07:08:12.689             2.436          1037.281
       301   10 Jun 2027 07:09:14.393   10 Jun 2027 07:09:14.393             0.000             0.000
       302   10 Jun 2027 07:10:09.589   10 Jun 2027 07:10:16.370             6.781          2628.781
       303   10 Jun 2027 07:10:32.844   10 Jun 2027 07:10:32.844             0.000             0.000
       304   10 Jun 2027 07:10:53.857   10 Jun 2027 07:10:53.857             0.000             0.000
       305   10 Jun 2027 07:10:56.996   10 Jun 2027 07:10:59.431             2.435          1070.156
       306   10 Jun 2027 07:11:39.097   10 Jun 2027 07:11:40.602             1.505           688.812
       307   10 Jun 2027 08:41:34.863   10 Jun 2027 08:41:45.826            10.963          4754.563
       308   10 Jun 2027 08:43:45.224   10 Jun 2027 08:43:47.679             2.455           339.750
       309   10 Jun 2027 08:45:39.450   10 Jun 2027 08:45:44.325             4.875          2188.937
       310   10 Jun 2027 08:46:51.003   10 Jun 2027 08:46:56.106             5.103          1908.125
       311   10 Jun 2027 08:47:20.653   10 Jun 2027 08:47:23.094             2.441           201.125
       312   10 Jun 2027 08:47:48.138   10 Jun 2027 08:47:54.699             6.561           455.000
       313   10 Jun 2027 08:48:19.530   10 Jun 2027 08:48:21.972             2.442           652.156
       314   10 Jun 2027 08:48:45.223   10 Jun 2027 08:48:46.008             0.785           306.375
       315   10 Jun 2027 10:18:38.851   10 Jun 2027 10:18:55.624            16.773          6808.500
       316   10 Jun 2027 10:19:54.250   10 Jun 2027 10:19:56.553             2.303           883.844
       317   10 Jun 2027 10:21:46.848   10 Jun 2027 10:21:50.857             4.009           899.844
       318   10 Jun 2027 10:22:44.079   10 Jun 2027 10:22:46.398             2.319           553.281
       319   10 Jun 2027 10:23:12.494   10 Jun 2027 10:23:13.336             0.842           265.594
       320   10 Jun 2027 10:23:19.128   10 Jun 2027 10:23:19.566             0.438           181.000
       321   10 Jun 2027 10:24:33.928   10 Jun 2027 10:24:38.161             4.233          1909.313
       322   10 Jun 2027 11:56:12.991   10 Jun 2027 11:56:27.370            14.379          6949.594
       323   10 Jun 2027 11:58:18.863   10 Jun 2027 11:58:22.959             4.096          2045.844
       324   10 Jun 2027 11:59:30.167   10 Jun 2027 11:59:36.322             6.155           758.469
       325   11 Jun 2027 04:06:45.706   11 Jun 2027 04:07:12.543            26.837         13418.500
       326   11 Jun 2027 04:07:57.728   11 Jun 2027 04:08:03.368             5.640          2820.000
       327   11 Jun 2027 04:08:14.349   11 Jun 2027 04:08:26.021            11.672          5836.000
       328   11 Jun 2027 05:42:45.054   11 Jun 2027 05:45:31.339           166.285         83142.500
       329   11 Jun 2027 05:45:41.646   11 Jun 2027 05:45:47.617             5.971          2985.500
       330   11 Jun 2027 07:16:32.434   11 Jun 2027 07:18:13.738           101.304         50007.687
       331   11 Jun 2027 07:18:43.795   11 Jun 2027 07:18:46.163             2.368           605.844
       332   11 Jun 2027 07:19:05.809   11 Jun 2027 07:19:07.109             1.300           107.563
       333   11 Jun 2027 07:19:40.419   11 Jun 2027 07:19:45.655             5.236           900.813
       334   11 Jun 2027 07:20:31.629   11 Jun 2027 07:20:35.218             3.589          1390.656
       335   11 Jun 2027 07:22:10.797   11 Jun 2027 07:22:19.701             8.904          2585.594
       336   11 Jun 2027 07:22:42.488   11 Jun 2027 07:22:44.714             2.226           482.687
       337   11 Jun 2027 07:24:08.192   11 Jun 2027 07:24:13.335             5.143          2392.219
       338   11 Jun 2027 07:25:03.755   11 Jun 2027 07:25:04.353             0.598           299.000
       339   11 Jun 2027 08:53:47.252   11 Jun 2027 08:54:01.071            13.819          5440.344
       340   11 Jun 2027 08:56:13.465   11 Jun 2027 08:56:16.446             2.981          1281.562
       341   11 Jun 2027 08:57:47.479   11 Jun 2027 08:57:53.051             5.572          2508.156
       342   11 Jun 2027 08:59:08.425   11 Jun 2027 08:59:13.509             5.084           301.906
       343   11 Jun 2027 09:00:11.959   11 Jun 2027 09:00:18.487             6.528          1769.469
       344   11 Jun 2027 09:00:33.936   11 Jun 2027 09:00:35.451             1.515           418.313
       345   11 Jun 2027 10:30:59.415   11 Jun 2027 10:31:07.196             7.781          3890.500
       346   11 Jun 2027 10:31:13.833   11 Jun 2027 10:31:27.263            13.430          2409.437
       347   11 Jun 2027 10:34:16.998   11 Jun 2027 10:34:20.646             3.648          1645.500
       348   11 Jun 2027 10:34:42.800   11 Jun 2027 10:34:44.354             1.554           243.219
       349   11 Jun 2027 10:35:20.012   11 Jun 2027 10:35:20.796             0.784           199.750
       350   11 Jun 2027 10:35:42.473   11 Jun 2027 10:35:45.467             2.994           677.406
       351   11 Jun 2027 10:36:29.524   11 Jun 2027 10:36:32.424             2.900           981.969
       352   11 Jun 2027 10:36:40.361   11 Jun 2027 10:36:46.030             5.669            56.156
       353   12 Jun 2027 04:18:37.378   12 Jun 2027 04:19:34.909            57.531         28765.500
       354   12 Jun 2027 04:19:43.216   12 Jun 2027 04:20:04.318            21.102         10551.000
       355   12 Jun 2027 05:54:59.461   12 Jun 2027 05:57:25.342           145.881         72940.500
       356   12 Jun 2027 05:58:16.828   12 Jun 2027 05:58:31.320            14.492          7246.000
       357   12 Jun 2027 07:27:17.653   12 Jun 2027 07:27:51.640            33.987         16993.500
       358   12 Jun 2027 07:29:04.050   12 Jun 2027 07:29:47.383            43.333         18334.688
       359   12 Jun 2027 07:30:43.622   12 Jun 2027 07:30:49.812             6.190          1320.531
       360   12 Jun 2027 07:30:58.404   12 Jun 2027 07:30:58.404             0.000             0.000
       361   12 Jun 2027 07:31:01.062   12 Jun 2027 07:31:04.648             3.586           233.781
       362   12 Jun 2027 07:31:43.820   12 Jun 2027 07:31:47.672             3.852          1224.125
       363   12 Jun 2027 07:32:19.536   12 Jun 2027 07:32:19.536             0.000             0.000
       364   12 Jun 2027 07:33:21.075   12 Jun 2027 07:33:26.869             5.794          2879.562
       365   12 Jun 2027 07:33:52.231   12 Jun 2027 07:33:55.602             3.371           189.187
       366   12 Jun 2027 07:35:23.070   12 Jun 2027 07:35:32.266             9.196          2229.094
       367   12 Jun 2027 07:35:43.302   12 Jun 2027 07:35:45.326             2.024           344.875
       368   12 Jun 2027 07:36:25.727   12 Jun 2027 07:36:29.018             3.291          1262.531
       369   12 Jun 2027 07:36:57.215   12 Jun 2027 07:36:59.113             1.898           734.250
       370   12 Jun 2027 07:36:59.708   12 Jun 2027 07:36:59.941             0.233            18.594
       371   12 Jun 2027 09:06:08.035   12 Jun 2027 09:06:21.708            13.673          6025.219
       372   12 Jun 2027 09:09:40.736   12 Jun 2027 09:09:45.251             4.515          1085.063
       373   12 Jun 2027 09:10:07.671   12 Jun 2027 09:10:09.541             1.870           622.594
       374   12 Jun 2027 09:11:11.970   12 Jun 2027 09:11:14.039             2.069           201.531
       375   12 Jun 2027 09:12:08.770   12 Jun 2027 09:12:12.708             3.938          1710.344
       376   12 Jun 2027 10:43:05.971   12 Jun 2027 10:43:23.271            17.300          6882.031
       377   12 Jun 2027 10:43:31.999   12 Jun 2027 10:43:40.277             8.278            20.937
       378   12 Jun 2027 10:45:58.964   12 Jun 2027 10:46:06.512             7.548          2105.531
       379   12 Jun 2027 10:46:31.020   12 Jun 2027 10:46:33.591             2.571           410.594
       380   12 Jun 2027 10:46:36.366   12 Jun 2027 10:46:38.678             2.312            65.969
       381   12 Jun 2027 10:46:44.843   12 Jun 2027 10:46:45.901             1.058           192.656
       382   12 Jun 2027 10:46:52.273   12 Jun 2027 10:46:55.821             3.548            46.969
       383   12 Jun 2027 10:47:28.654   12 Jun 2027 10:47:33.072             4.418           827.250
       384   12 Jun 2027 10:47:59.169   12 Jun 2027 10:48:01.104             1.935           355.219
       385   13 Jun 2027 03:07:38.956   13 Jun 2027 03:08:35.744            56.788         28394.000
       386   13 Jun 2027 03:09:31.048   13 Jun 2027 03:09:46.620            15.572          7786.000
       387   13 Jun 2027 03:10:29.822   13 Jun 2027 03:10:40.964            11.142          5571.000
       388   13 Jun 2027 03:10:57.366   13 Jun 2027 03:11:13.114            15.748          7874.000
       389   13 Jun 2027 03:11:35.205   13 Jun 2027 03:11:37.856             2.651          1325.500
       390   13 Jun 2027 04:30:40.620   13 Jun 2027 04:31:19.953            39.333         19666.500
       391   13 Jun 2027 04:32:31.013   13 Jun 2027 04:32:42.122            11.109          5554.500
       392   13 Jun 2027 06:07:06.817   13 Jun 2027 06:09:20.240           133.423         66711.500
       393   13 Jun 2027 06:10:04.106   13 Jun 2027 06:10:18.636            14.530          7265.000
       394   13 Jun 2027 07:42:14.144   13 Jun 2027 07:42:23.293             9.149          4450.624
       395   13 Jun 2027 07:42:47.032   13 Jun 2027 07:42:52.416             5.384           741.844
       396   13 Jun 2027 07:43:21.687   13 Jun 2027 07:43:24.451             2.764           821.906
       397   13 Jun 2027 07:43:50.406   13 Jun 2027 07:43:53.725             3.319           387.656
       398   13 Jun 2027 07:45:18.720   13 Jun 2027 07:45:24.730             6.010          1580.094
       399   13 Jun 2027 07:45:54.832   13 Jun 2027 07:46:02.006             7.174           748.031
       400   13 Jun 2027 07:46:22.424   13 Jun 2027 07:46:22.424             0.000             0.000
       401   13 Jun 2027 07:47:32.733   13 Jun 2027 07:47:38.382             5.649          2744.219
       402   13 Jun 2027 07:48:03.070   13 Jun 2027 07:48:05.054             1.984           648.312
       403   13 Jun 2027 07:48:41.141   13 Jun 2027 07:48:43.840             2.699           796.219
       404   13 Jun 2027 07:48:54.204   13 Jun 2027 07:48:55.537             1.333           161.531
       405   13 Jun 2027 09:18:35.745   13 Jun 2027 09:18:49.304            13.559          6589.000
       406   13 Jun 2027 09:20:43.739   13 Jun 2027 09:20:46.822             3.083           276.937
       407   13 Jun 2027 09:20:53.396   13 Jun 2027 09:20:56.384             2.988           190.875
       408   13 Jun 2027 09:21:46.874   13 Jun 2027 09:21:49.248             2.374           922.219
       409   13 Jun 2027 09:22:35.864   13 Jun 2027 09:22:37.791             1.927           637.063
       410   13 Jun 2027 09:23:07.077   13 Jun 2027 09:23:11.390             4.313           390.156
       411   13 Jun 2027 09:24:00.050   13 Jun 2027 09:24:10.460            10.410          1520.625
       412   13 Jun 2027 09:24:56.226   13 Jun 2027 09:24:56.793             0.567           283.500
       413   13 Jun 2027 10:56:07.563   13 Jun 2027 10:56:22.250            14.687          4880.031
       414   13 Jun 2027 10:58:46.041   13 Jun 2027 10:58:51.389             5.348          1299.531
       415   13 Jun 2027 10:59:11.297   13 Jun 2027 10:59:13.013             1.716           599.000
       416   13 Jun 2027 10:59:13.588   13 Jun 2027 10:59:16.448             2.860            17.969
       417   13 Jun 2027 11:00:12.415   13 Jun 2027 11:00:16.027             3.612          1342.750
