uniorb/output/strategy_4/Camera/Camera_KinoSat_111205.txt

KinoSat_111205
-------------------------
    Access    *     Start Time (UTCG)     *     Stop Time (UTCG)  *   Duration (s) *   Data (Mbytes)
         1   01 Jun 2027 03:32:07.300   01 Jun 2027 03:34:21.627           134.327         67163.500
         2   01 Jun 2027 04:55:04.276   01 Jun 2027 04:56:14.753            70.477         35238.500
         3   01 Jun 2027 06:31:37.943   01 Jun 2027 06:33:20.536           102.593         51296.500
         4   01 Jun 2027 06:34:15.166   01 Jun 2027 06:34:20.227             5.061          2530.500
         5   01 Jun 2027 08:06:46.825   01 Jun 2027 08:08:58.276           131.451         65725.500
         6   01 Jun 2027 08:09:16.662   01 Jun 2027 08:09:49.376            32.714         16357.000
         7   01 Jun 2027 09:43:06.792   01 Jun 2027 09:43:52.257            45.465         22732.500
         8   01 Jun 2027 09:44:08.198   01 Jun 2027 09:46:06.035           117.837         58918.500
         9   01 Jun 2027 09:48:33.629   01 Jun 2027 09:48:34.931             1.302           651.000
        10   01 Jun 2027 09:48:45.988   01 Jun 2027 09:48:53.022             7.034          3517.000
        11   01 Jun 2027 11:20:41.453   01 Jun 2027 11:23:11.574           150.121         75060.500
        12   02 Jun 2027 03:43:52.875   02 Jun 2027 03:44:26.417            33.542         16771.000
        13   02 Jun 2027 03:44:41.303   02 Jun 2027 03:46:37.166           115.863         57931.500
        14   02 Jun 2027 03:47:10.484   02 Jun 2027 03:47:12.843             2.359          1179.500
        15   02 Jun 2027 05:07:13.439   02 Jun 2027 05:08:02.206            48.767         24383.500
        16   02 Jun 2027 05:08:20.667   02 Jun 2027 05:08:32.356            11.689          5844.500
        17   02 Jun 2027 06:43:48.561   02 Jun 2027 06:46:20.459           151.898         75949.000
        18   02 Jun 2027 06:46:51.974   02 Jun 2027 06:47:16.882            24.908         12454.000
        19   02 Jun 2027 08:18:58.613   02 Jun 2027 08:22:59.043           240.430        120215.000
        20   02 Jun 2027 08:25:12.124   02 Jun 2027 08:25:12.124             0.000             0.000
        21   02 Jun 2027 08:25:21.443   02 Jun 2027 08:25:34.326            12.883          6441.500
        22   02 Jun 2027 09:55:19.522   02 Jun 2027 09:55:46.894            27.372         13438.344
        23   02 Jun 2027 09:58:18.277   02 Jun 2027 09:58:19.534             1.257           360.250
        24   02 Jun 2027 09:59:16.127   02 Jun 2027 09:59:20.635             4.508          1657.688
        25   02 Jun 2027 09:59:37.096   02 Jun 2027 09:59:41.172             4.076           277.031
        26   02 Jun 2027 10:00:27.676   02 Jun 2027 10:00:30.262             2.586          1054.375
        27   02 Jun 2027 11:32:36.356   02 Jun 2027 11:32:54.205            17.849          6358.219
        28   02 Jun 2027 11:33:14.634   02 Jun 2027 11:33:16.138             1.504           363.594
        29   02 Jun 2027 11:35:03.701   02 Jun 2027 11:35:06.928             3.227           238.781
        30   02 Jun 2027 11:35:21.602   02 Jun 2027 11:35:22.483             0.881           292.313
        31   02 Jun 2027 11:35:24.493   02 Jun 2027 11:35:24.779             0.286            50.250
        32   02 Jun 2027 11:35:48.929   02 Jun 2027 11:35:49.929             1.000           163.813
        33   02 Jun 2027 11:36:29.834   02 Jun 2027 11:36:37.943             8.109           998.969
        34   02 Jun 2027 11:36:51.981   02 Jun 2027 11:36:53.205             1.224           222.375
        35   02 Jun 2027 11:37:08.458   02 Jun 2027 11:37:14.000             5.542           419.719
        36   03 Jun 2027 03:55:49.527   03 Jun 2027 03:56:29.367            39.840         19920.000
        37   03 Jun 2027 03:56:48.403   03 Jun 2027 03:59:24.777           156.374         78187.000
        38   03 Jun 2027 05:19:46.324   03 Jun 2027 05:19:50.490             4.166          2083.000
        39   03 Jun 2027 05:20:19.380   03 Jun 2027 05:20:23.629             4.249          2124.500
        40   03 Jun 2027 05:20:26.194   03 Jun 2027 05:20:35.417             9.223          4611.500
        41   03 Jun 2027 05:22:26.871   03 Jun 2027 05:22:26.871             0.000             0.000
        42   03 Jun 2027 06:55:36.529   03 Jun 2027 06:57:21.946           105.417         50273.469
        43   03 Jun 2027 06:58:12.826   03 Jun 2027 06:58:13.701             0.875           437.500
        44   03 Jun 2027 06:58:57.699   03 Jun 2027 06:58:59.853             2.154          1077.000
        45   03 Jun 2027 06:59:33.436   03 Jun 2027 06:59:40.545             7.109          2197.375
        46   03 Jun 2027 08:30:29.585   03 Jun 2027 08:30:38.826             9.241          2880.469
        47   03 Jun 2027 08:31:13.922   03 Jun 2027 08:31:15.260             1.338           429.469
        48   03 Jun 2027 08:32:47.793   03 Jun 2027 08:32:49.694             1.901           575.469
        49   03 Jun 2027 08:33:31.375   03 Jun 2027 08:33:33.789             2.414           535.687
        50   03 Jun 2027 08:33:37.037   03 Jun 2027 08:33:37.037             0.000             0.000
        51   03 Jun 2027 08:33:46.980   03 Jun 2027 08:33:50.852             3.872           369.812
        52   03 Jun 2027 08:34:16.654   03 Jun 2027 08:34:18.302             1.648           672.719
        53   03 Jun 2027 08:35:02.735   03 Jun 2027 08:35:05.646             2.911           959.906
        54   03 Jun 2027 08:35:13.690   03 Jun 2027 08:35:17.838             4.148           251.375
        55   03 Jun 2027 08:35:37.451   03 Jun 2027 08:35:40.570             3.119           584.500
        56   03 Jun 2027 08:35:57.234   03 Jun 2027 08:35:59.822             2.588           158.500
        57   03 Jun 2027 08:36:45.881   03 Jun 2027 08:36:51.369             5.488          1375.656
        58   03 Jun 2027 08:37:39.475   03 Jun 2027 08:37:42.778             3.303          1499.344
        59   03 Jun 2027 10:06:58.132   03 Jun 2027 10:07:13.532            15.400          5781.656
        60   03 Jun 2027 10:09:45.584   03 Jun 2027 10:09:49.812             4.228           216.719
        61   03 Jun 2027 10:10:16.724   03 Jun 2027 10:10:19.559             2.835           647.406
        62   03 Jun 2027 10:10:45.606   03 Jun 2027 10:10:50.876             5.270           750.031
        63   03 Jun 2027 10:11:31.692   03 Jun 2027 10:11:35.663             3.971           448.156
        64   03 Jun 2027 10:11:41.450   03 Jun 2027 10:11:41.909             0.459           180.844
        65   03 Jun 2027 10:12:56.704   03 Jun 2027 10:13:02.128             5.424          2184.844
        66   03 Jun 2027 10:13:18.125   03 Jun 2027 10:13:21.243             3.118           416.750
        67   03 Jun 2027 11:45:15.930   03 Jun 2027 11:45:28.483            12.553          5682.531
        68   03 Jun 2027 11:45:55.276   03 Jun 2027 11:45:56.429             1.153           426.562
        69   03 Jun 2027 11:47:23.133   03 Jun 2027 11:47:28.136             5.003          2117.937
        70   03 Jun 2027 11:48:19.342   03 Jun 2027 11:48:26.414             7.072          1521.406
        71   03 Jun 2027 11:48:43.292   03 Jun 2027 11:48:52.404             9.112           499.844
        72   03 Jun 2027 11:48:56.723   03 Jun 2027 11:48:57.842             1.119           134.969
        73   04 Jun 2027 03:56:25.467   04 Jun 2027 03:56:27.128             1.661           830.500
        74   04 Jun 2027 03:56:41.464   04 Jun 2027 03:56:44.296             2.832          1416.000
        75   04 Jun 2027 04:07:45.643   04 Jun 2027 04:09:26.400           100.757         50378.500
        76   04 Jun 2027 04:10:25.928   04 Jun 2027 04:10:29.754             3.826          1913.000
        77   04 Jun 2027 05:30:20.831   04 Jun 2027 05:31:25.094            64.263         32131.500
        78   04 Jun 2027 05:31:56.039   04 Jun 2027 05:32:57.261            61.222         30611.000
        79   04 Jun 2027 07:05:52.582   04 Jun 2027 07:06:43.351            50.769         25384.500
        80   04 Jun 2027 07:07:21.472   04 Jun 2027 07:07:48.015            26.543         12965.969
        81   04 Jun 2027 07:08:32.722   04 Jun 2027 07:08:32.722             0.000             0.000
        82   04 Jun 2027 07:08:33.977   04 Jun 2027 07:08:42.560             8.583           788.312
        83   04 Jun 2027 07:10:02.688   04 Jun 2027 07:10:07.605             4.917          2161.063
        84   04 Jun 2027 07:10:30.118   04 Jun 2027 07:10:31.934             1.816           484.969
        85   04 Jun 2027 07:10:55.461   04 Jun 2027 07:10:58.397             2.936           735.219
        86   04 Jun 2027 07:11:50.847   04 Jun 2027 07:11:54.435             3.588          1277.812
        87   04 Jun 2027 08:42:11.769   04 Jun 2027 08:42:16.485             4.716          1666.031
        88   04 Jun 2027 08:44:29.632   04 Jun 2027 08:44:39.577             9.945          2359.125
        89   04 Jun 2027 08:45:40.799   04 Jun 2027 08:45:45.811             5.012           475.750
        90   04 Jun 2027 08:45:51.730   04 Jun 2027 08:45:52.704             0.974           131.844
        91   04 Jun 2027 08:46:53.748   04 Jun 2027 08:46:56.355             2.607          1283.563
        92   04 Jun 2027 08:48:08.536   04 Jun 2027 08:48:12.391             3.855          1859.469
        93   04 Jun 2027 08:48:59.334   04 Jun 2027 08:49:01.868             2.534          1234.062
        94   04 Jun 2027 08:49:44.155   04 Jun 2027 08:49:44.311             0.156            78.000
        95   04 Jun 2027 10:19:18.695   04 Jun 2027 10:19:32.336            13.641          6012.125
        96   04 Jun 2027 10:21:20.044   04 Jun 2027 10:21:21.758             1.714            95.219
        97   04 Jun 2027 10:22:52.582   04 Jun 2027 10:22:56.550             3.968          1760.750
        98   04 Jun 2027 10:23:46.937   04 Jun 2027 10:23:49.585             2.648          1180.813
        99   04 Jun 2027 10:24:06.460   04 Jun 2027 10:24:08.316             1.856           245.188
       100   04 Jun 2027 10:25:17.132   04 Jun 2027 10:25:25.805             8.673          2056.437
       101   04 Jun 2027 11:57:14.018   04 Jun 2027 11:57:25.774            11.756          5835.563
       102   04 Jun 2027 11:57:47.311   04 Jun 2027 11:57:48.437             1.126           178.875
       103   04 Jun 2027 11:59:22.972   04 Jun 2027 11:59:25.122             2.150           339.812
       104   05 Jun 2027 04:08:04.780   05 Jun 2027 04:08:19.499            14.719          7359.500
       105   05 Jun 2027 04:09:11.866   05 Jun 2027 04:09:32.674            20.808         10404.000
       106   05 Jun 2027 04:19:48.767   05 Jun 2027 04:20:48.162            59.395         29697.500
       107   05 Jun 2027 05:42:03.831   05 Jun 2027 05:43:09.766            65.935         32967.500
       108   05 Jun 2027 05:43:59.452   05 Jun 2027 05:44:54.309            54.857         27428.500
       109   05 Jun 2027 05:45:54.184   05 Jun 2027 05:46:03.717             9.533          4766.500
       110   05 Jun 2027 07:17:01.244   05 Jun 2027 07:18:38.036            96.792         48396.000
       111   05 Jun 2027 07:18:46.636   05 Jun 2027 07:18:49.360             2.724           852.500
       112   05 Jun 2027 07:20:06.304   05 Jun 2027 07:20:14.740             8.436          1769.281
       113   05 Jun 2027 07:20:36.543   05 Jun 2027 07:20:40.098             3.555           596.937
       114   05 Jun 2027 07:21:27.835   05 Jun 2027 07:21:27.835             0.000             0.000
       115   05 Jun 2027 07:22:12.409   05 Jun 2027 07:22:15.056             2.647          1323.500
       116   05 Jun 2027 07:22:33.323   05 Jun 2027 07:22:37.657             4.334          1693.406
       117   05 Jun 2027 07:22:53.818   05 Jun 2027 07:22:56.478             2.660           505.031
       118   05 Jun 2027 07:23:48.677   05 Jun 2027 07:23:54.335             5.658          1631.219
       119   05 Jun 2027 07:25:23.204   05 Jun 2027 07:25:23.472             0.268           134.000
       120   05 Jun 2027 08:54:30.175   05 Jun 2027 08:54:34.934             4.759          2234.031
       121   05 Jun 2027 08:55:16.856   05 Jun 2027 08:55:21.291             4.435          1030.875
       122   05 Jun 2027 08:57:18.234   05 Jun 2027 08:57:21.423             3.189          1529.375
       123   05 Jun 2027 08:57:58.266   05 Jun 2027 08:58:00.068             1.802           805.156
       124   05 Jun 2027 08:58:44.905   05 Jun 2027 08:58:48.739             3.834          1182.719
       125   05 Jun 2027 08:59:01.705   05 Jun 2027 08:59:02.843             1.138            55.594
       126   05 Jun 2027 09:00:06.317   05 Jun 2027 09:00:14.189             7.872          1508.594
       127   05 Jun 2027 09:00:34.932   05 Jun 2027 09:00:39.311             4.379           383.000
       128   05 Jun 2027 09:01:10.265   05 Jun 2027 09:01:15.394             5.129           522.125
       129   05 Jun 2027 09:01:46.529   05 Jun 2027 09:01:47.343             0.814           100.094
       130   05 Jun 2027 10:31:14.774   05 Jun 2027 10:31:26.872            12.098          5807.312
       131   05 Jun 2027 10:34:00.399   05 Jun 2027 10:34:03.146             2.747           154.031
       132   05 Jun 2027 10:35:09.828   05 Jun 2027 10:35:15.071             5.243           475.125
       133   05 Jun 2027 10:35:30.893   05 Jun 2027 10:35:31.360             0.467            74.063
       134   05 Jun 2027 10:35:34.756   05 Jun 2027 10:35:35.323             0.567           106.125
       135   05 Jun 2027 10:36:02.850   05 Jun 2027 10:36:04.679             1.829           772.469
       136   05 Jun 2027 10:36:30.084   05 Jun 2027 10:36:33.659             3.575           793.906
       137   05 Jun 2027 10:37:32.378   05 Jun 2027 10:37:37.228             4.850          1834.969
       138   06 Jun 2027 03:00:00.000   06 Jun 2027 03:00:09.158             9.158          4579.000
       139   06 Jun 2027 03:00:51.422   06 Jun 2027 03:01:17.869            26.447         13223.500
       140   06 Jun 2027 04:19:38.192   06 Jun 2027 04:20:22.192            44.000         22000.000
       141   06 Jun 2027 04:21:24.961   06 Jun 2027 04:21:39.528            14.567          7283.500
       142   06 Jun 2027 04:31:54.348   06 Jun 2027 04:32:21.819            27.471         13735.500
       143   06 Jun 2027 05:53:36.131   06 Jun 2027 05:54:55.966            79.835         39917.500
       144   06 Jun 2027 05:55:44.791   06 Jun 2027 05:56:23.501            38.710         19355.000
       145   06 Jun 2027 05:58:20.505   06 Jun 2027 05:58:33.024            12.519          6259.500
       146   06 Jun 2027 05:58:44.091   06 Jun 2027 05:58:52.447             8.356          4178.000
       147   06 Jun 2027 05:58:59.586   06 Jun 2027 05:58:59.586             0.000             0.000
       148   06 Jun 2027 07:28:29.532   06 Jun 2027 07:29:37.336            67.804         33477.000
       149   06 Jun 2027 07:30:35.007   06 Jun 2027 07:30:35.878             0.871            77.500
       150   06 Jun 2027 07:31:20.826   06 Jun 2027 07:31:24.923             4.097          1232.687
       151   06 Jun 2027 07:32:54.343   06 Jun 2027 07:32:58.823             4.480          1856.531
       152   06 Jun 2027 07:34:14.994   06 Jun 2027 07:34:24.634             9.640          2204.500
       153   06 Jun 2027 07:35:10.489   06 Jun 2027 07:35:14.080             3.591          1064.250
       154   06 Jun 2027 07:36:09.500   06 Jun 2027 07:36:14.744             5.244          1636.375
       155   06 Jun 2027 07:36:24.229   06 Jun 2027 07:36:25.107             0.878           176.344
       156   06 Jun 2027 07:36:53.304   06 Jun 2027 07:36:57.285             3.981           481.562
       157   06 Jun 2027 09:06:23.552   06 Jun 2027 09:06:34.935            11.383          5218.563
       158   06 Jun 2027 09:07:22.139   06 Jun 2027 09:07:24.510             2.371          1128.750
       159   06 Jun 2027 09:09:13.174   06 Jun 2027 09:09:17.181             4.007          1403.344
       160   06 Jun 2027 09:10:34.433   06 Jun 2027 09:10:39.145             4.712          2284.500
       161   06 Jun 2027 09:11:45.213   06 Jun 2027 09:11:50.547             5.334          2064.625
       162   06 Jun 2027 09:13:01.122   06 Jun 2027 09:13:06.392             5.270          1964.000
       163   06 Jun 2027 09:13:25.342   06 Jun 2027 09:13:28.356             3.014           428.563
       164   06 Jun 2027 09:13:28.592   06 Jun 2027 09:13:28.768             0.176             7.375
       165   06 Jun 2027 10:43:07.603   06 Jun 2027 10:43:20.031            12.428          5445.406
       166   06 Jun 2027 10:43:42.175   06 Jun 2027 10:43:47.281             5.106           360.031
       167   06 Jun 2027 10:45:36.325   06 Jun 2027 10:45:44.283             7.958          1497.094
       168   06 Jun 2027 10:46:07.734   06 Jun 2027 10:46:10.464             2.730           442.438
       169   06 Jun 2027 10:47:12.353   06 Jun 2027 10:47:17.721             5.368          1815.375
       170   06 Jun 2027 10:47:22.768   06 Jun 2027 10:47:23.084             0.316            75.906
       171   06 Jun 2027 10:47:37.894   06 Jun 2027 10:47:39.400             1.506           438.406
       172   06 Jun 2027 10:47:40.819   06 Jun 2027 10:47:43.139             2.320            17.438
       173   06 Jun 2027 10:48:16.048   06 Jun 2027 10:48:20.529             4.481          1028.406
       174   06 Jun 2027 10:48:27.864   06 Jun 2027 10:48:29.073             1.209           205.594
       175   06 Jun 2027 10:49:02.722   06 Jun 2027 10:49:07.667             4.945           820.344
       176   06 Jun 2027 10:49:43.236   06 Jun 2027 10:49:49.945             6.709           734.219
       177   07 Jun 2027 03:07:40.211   07 Jun 2027 03:08:33.045            52.834         26417.000
       178   07 Jun 2027 03:09:07.034   07 Jun 2027 03:09:14.747             7.713          3856.500
       179   07 Jun 2027 03:09:50.792   07 Jun 2027 03:09:58.507             7.715          3857.500
       180   07 Jun 2027 03:10:13.236   07 Jun 2027 03:10:24.274            11.038          5519.000
       181   07 Jun 2027 03:11:01.720   07 Jun 2027 03:11:16.163            14.443          7221.500
       182   07 Jun 2027 04:31:34.056   07 Jun 2027 04:32:25.074            51.018         25509.000
       183   07 Jun 2027 04:33:18.824   07 Jun 2027 04:33:35.253            16.429          8214.500
       184   07 Jun 2027 06:07:34.838   07 Jun 2027 06:10:02.151           147.313         73656.500
       185   07 Jun 2027 06:10:51.672   07 Jun 2027 06:11:05.142            13.470          5729.626
       186   07 Jun 2027 07:41:22.541   07 Jun 2027 07:41:30.631             8.090          3220.719
       187   07 Jun 2027 07:42:44.672   07 Jun 2027 07:42:46.690             2.018           358.406
       188   07 Jun 2027 07:43:53.171   07 Jun 2027 07:43:56.433             3.262           570.438
       189   07 Jun 2027 07:44:35.358   07 Jun 2027 07:44:37.998             2.640          1169.219
       190   07 Jun 2027 07:45:07.927   07 Jun 2027 07:45:11.552             3.625           840.375
       191   07 Jun 2027 07:45:58.378   07 Jun 2027 07:46:04.142             5.764           879.750
       192   07 Jun 2027 07:46:35.317   07 Jun 2027 07:46:37.003             1.686           834.594
       193   07 Jun 2027 07:46:50.780   07 Jun 2027 07:46:50.780             0.000             0.000
       194   07 Jun 2027 07:47:19.595   07 Jun 2027 07:47:23.336             3.741          1255.219
       195   07 Jun 2027 07:48:05.641   07 Jun 2027 07:48:11.386             5.745          1208.469
       196   07 Jun 2027 07:48:25.584   07 Jun 2027 07:48:26.393             0.809           112.031
       197   07 Jun 2027 07:48:50.720   07 Jun 2027 07:48:53.236             2.516           760.219
       198   07 Jun 2027 09:18:31.689   07 Jun 2027 09:18:47.872            16.183          6678.000
       199   07 Jun 2027 09:21:06.027   07 Jun 2027 09:21:10.087             4.060          1238.156
       200   07 Jun 2027 09:22:37.740   07 Jun 2027 09:22:43.428             5.688          2727.406
       201   07 Jun 2027 09:23:31.204   07 Jun 2027 09:23:35.727             4.523           878.094
       202   07 Jun 2027 09:23:56.606   07 Jun 2027 09:23:57.713             1.107           112.188
       203   07 Jun 2027 09:25:00.343   07 Jun 2027 09:25:05.319             4.976          1839.687
       204   07 Jun 2027 09:25:26.155   07 Jun 2027 09:25:29.273             3.118           386.562
       205   07 Jun 2027 09:25:33.359   07 Jun 2027 09:25:35.968             2.609           121.594
       206   07 Jun 2027 09:25:41.236   07 Jun 2027 09:25:44.633             3.397            41.219
       207   07 Jun 2027 10:55:46.231   07 Jun 2027 10:56:01.004            14.773          6815.094
       208   07 Jun 2027 10:58:07.003   07 Jun 2027 10:58:09.708             2.705           519.719
       209   07 Jun 2027 10:59:09.553   07 Jun 2027 10:59:14.110             4.557          1731.656
       210   07 Jun 2027 10:59:35.673   07 Jun 2027 10:59:38.183             2.510           387.156
       211   07 Jun 2027 10:59:46.119   07 Jun 2027 10:59:52.510             6.391           196.844
       212   07 Jun 2027 11:00:04.135   07 Jun 2027 11:00:05.735             1.600           363.281
       213   07 Jun 2027 11:00:51.703   07 Jun 2027 11:00:57.045             5.342          1436.500
       214   07 Jun 2027 11:01:20.841   07 Jun 2027 11:01:23.480             2.639           502.750
       215   08 Jun 2027 03:20:05.142   08 Jun 2027 03:22:58.098           172.956         86478.000
       216   08 Jun 2027 03:23:08.584   08 Jun 2027 03:23:36.192            27.608         13804.000
       217   08 Jun 2027 04:43:27.044   08 Jun 2027 04:44:03.691            36.647         18323.500
       218   08 Jun 2027 06:19:47.758   08 Jun 2027 06:21:15.025            87.267         43213.156
       219   08 Jun 2027 06:21:40.751   08 Jun 2027 06:21:44.638             3.887           257.281
       220   08 Jun 2027 06:22:10.401   08 Jun 2027 06:22:12.664             2.263           701.719
       221   08 Jun 2027 06:23:14.417   08 Jun 2027 06:23:17.813             3.396          1698.000
       222   08 Jun 2027 07:53:48.359   08 Jun 2027 07:53:52.517             4.158          1525.531
       223   08 Jun 2027 07:55:26.422   08 Jun 2027 07:55:26.925             0.503           177.938
       224   08 Jun 2027 07:55:44.286   08 Jun 2027 07:55:45.936             1.650           241.687
       225   08 Jun 2027 07:55:52.131   08 Jun 2027 07:55:59.174             7.043            22.062
       226   08 Jun 2027 07:57:56.346   08 Jun 2027 07:58:02.546             6.200          2295.594
       227   08 Jun 2027 07:58:33.017   08 Jun 2027 07:58:34.480             1.463           628.281
       228   08 Jun 2027 07:59:58.703   08 Jun 2027 08:00:04.005             5.302          2588.594
       229   08 Jun 2027 08:00:14.809   08 Jun 2027 08:00:15.802             0.993           337.625
       230   08 Jun 2027 08:00:26.543   08 Jun 2027 08:00:28.465             1.922            36.344
       231   08 Jun 2027 08:00:29.929   08 Jun 2027 08:00:31.365             1.436            45.750
       232   08 Jun 2027 08:01:19.378   08 Jun 2027 08:01:26.128             6.750          1500.406
       233   08 Jun 2027 08:01:49.192   08 Jun 2027 08:01:51.784             2.592           108.094
       234   08 Jun 2027 09:30:56.955   08 Jun 2027 09:31:15.607            18.652          6656.094
       235   08 Jun 2027 09:34:36.991   08 Jun 2027 09:34:39.354             2.363           961.125
       236   08 Jun 2027 09:35:28.808   08 Jun 2027 09:35:30.394             1.586           721.594
       237   08 Jun 2027 09:35:43.053   08 Jun 2027 09:35:47.631             4.578           214.000
       238   08 Jun 2027 09:36:02.540   08 Jun 2027 09:36:06.545             4.005           465.906
       239   08 Jun 2027 09:37:02.073   08 Jun 2027 09:37:05.504             3.431          1228.906
       240   08 Jun 2027 11:07:55.418   08 Jun 2027 11:08:08.829            13.411          6691.250
       241   08 Jun 2027 11:09:45.502   08 Jun 2027 11:09:48.071             2.569           351.688
       242   08 Jun 2027 11:10:57.652   08 Jun 2027 11:10:59.396             1.744           151.969
       243   08 Jun 2027 11:11:22.916   08 Jun 2027 11:11:25.369             2.453           398.187
       244   08 Jun 2027 11:11:36.441   08 Jun 2027 11:11:39.264             2.823           255.594
       245   08 Jun 2027 11:11:53.575   08 Jun 2027 11:11:55.404             1.829           447.219
       246   08 Jun 2027 11:12:39.432   08 Jun 2027 11:12:46.750             7.318           980.187
       247   08 Jun 2027 11:13:09.328   08 Jun 2027 11:13:10.934             1.606            95.000
       248   09 Jun 2027 03:32:23.177   09 Jun 2027 03:34:54.554           151.377         75688.500
       249   09 Jun 2027 03:35:26.817   09 Jun 2027 03:36:25.856            59.039         29519.500
       250   09 Jun 2027 04:55:23.854   09 Jun 2027 04:55:44.120            20.266         10133.000
       251   09 Jun 2027 04:56:30.280   09 Jun 2027 04:56:35.675             5.395          2697.500
       252   09 Jun 2027 04:57:41.144   09 Jun 2027 04:58:03.074            21.930         10965.000
       253   09 Jun 2027 06:31:53.757   09 Jun 2027 06:32:54.044            60.287         30143.500
       254   09 Jun 2027 06:32:56.699   09 Jun 2027 06:32:57.716             1.017           215.000
       255   09 Jun 2027 06:33:59.707   09 Jun 2027 06:33:59.707             0.000             0.000
       256   09 Jun 2027 06:34:02.120   09 Jun 2027 06:34:06.220             4.100          1721.969
       257   09 Jun 2027 06:34:16.361   09 Jun 2027 06:34:16.361             0.000             0.000
       258   09 Jun 2027 06:34:26.861   09 Jun 2027 06:34:28.274             1.413           363.406
       259   09 Jun 2027 06:34:57.515   09 Jun 2027 06:35:07.098             9.583           610.875
       260   09 Jun 2027 08:07:02.554   09 Jun 2027 08:07:07.816             5.262          1790.750
       261   09 Jun 2027 08:07:42.715   09 Jun 2027 08:07:44.666             1.951           158.656
       262   09 Jun 2027 08:08:44.413   09 Jun 2027 08:08:51.350             6.937           918.313
       263   09 Jun 2027 08:10:10.643   09 Jun 2027 08:10:14.002             3.359          1496.406
       264   09 Jun 2027 08:10:44.946   09 Jun 2027 08:10:49.162             4.216           864.781
       265   09 Jun 2027 08:11:15.043   09 Jun 2027 08:11:17.851             2.808           678.250
       266   09 Jun 2027 08:12:07.603   09 Jun 2027 08:12:08.089             0.486           214.844
       267   09 Jun 2027 08:12:50.659   09 Jun 2027 08:12:53.404             2.745           803.625
       268   09 Jun 2027 08:13:34.889   09 Jun 2027 08:13:37.324             2.435          1049.719
       269   09 Jun 2027 08:13:43.903   09 Jun 2027 08:13:44.746             0.843           205.594
       270   09 Jun 2027 09:43:22.942   09 Jun 2027 09:43:33.078            10.136          4931.437
       271   09 Jun 2027 09:46:20.543   09 Jun 2027 09:46:22.232             1.689           692.656
       272   09 Jun 2027 09:46:40.755   09 Jun 2027 09:46:49.176             8.421            47.594
       273   09 Jun 2027 09:47:22.796   09 Jun 2027 09:47:27.246             4.450           938.750
       274   09 Jun 2027 09:48:01.433   09 Jun 2027 09:48:04.335             2.902          1068.344
       275   09 Jun 2027 09:48:53.429   09 Jun 2027 09:49:00.572             7.143          1490.906
       276   09 Jun 2027 11:20:56.979   09 Jun 2027 11:21:12.023            15.044          7171.594
       277   09 Jun 2027 11:22:24.440   09 Jun 2027 11:22:29.249             4.809          1418.812
       278   09 Jun 2027 11:22:56.190   09 Jun 2027 11:22:58.839             2.649           410.750
       279   09 Jun 2027 11:23:54.602   09 Jun 2027 11:24:02.282             7.680          1700.406
       280   09 Jun 2027 11:25:08.677   09 Jun 2027 11:25:13.536             4.859          2062.344
       281   10 Jun 2027 03:44:08.129   10 Jun 2027 03:44:42.488            34.359         17179.500
       282   10 Jun 2027 03:44:56.735   10 Jun 2027 03:47:38.159           161.424         80712.000
       283   10 Jun 2027 03:47:51.169   10 Jun 2027 03:47:56.691             5.522          2761.000
       284   10 Jun 2027 05:07:28.443   10 Jun 2027 05:07:51.078            22.635         11317.500
       285   10 Jun 2027 06:44:04.200   10 Jun 2027 06:45:18.098            73.898         36158.438
       286   10 Jun 2027 06:45:34.025   10 Jun 2027 06:45:36.344             2.319           399.688
       287   10 Jun 2027 06:46:37.447   10 Jun 2027 06:46:41.278             3.831          1312.813
       288   10 Jun 2027 06:46:55.429   10 Jun 2027 06:47:00.641             5.212           442.219
       289   10 Jun 2027 08:19:14.467   10 Jun 2027 08:19:21.108             6.641          2156.844
       290   10 Jun 2027 08:19:33.285   10 Jun 2027 08:19:35.549             2.264            71.063
       291   10 Jun 2027 08:21:00.192   10 Jun 2027 08:21:02.551             2.359           457.219
       292   10 Jun 2027 08:22:03.604   10 Jun 2027 08:22:07.321             3.717           914.156
       293   10 Jun 2027 08:22:23.654   10 Jun 2027 08:22:26.441             2.787           510.406
       294   10 Jun 2027 08:22:59.217   10 Jun 2027 08:23:03.051             3.834           786.656
       295   10 Jun 2027 08:24:27.027   10 Jun 2027 08:24:31.938             4.911          2207.156
       296   10 Jun 2027 08:25:29.182   10 Jun 2027 08:25:33.305             4.123          1788.875
       297   10 Jun 2027 08:25:36.797   10 Jun 2027 08:25:37.993             1.196            22.938
       298   10 Jun 2027 09:55:34.350   10 Jun 2027 09:55:42.596             8.246          3856.594
       299   10 Jun 2027 09:57:25.859   10 Jun 2027 09:57:28.541             2.682            88.406
       300   10 Jun 2027 09:58:26.596   10 Jun 2027 09:58:31.401             4.805           182.031
       301   10 Jun 2027 09:58:38.288   10 Jun 2027 09:58:38.752             0.464           171.156
       302   10 Jun 2027 09:59:43.231   10 Jun 2027 09:59:47.609             4.378          1729.063
       303   10 Jun 2027 10:00:10.810   10 Jun 2027 10:00:13.896             3.086           548.594
       304   10 Jun 2027 10:00:47.882   10 Jun 2027 10:00:49.467             1.585           150.469
       305   10 Jun 2027 10:01:07.085   10 Jun 2027 10:01:10.311             3.226           138.531
       306   10 Jun 2027 10:01:39.728   10 Jun 2027 10:01:42.579             2.851           591.688
       307   10 Jun 2027 11:33:00.769   10 Jun 2027 11:33:10.793            10.024          4884.000
       308   10 Jun 2027 11:33:30.126   10 Jun 2027 11:33:32.324             2.198           300.719
       309   10 Jun 2027 11:34:36.026   10 Jun 2027 11:34:37.523             1.497           117.687
       310   10 Jun 2027 11:35:39.329   10 Jun 2027 11:35:40.568             1.239           377.906
       311   10 Jun 2027 11:36:01.956   10 Jun 2027 11:36:03.852             1.896           608.438
       312   10 Jun 2027 11:36:37.770   10 Jun 2027 11:36:45.230             7.460          1013.375
       313   10 Jun 2027 11:37:10.508   10 Jun 2027 11:37:16.222             5.714           789.938
       314   11 Jun 2027 03:45:20.766   11 Jun 2027 03:45:22.914             2.148          1074.000
       315   11 Jun 2027 03:56:05.016   11 Jun 2027 03:56:45.216            40.200         20100.000
       316   11 Jun 2027 03:57:02.903   11 Jun 2027 03:59:40.568           157.665         78832.500
       317   11 Jun 2027 05:20:02.363   11 Jun 2027 05:20:34.886            32.523         16261.500
       318   11 Jun 2027 06:55:50.923   11 Jun 2027 06:57:21.820            90.897         41516.156
       319   11 Jun 2027 06:57:50.420   11 Jun 2027 06:57:53.404             2.984            45.531
       320   11 Jun 2027 06:58:29.729   11 Jun 2027 06:58:30.492             0.763           381.500
       321   11 Jun 2027 06:59:12.491   11 Jun 2027 06:59:14.208             1.717           858.500
       322   11 Jun 2027 06:59:51.255   11 Jun 2027 06:59:56.031             4.776          2353.656
       323   11 Jun 2027 08:30:43.805   11 Jun 2027 08:30:48.718             4.913          1914.875
       324   11 Jun 2027 08:31:31.284   11 Jun 2027 08:31:34.180             2.896           509.875
       325   11 Jun 2027 08:33:05.170   11 Jun 2027 08:33:08.142             2.972           590.344
       326   11 Jun 2027 08:33:48.924   11 Jun 2027 08:33:51.956             3.032           688.125
       327   11 Jun 2027 08:33:54.445   11 Jun 2027 08:33:57.069             2.624            74.531
       328   11 Jun 2027 08:34:08.793   11 Jun 2027 08:34:11.024             2.231           366.375
       329   11 Jun 2027 08:35:00.043   11 Jun 2027 08:35:02.854             2.811           894.250
       330   11 Jun 2027 08:36:26.378   11 Jun 2027 08:36:35.056             8.678          2065.594
       331   11 Jun 2027 08:37:23.300   11 Jun 2027 08:37:27.279             3.979          1507.625
       332   11 Jun 2027 10:07:14.111   11 Jun 2027 10:07:28.072            13.961          6405.812
       333   11 Jun 2027 10:09:35.113   11 Jun 2027 10:09:36.424             1.311           622.531
       334   11 Jun 2027 10:10:12.016   11 Jun 2027 10:10:13.659             1.643           355.156
       335   11 Jun 2027 10:11:26.508   11 Jun 2027 10:11:32.382             5.874          1177.062
       336   11 Jun 2027 10:11:47.703   11 Jun 2027 10:11:49.300             1.597           478.781
       337   11 Jun 2027 10:12:28.214   11 Jun 2027 10:12:30.282             2.068          1000.062
       338   11 Jun 2027 10:13:10.612   11 Jun 2027 10:13:13.952             3.340          1054.031
       339   11 Jun 2027 10:13:35.016   11 Jun 2027 10:13:36.033             1.017           491.375
       340   11 Jun 2027 11:45:32.061   11 Jun 2027 11:45:47.124            15.063          5751.688
       341   11 Jun 2027 11:46:31.600   11 Jun 2027 11:46:34.660             3.060          1198.156
       342   11 Jun 2027 11:47:41.241   11 Jun 2027 11:47:43.942             2.701            42.344
       343   11 Jun 2027 11:48:35.520   11 Jun 2027 11:48:41.394             5.874          1466.375
       344   11 Jun 2027 11:48:58.205   11 Jun 2027 11:49:06.393             8.188           455.094
       345   11 Jun 2027 11:49:12.192   11 Jun 2027 11:49:13.466             1.274           181.219
       346   11 Jun 2027 11:49:15.211   11 Jun 2027 11:49:19.725             4.514            44.625
       347   12 Jun 2027 03:56:39.264   12 Jun 2027 03:56:56.040            16.776          8388.000
       348   12 Jun 2027 04:08:01.337   12 Jun 2027 04:09:41.904           100.567         50283.500
       349   12 Jun 2027 05:30:37.034   12 Jun 2027 05:31:40.242            63.208         31604.000
       350   12 Jun 2027 05:31:53.757   12 Jun 2027 05:32:28.672            34.915         17457.500
       351   12 Jun 2027 05:34:31.878   12 Jun 2027 05:34:52.624            20.746         10373.000
       352   12 Jun 2027 07:06:07.801   12 Jun 2027 07:06:58.622            50.821         25410.500
       353   12 Jun 2027 07:07:36.335   12 Jun 2027 07:08:14.585            38.250         18722.750
       354   12 Jun 2027 07:08:51.041   12 Jun 2027 07:08:58.698             7.657           841.594
       355   12 Jun 2027 07:10:20.194   12 Jun 2027 07:10:24.659             4.465          2179.625
       356   12 Jun 2027 07:12:01.125   12 Jun 2027 07:12:07.627             6.502          2830.125
       357   12 Jun 2027 08:42:27.963   12 Jun 2027 08:42:33.800             5.837          2036.969
       358   12 Jun 2027 08:44:46.494   12 Jun 2027 08:44:54.274             7.780          2337.156
       359   12 Jun 2027 08:45:56.420   12 Jun 2027 08:46:00.176             3.756           428.844
       360   12 Jun 2027 08:46:51.573   12 Jun 2027 08:46:58.046             6.473          1403.688
       361   12 Jun 2027 08:47:26.780   12 Jun 2027 08:47:32.477             5.697           728.687
       362   12 Jun 2027 08:47:43.698   12 Jun 2027 08:47:44.187             0.489            16.844
       363   12 Jun 2027 08:48:48.866   12 Jun 2027 08:48:56.246             7.380          1098.469
       364   12 Jun 2027 08:49:39.888   12 Jun 2027 08:49:41.716             1.828           888.156
       365   12 Jun 2027 10:19:34.034   12 Jun 2027 10:19:48.900            14.866          6227.750
       366   12 Jun 2027 10:21:37.479   12 Jun 2027 10:21:38.458             0.979           193.281
       367   12 Jun 2027 10:23:12.339   12 Jun 2027 10:23:21.575             9.236          1879.344
       368   12 Jun 2027 10:24:02.818   12 Jun 2027 10:24:06.794             3.976          1213.156
       369   12 Jun 2027 10:24:21.965   12 Jun 2027 10:24:25.054             3.089           253.094
       370   12 Jun 2027 10:25:34.095   12 Jun 2027 10:25:38.025             3.930          1965.000
       371   12 Jun 2027 10:25:40.330   12 Jun 2027 10:25:41.000             0.670           136.281
       372   12 Jun 2027 11:57:29.542   12 Jun 2027 11:57:41.472            11.930          5197.063
       373   12 Jun 2027 11:58:05.639   12 Jun 2027 11:58:10.520             4.881           188.187
       374   12 Jun 2027 11:59:40.753   12 Jun 2027 11:59:41.794             1.041           428.188
       375   13 Jun 2027 04:08:20.553   13 Jun 2027 04:08:35.044            14.491          7245.500
       376   13 Jun 2027 04:09:26.533   13 Jun 2027 04:09:47.220            20.687         10343.500
       377   13 Jun 2027 04:20:04.762   13 Jun 2027 04:20:42.177            37.415         18707.500
       378   13 Jun 2027 05:42:19.045   13 Jun 2027 05:43:25.244            66.199         33099.500
       379   13 Jun 2027 05:44:12.804   13 Jun 2027 05:45:17.386            64.582         32291.000
       380   13 Jun 2027 05:45:42.793   13 Jun 2027 05:46:09.415            26.622         13311.000
       381   13 Jun 2027 05:46:43.122   13 Jun 2027 05:46:43.122             0.000             0.000
       382   13 Jun 2027 07:17:15.398   13 Jun 2027 07:18:47.772            92.374         46187.000
       383   13 Jun 2027 07:18:56.041   13 Jun 2027 07:18:56.041             0.000             0.000
       384   13 Jun 2027 07:19:26.115   13 Jun 2027 07:19:31.131             5.016          1298.687
       385   13 Jun 2027 07:21:11.020   13 Jun 2027 07:21:17.951             6.931          2893.687
       386   13 Jun 2027 07:22:28.122   13 Jun 2027 07:22:30.983             2.861          1326.219
       387   13 Jun 2027 07:23:28.620   13 Jun 2027 07:23:32.372             3.752          1799.500
       388   13 Jun 2027 07:23:47.875   13 Jun 2027 07:23:49.884             2.009           196.625
       389   13 Jun 2027 07:24:00.050   13 Jun 2027 07:24:01.584             1.534           317.687
       390   13 Jun 2027 08:54:45.432   13 Jun 2027 08:54:50.087             4.655          2315.563
       391   13 Jun 2027 08:55:34.628   13 Jun 2027 08:55:42.719             8.091          1027.219
       392   13 Jun 2027 08:57:35.567   13 Jun 2027 08:57:39.072             3.505          1545.594
       393   13 Jun 2027 08:58:16.138   13 Jun 2027 08:58:18.579             2.441           879.156
       394   13 Jun 2027 08:59:00.319   13 Jun 2027 08:59:03.608             3.289          1204.750
       395   13 Jun 2027 08:59:17.424   13 Jun 2027 08:59:19.708             2.284            80.469
       396   13 Jun 2027 09:00:22.706   13 Jun 2027 09:00:25.816             3.110          1459.656
       397   13 Jun 2027 09:00:56.551   13 Jun 2027 09:00:59.392             2.841           490.813
       398   13 Jun 2027 09:01:25.617   13 Jun 2027 09:01:30.095             4.478           416.156
       399   13 Jun 2027 09:02:01.767   13 Jun 2027 09:02:02.544             0.777           123.938
       400   13 Jun 2027 10:31:30.186   13 Jun 2027 10:31:42.099            11.913          5876.500
       401   13 Jun 2027 10:34:27.174   13 Jun 2027 10:34:28.176             1.002           368.844
       402   13 Jun 2027 10:35:17.891   13 Jun 2027 10:35:27.111             9.220          1234.469
       403   13 Jun 2027 10:35:47.477   13 Jun 2027 10:35:48.978             1.501           570.750
       404   13 Jun 2027 10:36:21.400   13 Jun 2027 10:36:23.943             2.543           942.906
       405   13 Jun 2027 10:37:01.010   13 Jun 2027 10:37:04.243             3.233           756.625
       406   13 Jun 2027 10:37:39.805   13 Jun 2027 10:37:43.034             3.229           767.094
