uniorb/output/strategy_4/Camera/Camera_KinoSat_111004.txt

KinoSat_111004
-------------------------
    Access    *     Start Time (UTCG)     *     Stop Time (UTCG)  *   Duration (s) *   Data (Mbytes)
         1   01 Jun 2027 03:36:47.365   01 Jun 2027 03:38:03.974            76.609         38304.500
         2   01 Jun 2027 05:12:44.500   01 Jun 2027 05:14:31.492           106.992         53496.000
         3   01 Jun 2027 05:15:34.321   01 Jun 2027 05:16:19.398            45.077         22538.500
         4   01 Jun 2027 06:46:33.434   01 Jun 2027 06:48:12.711            99.277         49638.500
         5   01 Jun 2027 06:50:02.873   01 Jun 2027 06:50:10.825             7.952          3976.000
         6   01 Jun 2027 06:50:42.000   01 Jun 2027 06:50:42.000             0.000             0.000
         7   01 Jun 2027 06:52:43.292   01 Jun 2027 06:52:53.941            10.649          5324.500
         8   01 Jun 2027 06:53:14.196   01 Jun 2027 06:53:14.406             0.210           105.000
         9   01 Jun 2027 06:53:29.310   01 Jun 2027 06:53:29.310             0.000             0.000
        10   01 Jun 2027 06:54:05.018   01 Jun 2027 06:54:10.347             5.329          2664.500
        11   01 Jun 2027 06:54:33.853   01 Jun 2027 06:54:41.199             7.346          3673.000
        12   01 Jun 2027 08:23:42.628   01 Jun 2027 08:25:42.603           119.975         59987.500
        13   01 Jun 2027 08:26:51.315   01 Jun 2027 08:27:06.731            15.416          7708.000
        14   01 Jun 2027 08:27:32.635   01 Jun 2027 08:27:37.747             5.112          2556.000
        15   01 Jun 2027 08:28:51.498   01 Jun 2027 08:29:23.843            32.345         16172.500
        16   01 Jun 2027 10:00:45.341   01 Jun 2027 10:03:11.936           146.595         73297.500
        17   01 Jun 2027 10:04:40.726   01 Jun 2027 10:05:04.447            23.721         11860.500
        18   01 Jun 2027 10:05:13.206   01 Jun 2027 10:05:26.584            13.378          6689.000
        19   01 Jun 2027 10:06:32.615   01 Jun 2027 10:06:40.318             7.703          3851.500
        20   01 Jun 2027 11:37:41.359   01 Jun 2027 11:39:14.386            93.027         46513.500
        21   01 Jun 2027 11:40:28.515   01 Jun 2027 11:41:12.378            43.863         21931.500
        22   02 Jun 2027 03:48:40.149   02 Jun 2027 03:49:12.120            31.971         15985.500
        23   02 Jun 2027 05:25:02.729   02 Jun 2027 05:28:05.021           182.292         91146.000
        24   02 Jun 2027 05:28:12.363   02 Jun 2027 05:28:12.363             0.000             0.000
        25   02 Jun 2027 06:58:53.956   02 Jun 2027 07:02:12.731           198.775         99387.500
        26   02 Jun 2027 07:02:45.751   02 Jun 2027 07:02:55.532             9.781          4890.500
        27   02 Jun 2027 07:05:47.838   02 Jun 2027 07:06:02.246            14.408          7204.000
        28   02 Jun 2027 07:06:03.334   02 Jun 2027 07:06:13.464            10.130          5065.000
        29   02 Jun 2027 07:07:01.710   02 Jun 2027 07:07:04.202             2.492          1246.000
        30   02 Jun 2027 08:36:08.966   02 Jun 2027 08:40:15.051           246.085        122392.686
        31   02 Jun 2027 08:40:41.797   02 Jun 2027 08:40:45.255             3.458           122.250
        32   02 Jun 2027 10:13:09.745   02 Jun 2027 10:13:50.769            41.024         17191.750
        33   02 Jun 2027 10:14:52.303   02 Jun 2027 10:14:54.229             1.926           589.531
        34   02 Jun 2027 10:16:03.487   02 Jun 2027 10:16:12.489             9.002          1429.469
        35   02 Jun 2027 10:16:56.651   02 Jun 2027 10:17:02.986             6.335          1380.063
        36   02 Jun 2027 10:17:45.820   02 Jun 2027 10:17:48.455             2.635          1273.594
        37   02 Jun 2027 10:18:32.043   02 Jun 2027 10:18:35.559             3.516          1362.125
        38   02 Jun 2027 11:49:54.978   02 Jun 2027 11:50:17.791            22.813          8548.031
        39   02 Jun 2027 11:51:28.018   02 Jun 2027 11:51:28.809             0.791           190.594
        40   02 Jun 2027 11:52:52.345   02 Jun 2027 11:52:55.028             2.683          1118.750
        41   03 Jun 2027 04:00:28.652   03 Jun 2027 04:00:34.208             5.556          2778.000
        42   03 Jun 2027 04:00:54.146   03 Jun 2027 04:01:30.320            36.174         18087.000
        43   03 Jun 2027 05:37:06.161   03 Jun 2027 05:39:12.575           126.414         63207.000
        44   03 Jun 2027 05:39:58.502   03 Jun 2027 05:40:30.002            31.500         15750.000
        45   03 Jun 2027 07:12:08.531   03 Jun 2027 07:14:14.463           125.932         61765.313
        46   03 Jun 2027 07:15:16.332   03 Jun 2027 07:15:22.809             6.477          1924.406
        47   03 Jun 2027 07:15:44.129   03 Jun 2027 07:15:46.969             2.840           376.906
        48   03 Jun 2027 07:16:16.291   03 Jun 2027 07:16:17.507             1.216           119.125
        49   03 Jun 2027 07:17:40.506   03 Jun 2027 07:17:40.506             0.000             0.000
        50   03 Jun 2027 07:18:08.363   03 Jun 2027 07:18:11.694             3.331          1394.719
        51   03 Jun 2027 07:18:50.087   03 Jun 2027 07:18:51.895             1.808           706.219
        52   03 Jun 2027 07:18:54.989   03 Jun 2027 07:18:55.464             0.475            96.687
        53   03 Jun 2027 08:48:18.250   03 Jun 2027 08:48:28.347            10.097          4793.812
        54   03 Jun 2027 08:52:25.563   03 Jun 2027 08:52:29.452             3.889            77.094
        55   03 Jun 2027 08:53:54.771   03 Jun 2027 08:54:02.925             8.154          2623.906
        56   03 Jun 2027 08:54:40.844   03 Jun 2027 08:54:43.953             3.109           646.656
        57   03 Jun 2027 10:26:01.569   03 Jun 2027 10:26:16.617            15.048          6460.281
        58   03 Jun 2027 10:28:42.598   03 Jun 2027 10:28:44.621             2.023           297.469
        59   03 Jun 2027 10:30:09.991   03 Jun 2027 10:30:15.930             5.939          2013.969
        60   04 Jun 2027 04:12:42.707   04 Jun 2027 04:13:32.484            49.777         24888.500
        61   04 Jun 2027 05:49:15.489   04 Jun 2027 05:51:42.622           147.133         73566.500
        62   04 Jun 2027 07:24:25.936   04 Jun 2027 07:26:28.795           122.859         60522.656
        63   04 Jun 2027 07:27:17.995   04 Jun 2027 07:27:23.053             5.058           147.500
        64   04 Jun 2027 07:28:12.436   04 Jun 2027 07:28:18.651             6.215           968.312
        65   04 Jun 2027 07:29:43.659   04 Jun 2027 07:29:45.318             1.659           617.781
        66   04 Jun 2027 07:30:18.436   04 Jun 2027 07:30:20.846             2.410           716.875
        67   04 Jun 2027 07:30:37.003   04 Jun 2027 07:30:38.611             1.608           289.844
        68   04 Jun 2027 09:00:47.806   04 Jun 2027 09:00:59.564            11.758          5426.969
        69   04 Jun 2027 09:03:58.490   04 Jun 2027 09:04:01.612             3.122           492.594
        70   04 Jun 2027 09:05:11.817   04 Jun 2027 09:05:12.808             0.991           204.500
        71   04 Jun 2027 09:05:53.185   04 Jun 2027 09:05:54.479             1.294           100.094
        72   04 Jun 2027 09:06:05.539   04 Jun 2027 09:06:06.749             1.210            35.344
        73   04 Jun 2027 09:06:14.325   04 Jun 2027 09:06:18.005             3.680             5.000
        74   04 Jun 2027 10:38:05.739   04 Jun 2027 10:38:19.786            14.047          6788.000
        75   04 Jun 2027 10:39:53.069   04 Jun 2027 10:39:56.889             3.820           816.000
        76   04 Jun 2027 10:40:40.006   04 Jun 2027 10:40:43.620             3.614           718.844
        77   04 Jun 2027 10:41:38.689   04 Jun 2027 10:41:42.452             3.763          1720.906
        78   04 Jun 2027 10:42:14.552   04 Jun 2027 10:42:16.728             2.176          1003.125
        79   04 Jun 2027 10:42:31.074   04 Jun 2027 10:42:32.120             1.046           333.031
        80   04 Jun 2027 10:42:36.032   04 Jun 2027 10:42:36.875             0.843            20.937
        81   05 Jun 2027 03:01:17.624   05 Jun 2027 03:01:31.147            13.523          6761.500
        82   05 Jun 2027 03:01:56.221   05 Jun 2027 03:01:56.664             0.443           221.500
        83   05 Jun 2027 03:02:19.537   05 Jun 2027 03:02:27.122             7.585          3792.500
        84   05 Jun 2027 03:02:41.597   05 Jun 2027 03:03:09.991            28.394         14197.000
        85   05 Jun 2027 03:03:58.024   05 Jun 2027 03:03:59.223             1.199           599.500
        86   05 Jun 2027 03:04:37.693   05 Jun 2027 03:04:50.635            12.942          6471.000
        87   05 Jun 2027 04:25:12.260   05 Jun 2027 04:25:38.363            26.103         13051.500
        88   05 Jun 2027 04:26:37.444   05 Jun 2027 04:26:41.637             4.193          2096.500
        89   05 Jun 2027 04:27:28.979   05 Jun 2027 04:27:56.064            27.085         13542.500
        90   05 Jun 2027 06:01:07.142   05 Jun 2027 06:03:40.769           153.627         76813.500
        91   05 Jun 2027 06:04:34.599   05 Jun 2027 06:05:11.692            37.093         18546.500
        92   05 Jun 2027 07:36:01.621   05 Jun 2027 07:36:25.849            24.228         10260.156
        93   05 Jun 2027 07:39:18.454   05 Jun 2027 07:39:22.421             3.967           295.187
        94   05 Jun 2027 07:40:14.872   05 Jun 2027 07:40:18.401             3.529           814.281
        95   05 Jun 2027 07:40:34.920   05 Jun 2027 07:40:37.337             2.417           371.906
        96   05 Jun 2027 07:41:32.144   05 Jun 2027 07:41:40.380             8.236          1690.781
        97   05 Jun 2027 07:42:49.159   05 Jun 2027 07:42:54.569             5.410          2040.094
        98   05 Jun 2027 09:12:23.061   05 Jun 2027 09:12:33.541            10.480          4563.031
        99   05 Jun 2027 09:16:08.515   05 Jun 2027 09:16:09.336             0.821           308.719
       100   05 Jun 2027 09:17:02.756   05 Jun 2027 09:17:06.255             3.499          1534.719
       101   05 Jun 2027 09:17:29.639   05 Jun 2027 09:17:38.381             8.742           617.875
       102   05 Jun 2027 09:17:47.079   05 Jun 2027 09:17:47.444             0.365           178.031
       103   05 Jun 2027 10:50:39.945   05 Jun 2027 10:50:52.643            12.698          5977.437
       104   05 Jun 2027 10:51:20.731   05 Jun 2027 10:51:28.589             7.858           356.594
       105   05 Jun 2027 10:52:43.971   05 Jun 2027 10:52:53.223             9.252          2294.969
       106   05 Jun 2027 10:53:52.905   05 Jun 2027 10:54:00.192             7.287          1740.375
       107   05 Jun 2027 10:54:19.814   05 Jun 2027 10:54:21.496             1.682            64.844
       108   06 Jun 2027 03:01:57.821   06 Jun 2027 03:02:19.039            21.218         10609.000
       109   06 Jun 2027 03:13:13.899   06 Jun 2027 03:15:48.883           154.984         77492.000
       110   06 Jun 2027 04:35:49.762   06 Jun 2027 04:36:07.957            18.195          9097.500
       111   06 Jun 2027 04:36:10.745   06 Jun 2027 04:36:30.768            20.023         10011.500
       112   06 Jun 2027 06:11:24.483   06 Jun 2027 06:12:07.595            43.112         21556.000
       113   06 Jun 2027 06:12:50.918   06 Jun 2027 06:14:05.606            74.688         36832.437
       114   06 Jun 2027 06:14:23.300   06 Jun 2027 06:14:23.300             0.000             0.000
       115   06 Jun 2027 06:14:59.605   06 Jun 2027 06:15:03.696             4.091          1687.469
       116   06 Jun 2027 06:15:35.165   06 Jun 2027 06:15:35.891             0.726           363.000
       117   06 Jun 2027 06:15:38.003   06 Jun 2027 06:15:38.003             0.000             0.000
       118   06 Jun 2027 06:16:13.455   06 Jun 2027 06:16:18.047             4.592          1653.125
       119   06 Jun 2027 06:16:37.268   06 Jun 2027 06:16:38.407             1.139            44.281
       120   06 Jun 2027 07:47:36.819   06 Jun 2027 07:47:42.073             5.254          1615.187
       121   06 Jun 2027 07:48:31.274   06 Jun 2027 07:48:40.062             8.788           651.438
       122   06 Jun 2027 07:51:50.781   06 Jun 2027 07:51:54.480             3.699          1486.219
       123   06 Jun 2027 07:52:28.589   06 Jun 2027 07:52:34.224             5.635           272.969
       124   06 Jun 2027 07:53:30.139   06 Jun 2027 07:53:33.731             3.592          1023.469
       125   06 Jun 2027 07:55:01.648   06 Jun 2027 07:55:07.289             5.641          2401.938
       126   06 Jun 2027 09:24:43.199   06 Jun 2027 09:24:57.348            14.149          5197.187
       127   06 Jun 2027 09:25:21.550   06 Jun 2027 09:25:23.815             2.265           116.625
       128   06 Jun 2027 09:26:20.652   06 Jun 2027 09:26:21.664             1.012           377.438
       129   06 Jun 2027 09:28:22.262   06 Jun 2027 09:28:23.562             1.300            26.219
       130   06 Jun 2027 09:29:08.390   06 Jun 2027 09:29:10.488             2.098           541.531
       131   06 Jun 2027 09:29:45.258   06 Jun 2027 09:29:51.274             6.016           986.375
       132   06 Jun 2027 11:02:41.258   06 Jun 2027 11:02:56.237            14.979          6646.406
       133   06 Jun 2027 11:03:27.488   06 Jun 2027 11:03:29.266             1.778           828.750
       134   06 Jun 2027 11:04:18.218   06 Jun 2027 11:04:21.648             3.430          1123.750
       135   06 Jun 2027 11:04:51.938   06 Jun 2027 11:04:52.765             0.827           261.688
       136   06 Jun 2027 11:06:13.002   06 Jun 2027 11:06:14.090             1.088           210.281
       137   06 Jun 2027 11:06:34.062   06 Jun 2027 11:06:37.544             3.482           315.969
       138   07 Jun 2027 03:13:32.738   07 Jun 2027 03:13:40.312             7.574          3787.000
       139   07 Jun 2027 03:25:16.663   07 Jun 2027 03:26:26.104            69.441         34720.500
       140   07 Jun 2027 04:47:31.639   07 Jun 2027 04:48:38.427            66.788         33394.000
       141   07 Jun 2027 04:49:28.939   07 Jun 2027 04:50:53.073            84.134         42067.000
       142   07 Jun 2027 04:51:38.174   07 Jun 2027 04:51:42.512             4.338          2169.000
       143   07 Jun 2027 06:22:31.297   07 Jun 2027 06:23:37.259            65.962         32763.625
       144   07 Jun 2027 06:23:46.866   07 Jun 2027 06:23:47.985             1.119           195.531
       145   07 Jun 2027 06:24:00.277   07 Jun 2027 06:24:05.699             5.422           369.906
       146   07 Jun 2027 06:25:12.370   07 Jun 2027 06:25:15.380             3.010          1393.375
       147   07 Jun 2027 06:25:41.829   07 Jun 2027 06:25:41.829             0.000             0.000
       148   07 Jun 2027 06:25:48.028   07 Jun 2027 06:25:49.906             1.878           234.250
       149   07 Jun 2027 06:26:17.154   07 Jun 2027 06:26:19.677             2.523           851.500
       150   07 Jun 2027 06:27:34.055   07 Jun 2027 06:27:41.383             7.328          2157.906
       151   07 Jun 2027 06:27:56.321   07 Jun 2027 06:27:56.321             0.000             0.000
       152   07 Jun 2027 06:28:15.029   07 Jun 2027 06:28:23.843             8.814           842.875
       153   07 Jun 2027 06:28:51.927   07 Jun 2027 06:28:53.299             1.372            39.781
       154   07 Jun 2027 06:29:13.817   07 Jun 2027 06:29:14.486             0.669           329.875
       155   07 Jun 2027 06:29:34.926   07 Jun 2027 06:29:36.487             1.561           198.812
       156   07 Jun 2027 07:59:56.787   07 Jun 2027 08:00:06.080             9.293          3122.906
       157   07 Jun 2027 08:01:41.977   07 Jun 2027 08:01:53.253            11.276          2157.500
       158   07 Jun 2027 08:03:07.575   07 Jun 2027 08:03:08.344             0.769           378.031
       159   07 Jun 2027 08:04:27.499   07 Jun 2027 08:04:30.239             2.740          1095.281
       160   07 Jun 2027 08:05:32.035   07 Jun 2027 08:05:32.035             0.000             0.000
       161   07 Jun 2027 08:05:52.372   07 Jun 2027 08:05:57.109             4.737           996.156
       162   07 Jun 2027 08:07:10.754   07 Jun 2027 08:07:15.468             4.714          2264.719
       163   07 Jun 2027 09:36:44.053   07 Jun 2027 09:37:00.214            16.161          4727.188
       164   07 Jun 2027 09:39:16.480   07 Jun 2027 09:39:22.463             5.983            45.219
       165   07 Jun 2027 09:40:38.819   07 Jun 2027 09:40:40.003             1.184           130.094
       166   07 Jun 2027 09:40:52.286   07 Jun 2027 09:40:53.270             0.984           383.844
       167   07 Jun 2027 09:41:36.752   07 Jun 2027 09:41:41.657             4.905           625.094
       168   07 Jun 2027 09:42:03.186   07 Jun 2027 09:42:04.850             1.664           484.437
       169   07 Jun 2027 09:42:33.802   07 Jun 2027 09:42:35.708             1.906            30.094
       170   07 Jun 2027 09:43:00.250   07 Jun 2027 09:43:03.796             3.546           116.375
       171   07 Jun 2027 11:14:41.659   07 Jun 2027 11:14:53.346            11.687          5433.156
       172   07 Jun 2027 11:16:46.610   07 Jun 2027 11:16:49.034             2.424           671.156
       173   07 Jun 2027 11:17:34.508   07 Jun 2027 11:17:38.074             3.566          1169.969
       174   07 Jun 2027 11:18:15.488   07 Jun 2027 11:18:16.812             1.324           615.812
       175   07 Jun 2027 11:18:35.203   07 Jun 2027 11:18:39.859             4.656           290.281
       176   07 Jun 2027 11:18:46.229   07 Jun 2027 11:18:47.592             1.363           156.219
       177   08 Jun 2027 03:25:04.901   08 Jun 2027 03:25:34.850            29.949         14974.500
       178   08 Jun 2027 03:37:17.502   08 Jun 2027 03:37:49.211            31.709         15854.500
       179   08 Jun 2027 04:59:11.703   08 Jun 2027 05:00:25.076            73.373         36686.500
       180   08 Jun 2027 05:01:14.661   08 Jun 2027 05:02:37.628            82.967         41483.500
       181   08 Jun 2027 05:02:58.367   08 Jun 2027 05:03:18.119            19.752          9876.000
       182   08 Jun 2027 05:03:45.218   08 Jun 2027 05:03:45.218             0.000             0.000
       183   08 Jun 2027 05:04:27.322   08 Jun 2027 05:04:39.253            11.931          5965.500
       184   08 Jun 2027 06:34:00.099   08 Jun 2027 06:35:09.459            69.360         34112.781
       185   08 Jun 2027 06:35:22.158   08 Jun 2027 06:35:27.156             4.998           350.469
       186   08 Jun 2027 06:36:03.512   08 Jun 2027 06:36:06.594             3.082           484.594
       187   08 Jun 2027 06:36:38.006   08 Jun 2027 06:36:40.591             2.585           778.719
       188   08 Jun 2027 06:38:06.558   08 Jun 2027 06:38:10.885             4.327          1811.156
       189   08 Jun 2027 06:39:35.648   08 Jun 2027 06:39:44.656             9.008          2461.688
       190   08 Jun 2027 06:40:42.087   08 Jun 2027 06:40:47.221             5.134          1539.250
       191   08 Jun 2027 06:41:16.415   08 Jun 2027 06:41:18.969             2.554           311.219
       192   08 Jun 2027 06:41:36.652   08 Jun 2027 06:41:36.652             0.000             0.000
       193   08 Jun 2027 06:42:20.717   08 Jun 2027 06:42:23.862             3.145          1565.281
       194   08 Jun 2027 08:12:08.198   08 Jun 2027 08:12:18.877            10.679          1045.031
       195   08 Jun 2027 08:14:01.192   08 Jun 2027 08:14:06.188             4.996           624.969
       196   08 Jun 2027 08:15:35.350   08 Jun 2027 08:15:40.156             4.806          1569.781
       197   08 Jun 2027 08:17:46.379   08 Jun 2027 08:17:48.248             1.869           902.719
       198   08 Jun 2027 08:18:51.494   08 Jun 2027 08:18:53.717             2.223          1034.344
       199   08 Jun 2027 09:48:35.489   08 Jun 2027 09:48:50.978            15.489          5446.562
       200   08 Jun 2027 09:49:06.933   08 Jun 2027 09:49:08.044             1.111           279.500
       201   08 Jun 2027 09:52:38.326   08 Jun 2027 09:52:41.710             3.384           802.125
       202   08 Jun 2027 09:53:02.139   08 Jun 2027 09:53:04.095             1.956           288.094
       203   08 Jun 2027 09:53:19.020   08 Jun 2027 09:53:20.655             1.635           350.531
       204   08 Jun 2027 09:53:29.415   08 Jun 2027 09:53:30.421             1.006           200.406
       205   08 Jun 2027 09:53:55.785   08 Jun 2027 09:53:57.747             1.962           792.625
       206   08 Jun 2027 09:54:54.897   08 Jun 2027 09:54:56.755             1.858           647.813
       207   08 Jun 2027 11:26:44.218   08 Jun 2027 11:26:57.313            13.095          6144.094
       208   08 Jun 2027 11:29:31.615   08 Jun 2027 11:29:35.362             3.747           935.219
       209   08 Jun 2027 11:30:47.405   08 Jun 2027 11:30:49.811             2.406          1203.000
       210   09 Jun 2027 03:37:02.549   09 Jun 2027 03:37:35.316            32.767         16383.500
       211   09 Jun 2027 05:12:59.996   09 Jun 2027 05:15:50.869           170.873         85436.500
       212   09 Jun 2027 06:46:48.431   09 Jun 2027 06:48:41.822           113.391         55098.750
       213   09 Jun 2027 06:49:14.532   09 Jun 2027 06:49:18.467             3.935           731.437
       214   09 Jun 2027 06:50:28.685   09 Jun 2027 06:50:33.087             4.402          2186.031
       215   09 Jun 2027 06:52:46.017   09 Jun 2027 06:52:53.366             7.349          3323.188
       216   09 Jun 2027 06:54:20.254   09 Jun 2027 06:54:31.743            11.489          2484.969
       217   09 Jun 2027 08:23:57.943   09 Jun 2027 08:24:04.774             6.831          1526.031
       218   09 Jun 2027 08:25:39.651   09 Jun 2027 08:25:43.884             4.233          1216.000
       219   09 Jun 2027 08:26:31.059   09 Jun 2027 08:26:40.341             9.282           843.281
       220   09 Jun 2027 08:27:54.666   09 Jun 2027 08:28:00.628             5.962          2322.656
       221   09 Jun 2027 08:29:01.545   09 Jun 2027 08:29:03.360             1.815           846.500
       222   09 Jun 2027 08:29:05.114   09 Jun 2027 08:29:13.571             8.457             1.937
       223   09 Jun 2027 08:29:41.674   09 Jun 2027 08:29:42.057             0.383           136.781
       224   09 Jun 2027 08:30:41.298   09 Jun 2027 08:30:48.641             7.343          1770.094
       225   09 Jun 2027 08:30:55.928   09 Jun 2027 08:30:56.462             0.534           138.156
       226   09 Jun 2027 10:01:01.076   09 Jun 2027 10:01:10.746             9.670          4797.656
       227   09 Jun 2027 10:02:34.591   09 Jun 2027 10:02:38.987             4.396          1000.438
       228   09 Jun 2027 10:02:41.225   09 Jun 2027 10:02:42.844             1.619            40.531
       229   09 Jun 2027 10:03:04.793   09 Jun 2027 10:03:05.758             0.965           464.375
       230   09 Jun 2027 10:03:40.785   09 Jun 2027 10:03:44.312             3.527           360.437
       231   09 Jun 2027 10:04:21.570   09 Jun 2027 10:04:25.275             3.705           513.000
       232   09 Jun 2027 10:04:34.239   09 Jun 2027 10:04:38.288             4.049           280.125
       233   09 Jun 2027 10:04:54.298   09 Jun 2027 10:04:55.702             1.404           368.125
       234   09 Jun 2027 10:05:20.477   09 Jun 2027 10:05:22.021             1.544           491.250
       235   09 Jun 2027 10:05:31.060   09 Jun 2027 10:05:32.713             1.653           282.469
       236   09 Jun 2027 10:06:47.583   09 Jun 2027 10:06:53.553             5.970          1879.844
       237   09 Jun 2027 11:37:55.680   09 Jun 2027 11:38:05.918            10.238          5003.094
       238   09 Jun 2027 11:40:54.493   09 Jun 2027 11:40:59.245             4.752           558.531
       239   09 Jun 2027 11:41:15.555   09 Jun 2027 11:41:16.888             1.333            57.156
       240   09 Jun 2027 11:41:41.866   09 Jun 2027 11:41:47.351             5.485           430.719
       241   09 Jun 2027 11:42:32.839   09 Jun 2027 11:42:33.910             1.071            85.938
       242   09 Jun 2027 11:42:48.080   09 Jun 2027 11:42:50.258             2.178           326.312
       243   10 Jun 2027 03:48:55.097   10 Jun 2027 03:48:58.277             3.180          1590.000
       244   10 Jun 2027 03:50:21.303   10 Jun 2027 03:50:25.097             3.794          1897.000
       245   10 Jun 2027 03:50:37.253   10 Jun 2027 03:50:43.375             6.122          3061.000
       246   10 Jun 2027 05:25:17.435   10 Jun 2027 05:28:21.205           183.770         91885.000
       247   10 Jun 2027 06:59:09.458   10 Jun 2027 07:01:04.735           115.277         56246.656
       248   10 Jun 2027 07:01:15.210   10 Jun 2027 07:01:18.500             3.290           327.344
       249   10 Jun 2027 07:01:54.385   10 Jun 2027 07:01:57.056             2.671           877.000
       250   10 Jun 2027 07:02:23.770   10 Jun 2027 07:02:25.586             1.816           751.312
       251   10 Jun 2027 07:03:03.588   10 Jun 2027 07:03:05.320             1.732           866.000
       252   10 Jun 2027 07:03:28.415   10 Jun 2027 07:03:33.367             4.952           886.812
       253   10 Jun 2027 07:03:58.555   10 Jun 2027 07:03:58.555             0.000             0.000
       254   10 Jun 2027 07:04:04.232   10 Jun 2027 07:04:09.982             5.750           951.750
       255   10 Jun 2027 07:05:50.176   10 Jun 2027 07:05:54.997             4.821          2410.500
       256   10 Jun 2027 07:05:55.144   10 Jun 2027 07:05:59.009             3.865           451.437
       257   10 Jun 2027 07:06:39.836   10 Jun 2027 07:06:42.656             2.820           318.156
       258   10 Jun 2027 07:07:09.061   10 Jun 2027 07:07:11.521             2.460           344.094
       259   10 Jun 2027 07:07:16.778   10 Jun 2027 07:07:17.805             1.027           107.625
       260   10 Jun 2027 08:36:24.643   10 Jun 2027 08:36:30.761             6.118          2722.719
       261   10 Jun 2027 08:41:38.253   10 Jun 2027 08:41:40.713             2.460           884.250
       262   10 Jun 2027 08:42:47.115   10 Jun 2027 08:42:49.799             2.684           774.250
       263   10 Jun 2027 10:13:25.862   10 Jun 2027 10:13:39.082            13.220          5731.469
       264   10 Jun 2027 10:16:19.681   10 Jun 2027 10:16:27.763             8.082          1396.344
       265   10 Jun 2027 10:17:14.894   10 Jun 2027 10:17:20.381             5.487          1472.844
       266   10 Jun 2027 10:18:07.269   10 Jun 2027 10:18:10.118             2.849           987.719
       267   10 Jun 2027 10:18:15.540   10 Jun 2027 10:18:19.988             4.448            98.687
       268   10 Jun 2027 11:50:10.049   10 Jun 2027 11:50:32.179            22.130          8034.844
       269   10 Jun 2027 11:53:08.479   10 Jun 2027 11:53:12.338             3.859          1146.719
       270   11 Jun 2027 04:00:43.989   11 Jun 2027 04:00:56.678            12.689          6344.500
       271   11 Jun 2027 05:37:20.835   11 Jun 2027 05:40:17.516           176.681         88340.500
       272   11 Jun 2027 07:12:27.144   11 Jun 2027 07:14:29.722           122.578         60766.875
       273   11 Jun 2027 07:15:31.671   11 Jun 2027 07:15:37.440             5.769          1891.938
       274   11 Jun 2027 07:16:28.982   11 Jun 2027 07:16:32.434             3.452          1272.312
       275   11 Jun 2027 07:18:24.408   11 Jun 2027 07:18:30.097             5.689          1396.344
       276   11 Jun 2027 07:19:02.367   11 Jun 2027 07:19:05.809             3.442           580.375
       277   11 Jun 2027 07:19:11.593   11 Jun 2027 07:19:16.421             4.828           180.750
       278   11 Jun 2027 08:48:47.866   11 Jun 2027 08:48:57.600             9.734          4737.688
       279   11 Jun 2027 08:52:10.854   11 Jun 2027 08:52:11.474             0.620           111.000
       280   11 Jun 2027 08:52:38.424   11 Jun 2027 08:52:38.817             0.393            87.344
       281   11 Jun 2027 08:52:46.436   11 Jun 2027 08:52:47.375             0.939           209.594
       282   11 Jun 2027 08:53:33.302   11 Jun 2027 08:53:34.899             1.597           536.063
       283   11 Jun 2027 08:54:12.366   11 Jun 2027 08:54:17.767             5.401           531.312
       284   11 Jun 2027 08:54:58.068   11 Jun 2027 08:55:00.146             2.078           721.344
       285   11 Jun 2027 10:26:17.796   11 Jun 2027 10:26:30.036            12.240          5596.656
       286   11 Jun 2027 10:28:03.315   11 Jun 2027 10:28:09.521             6.206           730.625
       287   11 Jun 2027 10:28:58.077   11 Jun 2027 10:29:01.708             3.631           237.406
       288   11 Jun 2027 10:30:24.775   11 Jun 2027 10:30:31.009             6.234          1909.156
       289   12 Jun 2027 04:12:57.552   12 Jun 2027 04:13:47.381            49.829         24914.500
       290   12 Jun 2027 04:15:45.633   12 Jun 2027 04:15:45.633             0.000             0.000
       291   12 Jun 2027 05:49:31.181   12 Jun 2027 05:51:48.458           137.277         68638.500
       292   12 Jun 2027 07:24:41.145   12 Jun 2027 07:26:48.023           126.878         63281.657
       293   12 Jun 2027 07:27:55.420   12 Jun 2027 07:27:59.094             3.674           838.938
       294   12 Jun 2027 07:28:29.088   12 Jun 2027 07:28:29.088             0.000             0.000
       295   12 Jun 2027 07:29:39.855   12 Jun 2027 07:29:47.383             7.528          3007.219
       296   12 Jun 2027 07:30:43.622   12 Jun 2027 07:30:49.812             6.190          1320.531
       297   12 Jun 2027 07:30:58.404   12 Jun 2027 07:31:01.062             2.658           150.719
       298   12 Jun 2027 07:31:04.648   12 Jun 2027 07:31:05.854             1.206           112.063
       299   12 Jun 2027 09:01:02.596   12 Jun 2027 09:01:13.253            10.657          4316.250
       300   12 Jun 2027 09:04:18.937   12 Jun 2027 09:04:21.219             2.282           367.687
       301   12 Jun 2027 09:05:26.504   12 Jun 2027 09:05:28.767             2.263           156.531
       302   12 Jun 2027 09:06:08.233   12 Jun 2027 09:06:09.091             0.858            86.375
       303   12 Jun 2027 09:06:30.527   12 Jun 2027 09:06:33.401             2.874            48.281
       304   12 Jun 2027 10:38:20.977   12 Jun 2027 10:38:34.561            13.584          6775.094
       305   12 Jun 2027 10:40:13.462   12 Jun 2027 10:40:18.214             4.752            94.406
       306   12 Jun 2027 10:40:57.354   12 Jun 2027 10:40:59.622             2.268           942.813
       307   12 Jun 2027 10:41:33.438   12 Jun 2027 10:41:33.626             0.188            90.281
       308   12 Jun 2027 10:41:54.224   12 Jun 2027 10:41:54.453             0.229             6.625
       309   12 Jun 2027 10:42:32.921   12 Jun 2027 10:42:36.036             3.115          1095.562
       310   12 Jun 2027 10:42:46.091   12 Jun 2027 10:42:46.943             0.852           291.031
       311   12 Jun 2027 10:42:51.545   12 Jun 2027 10:42:53.266             1.721            47.125
       312   13 Jun 2027 03:01:32.961   13 Jun 2027 03:01:49.982            17.021          8510.500
       313   13 Jun 2027 03:02:10.847   13 Jun 2027 03:02:10.847             0.000             0.000
       314   13 Jun 2027 03:02:42.130   13 Jun 2027 03:02:56.078            13.948          6974.000
       315   13 Jun 2027 03:03:24.838   13 Jun 2027 03:03:35.803            10.965          5482.500
       316   13 Jun 2027 03:04:13.700   13 Jun 2027 03:04:14.712             1.012           506.000
       317   13 Jun 2027 03:04:52.270   13 Jun 2027 03:05:05.764            13.494          6747.000
       318   13 Jun 2027 04:25:27.233   13 Jun 2027 04:26:02.321            35.088         17544.000
       319   13 Jun 2027 04:26:10.763   13 Jun 2027 04:26:25.339            14.576          7288.000
       320   13 Jun 2027 04:26:51.048   13 Jun 2027 04:26:55.020             3.972          1986.000
       321   13 Jun 2027 06:01:21.894   13 Jun 2027 06:03:50.247           148.353         74176.500
       322   13 Jun 2027 06:04:28.391   13 Jun 2027 06:04:50.329            21.938         10969.000
       323   13 Jun 2027 06:04:58.814   13 Jun 2027 06:05:04.468             5.654          2827.000
       324   13 Jun 2027 06:05:12.572   13 Jun 2027 06:05:27.237            14.665          7332.500
       325   13 Jun 2027 07:36:15.647   13 Jun 2027 07:36:44.241            28.594         13366.625
       326   13 Jun 2027 07:37:23.846   13 Jun 2027 07:37:28.123             4.277          1094.906
       327   13 Jun 2027 07:38:09.758   13 Jun 2027 07:38:10.561             0.803           366.594
       328   13 Jun 2027 07:38:54.227   13 Jun 2027 07:38:56.710             2.483           952.469
       329   13 Jun 2027 07:39:34.797   13 Jun 2027 07:39:37.108             2.311           329.281
       330   13 Jun 2027 07:40:31.675   13 Jun 2027 07:40:37.597             5.922           807.656
       331   13 Jun 2027 07:40:37.846   13 Jun 2027 07:40:40.013             2.167             7.781
       332   13 Jun 2027 07:41:46.423   13 Jun 2027 07:41:54.210             7.787          1454.938
       333   13 Jun 2027 07:43:04.028   13 Jun 2027 07:43:09.449             5.421          2040.406
       334   13 Jun 2027 09:12:39.014   13 Jun 2027 09:12:49.165            10.151          4924.500
       335   13 Jun 2027 09:16:24.032   13 Jun 2027 09:16:28.018             3.986           179.031
       336   13 Jun 2027 09:17:17.393   13 Jun 2027 09:17:20.540             3.147          1509.687
       337   13 Jun 2027 09:17:44.889   13 Jun 2027 09:17:51.492             6.603           588.844
       338   13 Jun 2027 09:18:45.068   13 Jun 2027 09:18:47.908             2.840          1356.563
       339   13 Jun 2027 10:50:55.467   13 Jun 2027 10:51:04.844             9.377          4668.344
       340   13 Jun 2027 10:51:36.170   13 Jun 2027 10:51:45.228             9.058           845.000
       341   13 Jun 2027 10:52:59.400   13 Jun 2027 10:53:07.173             7.773          2284.000
       342   13 Jun 2027 10:54:08.533   13 Jun 2027 10:54:13.670             5.137          1789.406
       343   13 Jun 2027 10:54:35.489   13 Jun 2027 10:54:38.113             2.624            69.656
