uniorb/output/strategy_4/Camera/Camera_KinoSat_111405.txt

KinoSat_111405
-------------------------
    Access    *     Start Time (UTCG)     *     Stop Time (UTCG)  *   Duration (s) *   Data (Mbytes)
         1   01 Jun 2027 03:23:20.329   01 Jun 2027 03:25:31.094           130.765         65382.500
         2   01 Jun 2027 03:25:48.387   01 Jun 2027 03:25:57.846             9.459          4729.500
         3   01 Jun 2027 03:28:45.893   01 Jun 2027 03:29:04.518            18.625          9312.500
         4   01 Jun 2027 03:30:09.461   01 Jun 2027 03:30:16.614             7.153          3576.500
         5   01 Jun 2027 04:48:35.156   01 Jun 2027 04:48:57.847            22.691         11345.500
         6   01 Jun 2027 04:49:32.374   01 Jun 2027 04:49:50.732            18.358          9179.000
         7   01 Jun 2027 05:00:04.074   01 Jun 2027 05:00:46.336            42.262         21131.000
         8   01 Jun 2027 05:01:30.918   01 Jun 2027 05:01:31.169             0.251           125.500
         9   01 Jun 2027 06:22:43.330   01 Jun 2027 06:23:42.326            58.996         29498.000
        10   01 Jun 2027 06:24:19.086   01 Jun 2027 06:24:43.372            24.286         12143.000
        11   01 Jun 2027 07:58:03.089   01 Jun 2027 07:59:02.105            59.016         29508.000
        12   01 Jun 2027 07:59:35.243   01 Jun 2027 08:00:22.246            47.003         23501.500
        13   01 Jun 2027 08:00:50.923   01 Jun 2027 08:01:10.490            19.567          9783.500
        14   01 Jun 2027 09:34:33.635   01 Jun 2027 09:35:18.157            44.522         22261.000
        15   01 Jun 2027 09:37:50.736   01 Jun 2027 09:38:00.161             9.425          4712.500
        16   01 Jun 2027 09:39:04.702   01 Jun 2027 09:40:28.386            83.684         41842.000
        17   01 Jun 2027 09:41:15.136   01 Jun 2027 09:42:03.131            47.995         23997.500
        18   01 Jun 2027 11:11:38.134   01 Jun 2027 11:13:46.339           128.205         64102.500
        19   01 Jun 2027 11:14:20.199   01 Jun 2027 11:14:47.833            27.634         13817.000
        20   01 Jun 2027 11:15:27.962   01 Jun 2027 11:15:31.192             3.230          1615.000
        21   02 Jun 2027 03:35:34.220   02 Jun 2027 03:37:05.554            91.334         45667.000
        22   02 Jun 2027 03:37:28.790   02 Jun 2027 03:37:37.258             8.468          4234.000
        23   02 Jun 2027 03:38:02.304   02 Jun 2027 03:38:42.152            39.848         19924.000
        24   02 Jun 2027 03:39:45.422   02 Jun 2027 03:39:56.062            10.640          5320.000
        25   02 Jun 2027 03:40:02.626   02 Jun 2027 03:40:02.626             0.000             0.000
        26   02 Jun 2027 03:41:43.257   02 Jun 2027 03:41:51.214             7.957          3978.500
        27   02 Jun 2027 04:59:50.995   02 Jun 2027 05:00:32.905            41.910         20955.000
        28   02 Jun 2027 05:01:32.953   02 Jun 2027 05:01:40.600             7.647          3823.500
        29   02 Jun 2027 05:12:03.308   02 Jun 2027 05:13:01.893            58.585         29292.500
        30   02 Jun 2027 06:34:19.290   02 Jun 2027 06:35:25.922            66.632         33316.000
        31   02 Jun 2027 06:36:14.900   02 Jun 2027 06:37:34.687            79.787         39893.500
        32   02 Jun 2027 08:09:12.754   02 Jun 2027 08:11:16.011           123.257         61628.500
        33   02 Jun 2027 08:11:22.492   02 Jun 2027 08:12:53.572            91.080         45540.000
        34   02 Jun 2027 08:15:44.306   02 Jun 2027 08:15:52.761             8.455          4227.500
        35   02 Jun 2027 09:46:46.718   02 Jun 2027 09:47:50.018            63.300         31365.783
        36   02 Jun 2027 09:50:30.323   02 Jun 2027 09:50:35.921             5.598          2799.000
        37   02 Jun 2027 09:50:39.717   02 Jun 2027 09:50:42.161             2.444           578.157
        38   02 Jun 2027 09:51:58.413   02 Jun 2027 09:52:03.883             5.470          1412.594
        39   02 Jun 2027 09:52:24.907   02 Jun 2027 09:52:26.027             1.120           560.000
        40   02 Jun 2027 09:52:56.420   02 Jun 2027 09:52:59.093             2.673          1011.406
        41   02 Jun 2027 09:53:05.121   02 Jun 2027 09:53:07.277             2.156            29.000
        42   02 Jun 2027 09:53:31.493   02 Jun 2027 09:53:36.786             5.293           706.594
        43   02 Jun 2027 11:23:29.345   02 Jun 2027 11:23:40.402            11.057          5139.094
        44   02 Jun 2027 11:26:03.406   02 Jun 2027 11:26:11.165             7.759          1713.812
        45   02 Jun 2027 11:27:22.847   02 Jun 2027 11:27:26.029             3.182           666.625
        46   02 Jun 2027 11:27:50.248   02 Jun 2027 11:27:53.463             3.215           663.156
        47   02 Jun 2027 11:28:20.706   02 Jun 2027 11:28:25.390             4.684           851.344
        48   02 Jun 2027 11:28:56.988   02 Jun 2027 11:29:03.218             6.230           987.437
        49   02 Jun 2027 11:29:32.358   02 Jun 2027 11:29:35.157             2.799           697.094
        50   02 Jun 2027 11:29:38.479   02 Jun 2027 11:29:43.262             4.783            89.719
        51   03 Jun 2027 03:47:38.991   03 Jun 2027 03:49:37.861           118.870         59435.000
        52   03 Jun 2027 03:49:43.896   03 Jun 2027 03:50:17.453            33.557         16778.500
        53   03 Jun 2027 03:50:38.742   03 Jun 2027 03:50:38.742             0.000             0.000
        54   03 Jun 2027 03:51:39.752   03 Jun 2027 03:51:44.777             5.025          2512.500
        55   03 Jun 2027 05:11:56.789   03 Jun 2027 05:12:49.976            53.187         26593.500
        56   03 Jun 2027 05:24:18.779   03 Jun 2027 05:24:36.378            17.599          8799.500
        57   03 Jun 2027 06:45:48.415   03 Jun 2027 06:47:11.703            83.288         41644.000
        58   03 Jun 2027 06:47:48.827   03 Jun 2027 06:48:05.679            16.852          7327.532
        59   03 Jun 2027 06:48:21.985   03 Jun 2027 06:48:21.985             0.000             0.000
        60   03 Jun 2027 06:48:38.306   03 Jun 2027 06:48:40.964             2.658           719.031
        61   03 Jun 2027 06:49:19.212   03 Jun 2027 06:49:19.212             0.000             0.000
        62   03 Jun 2027 06:49:44.297   03 Jun 2027 06:49:48.735             4.438          1795.937
        63   03 Jun 2027 06:51:00.407   03 Jun 2027 06:51:06.068             5.661          2105.375
        64   03 Jun 2027 06:51:10.404   03 Jun 2027 06:51:10.404             0.000             0.000
        65   03 Jun 2027 06:51:22.109   03 Jun 2027 06:51:26.367             4.258           460.594
        66   03 Jun 2027 08:20:43.422   03 Jun 2027 08:20:50.007             6.585          3004.812
        67   03 Jun 2027 08:21:38.768   03 Jun 2027 08:21:41.084             2.316          1137.250
        68   03 Jun 2027 08:23:18.818   03 Jun 2027 08:23:22.022             3.204           759.813
        69   03 Jun 2027 08:24:10.046   03 Jun 2027 08:24:16.317             6.271           771.406
        70   03 Jun 2027 08:25:25.320   03 Jun 2027 08:25:27.964             2.644           916.062
        71   03 Jun 2027 08:25:56.386   03 Jun 2027 08:25:59.183             2.797           421.750
        72   03 Jun 2027 08:26:54.699   03 Jun 2027 08:26:58.215             3.516          1047.844
        73   03 Jun 2027 08:27:45.752   03 Jun 2027 08:27:49.452             3.700          1304.469
        74   03 Jun 2027 08:28:06.130   03 Jun 2027 08:28:11.248             5.118           435.844
        75   03 Jun 2027 08:29:11.975   03 Jun 2027 08:29:14.411             2.436          1018.281
        76   03 Jun 2027 09:58:40.793   03 Jun 2027 09:58:55.085            14.292          5519.687
        77   03 Jun 2027 10:02:18.082   03 Jun 2027 10:02:20.556             2.474           806.281
        78   03 Jun 2027 10:02:56.661   03 Jun 2027 10:02:58.315             1.654           253.281
        79   03 Jun 2027 10:04:07.206   03 Jun 2027 10:04:13.769             6.563            58.813
        80   03 Jun 2027 10:04:19.400   03 Jun 2027 10:04:22.546             3.146           175.969
        81   03 Jun 2027 10:04:28.306   03 Jun 2027 10:04:30.807             2.501           180.000
        82   03 Jun 2027 10:04:39.607   03 Jun 2027 10:04:42.866             3.259           222.875
        83   03 Jun 2027 10:04:52.617   03 Jun 2027 10:04:53.620             1.003           304.719
        84   03 Jun 2027 10:05:17.385   03 Jun 2027 10:05:21.169             3.784           423.313
        85   03 Jun 2027 10:05:23.219   03 Jun 2027 10:05:24.215             0.996            64.063
        86   03 Jun 2027 10:05:53.907   03 Jun 2027 10:05:55.847             1.940           538.187
        87   03 Jun 2027 11:35:35.419   03 Jun 2027 11:35:48.567            13.148          5341.500
        88   03 Jun 2027 11:37:09.054   03 Jun 2027 11:37:12.546             3.492           429.062
        89   03 Jun 2027 11:38:17.765   03 Jun 2027 11:38:19.571             1.806           818.438
        90   03 Jun 2027 11:39:12.893   03 Jun 2027 11:39:15.091             2.198          1001.250
        91   03 Jun 2027 11:39:36.396   03 Jun 2027 11:39:38.908             2.512           639.469
        92   03 Jun 2027 11:40:41.722   03 Jun 2027 11:40:46.900             5.178          1219.188
        93   03 Jun 2027 11:41:31.243   03 Jun 2027 11:41:36.597             5.354          1323.094
        94   03 Jun 2027 11:41:37.293   03 Jun 2027 11:41:38.109             0.816            21.750
        95   04 Jun 2027 04:00:04.202   04 Jun 2027 04:02:37.757           153.555         76777.500
        96   04 Jun 2027 04:03:02.554   04 Jun 2027 04:04:00.316            57.762         28881.000
        97   04 Jun 2027 04:04:35.019   04 Jun 2027 04:04:38.642             3.623          1811.500
        98   04 Jun 2027 05:23:52.664   04 Jun 2027 05:24:38.700            46.036         23018.000
        99   04 Jun 2027 06:59:52.536   04 Jun 2027 07:01:03.396            70.860         33981.406
       100   04 Jun 2027 07:02:00.982   04 Jun 2027 07:02:03.828             2.846          1308.219
       101   04 Jun 2027 07:02:19.891   04 Jun 2027 07:02:20.004             0.113            28.187
       102   04 Jun 2027 07:02:34.961   04 Jun 2027 07:02:36.267             1.306           121.656
       103   04 Jun 2027 07:02:44.455   04 Jun 2027 07:02:45.692             1.237           108.406
       104   04 Jun 2027 07:03:09.206   04 Jun 2027 07:03:09.206             0.000             0.000
       105   04 Jun 2027 08:33:36.905   04 Jun 2027 08:33:42.183             5.278          2421.344
       106   04 Jun 2027 08:35:17.738   04 Jun 2027 08:35:19.670             1.932           705.563
       107   04 Jun 2027 08:36:11.456   04 Jun 2027 08:36:14.093             2.637           346.063
       108   04 Jun 2027 08:36:58.196   04 Jun 2027 08:37:09.654            11.458          1349.406
       109   04 Jun 2027 08:38:17.545   04 Jun 2027 08:38:17.545             0.000             0.000
       110   04 Jun 2027 08:39:05.398   04 Jun 2027 08:39:12.730             7.332          3571.344
       111   04 Jun 2027 08:39:35.322   04 Jun 2027 08:39:37.267             1.945           140.344
       112   04 Jun 2027 08:40:38.787   04 Jun 2027 08:40:45.335             6.548           749.188
       113   04 Jun 2027 08:41:31.965   04 Jun 2027 08:41:34.842             2.877          1429.563
       114   04 Jun 2027 10:11:02.034   04 Jun 2027 10:11:17.942            15.908          5294.469
       115   04 Jun 2027 10:13:22.736   04 Jun 2027 10:13:25.943             3.207          1239.344
       116   04 Jun 2027 10:14:24.750   04 Jun 2027 10:14:28.232             3.482          1285.781
       117   04 Jun 2027 10:15:31.568   04 Jun 2027 10:15:35.730             4.162          1545.562
       118   04 Jun 2027 10:15:59.868   04 Jun 2027 10:16:03.840             3.972           501.219
       119   04 Jun 2027 10:16:06.595   04 Jun 2027 10:16:07.631             1.036            86.094
       120   04 Jun 2027 10:16:58.317   04 Jun 2027 10:17:03.607             5.290          1357.344
       121   04 Jun 2027 10:17:34.840   04 Jun 2027 10:17:35.497             0.657           296.844
       122   04 Jun 2027 10:17:42.460   04 Jun 2027 10:17:42.756             0.296           145.844
       123   04 Jun 2027 11:48:05.658   04 Jun 2027 11:48:17.475            11.817          5816.031
       124   04 Jun 2027 11:49:12.830   04 Jun 2027 11:49:16.029             3.199          1018.094
       125   04 Jun 2027 11:50:52.369   04 Jun 2027 11:50:56.317             3.948          1711.250
       126   04 Jun 2027 11:51:06.728   04 Jun 2027 11:51:20.339            13.611           325.344
       127   04 Jun 2027 11:51:56.015   04 Jun 2027 11:52:00.750             4.735          1062.438
       128   04 Jun 2027 11:52:23.312   04 Jun 2027 11:52:26.911             3.599           705.062
       129   04 Jun 2027 11:52:30.496   04 Jun 2027 11:52:33.532             3.036            67.438
       130   04 Jun 2027 11:53:18.773   04 Jun 2027 11:53:22.017             3.244          1375.375
       131   04 Jun 2027 11:53:53.999   04 Jun 2027 11:53:55.862             1.863           776.437
       132   05 Jun 2027 04:12:22.716   05 Jun 2027 04:13:12.850            50.134         25067.000
       133   05 Jun 2027 04:13:39.790   05 Jun 2027 04:15:12.782            92.992         46496.000
       134   05 Jun 2027 05:35:44.272   05 Jun 2027 05:36:40.395            56.123         28061.500
       135   05 Jun 2027 07:12:07.069   05 Jun 2027 07:14:14.246           127.177         63323.750
       136   05 Jun 2027 07:14:16.225   05 Jun 2027 07:14:16.225             0.000             0.000
       137   05 Jun 2027 07:14:38.287   05 Jun 2027 07:14:42.012             3.725           717.563
       138   05 Jun 2027 07:15:12.435   05 Jun 2027 07:15:15.017             2.582           806.094
       139   05 Jun 2027 08:46:11.367   05 Jun 2027 08:46:17.122             5.755          2855.469
       140   05 Jun 2027 08:47:53.274   05 Jun 2027 08:47:54.528             1.254           113.469
       141   05 Jun 2027 08:48:18.596   05 Jun 2027 08:48:20.957             2.361           428.375
       142   05 Jun 2027 08:49:27.806   05 Jun 2027 08:49:30.539             2.733           865.844
       143   05 Jun 2027 08:50:05.127   05 Jun 2027 08:50:09.767             4.640          1025.687
       144   05 Jun 2027 08:50:46.248   05 Jun 2027 08:50:46.248             0.000             0.000
       145   05 Jun 2027 08:51:21.779   05 Jun 2027 08:51:25.267             3.488          1498.969
       146   05 Jun 2027 08:52:47.184   05 Jun 2027 08:52:55.554             8.370          2488.562
       147   05 Jun 2027 08:53:23.015   05 Jun 2027 08:53:26.094             3.079           858.156
       148   05 Jun 2027 08:54:00.945   05 Jun 2027 08:54:02.271             1.326           485.281
       149   05 Jun 2027 10:23:15.473   05 Jun 2027 10:23:25.435             9.962          4208.313
       150   05 Jun 2027 10:26:19.831   05 Jun 2027 10:26:26.571             6.740           576.656
       151   05 Jun 2027 10:28:01.124   05 Jun 2027 10:28:06.296             5.172          2036.531
       152   05 Jun 2027 10:28:31.503   05 Jun 2027 10:28:34.014             2.511           310.125
       153   05 Jun 2027 10:29:26.345   05 Jun 2027 10:29:28.676             2.331           246.688
       154   05 Jun 2027 10:29:42.771   05 Jun 2027 10:29:45.425             2.654            12.062
       155   05 Jun 2027 10:29:49.979   05 Jun 2027 10:29:50.692             0.713           100.594
       156   06 Jun 2027 04:25:15.584   06 Jun 2027 04:27:45.626           150.042         75021.000
       157   06 Jun 2027 05:47:48.733   06 Jun 2027 05:48:25.787            37.054         18527.000
       158   06 Jun 2027 05:50:00.768   06 Jun 2027 05:50:09.446             8.678          4339.000
       159   06 Jun 2027 05:50:38.080   06 Jun 2027 05:50:44.555             6.475          3237.500
       160   06 Jun 2027 07:24:17.710   06 Jun 2027 07:26:09.175           111.465         55682.406
       161   06 Jun 2027 07:26:41.681   06 Jun 2027 07:26:47.691             6.010          1015.813
       162   06 Jun 2027 08:59:23.223   06 Jun 2027 08:59:31.988             8.765          2945.875
       163   06 Jun 2027 08:59:56.076   06 Jun 2027 08:59:59.608             3.532           415.656
       164   06 Jun 2027 09:01:01.675   06 Jun 2027 09:01:06.110             4.435           669.687
       165   06 Jun 2027 09:02:31.390   06 Jun 2027 09:02:35.796             4.406          1419.031
       166   06 Jun 2027 09:03:02.848   06 Jun 2027 09:03:02.848             0.000             0.000
       167   06 Jun 2027 09:04:47.675   06 Jun 2027 09:04:55.787             8.112          3707.469
       168   06 Jun 2027 09:06:01.544   06 Jun 2027 09:06:06.224             4.680          1094.187
       169   06 Jun 2027 10:35:45.442   06 Jun 2027 10:35:54.537             9.095          4340.844
       170   06 Jun 2027 10:37:59.903   06 Jun 2027 10:38:00.908             1.005           155.813
       171   06 Jun 2027 10:39:00.492   06 Jun 2027 10:39:03.378             2.886           387.688
       172   06 Jun 2027 10:39:44.740   06 Jun 2027 10:39:45.900             1.160           565.719
       173   06 Jun 2027 10:39:50.705   06 Jun 2027 10:39:54.448             3.743            32.812
       174   06 Jun 2027 10:41:13.339   06 Jun 2027 10:41:18.321             4.982          1435.719
       175   06 Jun 2027 10:42:00.401   06 Jun 2027 10:42:04.624             4.223          1315.000
       176   07 Jun 2027 03:00:00.000   07 Jun 2027 03:00:07.963             7.963          3981.500
       177   07 Jun 2027 03:00:21.492   07 Jun 2027 03:00:36.743            15.251          7625.500
       178   07 Jun 2027 03:01:35.238   07 Jun 2027 03:01:35.684             0.446           223.000
       179   07 Jun 2027 03:02:16.409   07 Jun 2027 03:02:25.325             8.916          4458.000
       180   07 Jun 2027 03:02:55.875   07 Jun 2027 03:03:11.500            15.625          7812.500
       181   07 Jun 2027 03:03:39.581   07 Jun 2027 03:03:42.191             2.610          1305.000
       182   07 Jun 2027 04:36:24.583   07 Jun 2027 04:37:02.283            37.700         18850.000
       183   07 Jun 2027 04:37:14.707   07 Jun 2027 04:39:14.941           120.234         60117.000
       184   07 Jun 2027 04:39:31.532   07 Jun 2027 04:39:45.898            14.366          7183.000
       185   07 Jun 2027 04:39:54.069   07 Jun 2027 04:39:59.962             5.893          2946.500
       186   07 Jun 2027 05:59:53.342   07 Jun 2027 06:00:46.599            53.257         26628.500
       187   07 Jun 2027 07:36:22.244   07 Jun 2027 07:37:24.935            62.691         29930.687
       188   07 Jun 2027 07:37:49.845   07 Jun 2027 07:37:49.845             0.000             0.000
       189   07 Jun 2027 07:37:51.447   07 Jun 2027 07:37:53.396             1.949           801.344
       190   07 Jun 2027 07:38:13.457   07 Jun 2027 07:38:14.787             1.330           390.125
       191   07 Jun 2027 07:38:45.096   07 Jun 2027 07:38:50.195             5.099           720.969
       192   07 Jun 2027 07:39:24.660   07 Jun 2027 07:39:27.333             2.673          1077.031
       193   07 Jun 2027 09:11:32.633   07 Jun 2027 09:11:38.204             5.571          2674.000
       194   07 Jun 2027 09:11:44.189   07 Jun 2027 09:11:46.410             2.221           187.031
       195   07 Jun 2027 09:13:18.299   07 Jun 2027 09:13:21.010             2.711           395.281
       196   07 Jun 2027 09:14:27.855   07 Jun 2027 09:14:30.150             2.295           918.937
       197   07 Jun 2027 09:14:51.620   07 Jun 2027 09:14:53.126             1.506           537.281
       198   07 Jun 2027 09:15:40.606   07 Jun 2027 09:15:43.106             2.500          1058.937
       199   07 Jun 2027 09:16:51.495   07 Jun 2027 09:16:55.015             3.520          1067.563
       200   07 Jun 2027 09:17:31.107   07 Jun 2027 09:17:33.047             1.940           860.656
       201   07 Jun 2027 10:47:45.608   07 Jun 2027 10:47:57.469            11.861          4862.906
       202   07 Jun 2027 10:48:55.583   07 Jun 2027 10:48:57.529             1.946           353.250
       203   07 Jun 2027 10:49:52.293   07 Jun 2027 10:49:53.699             1.406           308.187
       204   07 Jun 2027 10:50:26.437   07 Jun 2027 10:50:32.100             5.663           892.969
       205   07 Jun 2027 10:51:49.238   07 Jun 2027 10:51:54.725             5.487          2044.844
       206   07 Jun 2027 10:52:53.691   07 Jun 2027 10:53:01.549             7.858          1841.969
       207   07 Jun 2027 10:53:09.963   07 Jun 2027 10:53:11.943             1.980           116.719
       208   07 Jun 2027 10:53:46.030   07 Jun 2027 10:53:48.716             2.686           832.656
       209   08 Jun 2027 03:11:16.238   08 Jun 2027 03:12:22.593            66.355         33177.500
       210   08 Jun 2027 03:13:25.956   08 Jun 2027 03:13:43.701            17.745          8872.500
       211   08 Jun 2027 03:14:17.167   08 Jun 2027 03:14:21.983             4.816          2408.000
       212   08 Jun 2027 03:14:51.771   08 Jun 2027 03:15:01.207             9.436          4718.000
       213   08 Jun 2027 03:15:10.189   08 Jun 2027 03:15:21.221            11.032          5516.000
       214   08 Jun 2027 03:17:42.454   08 Jun 2027 03:18:23.309            40.855         20427.500
       215   08 Jun 2027 04:37:32.611   08 Jun 2027 04:37:49.871            17.260          8630.000
       216   08 Jun 2027 04:48:22.117   08 Jun 2027 04:50:49.380           147.263         73631.500
       217   08 Jun 2027 04:51:42.339   08 Jun 2027 04:51:48.420             6.081          2926.968
       218   08 Jun 2027 04:51:52.584   08 Jun 2027 04:51:55.109             2.525            73.563
       219   08 Jun 2027 06:12:20.216   08 Jun 2027 06:12:42.059            21.843          9687.437
       220   08 Jun 2027 06:14:34.454   08 Jun 2027 06:14:41.583             7.129          3457.438
       221   08 Jun 2027 06:14:50.583   08 Jun 2027 06:14:57.624             7.041           281.250
       222   08 Jun 2027 07:48:06.515   08 Jun 2027 07:48:14.844             8.329          2121.125
       223   08 Jun 2027 07:49:05.780   08 Jun 2027 07:49:12.687             6.907           815.313
       224   08 Jun 2027 07:49:44.399   08 Jun 2027 07:49:49.932             5.533           991.000
       225   08 Jun 2027 07:50:36.136   08 Jun 2027 07:50:39.659             3.523          1442.062
       226   08 Jun 2027 07:50:51.469   08 Jun 2027 07:50:55.940             4.471            92.656
       227   08 Jun 2027 07:51:16.906   08 Jun 2027 07:51:18.288             1.382           655.188
       228   08 Jun 2027 09:22:52.721   08 Jun 2027 09:23:02.936            10.215          3372.688
       229   08 Jun 2027 09:23:35.988   08 Jun 2027 09:23:36.626             0.638           256.000
       230   08 Jun 2027 09:24:33.702   08 Jun 2027 09:24:35.412             1.710           143.687
       231   08 Jun 2027 09:25:01.900   08 Jun 2027 09:25:03.596             1.696           267.781
       232   08 Jun 2027 09:25:42.038   08 Jun 2027 09:25:47.906             5.868           212.938
       233   08 Jun 2027 09:26:13.945   08 Jun 2027 09:26:15.306             1.361            10.500
       234   08 Jun 2027 09:27:19.544   08 Jun 2027 09:27:23.627             4.083          1809.469
       235   08 Jun 2027 09:28:46.892   08 Jun 2027 09:28:51.800             4.908          2330.156
       236   08 Jun 2027 09:29:39.805   08 Jun 2027 09:29:44.130             4.325          1382.344
       237   08 Jun 2027 09:30:14.931   08 Jun 2027 09:30:15.664             0.733           313.594
       238   08 Jun 2027 10:59:33.339   08 Jun 2027 10:59:49.641            16.302          7093.875
       239   08 Jun 2027 11:01:34.927   08 Jun 2027 11:01:35.597             0.670           213.219
       240   08 Jun 2027 11:01:58.787   08 Jun 2027 11:02:00.400             1.613           353.562
       241   08 Jun 2027 11:02:11.847   08 Jun 2027 11:02:13.110             1.263           357.719
       242   08 Jun 2027 11:02:37.666   08 Jun 2027 11:02:40.119             2.453           126.406
       243   08 Jun 2027 11:03:46.743   08 Jun 2027 11:03:56.459             9.716          1764.844
       244   08 Jun 2027 11:04:31.882   08 Jun 2027 11:04:34.568             2.686           348.438
       245   08 Jun 2027 11:04:45.349   08 Jun 2027 11:04:51.090             5.741           287.125
       246   08 Jun 2027 11:05:47.882   08 Jun 2027 11:05:51.994             4.112          1774.750
       247   09 Jun 2027 03:23:36.761   09 Jun 2027 03:26:58.397           201.636        100818.000
       248   09 Jun 2027 03:29:35.794   09 Jun 2027 03:29:42.066             6.272          3136.000
       249   09 Jun 2027 03:30:26.526   09 Jun 2027 03:31:01.413            34.887         17443.500
       250   09 Jun 2027 04:48:48.711   09 Jun 2027 04:49:13.895            25.184         12592.000
       251   09 Jun 2027 05:00:20.562   09 Jun 2027 05:01:53.784            93.222         45001.813
       252   09 Jun 2027 06:22:59.362   09 Jun 2027 06:23:17.412            18.050          5865.781
       253   09 Jun 2027 06:24:35.026   09 Jun 2027 06:24:40.058             5.032          1385.312
       254   09 Jun 2027 06:24:50.981   09 Jun 2027 06:24:51.400             0.419           100.156
       255   09 Jun 2027 06:26:42.075   09 Jun 2027 06:26:48.712             6.637          3155.063
       256   09 Jun 2027 06:27:22.944   09 Jun 2027 06:27:32.903             9.959           921.406
       257   09 Jun 2027 07:58:11.277   09 Jun 2027 07:58:13.383             2.106           851.906
       258   09 Jun 2027 07:58:21.654   09 Jun 2027 07:58:25.925             4.271           195.656
       259   09 Jun 2027 07:59:50.242   09 Jun 2027 07:59:54.433             4.191          1009.844
       260   09 Jun 2027 08:00:09.625   09 Jun 2027 08:00:11.138             1.513           259.656
       261   09 Jun 2027 08:00:55.345   09 Jun 2027 08:01:00.949             5.604           538.188
       262   09 Jun 2027 08:01:35.045   09 Jun 2027 08:01:38.608             3.563           826.562
       263   09 Jun 2027 08:02:51.879   09 Jun 2027 08:02:57.444             5.565          2201.656
       264   09 Jun 2027 08:03:47.937   09 Jun 2027 08:03:52.686             4.749          1414.281
       265   09 Jun 2027 08:04:11.099   09 Jun 2027 08:04:13.578             2.479           440.531
       266   09 Jun 2027 09:34:51.814   09 Jun 2027 09:35:01.482             9.668          3955.062
       267   09 Jun 2027 09:37:03.815   09 Jun 2027 09:37:20.400            16.585          2738.281
       268   09 Jun 2027 09:38:56.027   09 Jun 2027 09:39:03.845             7.818           729.594
       269   09 Jun 2027 09:39:56.270   09 Jun 2027 09:39:59.527             3.257           956.219
       270   09 Jun 2027 09:40:20.931   09 Jun 2027 09:40:22.477             1.546           457.937
       271   09 Jun 2027 09:40:51.213   09 Jun 2027 09:40:52.947             1.734           223.250
       272   09 Jun 2027 09:41:06.958   09 Jun 2027 09:41:10.229             3.271           175.188
       273   09 Jun 2027 09:42:19.538   09 Jun 2027 09:42:19.949             0.411           205.500
       274   09 Jun 2027 11:11:54.525   09 Jun 2027 11:12:06.655            12.130          5156.781
       275   09 Jun 2027 11:13:55.633   09 Jun 2027 11:13:58.031             2.398           399.250
       276   09 Jun 2027 11:14:33.647   09 Jun 2027 11:14:36.174             2.527           628.281
       277   09 Jun 2027 11:15:07.219   09 Jun 2027 11:15:12.694             5.475           659.219
       278   09 Jun 2027 11:15:32.464   09 Jun 2027 11:15:34.125             1.661           617.813
       279   09 Jun 2027 11:16:13.596   09 Jun 2027 11:16:18.011             4.415          1193.500
       280   09 Jun 2027 11:17:28.455   09 Jun 2027 11:17:33.141             4.686          2009.344
       281   09 Jun 2027 11:17:52.402   09 Jun 2027 11:17:53.716             1.314           268.563
       282   10 Jun 2027 03:35:52.252   10 Jun 2027 03:38:16.917           144.665         72332.500
       283   10 Jun 2027 03:39:10.270   10 Jun 2027 03:39:20.477            10.207          5103.500
       284   10 Jun 2027 03:39:25.711   10 Jun 2027 03:39:44.491            18.780          9390.000
       285   10 Jun 2027 03:39:53.941   10 Jun 2027 03:40:20.177            26.236         13118.000
       286   10 Jun 2027 03:42:00.255   10 Jun 2027 03:42:40.752            40.497         20248.500
       287   10 Jun 2027 05:00:06.461   10 Jun 2027 05:00:49.043            42.582         21291.000
       288   10 Jun 2027 05:12:19.740   10 Jun 2027 05:13:17.284            57.544         28772.000
       289   10 Jun 2027 06:34:35.014   10 Jun 2027 06:34:47.548            12.534          4596.125
       290   10 Jun 2027 06:35:27.068   10 Jun 2027 06:35:27.316             0.248           124.000
       291   10 Jun 2027 06:35:33.001   10 Jun 2027 06:35:36.625             3.624          1288.656
       292   10 Jun 2027 06:37:04.084   10 Jun 2027 06:37:04.084             0.000             0.000
       293   10 Jun 2027 06:37:34.951   10 Jun 2027 06:37:40.203             5.252          2276.344
       294   10 Jun 2027 06:39:16.323   10 Jun 2027 06:39:21.298             4.975          2236.469
       295   10 Jun 2027 08:09:27.661   10 Jun 2027 08:09:33.457             5.796          1651.125
       296   10 Jun 2027 08:10:42.945   10 Jun 2027 08:10:46.285             3.340          1149.750
       297   10 Jun 2027 08:11:50.568   10 Jun 2027 08:11:53.207             2.639          1256.156
       298   10 Jun 2027 08:13:28.594   10 Jun 2027 08:13:37.222             8.628          2518.531
       299   10 Jun 2027 08:14:52.750   10 Jun 2027 08:15:04.206            11.456          2247.312
       300   10 Jun 2027 08:15:27.467   10 Jun 2027 08:15:27.467             0.000             0.000
       301   10 Jun 2027 08:15:38.991   10 Jun 2027 08:15:41.668             2.677           578.688
       302   10 Jun 2027 08:16:04.092   10 Jun 2027 08:16:08.184             4.092            90.125
       303   10 Jun 2027 08:17:31.367   10 Jun 2027 08:17:35.238             3.871          1632.688
       304   10 Jun 2027 09:47:02.141   10 Jun 2027 09:47:07.209             5.068          2458.438
       305   10 Jun 2027 09:49:03.415   10 Jun 2027 09:49:16.399            12.984          2641.250
       306   10 Jun 2027 09:51:17.668   10 Jun 2027 09:51:24.507             6.839          1411.750
       307   10 Jun 2027 09:52:16.311   10 Jun 2027 09:52:19.549             3.238          1497.344
       308   10 Jun 2027 09:53:20.118   10 Jun 2027 09:53:24.653             4.535          1833.719
       309   10 Jun 2027 09:53:24.707   10 Jun 2027 09:53:25.739             1.032             1.688
       310   10 Jun 2027 09:54:18.227   10 Jun 2027 09:54:23.262             5.035          1000.406
       311   10 Jun 2027 11:23:44.921   10 Jun 2027 11:24:00.719            15.798          7741.406
       312   10 Jun 2027 11:26:22.092   10 Jun 2027 11:26:30.350             8.258          1763.687
       313   10 Jun 2027 11:27:20.628   10 Jun 2027 11:27:23.814             3.186          1113.719
       314   10 Jun 2027 11:28:07.038   10 Jun 2027 11:28:09.247             2.209           686.969
       315   10 Jun 2027 11:28:36.902   10 Jun 2027 11:28:38.880             1.978           864.219
       316   10 Jun 2027 11:29:14.321   10 Jun 2027 11:29:18.501             4.180           987.250
       317   10 Jun 2027 11:29:48.023   10 Jun 2027 11:29:50.525             2.502           738.781
       318   10 Jun 2027 11:29:53.280   10 Jun 2027 11:29:54.438             1.158             5.000
       319   10 Jun 2027 11:30:05.891   10 Jun 2027 11:30:06.454             0.563           169.281
       320   11 Jun 2027 03:47:56.911   11 Jun 2027 03:50:45.385           168.474         84237.000
       321   11 Jun 2027 03:50:56.611   11 Jun 2027 03:51:14.218            17.607          8803.500
       322   11 Jun 2027 03:52:06.171   11 Jun 2027 03:53:07.961            61.790         30895.000
       323   11 Jun 2027 05:12:12.433   11 Jun 2027 05:12:51.970            39.537         19768.500
       324   11 Jun 2027 05:24:40.662   11 Jun 2027 05:24:51.595            10.933          5466.500
       325   11 Jun 2027 06:46:03.490   11 Jun 2027 06:47:02.337            58.847         28479.437
       326   11 Jun 2027 06:48:08.342   11 Jun 2027 06:48:16.227             7.885          1594.875
       327   11 Jun 2027 06:49:02.703   11 Jun 2027 06:49:05.518             2.815          1333.281
       328   11 Jun 2027 06:49:29.836   11 Jun 2027 06:49:31.595             1.759           691.344
       329   11 Jun 2027 06:50:38.304   11 Jun 2027 06:50:43.640             5.336          2084.656
       330   11 Jun 2027 06:50:49.986   11 Jun 2027 06:50:54.481             4.495            28.781
       331   11 Jun 2027 06:51:36.269   11 Jun 2027 06:51:41.166             4.897          1171.438
       332   11 Jun 2027 08:20:57.785   11 Jun 2027 08:21:04.137             6.352          1749.219
       333   11 Jun 2027 08:21:53.702   11 Jun 2027 08:21:55.899             2.197          1043.000
       334   11 Jun 2027 08:23:07.954   11 Jun 2027 08:23:13.617             5.663          2173.062
       335   11 Jun 2027 08:24:16.861   11 Jun 2027 08:24:20.029             3.168          1462.656
       336   11 Jun 2027 08:24:41.024   11 Jun 2027 08:24:43.585             2.561           279.344
       337   11 Jun 2027 08:25:42.710   11 Jun 2027 08:25:45.520             2.810           908.563
       338   11 Jun 2027 08:27:07.985   11 Jun 2027 08:27:09.796             1.811           770.031
       339   11 Jun 2027 08:27:10.828   11 Jun 2027 08:27:13.941             3.113            32.250
       340   11 Jun 2027 08:28:04.993   11 Jun 2027 08:28:07.793             2.800          1342.000
       341   11 Jun 2027 08:28:23.524   11 Jun 2027 08:28:25.767             2.243           441.687
       342   11 Jun 2027 08:29:28.418   11 Jun 2027 08:29:34.328             5.910           932.031
       343   11 Jun 2027 09:58:56.926   11 Jun 2027 09:59:09.774            12.848          5603.406
       344   11 Jun 2027 10:00:36.808   11 Jun 2027 10:00:37.830             1.022            71.313
       345   11 Jun 2027 10:01:15.356   11 Jun 2027 10:01:20.416             5.060           707.156
       346   11 Jun 2027 10:02:37.414   11 Jun 2027 10:02:38.678             1.264            95.875
       347   11 Jun 2027 10:03:12.754   11 Jun 2027 10:03:14.971             2.217           273.594
       348   11 Jun 2027 10:04:39.373   11 Jun 2027 10:04:41.788             2.415          1202.625
       349   11 Jun 2027 10:04:54.242   11 Jun 2027 10:04:58.085             3.843           210.500
       350   11 Jun 2027 10:05:07.777   11 Jun 2027 10:05:13.569             5.792           302.875
       351   11 Jun 2027 10:05:32.007   11 Jun 2027 10:05:33.647             1.640           487.281
       352   11 Jun 2027 10:05:59.937   11 Jun 2027 10:06:02.412             2.475           821.563
       353   11 Jun 2027 10:06:13.147   11 Jun 2027 10:06:16.816             3.669           335.469
       354   11 Jun 2027 11:35:53.356   11 Jun 2027 11:36:04.200            10.844          4945.656
       355   11 Jun 2027 11:39:46.510   11 Jun 2027 11:39:51.520             5.010          1488.781
       356   11 Jun 2027 11:40:10.148   11 Jun 2027 11:40:13.608             3.460           555.219
       357   11 Jun 2027 11:40:44.574   11 Jun 2027 11:40:47.909             3.335           795.625
       358   11 Jun 2027 11:41:02.400   11 Jun 2027 11:41:05.529             3.129           452.844
       359   11 Jun 2027 11:41:46.870   11 Jun 2027 11:41:52.074             5.204          1291.906
       360   11 Jun 2027 11:41:54.129   11 Jun 2027 11:41:54.542             0.413            64.219
       361   12 Jun 2027 04:00:20.148   12 Jun 2027 04:02:52.557           152.409         76204.500
       362   12 Jun 2027 04:03:17.599   12 Jun 2027 04:03:47.606            30.007         15003.500
       363   12 Jun 2027 04:04:49.583   12 Jun 2027 04:05:14.403            24.820         12410.000
       364   12 Jun 2027 05:24:08.470   12 Jun 2027 05:24:32.118            23.648         11824.000
       365   12 Jun 2027 07:00:21.035   12 Jun 2027 07:02:03.135           102.100         49011.657
       366   12 Jun 2027 07:03:17.321   12 Jun 2027 07:03:22.502             5.181          1827.656
       367   12 Jun 2027 08:33:52.745   12 Jun 2027 08:33:59.900             7.155          2300.656
       368   12 Jun 2027 08:36:27.152   12 Jun 2027 08:36:27.982             0.830           357.625
       369   12 Jun 2027 08:38:33.441   12 Jun 2027 08:38:42.924             9.483          3816.594
       370   12 Jun 2027 08:39:01.484   12 Jun 2027 08:39:01.484             0.000             0.000
       371   12 Jun 2027 08:39:48.131   12 Jun 2027 08:39:51.741             3.610          1759.844
       372   12 Jun 2027 08:40:51.240   12 Jun 2027 08:40:55.286             4.046           148.187
       373   12 Jun 2027 08:41:08.457   12 Jun 2027 08:41:13.612             5.155           323.219
       374   12 Jun 2027 08:42:27.133   12 Jun 2027 08:42:28.027             0.894           447.000
       375   12 Jun 2027 10:11:18.751   12 Jun 2027 10:11:33.198            14.447          5354.312
       376   12 Jun 2027 10:13:38.053   12 Jun 2027 10:13:41.026             2.973          1179.938
       377   12 Jun 2027 10:14:41.561   12 Jun 2027 10:14:44.819             3.258          1345.000
       378   12 Jun 2027 10:16:19.448   12 Jun 2027 10:16:24.525             5.077          2139.844
       379   12 Jun 2027 10:16:25.209   12 Jun 2027 10:16:28.030             2.821            21.375
       380   12 Jun 2027 10:17:12.801   12 Jun 2027 10:17:18.671             5.870          1256.281
       381   12 Jun 2027 10:17:35.119   12 Jun 2027 10:17:40.583             5.464           514.000
       382   12 Jun 2027 10:17:50.173   12 Jun 2027 10:17:50.828             0.655           299.688
       383   12 Jun 2027 10:18:08.246   12 Jun 2027 10:18:11.515             3.269           388.906
       384   12 Jun 2027 11:48:22.355   12 Jun 2027 11:48:39.577            17.222          6576.719
       385   12 Jun 2027 11:49:30.413   12 Jun 2027 11:49:33.445             3.032          1015.750
       386   12 Jun 2027 11:50:31.503   12 Jun 2027 11:50:32.967             1.464           145.062
       387   12 Jun 2027 11:51:37.640   12 Jun 2027 11:51:41.496             3.856          1923.125
       388   12 Jun 2027 11:52:12.736   12 Jun 2027 11:52:15.706             2.970           976.250
       389   12 Jun 2027 11:53:34.835   12 Jun 2027 11:53:39.975             5.140          2148.281
       390   12 Jun 2027 11:54:11.513   12 Jun 2027 11:54:12.357             0.844           422.000
       391   13 Jun 2027 04:12:38.406   13 Jun 2027 04:14:58.984           140.578         70289.000
       392   13 Jun 2027 04:15:06.849   13 Jun 2027 04:15:08.602             1.753           876.500
       393   13 Jun 2027 04:16:00.065   13 Jun 2027 04:16:01.220             1.155           577.500
       394   13 Jun 2027 04:16:18.086   13 Jun 2027 04:16:34.268            16.182          8091.000
       395   13 Jun 2027 05:36:00.206   13 Jun 2027 05:36:54.983            54.777         27388.500
       396   13 Jun 2027 07:12:24.174   13 Jun 2027 07:14:29.168           124.994         62497.000
       397   13 Jun 2027 07:15:17.187   13 Jun 2027 07:15:23.988             6.801          2765.250
       398   13 Jun 2027 08:44:36.259   13 Jun 2027 08:44:46.279            10.020          4070.094
       399   13 Jun 2027 08:48:10.921   13 Jun 2027 08:48:11.846             0.925           128.531
       400   13 Jun 2027 08:48:36.385   13 Jun 2027 08:48:39.737             3.352           496.813
       401   13 Jun 2027 08:49:46.121   13 Jun 2027 08:49:51.455             5.334           888.750
       402   13 Jun 2027 08:50:50.250   13 Jun 2027 08:50:55.116             4.866          1752.156
       403   13 Jun 2027 08:51:36.815   13 Jun 2027 08:51:39.519             2.704          1011.969
       404   13 Jun 2027 08:53:04.395   13 Jun 2027 08:53:12.313             7.918          2479.219
       405   13 Jun 2027 08:53:40.840   13 Jun 2027 08:53:45.838             4.998           858.562
       406   13 Jun 2027 08:54:23.048   13 Jun 2027 08:54:24.557             1.509           616.625
       407   13 Jun 2027 10:23:30.545   13 Jun 2027 10:23:40.002             9.457          4629.563
       408   13 Jun 2027 10:28:00.978   13 Jun 2027 10:28:05.473             4.495          1698.625
       409   13 Jun 2027 10:29:25.217   13 Jun 2027 10:29:30.720             5.503          2300.156
       410   13 Jun 2027 10:29:44.242   13 Jun 2027 10:29:45.889             1.647           322.375
       411   13 Jun 2027 10:30:05.537   13 Jun 2027 10:30:08.683             3.146           404.750
