uniorb/output/strategy_4/Camera/Camera_KinoSat_111306.txt

KinoSat_111306
-------------------------
    Access    *     Start Time (UTCG)     *     Stop Time (UTCG)  *   Duration (s) *   Data (Mbytes)
         1   01 Jun 2027 03:17:48.996   01 Jun 2027 03:19:37.018           108.022         54011.000
         2   01 Jun 2027 03:20:15.707   01 Jun 2027 03:20:22.396             6.689          3344.500
         3   01 Jun 2027 03:21:13.979   01 Jun 2027 03:21:20.508             6.529          3264.500
         4   01 Jun 2027 03:21:46.557   01 Jun 2027 03:22:12.552            25.995         12997.500
         5   01 Jun 2027 03:24:38.181   01 Jun 2027 03:24:47.883             9.702          4851.000
         6   01 Jun 2027 04:42:01.762   01 Jun 2027 04:42:44.381            42.619         21309.500
         7   01 Jun 2027 04:54:15.692   01 Jun 2027 04:54:47.747            32.055         16027.500
         8   01 Jun 2027 06:16:12.296   01 Jun 2027 06:17:23.410            71.114         35557.000
         9   01 Jun 2027 06:18:14.848   01 Jun 2027 06:18:20.760             5.912          2956.000
        10   01 Jun 2027 06:21:06.628   01 Jun 2027 06:21:18.826            12.198          6099.000
        11   01 Jun 2027 07:51:00.681   01 Jun 2027 07:52:55.273           114.592         57296.000
        12   01 Jun 2027 07:54:12.671   01 Jun 2027 07:54:27.233            14.562          7281.000
        13   01 Jun 2027 07:55:05.014   01 Jun 2027 07:55:16.510            11.496          5748.000
        14   01 Jun 2027 07:56:42.065   01 Jun 2027 07:56:42.725             0.660           330.000
        15   01 Jun 2027 07:57:51.624   01 Jun 2027 07:57:52.808             1.184           592.000
        16   01 Jun 2027 07:58:00.238   01 Jun 2027 07:58:04.778             4.540          2270.000
        17   01 Jun 2027 09:28:49.114   01 Jun 2027 09:30:55.302           126.188         63094.000
        18   01 Jun 2027 09:33:50.726   01 Jun 2027 09:34:31.888            41.162         20581.000
        19   01 Jun 2027 09:34:49.445   01 Jun 2027 09:35:31.114            41.669         20834.500
        20   01 Jun 2027 11:05:33.733   01 Jun 2027 11:05:59.153            25.420         12710.000
        21   01 Jun 2027 11:06:02.525   01 Jun 2027 11:07:59.115           116.590         58295.000
        22   01 Jun 2027 11:08:35.497   01 Jun 2027 11:08:49.182            13.685          6842.500
        23   01 Jun 2027 11:09:27.529   01 Jun 2027 11:09:36.818             9.289          4644.500
        24   01 Jun 2027 11:11:46.122   01 Jun 2027 11:11:55.008             8.886          4443.000
        25   02 Jun 2027 03:29:59.384   02 Jun 2027 03:32:13.646           134.262         67131.000
        26   02 Jun 2027 03:33:49.509   02 Jun 2027 03:34:13.614            24.105         12052.500
        27   02 Jun 2027 04:54:01.274   02 Jun 2027 04:54:40.362            39.088         19544.000
        28   02 Jun 2027 04:54:47.218   02 Jun 2027 04:54:55.971             8.753          4376.500
        29   02 Jun 2027 06:29:58.544   02 Jun 2027 06:33:25.578           207.034        103517.000
        30   02 Jun 2027 08:03:48.979   02 Jun 2027 08:07:07.253           198.274         99137.000
        31   02 Jun 2027 08:08:42.233   02 Jun 2027 08:08:42.233             0.000             0.000
        32   02 Jun 2027 08:08:59.421   02 Jun 2027 08:09:21.812            22.391         11195.500
        33   02 Jun 2027 08:11:36.530   02 Jun 2027 08:12:18.991            42.461         21230.500
        34   02 Jun 2027 09:40:55.649   02 Jun 2027 09:41:25.716            30.067         12496.593
        35   02 Jun 2027 09:42:53.695   02 Jun 2027 09:43:02.381             8.686          2058.188
        36   02 Jun 2027 09:45:25.558   02 Jun 2027 09:45:33.062             7.504          3378.781
        37   02 Jun 2027 09:46:39.435   02 Jun 2027 09:46:44.107             4.672           622.219
        38   02 Jun 2027 09:47:25.081   02 Jun 2027 09:47:27.987             2.906          1280.438
        39   02 Jun 2027 09:47:58.960   02 Jun 2027 09:48:02.237             3.277           967.906
        40   02 Jun 2027 11:17:57.649   02 Jun 2027 11:18:11.852            14.203          6410.937
        41   02 Jun 2027 11:18:22.791   02 Jun 2027 11:18:28.277             5.486           171.969
        42   02 Jun 2027 11:19:18.513   02 Jun 2027 11:19:22.124             3.611           921.844
        43   02 Jun 2027 11:20:33.021   02 Jun 2027 11:20:34.121             1.100           442.906
        44   02 Jun 2027 11:21:36.098   02 Jun 2027 11:21:40.925             4.827          1781.781
        45   02 Jun 2027 11:22:12.472   02 Jun 2027 11:22:13.899             1.427           478.938
        46   02 Jun 2027 11:22:35.739   02 Jun 2027 11:22:36.560             0.821           352.687
        47   02 Jun 2027 11:22:55.698   02 Jun 2027 11:22:59.708             4.010           113.000
        48   02 Jun 2027 11:23:26.388   02 Jun 2027 11:23:27.345             0.957           265.375
        49   02 Jun 2027 11:23:47.220   02 Jun 2027 11:23:52.030             4.810           621.094
        50   03 Jun 2027 03:42:33.983   03 Jun 2027 03:45:42.127           188.144         94072.000
        51   03 Jun 2027 03:46:59.690   03 Jun 2027 03:47:09.890            10.200          5100.000
        52   03 Jun 2027 05:05:55.831   03 Jun 2027 05:06:49.971            54.140         27070.000
        53   03 Jun 2027 06:42:19.745   03 Jun 2027 06:43:31.895            72.150         36075.000
        54   03 Jun 2027 06:43:36.338   03 Jun 2027 06:43:38.596             2.258           827.125
        55   03 Jun 2027 06:44:19.807   03 Jun 2027 06:44:29.053             9.246          1043.687
        56   03 Jun 2027 06:44:52.211   03 Jun 2027 06:44:54.446             2.235           479.375
        57   03 Jun 2027 06:45:18.617   03 Jun 2027 06:45:20.154             1.537           755.344
        58   03 Jun 2027 08:15:47.570   03 Jun 2027 08:16:02.310            14.740          2335.875
        59   03 Jun 2027 08:17:03.428   03 Jun 2027 08:17:03.718             0.290            49.188
        60   03 Jun 2027 08:18:16.181   03 Jun 2027 08:18:16.979             0.798           399.000
        61   03 Jun 2027 08:19:09.226   03 Jun 2027 08:19:16.256             7.030          2084.469
        62   03 Jun 2027 08:20:17.621   03 Jun 2027 08:20:29.275            11.654          1790.188
        63   03 Jun 2027 08:21:02.376   03 Jun 2027 08:21:06.690             4.314           666.750
        64   03 Jun 2027 08:22:40.325   03 Jun 2027 08:22:45.761             5.436          2417.250
        65   03 Jun 2027 08:22:54.504   03 Jun 2027 08:22:55.838             1.334           117.750
        66   03 Jun 2027 08:23:07.251   03 Jun 2027 08:23:08.066             0.815            77.063
        67   03 Jun 2027 08:23:45.361   03 Jun 2027 08:23:49.638             4.277           829.469
        68   03 Jun 2027 08:24:16.317   03 Jun 2027 08:24:18.394             2.077           195.969
        69   03 Jun 2027 09:53:21.502   03 Jun 2027 09:53:33.854            12.352          6021.219
        70   03 Jun 2027 09:58:12.380   03 Jun 2027 09:58:14.514             2.134           764.937
        71   03 Jun 2027 09:58:26.570   03 Jun 2027 09:58:28.781             2.211           376.750
        72   03 Jun 2027 09:59:32.287   03 Jun 2027 09:59:36.760             4.473          1097.000
        73   03 Jun 2027 11:30:15.319   03 Jun 2027 11:30:27.737            12.418          5662.625
        74   03 Jun 2027 11:31:24.115   03 Jun 2027 11:31:26.797             2.682          1017.000
        75   03 Jun 2027 11:33:44.082   03 Jun 2027 11:33:46.368             2.286           129.656
        76   03 Jun 2027 11:33:49.859   03 Jun 2027 11:33:54.017             4.158           109.094
        77   03 Jun 2027 11:34:03.731   03 Jun 2027 11:34:15.234            11.503           303.563
        78   03 Jun 2027 11:34:46.756   03 Jun 2027 11:34:55.949             9.193           846.969
        79   03 Jun 2027 11:35:31.852   03 Jun 2027 11:35:34.239             2.387          1098.219
        80   04 Jun 2027 03:54:11.848   04 Jun 2027 03:56:10.843           118.995         59497.500
        81   04 Jun 2027 03:56:44.456   04 Jun 2027 03:58:19.924            95.468         47734.000
        82   04 Jun 2027 05:17:57.089   04 Jun 2027 05:18:52.606            55.517         27758.500
        83   04 Jun 2027 06:54:21.210   04 Jun 2027 06:55:05.825            44.615         21302.312
        84   04 Jun 2027 06:55:19.954   04 Jun 2027 06:55:22.628             2.674           441.531
        85   04 Jun 2027 06:56:25.495   04 Jun 2027 06:56:30.876             5.381          1624.844
        86   04 Jun 2027 06:56:54.205   04 Jun 2027 06:56:57.779             3.574           729.031
        87   04 Jun 2027 06:57:22.228   04 Jun 2027 06:57:25.195             2.967           764.031
        88   04 Jun 2027 08:29:16.387   04 Jun 2027 08:29:25.469             9.082          3391.031
        89   04 Jun 2027 08:30:09.067   04 Jun 2027 08:30:10.729             1.662           257.000
        90   04 Jun 2027 08:31:10.882   04 Jun 2027 08:31:17.783             6.901          1085.906
        91   04 Jun 2027 08:32:39.011   04 Jun 2027 08:32:45.417             6.406          1560.687
        92   04 Jun 2027 08:33:13.617   04 Jun 2027 08:33:15.364             1.747           264.188
        93   04 Jun 2027 08:33:23.835   04 Jun 2027 08:33:24.590             0.755           261.562
        94   04 Jun 2027 08:34:55.160   04 Jun 2027 08:35:00.079             4.919          2364.031
        95   04 Jun 2027 08:35:19.670   04 Jun 2027 08:35:23.028             3.358            60.375
        96   04 Jun 2027 08:36:11.456   04 Jun 2027 08:36:14.093             2.637           397.031
        97   04 Jun 2027 10:05:29.061   04 Jun 2027 10:05:40.226            11.165          4743.781
        98   04 Jun 2027 10:07:39.492   04 Jun 2027 10:07:43.289             3.797           673.500
        99   04 Jun 2027 10:08:02.968   04 Jun 2027 10:08:04.404             1.436           614.969
       100   04 Jun 2027 10:08:21.204   04 Jun 2027 10:08:25.759             4.555           244.375
       101   04 Jun 2027 10:08:36.189   04 Jun 2027 10:08:41.113             4.924           325.937
       102   04 Jun 2027 10:09:21.300   04 Jun 2027 10:09:24.286             2.986          1241.844
       103   04 Jun 2027 10:09:51.058   04 Jun 2027 10:09:53.732             2.674           269.281
       104   04 Jun 2027 10:10:11.836   04 Jun 2027 10:10:13.477             1.641           565.750
       105   04 Jun 2027 10:10:32.708   04 Jun 2027 10:10:34.709             2.001           547.250
       106   04 Jun 2027 10:11:21.075   04 Jun 2027 10:11:22.025             0.950           351.656
       107   04 Jun 2027 10:11:31.184   04 Jun 2027 10:11:32.577             1.393           286.219
       108   04 Jun 2027 10:11:55.783   04 Jun 2027 10:11:56.957             1.174           515.781
       109   04 Jun 2027 10:12:04.884   04 Jun 2027 10:12:05.672             0.788           142.469
       110   04 Jun 2027 11:43:12.078   04 Jun 2027 11:43:25.929            13.851          5176.281
       111   04 Jun 2027 11:45:35.046   04 Jun 2027 11:45:39.556             4.510           726.750
       112   04 Jun 2027 11:45:46.118   04 Jun 2027 11:45:48.365             2.247           155.406
       113   04 Jun 2027 11:46:05.449   04 Jun 2027 11:46:08.646             3.197           351.313
       114   04 Jun 2027 11:47:31.411   04 Jun 2027 11:47:35.744             4.333          1966.625
       115   05 Jun 2027 04:06:34.817   05 Jun 2027 04:07:05.544            30.727         15363.500
       116   05 Jun 2027 04:07:24.067   05 Jun 2027 04:08:01.024            36.957         18478.500
       117   05 Jun 2027 04:08:31.238   05 Jun 2027 04:09:13.823            42.585         21292.500
       118   05 Jun 2027 04:09:52.884   05 Jun 2027 04:10:26.940            34.056         17028.000
       119   05 Jun 2027 05:29:57.332   05 Jun 2027 05:30:55.106            57.774         28887.000
       120   05 Jun 2027 05:32:35.707   05 Jun 2027 05:32:52.793            17.086          8543.000
       121   05 Jun 2027 07:06:29.217   05 Jun 2027 07:08:09.722           100.505         49484.250
       122   05 Jun 2027 07:08:55.925   05 Jun 2027 07:09:00.790             4.865          1143.781
       123   05 Jun 2027 07:09:28.434   05 Jun 2027 07:09:28.434             0.000             0.000
       124   05 Jun 2027 08:41:39.207   05 Jun 2027 08:41:47.473             8.266          2897.906
       125   05 Jun 2027 08:41:58.456   05 Jun 2027 08:41:59.211             0.755            85.594
       126   05 Jun 2027 08:43:08.686   05 Jun 2027 08:43:11.166             2.480           281.625
       127   05 Jun 2027 08:44:00.190   05 Jun 2027 08:44:07.978             7.788          1500.594
       128   05 Jun 2027 08:44:57.031   05 Jun 2027 08:45:00.659             3.628           658.156
       129   05 Jun 2027 08:45:40.241   05 Jun 2027 08:45:43.907             3.666          1015.219
       130   05 Jun 2027 08:47:49.643   05 Jun 2027 08:47:53.132             3.489          1698.187
       131   05 Jun 2027 08:48:04.888   05 Jun 2027 08:48:06.288             1.400           362.937
       132   05 Jun 2027 10:18:04.628   05 Jun 2027 10:18:16.737            12.109          5179.438
       133   05 Jun 2027 10:20:39.950   05 Jun 2027 10:20:40.214             0.264           107.375
       134   05 Jun 2027 10:21:59.001   05 Jun 2027 10:22:02.987             3.986          1626.281
       135   05 Jun 2027 10:22:38.007   05 Jun 2027 10:22:42.649             4.642          1016.531
       136   05 Jun 2027 10:23:17.084   05 Jun 2027 10:23:18.719             1.635           100.438
       137   05 Jun 2027 10:23:32.991   05 Jun 2027 10:23:35.774             2.783           236.125
       138   05 Jun 2027 10:23:37.072   05 Jun 2027 10:23:38.321             1.249            40.563
       139   05 Jun 2027 10:24:01.870   05 Jun 2027 10:24:04.428             2.558           464.344
       140   05 Jun 2027 11:55:19.197   05 Jun 2027 11:55:31.378            12.181          5582.844
       141   05 Jun 2027 11:55:59.977   05 Jun 2027 11:56:02.568             2.591           437.687
       142   05 Jun 2027 11:56:48.288   05 Jun 2027 11:56:58.837            10.549           865.406
       143   05 Jun 2027 11:58:34.007   05 Jun 2027 11:58:38.993             4.986          2176.062
       144   05 Jun 2027 11:59:33.327   05 Jun 2027 11:59:39.779             6.452          1697.937
       145   06 Jun 2027 04:18:31.602   06 Jun 2027 04:19:10.554            38.952         19476.000
       146   06 Jun 2027 04:19:34.567   06 Jun 2027 04:21:22.067           107.500         53750.000
       147   06 Jun 2027 04:21:40.003   06 Jun 2027 04:21:40.003             0.000             0.000
       148   06 Jun 2027 04:21:55.929   06 Jun 2027 04:22:06.872            10.943          5471.500
       149   06 Jun 2027 05:42:00.152   06 Jun 2027 05:42:37.889            37.737         18868.500
       150   06 Jun 2027 05:42:57.426   06 Jun 2027 05:43:02.830             5.404          2702.000
       151   06 Jun 2027 05:44:06.312   06 Jun 2027 05:44:45.047            38.735         19367.500
       152   06 Jun 2027 07:18:22.328   06 Jun 2027 07:19:54.107            91.779         43879.781
       153   06 Jun 2027 07:20:12.219   06 Jun 2027 07:20:12.219             0.000             0.000
       154   06 Jun 2027 07:20:40.787   06 Jun 2027 07:20:43.863             3.076          1458.750
       155   06 Jun 2027 07:21:33.113   06 Jun 2027 07:21:33.113             0.000             0.000
       156   06 Jun 2027 07:21:44.707   06 Jun 2027 07:21:44.707             0.000             0.000
       157   06 Jun 2027 07:22:13.487   06 Jun 2027 07:22:20.522             7.035          2437.656
       158   06 Jun 2027 08:53:18.376   06 Jun 2027 08:53:23.028             4.652          2115.094
       159   06 Jun 2027 08:53:52.934   06 Jun 2027 08:53:52.934             0.000             0.000
       160   06 Jun 2027 08:55:13.044   06 Jun 2027 08:55:19.520             6.476          2782.406
       161   06 Jun 2027 08:55:59.819   06 Jun 2027 08:56:02.515             2.696          1020.219
       162   06 Jun 2027 08:56:15.703   06 Jun 2027 08:56:17.006             1.303            44.906
       163   06 Jun 2027 08:56:42.884   06 Jun 2027 08:56:44.120             1.236           612.531
       164   06 Jun 2027 08:57:47.346   06 Jun 2027 08:57:56.166             8.820          1925.594
       165   06 Jun 2027 08:58:22.306   06 Jun 2027 08:58:25.546             3.240           804.250
       166   06 Jun 2027 08:58:48.516   06 Jun 2027 08:58:50.822             2.306           538.750
       167   06 Jun 2027 08:59:12.087   06 Jun 2027 08:59:16.101             4.014           664.531
       168   06 Jun 2027 08:59:50.648   06 Jun 2027 08:59:56.076             5.428           675.781
       169   06 Jun 2027 10:29:37.252   06 Jun 2027 10:29:50.569            13.317          5442.219
       170   06 Jun 2027 10:32:33.803   06 Jun 2027 10:32:37.432             3.629           779.687
       171   06 Jun 2027 10:32:41.653   06 Jun 2027 10:32:42.561             0.908            97.094
       172   06 Jun 2027 10:34:03.759   06 Jun 2027 10:34:08.027             4.268          1906.688
       173   06 Jun 2027 10:34:56.110   06 Jun 2027 10:35:01.896             5.786          1502.594
       174   06 Jun 2027 10:35:09.502   06 Jun 2027 10:35:13.562             4.060           237.688
       175   06 Jun 2027 10:35:34.904   06 Jun 2027 10:35:37.318             2.414           666.937
       176   07 Jun 2027 03:00:00.000   07 Jun 2027 03:00:21.492            21.492         10746.000
       177   07 Jun 2027 04:19:16.658   07 Jun 2027 04:19:52.006            35.348         17674.000
       178   07 Jun 2027 04:30:28.004   07 Jun 2027 04:31:58.914            90.910         45455.000
       179   07 Jun 2027 04:32:08.305   07 Jun 2027 04:32:09.043             0.738           369.000
       180   07 Jun 2027 04:32:36.566   07 Jun 2027 04:32:54.396            17.830          8915.000
       181   07 Jun 2027 05:53:24.201   07 Jun 2027 05:54:20.359            56.158         28079.000
       182   07 Jun 2027 05:54:59.548   07 Jun 2027 05:55:09.752            10.204          5102.000
       183   07 Jun 2027 05:56:12.496   07 Jun 2027 05:56:48.200            35.704         17852.000
       184   07 Jun 2027 07:28:41.047   07 Jun 2027 07:29:19.373            38.326         19163.000
       185   07 Jun 2027 07:30:06.323   07 Jun 2027 07:30:46.786            40.463         19649.782
       186   07 Jun 2027 07:31:13.023   07 Jun 2027 07:31:14.755             1.732           779.875
       187   07 Jun 2027 07:31:17.262   07 Jun 2027 07:31:24.974             7.712            47.094
       188   07 Jun 2027 07:32:41.681   07 Jun 2027 07:32:45.941             4.260          2013.531
       189   07 Jun 2027 07:33:05.993   07 Jun 2027 07:33:06.727             0.734           239.500
       190   07 Jun 2027 07:33:49.063   07 Jun 2027 07:33:53.194             4.131          1288.094
       191   07 Jun 2027 07:34:21.446   07 Jun 2027 07:34:22.803             1.357           293.813
       192   07 Jun 2027 09:04:51.814   07 Jun 2027 09:04:56.416             4.602          2301.000
       193   07 Jun 2027 09:05:15.383   07 Jun 2027 09:05:15.383             0.000             0.000
       194   07 Jun 2027 09:07:13.425   07 Jun 2027 09:07:28.748            15.323          4422.875
       195   07 Jun 2027 09:09:03.283   07 Jun 2027 09:09:08.055             4.772          1170.781
       196   07 Jun 2027 09:09:49.319   07 Jun 2027 09:09:52.268             2.949          1159.969
       197   07 Jun 2027 09:10:32.885   07 Jun 2027 09:10:34.082             1.197           481.687
       198   07 Jun 2027 09:11:38.204   07 Jun 2027 09:11:44.189             5.985          1392.656
       199   07 Jun 2027 09:12:24.986   07 Jun 2027 09:12:27.544             2.558            59.156
       200   07 Jun 2027 10:41:56.812   07 Jun 2027 10:42:16.002            19.190          7672.875
       201   07 Jun 2027 10:45:20.701   07 Jun 2027 10:45:27.040             6.339          1074.375
       202   07 Jun 2027 10:45:51.776   07 Jun 2027 10:45:53.985             2.209           760.000
       203   07 Jun 2027 10:46:16.607   07 Jun 2027 10:46:19.335             2.728           706.937
       204   07 Jun 2027 10:47:05.617   07 Jun 2027 10:47:12.614             6.997          1430.031
       205   08 Jun 2027 03:05:56.311   08 Jun 2027 03:06:38.120            41.809         20904.500
       206   08 Jun 2027 03:08:41.568   08 Jun 2027 03:08:58.832            17.264          8632.000
       207   08 Jun 2027 03:09:39.500   08 Jun 2027 03:09:50.310            10.810          5405.000
       208   08 Jun 2027 03:10:33.967   08 Jun 2027 03:10:53.950            19.983          9991.500
       209   08 Jun 2027 03:12:35.843   08 Jun 2027 03:13:02.612            26.769         13384.500
       210   08 Jun 2027 04:30:47.725   08 Jun 2027 04:31:10.479            22.754         11377.000
       211   08 Jun 2027 04:42:31.123   08 Jun 2027 04:43:43.884            72.761         36380.500
       212   08 Jun 2027 06:04:43.678   08 Jun 2027 06:05:54.323            70.645         35322.500
       213   08 Jun 2027 06:06:44.404   08 Jun 2027 06:07:27.252            42.848         21424.000
       214   08 Jun 2027 06:07:40.491   08 Jun 2027 06:07:43.891             3.400          1700.000
       215   08 Jun 2027 06:08:37.328   08 Jun 2027 06:08:54.264            16.936          7145.438
       216   08 Jun 2027 07:39:47.486   08 Jun 2027 07:39:56.569             9.083          4287.000
       217   08 Jun 2027 07:41:07.634   08 Jun 2027 07:41:11.607             3.973          1301.188
       218   08 Jun 2027 07:41:16.146   08 Jun 2027 07:41:17.051             0.905           141.844
       219   08 Jun 2027 07:41:50.862   08 Jun 2027 07:41:52.151             1.289           537.312
       220   08 Jun 2027 07:42:45.923   08 Jun 2027 07:42:49.490             3.567          1680.375
       221   08 Jun 2027 07:43:19.910   08 Jun 2027 07:43:22.130             2.220           623.531
       222   08 Jun 2027 07:43:48.355   08 Jun 2027 07:44:00.681            12.326           342.156
       223   08 Jun 2027 07:45:11.121   08 Jun 2027 07:45:12.543             1.422           381.594
       224   08 Jun 2027 07:46:34.393   08 Jun 2027 07:46:39.754             5.361          2446.750
       225   08 Jun 2027 07:47:56.717   08 Jun 2027 07:47:59.707             2.990          1402.562
       226   08 Jun 2027 09:17:10.210   08 Jun 2027 09:17:15.707             5.497          2461.063
       227   08 Jun 2027 09:19:13.233   08 Jun 2027 09:19:19.010             5.777          2456.125
       228   08 Jun 2027 09:20:52.042   08 Jun 2027 09:20:55.166             3.124           494.469
       229   08 Jun 2027 09:21:57.852   08 Jun 2027 09:22:00.692             2.840          1370.875
       230   08 Jun 2027 09:22:40.517   08 Jun 2027 09:22:45.769             5.252           831.344
       231   08 Jun 2027 09:23:27.796   08 Jun 2027 09:23:30.927             3.131          1131.469
       232   08 Jun 2027 09:23:32.976   08 Jun 2027 09:23:34.104             1.128            64.031
       233   08 Jun 2027 09:23:41.246   08 Jun 2027 09:23:46.623             5.377            45.250
       234   08 Jun 2027 09:24:12.332   08 Jun 2027 09:24:15.016             2.684           639.125
       235   08 Jun 2027 10:53:58.475   08 Jun 2027 10:54:11.539            13.064          5536.469
       236   08 Jun 2027 10:57:35.405   08 Jun 2027 10:57:45.394             9.989          1745.813
       237   08 Jun 2027 10:57:52.943   08 Jun 2027 10:57:55.156             2.213             4.906
       238   08 Jun 2027 10:58:25.212   08 Jun 2027 10:58:28.901             3.689           419.062
       239   08 Jun 2027 10:58:45.126   08 Jun 2027 10:58:47.146             2.020           507.031
       240   08 Jun 2027 10:59:17.894   08 Jun 2027 10:59:23.786             5.892           896.500
       241   08 Jun 2027 10:59:38.947   08 Jun 2027 10:59:43.777             4.830           430.562
       242   08 Jun 2027 11:00:00.451   08 Jun 2027 11:00:02.513             2.062           337.812
       243   08 Jun 2027 11:00:24.105   08 Jun 2027 11:00:25.513             1.408           674.750
       244   09 Jun 2027 03:18:03.199   09 Jun 2027 03:19:20.794            77.595         38797.500
       245   09 Jun 2027 03:19:51.134   09 Jun 2027 03:20:13.862            22.728         11364.000
       246   09 Jun 2027 03:21:05.391   09 Jun 2027 03:21:46.909            41.518         20759.000
       247   09 Jun 2027 03:22:46.679   09 Jun 2027 03:23:53.142            66.463         33231.500
       248   09 Jun 2027 04:42:18.401   09 Jun 2027 04:42:35.553            17.152          8576.000
       249   09 Jun 2027 04:43:52.150   09 Jun 2027 04:44:12.981            20.831         10415.500
       250   09 Jun 2027 04:54:31.764   09 Jun 2027 04:55:03.509            31.745         15872.500
       251   09 Jun 2027 06:16:27.612   09 Jun 2027 06:17:32.577            64.965         31042.313
       252   09 Jun 2027 06:18:37.917   09 Jun 2027 06:18:41.670             3.753          1808.000
       253   09 Jun 2027 06:19:45.700   09 Jun 2027 06:19:51.032             5.332          1996.719
       254   09 Jun 2027 06:20:59.471   09 Jun 2027 06:21:03.451             3.980          1550.531
       255   09 Jun 2027 06:21:03.959   09 Jun 2027 06:21:03.959             0.000             0.000
       256   09 Jun 2027 06:21:06.067   09 Jun 2027 06:21:07.317             1.250            81.438
       257   09 Jun 2027 07:51:15.717   09 Jun 2027 07:51:21.364             5.647          2514.719
       258   09 Jun 2027 07:51:34.678   09 Jun 2027 07:51:37.805             3.127            79.875
       259   09 Jun 2027 07:53:15.007   09 Jun 2027 07:53:17.342             2.335           256.750
       260   09 Jun 2027 07:53:40.729   09 Jun 2027 07:53:42.704             1.975           730.844
       261   09 Jun 2027 07:54:31.185   09 Jun 2027 07:54:31.185             0.000             0.000
       262   09 Jun 2027 07:55:38.277   09 Jun 2027 07:55:46.056             7.779          3599.656
       263   09 Jun 2027 07:56:58.983   09 Jun 2027 07:57:06.786             7.803          2184.625
       264   09 Jun 2027 07:58:08.459   09 Jun 2027 07:58:13.383             4.924          1692.187
       265   09 Jun 2027 07:58:21.654   09 Jun 2027 07:58:25.925             4.271           195.656
       266   09 Jun 2027 07:59:40.864   09 Jun 2027 07:59:44.774             3.910          1640.781
       267   09 Jun 2027 08:00:09.625   09 Jun 2027 08:00:11.138             1.513           259.656
       268   09 Jun 2027 09:29:05.028   09 Jun 2027 09:29:14.128             9.100          4541.406
       269   09 Jun 2027 09:31:12.365   09 Jun 2027 09:31:17.515             5.150          2283.875
       270   09 Jun 2027 09:32:28.963   09 Jun 2027 09:32:36.276             7.313          2009.312
       271   09 Jun 2027 09:33:19.614   09 Jun 2027 09:33:20.525             0.911           104.938
       272   09 Jun 2027 09:33:21.845   09 Jun 2027 09:33:22.033             0.188            40.219
       273   09 Jun 2027 09:34:28.936   09 Jun 2027 09:34:33.367             4.431          2090.719
       274   09 Jun 2027 09:35:46.006   09 Jun 2027 09:35:53.260             7.254          2267.250
       275   09 Jun 2027 09:36:15.410   09 Jun 2027 09:36:23.705             8.295           543.500
       276   09 Jun 2027 11:05:49.435   09 Jun 2027 11:05:56.049             6.614          3307.000
       277   09 Jun 2027 11:06:14.833   09 Jun 2027 11:06:25.156            10.323          3394.688
       278   09 Jun 2027 11:07:03.122   09 Jun 2027 11:07:05.355             2.233           298.625
       279   09 Jun 2027 11:07:33.169   09 Jun 2027 11:07:35.098             1.929           857.656
       280   09 Jun 2027 11:09:17.886   09 Jun 2027 11:09:35.485            17.599          1040.563
       281   09 Jun 2027 11:10:41.705   09 Jun 2027 11:10:45.444             3.739          1217.438
       282   09 Jun 2027 11:11:24.781   09 Jun 2027 11:11:28.517             3.736          1044.469
       283   09 Jun 2027 11:12:10.044   09 Jun 2027 11:12:12.250             2.206          1072.187
       284   10 Jun 2027 03:30:15.590   10 Jun 2027 03:33:39.889           204.299        102149.500
       285   10 Jun 2027 04:54:17.139   10 Jun 2027 04:54:55.077            37.938         18969.000
       286   10 Jun 2027 06:30:13.829   10 Jun 2027 06:31:31.606            77.777         36583.625
       287   10 Jun 2027 06:32:48.632   10 Jun 2027 06:32:54.208             5.576          1822.594
       288   10 Jun 2027 06:33:00.544   10 Jun 2027 06:33:05.003             4.459           134.844
       289   10 Jun 2027 06:33:09.206   10 Jun 2027 06:33:09.206             0.000             0.000
       290   10 Jun 2027 06:33:18.895   10 Jun 2027 06:33:20.834             1.939           391.062
       291   10 Jun 2027 08:04:04.528   10 Jun 2027 08:04:19.431            14.903          1659.500
       292   10 Jun 2027 08:05:34.174   10 Jun 2027 08:05:35.178             1.004           493.875
       293   10 Jun 2027 08:06:16.629   10 Jun 2027 08:06:17.817             1.188           404.187
       294   10 Jun 2027 08:06:38.360   10 Jun 2027 08:06:40.185             1.825           116.844
       295   10 Jun 2027 08:08:43.967   10 Jun 2027 08:08:53.912             9.945          3819.594
       296   10 Jun 2027 08:09:17.389   10 Jun 2027 08:09:19.086             1.697           591.750
       297   10 Jun 2027 08:10:28.220   10 Jun 2027 08:10:32.633             4.413          1519.312
       298   10 Jun 2027 08:10:49.151   10 Jun 2027 08:10:49.854             0.703           193.938
       299   10 Jun 2027 08:11:51.421   10 Jun 2027 08:11:55.924             4.503          1456.406
       300   10 Jun 2027 09:41:11.635   10 Jun 2027 09:41:22.210            10.575          4849.781
       301   10 Jun 2027 09:43:10.682   10 Jun 2027 09:43:18.606             7.924          1957.844
       302   10 Jun 2027 09:45:16.403   10 Jun 2027 09:45:22.156             5.753          2613.562
       303   10 Jun 2027 09:46:36.934   10 Jun 2027 09:46:39.496             2.562           146.812
       304   10 Jun 2027 09:47:33.691   10 Jun 2027 09:47:36.563             2.872          1279.344
       305   10 Jun 2027 09:47:59.128   10 Jun 2027 09:48:02.738             3.610           639.313
       306   10 Jun 2027 09:48:09.468   10 Jun 2027 09:48:14.523             5.055           134.094
       307   10 Jun 2027 09:48:20.378   10 Jun 2027 09:48:21.827             1.449           182.969
       308   10 Jun 2027 11:18:14.631   10 Jun 2027 11:18:27.906            13.275          6423.969
       309   10 Jun 2027 11:18:39.577   10 Jun 2027 11:18:41.824             2.247            40.594
       310   10 Jun 2027 11:20:21.136   10 Jun 2027 11:20:22.258             1.122           226.125
       311   10 Jun 2027 11:21:19.421   10 Jun 2027 11:21:25.221             5.800          1764.625
       312   10 Jun 2027 11:21:43.608   10 Jun 2027 11:21:51.721             8.113           574.594
       313   10 Jun 2027 11:21:56.122   10 Jun 2027 11:21:56.535             0.413           137.531
       314   10 Jun 2027 11:23:04.733   10 Jun 2027 11:23:07.687             2.954          1113.781
       315   10 Jun 2027 11:23:43.108   10 Jun 2027 11:23:46.711             3.603          1031.906
       316   10 Jun 2027 11:24:17.058   10 Jun 2027 11:24:20.490             3.432           605.406
       317   11 Jun 2027 03:42:50.274   11 Jun 2027 03:46:07.514           197.240         98620.000
       318   11 Jun 2027 03:46:33.299   11 Jun 2027 03:46:47.590            14.291          7145.500
       319   11 Jun 2027 03:47:13.587   11 Jun 2027 03:47:25.432            11.845          5922.500
       320   11 Jun 2027 05:06:11.497   11 Jun 2027 05:06:18.703             7.206          3603.000
       321   11 Jun 2027 06:42:35.710   11 Jun 2027 06:44:08.845            93.135         43454.219
       322   11 Jun 2027 06:45:23.404   11 Jun 2027 06:45:29.055             5.651          1616.156
       323   11 Jun 2027 08:16:23.618   11 Jun 2027 08:16:30.178             6.560          1701.156
       324   11 Jun 2027 08:18:05.992   11 Jun 2027 08:18:08.294             2.302          1151.000
       325   11 Jun 2027 08:18:37.459   11 Jun 2027 08:18:40.318             2.859          1145.875
       326   11 Jun 2027 08:19:37.398   11 Jun 2027 08:19:41.649             4.251           539.219
       327   11 Jun 2027 08:19:58.112   11 Jun 2027 08:20:02.322             4.210           467.062
       328   11 Jun 2027 08:21:20.326   11 Jun 2027 08:21:24.569             4.243           722.187
       329   11 Jun 2027 08:22:59.456   11 Jun 2027 08:23:07.954             8.498          2459.969
       330   11 Jun 2027 08:23:35.917   11 Jun 2027 08:23:44.079             8.162           873.844
       331   11 Jun 2027 08:24:08.847   11 Jun 2027 08:24:13.442             4.595           424.656
       332   11 Jun 2027 08:24:32.085   11 Jun 2027 08:24:33.273             1.188           165.219
       333   11 Jun 2027 09:53:38.081   11 Jun 2027 09:53:47.354             9.273          3884.344
       334   11 Jun 2027 09:56:40.185   11 Jun 2027 09:56:44.757             4.572           299.250
       335   11 Jun 2027 09:56:49.798   11 Jun 2027 09:56:50.189             0.391            69.281
       336   11 Jun 2027 09:58:27.368   11 Jun 2027 09:58:29.096             1.728           713.781
       337   11 Jun 2027 09:58:43.908   11 Jun 2027 09:58:44.808             0.900           439.531
       338   11 Jun 2027 09:59:48.221   11 Jun 2027 09:59:51.900             3.679          1150.188
       339   11 Jun 2027 10:00:09.940   11 Jun 2027 10:00:11.104             1.164           563.750
       340   11 Jun 2027 11:30:34.886   11 Jun 2027 11:30:54.440            19.554          6760.750
       341   11 Jun 2027 11:32:35.895   11 Jun 2027 11:32:37.784             1.889           526.219
       342   11 Jun 2027 11:33:37.487   11 Jun 2027 11:33:39.003             1.516           182.812
       343   11 Jun 2027 11:34:04.818   11 Jun 2027 11:34:09.128             4.310           806.719
       344   11 Jun 2027 11:34:36.358   11 Jun 2027 11:34:39.380             3.022           688.781
       345   11 Jun 2027 11:35:54.740   11 Jun 2027 11:36:04.200             9.460          2026.781
       346   11 Jun 2027 11:36:05.846   11 Jun 2027 11:36:07.366             1.520            51.437
       347   12 Jun 2027 03:54:28.174   12 Jun 2027 03:56:27.853           119.679         59839.500
       348   12 Jun 2027 03:56:58.937   12 Jun 2027 03:58:08.344            69.407         34703.500
       349   12 Jun 2027 05:17:58.758   12 Jun 2027 05:19:08.414            69.656         34828.000
       350   12 Jun 2027 06:54:38.700   12 Jun 2027 06:55:44.229            65.529         31847.782
       351   12 Jun 2027 06:56:43.231   12 Jun 2027 06:56:45.706             2.475          1237.500
       352   12 Jun 2027 06:57:10.580   12 Jun 2027 06:57:13.303             2.723          1179.125
       353   12 Jun 2027 06:57:38.435   12 Jun 2027 06:57:39.892             1.457           707.625
       354   12 Jun 2027 08:29:37.980   12 Jun 2027 08:29:47.423             9.443          2127.031
       355   12 Jun 2027 08:30:24.377   12 Jun 2027 08:30:25.090             0.713           199.781
       356   12 Jun 2027 08:31:28.154   12 Jun 2027 08:31:34.664             6.510          1080.781
       357   12 Jun 2027 08:32:55.134   12 Jun 2027 08:32:58.451             3.317          1516.375
       358   12 Jun 2027 08:33:33.797   12 Jun 2027 08:33:35.207             1.410           334.469
       359   12 Jun 2027 08:33:56.912   12 Jun 2027 08:33:59.900             2.988           637.562
       360   12 Jun 2027 08:35:32.103   12 Jun 2027 08:35:33.343             1.240           529.531
       361   12 Jun 2027 08:36:15.708   12 Jun 2027 08:36:23.985             8.277          1206.812
       362   12 Jun 2027 10:05:45.783   12 Jun 2027 10:05:55.365             9.582          4783.562
       363   12 Jun 2027 10:07:54.093   12 Jun 2027 10:07:56.620             2.527           730.094
       364   12 Jun 2027 10:07:59.632   12 Jun 2027 10:08:01.373             1.741            94.125
       365   12 Jun 2027 10:08:11.350   12 Jun 2027 10:08:12.648             1.298           143.375
       366   12 Jun 2027 10:08:41.814   12 Jun 2027 10:08:46.457             4.643           554.750
       367   12 Jun 2027 10:09:21.708   12 Jun 2027 10:09:24.160             2.452           909.594
       368   12 Jun 2027 10:09:57.686   12 Jun 2027 10:10:00.044             2.358           620.469
       369   12 Jun 2027 10:10:33.088   12 Jun 2027 10:10:36.757             3.669           794.094
       370   12 Jun 2027 10:11:25.143   12 Jun 2027 10:11:33.198             8.055          1183.469
       371   12 Jun 2027 10:11:56.769   12 Jun 2027 10:11:59.462             2.693           733.469
       372   12 Jun 2027 10:12:12.314   12 Jun 2027 10:12:14.372             2.058            41.312
       373   12 Jun 2027 10:12:19.673   12 Jun 2027 10:12:20.681             1.008           155.250
       374   12 Jun 2027 11:43:29.962   12 Jun 2027 11:43:40.829            10.867          4891.406
       375   12 Jun 2027 11:44:24.214   12 Jun 2027 11:44:31.891             7.677          1043.375
       376   12 Jun 2027 11:45:28.982   12 Jun 2027 11:45:33.681             4.699           420.156
       377   12 Jun 2027 11:45:59.542   12 Jun 2027 11:46:02.815             3.273           558.531
       378   12 Jun 2027 11:46:54.972   12 Jun 2027 11:46:57.480             2.508          1036.719
       379   12 Jun 2027 11:47:33.947   12 Jun 2027 11:47:37.854             3.907          1139.594
       380   13 Jun 2027 04:06:50.949   13 Jun 2027 04:07:22.088            31.139         15569.500
       381   13 Jun 2027 04:07:40.560   13 Jun 2027 04:08:29.637            49.077         24538.500
       382   13 Jun 2027 04:08:46.493   13 Jun 2027 04:09:24.798            38.305         19152.500
       383   13 Jun 2027 04:10:07.609   13 Jun 2027 04:10:26.353            18.744          9372.000
       384   13 Jun 2027 05:30:13.342   13 Jun 2027 05:31:08.471            55.129         27564.500
       385   13 Jun 2027 05:33:09.245   13 Jun 2027 05:33:14.084             4.839          2419.500
       386   13 Jun 2027 07:06:45.178   13 Jun 2027 07:08:48.932           123.754         61644.531
       387   13 Jun 2027 07:09:12.280   13 Jun 2027 07:09:14.369             2.089           553.938
       388   13 Jun 2027 07:09:44.762   13 Jun 2027 07:09:44.762             0.000             0.000
       389   13 Jun 2027 08:41:55.521   13 Jun 2027 08:42:02.765             7.244          2814.781
       390   13 Jun 2027 08:42:13.635   13 Jun 2027 08:42:13.945             0.310            17.937
       391   13 Jun 2027 08:43:29.410   13 Jun 2027 08:43:30.656             1.246            99.781
       392   13 Jun 2027 08:44:52.028   13 Jun 2027 08:44:58.443             6.415          1065.594
       393   13 Jun 2027 08:45:25.662   13 Jun 2027 08:45:28.303             2.641           445.406
       394   13 Jun 2027 08:47:12.152   13 Jun 2027 08:47:19.417             7.265          2322.031
       395   13 Jun 2027 08:47:42.630   13 Jun 2027 08:47:44.350             1.720           638.594
       396   13 Jun 2027 08:48:20.487   13 Jun 2027 08:48:27.522             7.035           427.469
       397   13 Jun 2027 10:18:18.877   13 Jun 2027 10:18:31.944            13.067          5825.500
       398   13 Jun 2027 10:20:13.385   13 Jun 2027 10:20:13.840             0.455            35.594
       399   13 Jun 2027 10:20:29.133   13 Jun 2027 10:20:29.854             0.721           125.375
       400   13 Jun 2027 10:21:36.340   13 Jun 2027 10:21:45.491             9.151          1300.906
       401   13 Jun 2027 10:22:25.381   13 Jun 2027 10:22:26.955             1.574           306.875
       402   13 Jun 2027 10:23:29.321   13 Jun 2027 10:23:33.274             3.953          1065.594
       403   13 Jun 2027 11:55:35.888   13 Jun 2027 11:55:46.824            10.936          4960.781
       404   13 Jun 2027 11:56:39.752   13 Jun 2027 11:56:44.707             4.955           751.281
       405   13 Jun 2027 11:57:21.683   13 Jun 2027 11:57:27.184             5.501           145.437
       406   13 Jun 2027 11:58:04.946   13 Jun 2027 11:58:05.653             0.707           240.875
       407   13 Jun 2027 11:58:30.589   13 Jun 2027 11:58:35.489             4.900           512.344
       408   13 Jun 2027 11:59:23.879   13 Jun 2027 11:59:31.692             7.813          1036.500
       409   13 Jun 2027 11:59:56.763   13 Jun 2027 12:00:00.000             3.237           379.187
