uniorb/output/strategy_4/Camera/Camera_KinoSat_112001.txt

KinoSat_112001
-------------------------
    Access    *     Start Time (UTCG)     *     Stop Time (UTCG)  *   Duration (s) *   Data (Mbytes)
         1   01 Jun 2027 03:35:20.440   01 Jun 2027 03:36:31.282            70.842         35421.000
         2   01 Jun 2027 03:36:47.461   01 Jun 2027 03:37:09.537            22.076         11038.000
         3   01 Jun 2027 03:38:42.536   01 Jun 2027 03:39:27.647            45.111         22555.500
         4   01 Jun 2027 03:39:50.379   01 Jun 2027 03:39:55.263             4.884          2442.000
         5   01 Jun 2027 03:40:31.843   01 Jun 2027 03:40:32.438             0.595           297.500
         6   01 Jun 2027 03:40:41.920   01 Jun 2027 03:40:52.186            10.266          5133.000
         7   01 Jun 2027 03:41:57.982   01 Jun 2027 03:42:05.808             7.826          3913.000
         8   01 Jun 2027 05:13:17.896   01 Jun 2027 05:13:20.708             2.812          1406.000
         9   01 Jun 2027 05:13:46.065   01 Jun 2027 05:15:27.486           101.421         50710.500
        10   01 Jun 2027 05:15:56.305   01 Jun 2027 05:16:00.424             4.119          2059.500
        11   01 Jun 2027 05:16:24.873   01 Jun 2027 05:16:35.288            10.415          5207.500
        12   01 Jun 2027 05:16:38.142   01 Jun 2027 05:16:55.298            17.156          8578.000
        13   01 Jun 2027 06:51:57.916   01 Jun 2027 06:53:38.357           100.441         50220.500
        14   01 Jun 2027 06:53:47.781   01 Jun 2027 06:53:51.607             3.826          1913.000
        15   01 Jun 2027 06:54:15.642   01 Jun 2027 06:54:16.124             0.482           241.000
        16   01 Jun 2027 06:55:19.550   01 Jun 2027 06:55:21.199             1.649           824.500
        17   01 Jun 2027 08:14:53.053   01 Jun 2027 08:15:31.178            38.125         19062.500
        18   01 Jun 2027 08:16:30.985   01 Jun 2027 08:16:30.985             0.000             0.000
        19   01 Jun 2027 08:17:35.685   01 Jun 2027 08:17:39.850             4.165          2082.500
        20   01 Jun 2027 09:51:30.356   01 Jun 2027 09:52:29.949            59.593         29796.500
        21   01 Jun 2027 11:26:25.799   01 Jun 2027 11:27:25.912            60.113         30056.500
        22   01 Jun 2027 11:27:50.883   01 Jun 2027 11:30:08.043           137.160         68580.000
        23   01 Jun 2027 11:31:04.283   01 Jun 2027 11:32:17.024            72.741         36370.500
        24   01 Jun 2027 11:33:16.345   01 Jun 2027 11:33:22.485             6.140          3070.000
        25   02 Jun 2027 03:47:17.622   02 Jun 2027 03:47:59.946            42.324         21162.000
        26   02 Jun 2027 03:48:15.893   02 Jun 2027 03:48:34.985            19.092          9546.000
        27   02 Jun 2027 03:48:47.641   02 Jun 2027 03:50:19.711            92.070         46035.000
        28   02 Jun 2027 03:50:30.384   02 Jun 2027 03:50:43.294            12.910          6455.000
        29   02 Jun 2027 03:51:58.620   02 Jun 2027 03:52:07.904             9.284          4642.000
        30   02 Jun 2027 03:53:19.623   02 Jun 2027 03:53:33.314            13.691          6845.500
        31   02 Jun 2027 05:25:25.824   02 Jun 2027 05:26:27.557            61.733         30866.500
        32   02 Jun 2027 05:26:34.244   02 Jun 2027 05:29:47.328           193.084         96542.000
        33   02 Jun 2027 05:29:54.193   02 Jun 2027 05:30:02.436             8.243          4121.500
        34   02 Jun 2027 05:30:13.651   02 Jun 2027 05:30:19.290             5.639          2819.500
        35   02 Jun 2027 07:03:43.857   02 Jun 2027 07:05:46.555           122.698         61349.000
        36   02 Jun 2027 07:06:10.334   02 Jun 2027 07:07:14.445            64.111         32055.500
        37   02 Jun 2027 07:07:31.782   02 Jun 2027 07:07:34.884             3.102          1551.000
        38   02 Jun 2027 08:27:06.911   02 Jun 2027 08:28:38.308            91.397         45698.500
        39   02 Jun 2027 08:30:03.573   02 Jun 2027 08:30:13.815            10.242          5121.000
        40   02 Jun 2027 10:03:38.817   02 Jun 2027 10:04:29.907            51.090         23476.061
        41   02 Jun 2027 10:06:25.633   02 Jun 2027 10:06:32.041             6.408          2370.375
        42   02 Jun 2027 10:06:51.575   02 Jun 2027 10:06:56.103             4.528           417.156
        43   02 Jun 2027 11:38:57.924   02 Jun 2027 11:39:13.817            15.893          7135.094
        44   02 Jun 2027 11:45:03.895   02 Jun 2027 11:45:25.142            21.247         10623.500
        45   03 Jun 2027 03:59:14.936   03 Jun 2027 04:00:33.403            78.467         39233.500
        46   03 Jun 2027 04:02:00.468   03 Jun 2027 04:04:06.392           125.924         62962.000
        47   03 Jun 2027 04:04:29.918   03 Jun 2027 04:04:50.973            21.055         10527.500
        48   03 Jun 2027 05:38:32.634   03 Jun 2027 05:40:32.179           119.545         58877.094
        49   03 Jun 2027 05:42:02.240   03 Jun 2027 05:42:06.385             4.145          1565.281
        50   03 Jun 2027 05:42:29.074   03 Jun 2027 05:42:29.540             0.466           131.188
        51   03 Jun 2027 05:43:04.129   03 Jun 2027 05:43:06.213             2.084           928.688
        52   03 Jun 2027 05:45:10.800   03 Jun 2027 05:45:20.212             9.412          3831.469
        53   03 Jun 2027 07:15:40.677   03 Jun 2027 07:15:51.285            10.608          4865.062
        54   03 Jun 2027 07:16:40.145   03 Jun 2027 07:16:42.742             2.597           693.219
        55   03 Jun 2027 07:16:54.661   03 Jun 2027 07:16:56.306             1.645           202.594
        56   03 Jun 2027 07:17:34.351   03 Jun 2027 07:17:38.125             3.774           648.875
        57   03 Jun 2027 07:18:03.428   03 Jun 2027 07:18:06.141             2.713           552.531
        58   03 Jun 2027 07:18:51.895   03 Jun 2027 07:18:54.044             2.149           661.875
        59   03 Jun 2027 07:18:54.989   03 Jun 2027 07:18:55.464             0.475            22.000
        60   03 Jun 2027 08:39:09.983   03 Jun 2027 08:39:41.448            31.465          9509.750
        61   03 Jun 2027 08:40:15.154   03 Jun 2027 08:40:17.280             2.126           907.875
        62   03 Jun 2027 08:40:48.148   03 Jun 2027 08:40:51.552             3.404           964.625
        63   03 Jun 2027 10:15:32.149   03 Jun 2027 10:15:46.300            14.151          6724.344
        64   03 Jun 2027 10:17:16.481   03 Jun 2027 10:17:22.595             6.114          2159.000
        65   03 Jun 2027 10:18:09.326   03 Jun 2027 10:18:14.433             5.107           142.219
        66   03 Jun 2027 11:57:07.155   03 Jun 2027 11:57:32.863            25.708         12854.000
        67   04 Jun 2027 04:11:56.142   04 Jun 2027 04:15:23.139           206.997        103498.500
        68   04 Jun 2027 04:15:43.890   04 Jun 2027 04:15:52.151             8.261          4130.500
        69   04 Jun 2027 04:16:14.730   04 Jun 2027 04:16:23.142             8.412          4206.000
        70   04 Jun 2027 05:50:36.705   04 Jun 2027 05:52:54.886           138.181         67513.563
        71   04 Jun 2027 05:56:25.459   04 Jun 2027 05:56:34.368             8.909          4454.500
        72   04 Jun 2027 05:56:53.981   04 Jun 2027 05:56:57.397             3.416          1558.031
        73   04 Jun 2027 07:16:27.982   04 Jun 2027 07:16:40.239            12.257          5635.469
        74   04 Jun 2027 07:17:02.387   04 Jun 2027 07:17:03.874             1.487           674.719
        75   04 Jun 2027 07:27:37.099   04 Jun 2027 07:27:43.979             6.880          3233.188
        76   04 Jun 2027 07:28:45.318   04 Jun 2027 07:28:47.138             1.820           682.188
        77   04 Jun 2027 07:30:16.982   04 Jun 2027 07:30:18.436             1.454           567.719
        78   04 Jun 2027 08:50:14.959   04 Jun 2027 08:50:32.608            17.649          8073.938
        79   04 Jun 2027 08:51:16.699   04 Jun 2027 08:51:23.395             6.696           938.937
        80   04 Jun 2027 08:52:17.615   04 Jun 2027 08:52:21.625             4.010          1029.906
        81   04 Jun 2027 08:54:03.729   04 Jun 2027 08:54:12.564             8.835          2293.500
        82   04 Jun 2027 10:25:50.458   04 Jun 2027 10:26:00.481            10.023          4706.531
        83   04 Jun 2027 10:28:06.296   04 Jun 2027 10:28:11.658             5.362          2610.156
        84   04 Jun 2027 10:30:31.295   04 Jun 2027 10:30:39.102             7.807          2742.250
        85   04 Jun 2027 10:30:59.711   04 Jun 2027 10:31:00.262             0.551            50.906
        86   05 Jun 2027 04:24:02.103   05 Jun 2027 04:26:27.787           145.684         72842.000
        87   05 Jun 2027 06:03:06.322   05 Jun 2027 06:06:12.321           185.999         92999.500
        88   05 Jun 2027 06:06:33.154   05 Jun 2027 06:06:35.820             2.666          1051.999
        89   05 Jun 2027 06:07:30.852   05 Jun 2027 06:07:44.983            14.131          1515.125
        90   05 Jun 2027 06:08:39.639   05 Jun 2027 06:08:48.068             8.429          1628.500
        91   05 Jun 2027 07:27:58.093   05 Jun 2027 07:28:09.626            11.533          5154.500
        92   05 Jun 2027 07:28:37.074   05 Jun 2027 07:28:37.074             0.000             0.000
        93   05 Jun 2027 07:29:27.165   05 Jun 2027 07:29:29.736             2.571          1285.500
        94   05 Jun 2027 07:39:40.703   05 Jun 2027 07:39:45.495             4.792          2227.719
        95   05 Jun 2027 09:01:54.178   05 Jun 2027 09:02:19.212            25.034         12517.000
        96   05 Jun 2027 09:04:32.598   05 Jun 2027 09:04:47.598            15.000          5270.875
        97   05 Jun 2027 09:06:02.857   05 Jun 2027 09:06:08.997             6.140          2118.125
        98   05 Jun 2027 09:06:58.304   05 Jun 2027 09:06:59.497             1.193           314.063
        99   05 Jun 2027 10:36:56.780   05 Jun 2027 10:37:03.096             6.316          2555.156
       100   05 Jun 2027 10:38:12.089   05 Jun 2027 10:38:13.306             1.217           173.031
       101   05 Jun 2027 10:41:09.486   05 Jun 2027 10:41:23.971            14.485          3247.875
       102   05 Jun 2027 10:42:39.225   05 Jun 2027 10:42:39.225             0.000             0.000
       103   05 Jun 2027 10:43:02.113   05 Jun 2027 10:43:09.290             7.177          2905.313
       104   05 Jun 2027 10:43:57.546   05 Jun 2027 10:44:00.647             3.101          1332.281
       105   06 Jun 2027 03:00:29.206   06 Jun 2027 03:00:51.422            22.216         11108.000
       106   06 Jun 2027 03:01:52.346   06 Jun 2027 03:01:53.191             0.845           422.500
       107   06 Jun 2027 03:02:40.070   06 Jun 2027 03:02:45.323             5.253          2626.500
       108   06 Jun 2027 03:04:13.181   06 Jun 2027 03:04:29.867            16.686          8343.000
       109   06 Jun 2027 03:05:06.781   06 Jun 2027 03:05:18.374            11.593          5796.500
       110   06 Jun 2027 03:05:53.848   06 Jun 2027 03:06:03.065             9.217          4608.500
       111   06 Jun 2027 03:06:41.628   06 Jun 2027 03:06:50.321             8.693          4346.500
       112   06 Jun 2027 04:36:22.313   06 Jun 2027 04:37:28.432            66.119         33059.500
       113   06 Jun 2027 04:37:32.170   06 Jun 2027 04:38:48.196            76.026         38013.000
       114   06 Jun 2027 04:39:08.271   06 Jun 2027 04:39:24.679            16.408          8204.000
       115   06 Jun 2027 04:40:02.112   06 Jun 2027 04:40:07.435             5.323          2661.500
       116   06 Jun 2027 04:40:09.619   06 Jun 2027 04:40:14.079             4.460          2230.000
       117   06 Jun 2027 04:40:31.158   06 Jun 2027 04:41:04.284            33.126         16563.000
       118   06 Jun 2027 04:41:31.662   06 Jun 2027 04:41:50.138            18.476          9238.000
       119   06 Jun 2027 06:15:08.758   06 Jun 2027 06:16:18.047            69.289         34527.282
       120   06 Jun 2027 06:16:46.289   06 Jun 2027 06:16:46.394             0.105            37.562
       121   06 Jun 2027 06:17:27.058   06 Jun 2027 06:17:27.401             0.343            46.937
       122   06 Jun 2027 06:17:58.128   06 Jun 2027 06:18:00.336             2.208           739.812
       123   06 Jun 2027 06:18:57.415   06 Jun 2027 06:18:59.800             2.385          1027.031
       124   06 Jun 2027 06:19:39.289   06 Jun 2027 06:19:41.081             1.792           782.250
       125   06 Jun 2027 06:20:05.372   06 Jun 2027 06:20:06.449             1.077           454.313
       126   06 Jun 2027 06:20:38.282   06 Jun 2027 06:20:40.806             2.524           791.531
       127   06 Jun 2027 07:39:29.043   06 Jun 2027 07:39:44.087            15.044          5809.438
       128   06 Jun 2027 07:40:35.265   06 Jun 2027 07:40:39.619             4.354          1599.313
       129   06 Jun 2027 07:41:37.795   06 Jun 2027 07:41:41.979             4.184          1668.281
       130   06 Jun 2027 07:51:46.188   06 Jun 2027 07:51:53.487             7.299          2547.719
       131   06 Jun 2027 09:13:37.451   06 Jun 2027 09:14:01.288            23.837          7622.781
       132   06 Jun 2027 09:15:40.799   06 Jun 2027 09:15:45.756             4.957          1941.125
       133   06 Jun 2027 09:16:21.744   06 Jun 2027 09:16:28.120             6.376           937.625
       134   06 Jun 2027 09:17:29.257   06 Jun 2027 09:17:32.908             3.651          1799.219
       135   06 Jun 2027 09:18:43.991   06 Jun 2027 09:18:47.672             3.681          1337.844
       136   06 Jun 2027 10:48:25.511   06 Jun 2027 10:48:35.863            10.352          4585.250
       137   06 Jun 2027 10:54:13.765   06 Jun 2027 10:54:37.201            23.436          7120.031
       138   07 Jun 2027 03:11:25.667   07 Jun 2027 03:11:38.370            12.703          6351.500
       139   07 Jun 2027 03:13:41.875   07 Jun 2027 03:13:55.956            14.081          7040.500
       140   07 Jun 2027 03:14:07.551   07 Jun 2027 03:15:45.070            97.519         48759.500
       141   07 Jun 2027 03:16:12.077   07 Jun 2027 03:16:22.857            10.780          5390.000
       142   07 Jun 2027 03:16:25.889   07 Jun 2027 03:16:59.511            33.622         16811.000
       143   07 Jun 2027 03:17:08.777   07 Jun 2027 03:17:17.554             8.777          4388.500
       144   07 Jun 2027 03:18:35.100   07 Jun 2027 03:18:45.010             9.910          4955.000
       145   07 Jun 2027 04:49:05.176   07 Jun 2027 04:49:20.963            15.787          7893.500
       146   07 Jun 2027 04:49:29.276   07 Jun 2027 04:50:41.795            72.519         36259.500
       147   07 Jun 2027 04:51:09.421   07 Jun 2027 04:51:32.554            23.133         11566.500
       148   07 Jun 2027 06:27:33.230   07 Jun 2027 06:28:32.765            59.535         28964.781
       149   07 Jun 2027 06:28:42.947   07 Jun 2027 06:28:43.603             0.656           202.375
       150   07 Jun 2027 06:29:25.558   07 Jun 2027 06:29:27.750             2.192           138.906
       151   07 Jun 2027 06:30:42.035   07 Jun 2027 06:30:44.932             2.897          1210.188
       152   07 Jun 2027 06:31:17.990   07 Jun 2027 06:31:19.698             1.708           802.375
       153   07 Jun 2027 06:31:55.523   07 Jun 2027 06:31:57.903             2.380           793.750
       154   07 Jun 2027 07:51:27.921   07 Jun 2027 07:51:44.925            17.004          5276.562
       155   07 Jun 2027 07:52:46.047   07 Jun 2027 07:52:51.890             5.843          1347.625
       156   07 Jun 2027 09:27:24.716   07 Jun 2027 09:27:38.001            13.285          5945.750
       157   07 Jun 2027 09:28:17.387   07 Jun 2027 09:28:23.321             5.934          1056.719
       158   07 Jun 2027 09:29:12.639   07 Jun 2027 09:29:15.915             3.276          1541.187
       159   07 Jun 2027 09:30:23.771   07 Jun 2027 09:30:25.713             1.942           788.375
       160   07 Jun 2027 11:01:13.866   07 Jun 2027 11:01:23.480             9.614          4506.594
       161   07 Jun 2027 11:03:29.886   07 Jun 2027 11:03:29.886             0.000             0.000
       162   07 Jun 2027 11:03:53.237   07 Jun 2027 11:03:56.938             3.701          1662.250
       163   07 Jun 2027 11:07:55.195   07 Jun 2027 11:08:11.759            16.564          7445.531
       164   08 Jun 2027 03:23:26.085   08 Jun 2027 03:23:40.325            14.240          7120.000
       165   08 Jun 2027 03:25:34.850   08 Jun 2027 03:28:21.703           166.853         83426.500
       166   08 Jun 2027 03:29:10.601   08 Jun 2027 03:29:10.929             0.328           164.000
       167   08 Jun 2027 03:29:22.891   08 Jun 2027 03:29:35.822            12.931          6465.500
       168   08 Jun 2027 03:30:37.049   08 Jun 2027 03:30:43.298             6.249          3124.500
       169   08 Jun 2027 05:01:49.608   08 Jun 2027 05:02:08.843            19.235          9617.500
       170   08 Jun 2027 05:02:23.112   08 Jun 2027 05:03:07.701            44.589         22294.500
       171   08 Jun 2027 05:06:03.105   08 Jun 2027 05:07:09.326            66.221         33110.500
       172   08 Jun 2027 05:07:42.518   08 Jun 2027 05:07:51.095             8.577          4288.500
       173   08 Jun 2027 06:39:57.349   08 Jun 2027 06:40:27.206            29.857         14904.812
       174   08 Jun 2027 06:41:03.337   08 Jun 2027 06:41:06.045             2.708           503.625
       175   08 Jun 2027 06:41:38.452   08 Jun 2027 06:41:40.321             1.869           844.344
       176   08 Jun 2027 06:42:19.843   08 Jun 2027 06:42:21.270             1.427           490.625
       177   08 Jun 2027 06:43:01.193   08 Jun 2027 06:43:04.119             2.926           745.688
       178   08 Jun 2027 06:43:20.130   08 Jun 2027 06:43:23.260             3.130           341.625
       179   08 Jun 2027 06:44:34.074   08 Jun 2027 06:44:38.490             4.416          1461.563
       180   08 Jun 2027 08:03:21.694   08 Jun 2027 08:03:37.149            15.455          7610.031
       181   08 Jun 2027 08:04:47.517   08 Jun 2027 08:04:51.023             3.506          1603.781
       182   08 Jun 2027 08:05:19.156   08 Jun 2027 08:05:20.075             0.919           189.531
       183   08 Jun 2027 08:05:28.950   08 Jun 2027 08:05:31.904             2.954           124.500
       184   08 Jun 2027 08:05:42.607   08 Jun 2027 08:05:45.788             3.181            44.813
       185   08 Jun 2027 09:39:46.575   08 Jun 2027 09:39:57.022            10.447          3493.406
       186   08 Jun 2027 11:13:34.851   08 Jun 2027 11:13:49.487            14.636          7050.125
       187   08 Jun 2027 11:17:03.683   08 Jun 2027 11:17:09.921             6.238          2819.875
       188   08 Jun 2027 11:17:44.390   08 Jun 2027 11:17:44.871             0.481           169.750
       189   08 Jun 2027 11:18:21.408   08 Jun 2027 11:18:25.562             4.154           901.781
       190   08 Jun 2027 11:18:39.155   08 Jun 2027 11:18:40.439             1.284           424.781
       191   08 Jun 2027 11:21:08.819   08 Jun 2027 11:21:16.987             8.168          3659.688
       192   08 Jun 2027 11:21:35.084   08 Jun 2027 11:21:41.873             6.789           201.437
       193   09 Jun 2027 03:35:38.985   09 Jun 2027 03:35:58.408            19.423          9711.500
       194   09 Jun 2027 03:37:02.467   09 Jun 2027 03:40:12.882           190.415         95207.500
       195   09 Jun 2027 05:14:46.111   09 Jun 2027 05:14:49.513             3.402          1701.000
       196   09 Jun 2027 05:14:55.349   09 Jun 2027 05:16:10.966            75.617         37808.500
       197   09 Jun 2027 05:16:50.562   09 Jun 2027 05:17:32.026            41.464         20732.000
       198   09 Jun 2027 05:19:18.312   09 Jun 2027 05:19:33.066            14.754          6681.438
       199   09 Jun 2027 06:52:16.521   09 Jun 2027 06:52:36.959            20.438         10153.156
       200   09 Jun 2027 06:53:11.197   09 Jun 2027 06:53:15.996             4.799          1069.938
       201   09 Jun 2027 06:54:21.580   09 Jun 2027 06:54:25.167             3.587          1723.031
       202   09 Jun 2027 06:55:34.434   09 Jun 2027 06:55:40.662             6.228          1320.406
       203   09 Jun 2027 08:15:09.897   09 Jun 2027 08:15:21.317            11.420          5491.875
       204   09 Jun 2027 08:16:48.762   09 Jun 2027 08:16:56.200             7.438          1935.844
       205   09 Jun 2027 08:17:08.256   09 Jun 2027 08:17:08.256             0.000             0.000
       206   09 Jun 2027 09:51:48.371   09 Jun 2027 09:51:57.021             8.650          4205.875
       207   09 Jun 2027 11:26:50.010   09 Jun 2027 11:27:17.006            26.996          9705.938
       208   09 Jun 2027 11:32:50.672   09 Jun 2027 11:33:13.161            22.489         10231.281
       209   10 Jun 2027 03:47:35.515   10 Jun 2027 03:48:16.821            41.306         20653.000
       210   10 Jun 2027 03:48:31.030   10 Jun 2027 03:51:20.783           169.753         84876.500
       211   10 Jun 2027 03:51:34.238   10 Jun 2027 03:51:35.791             1.553           776.500
       212   10 Jun 2027 03:52:13.099   10 Jun 2027 03:52:24.788            11.689          5844.500
       213   10 Jun 2027 03:53:34.699   10 Jun 2027 03:53:48.499            13.800          6900.000
       214   10 Jun 2027 05:25:44.015   10 Jun 2027 05:26:43.910            59.895         29947.500
       215   10 Jun 2027 05:26:51.471   10 Jun 2027 05:27:23.635            32.164         16082.000
       216   10 Jun 2027 05:27:41.968   10 Jun 2027 05:27:51.874             9.906          4691.688
       217   10 Jun 2027 05:29:33.470   10 Jun 2027 05:29:43.205             9.735          3174.875
       218   10 Jun 2027 05:31:15.388   10 Jun 2027 05:31:22.446             7.058          2805.187
       219   10 Jun 2027 07:04:01.061   10 Jun 2027 07:04:11.775            10.714          5316.406
       220   10 Jun 2027 07:05:07.188   10 Jun 2027 07:05:09.330             2.142           963.562
       221   10 Jun 2027 07:06:26.787   10 Jun 2027 07:06:29.655             2.868           798.156
       222   10 Jun 2027 07:07:48.633   10 Jun 2027 07:07:49.991             1.358           679.000
       223   10 Jun 2027 08:27:24.377   10 Jun 2027 08:27:46.967            22.590          7957.344
       224   10 Jun 2027 08:28:53.137   10 Jun 2027 08:28:58.353             5.216           709.844
       225   10 Jun 2027 08:29:57.089   10 Jun 2027 08:30:00.462             3.373          1622.031
       226   10 Jun 2027 08:30:28.183   10 Jun 2027 08:30:29.284             1.101           240.813
       227   10 Jun 2027 10:03:56.977   10 Jun 2027 10:04:06.620             9.643          2300.219
       228   10 Jun 2027 10:05:31.248   10 Jun 2027 10:05:36.134             4.886          2062.406
       229   10 Jun 2027 10:05:47.540   10 Jun 2027 10:05:56.049             8.509           165.031
       230   10 Jun 2027 10:06:56.891   10 Jun 2027 10:07:01.797             4.906          1737.844
       231   10 Jun 2027 11:39:07.512   10 Jun 2027 11:39:12.693             5.181          2590.500
       232   10 Jun 2027 11:40:57.742   10 Jun 2027 11:41:03.169             5.427          2713.500
       233   10 Jun 2027 11:45:25.279   10 Jun 2027 11:45:43.400            18.121          9060.500
       234   11 Jun 2027 03:59:32.775   11 Jun 2027 04:02:42.551           189.776         94888.000
       235   11 Jun 2027 04:04:06.233   11 Jun 2027 04:04:25.367            19.134          9567.000
       236   11 Jun 2027 05:38:50.599   11 Jun 2027 05:41:12.408           141.809         69821.969
       237   11 Jun 2027 05:42:19.279   11 Jun 2027 05:42:23.050             3.771          1651.187
       238   11 Jun 2027 05:42:44.384   11 Jun 2027 05:42:45.054             0.670           176.094
       239   11 Jun 2027 05:43:19.869   11 Jun 2027 05:43:21.366             1.497           748.500
       240   11 Jun 2027 05:45:29.394   11 Jun 2027 05:45:41.036            11.642          4138.437
       241   11 Jun 2027 07:15:57.817   11 Jun 2027 07:16:09.642            11.825          5419.406
       242   11 Jun 2027 07:16:28.483   11 Jun 2027 07:16:30.614             2.131           446.719
       243   11 Jun 2027 07:17:03.774   11 Jun 2027 07:17:08.112             4.338           859.469
       244   11 Jun 2027 07:17:28.322   11 Jun 2027 07:17:31.897             3.575           561.219
       245   11 Jun 2027 07:18:19.809   11 Jun 2027 07:18:23.706             3.897           605.125
       246   11 Jun 2027 07:19:08.403   11 Jun 2027 07:19:10.224             1.821           695.000
       247   11 Jun 2027 08:39:26.002   11 Jun 2027 08:39:45.604            19.602          9684.250
       248   11 Jun 2027 08:40:33.074   11 Jun 2027 08:40:33.332             0.258            38.687
       249   11 Jun 2027 08:42:15.538   11 Jun 2027 08:42:26.360            10.822          2662.219
       250   11 Jun 2027 10:15:48.937   11 Jun 2027 10:15:58.529             9.592          3879.469
       251   11 Jun 2027 10:17:32.562   11 Jun 2027 10:17:37.924             5.362          2111.313
       252   11 Jun 2027 10:18:29.275   11 Jun 2027 10:18:30.467             1.192           157.281
       253   11 Jun 2027 11:50:42.252   11 Jun 2027 11:50:57.914            15.662          6932.906
       254   11 Jun 2027 11:51:16.146   11 Jun 2027 11:51:16.146             0.000             0.000
       255   11 Jun 2027 11:53:52.243   11 Jun 2027 11:54:04.603            12.360          5233.719
       256   11 Jun 2027 11:57:24.091   11 Jun 2027 11:57:40.073            15.982          6147.344
       257   12 Jun 2027 04:12:14.378   12 Jun 2027 04:14:26.217           131.839         65919.500
       258   12 Jun 2027 04:15:36.935   12 Jun 2027 04:16:07.297            30.362         15181.000
       259   12 Jun 2027 05:50:55.197   12 Jun 2027 05:52:21.022            85.825         42912.500
       260   12 Jun 2027 05:52:40.848   12 Jun 2027 05:53:01.514            20.666         10333.000
       261   12 Jun 2027 05:53:50.602   12 Jun 2027 05:54:00.739            10.137          5068.500
       262   12 Jun 2027 05:56:31.228   12 Jun 2027 05:57:39.421            68.193         33614.719
       263   12 Jun 2027 07:16:41.491   12 Jun 2027 07:16:54.454            12.963          5683.000
       264   12 Jun 2027 07:27:55.151   12 Jun 2027 07:28:02.820             7.669          2903.219
       265   12 Jun 2027 07:28:38.125   12 Jun 2027 07:28:39.258             1.133           464.688
       266   12 Jun 2027 07:29:29.566   12 Jun 2027 07:29:31.852             2.286           894.688
       267   12 Jun 2027 08:50:31.724   12 Jun 2027 08:50:47.950            16.226          7896.219
       268   12 Jun 2027 08:51:34.557   12 Jun 2027 08:51:38.044             3.487           942.594
       269   12 Jun 2027 08:52:35.514   12 Jun 2027 08:52:44.534             9.020          1160.625
       270   12 Jun 2027 08:54:08.613   12 Jun 2027 08:54:17.948             9.335          2439.906
       271   12 Jun 2027 10:26:06.403   12 Jun 2027 10:26:15.152             8.749          4321.406
       272   12 Jun 2027 10:28:23.830   12 Jun 2027 10:28:29.368             5.538          2487.438
       273   12 Jun 2027 10:30:51.096   12 Jun 2027 10:30:58.745             7.649          2867.625
       274   12 Jun 2027 10:32:00.562   12 Jun 2027 10:32:03.398             2.836          1310.375
       275   13 Jun 2027 04:24:20.586   13 Jun 2027 04:26:41.745           141.159         70579.500
       276   13 Jun 2027 06:03:25.297   13 Jun 2027 06:06:36.082           190.785         95392.500
       277   13 Jun 2027 06:08:46.743   13 Jun 2027 06:08:57.709            10.966          5483.000
       278   13 Jun 2027 06:09:29.862   13 Jun 2027 06:09:35.230             5.368          2597.625
       279   13 Jun 2027 07:28:15.339   13 Jun 2027 07:28:27.258            11.919          5959.500
       280   13 Jun 2027 07:28:33.012   13 Jun 2027 07:28:37.505             4.493           701.469
       281   13 Jun 2027 07:29:45.388   13 Jun 2027 07:29:49.118             3.730          1688.937
       282   13 Jun 2027 07:39:55.083   13 Jun 2027 07:40:04.424             9.341          3371.438
       283   13 Jun 2027 07:40:17.337   13 Jun 2027 07:40:17.748             0.411             6.813
       284   13 Jun 2027 09:02:14.198   13 Jun 2027 09:02:44.144            29.946         14713.844
       285   13 Jun 2027 09:03:12.166   13 Jun 2027 09:03:17.878             5.712           875.688
       286   13 Jun 2027 09:04:37.692   13 Jun 2027 09:04:44.253             6.561          1174.781
       287   13 Jun 2027 09:05:58.901   13 Jun 2027 09:06:04.389             5.488          2146.719
       288   13 Jun 2027 09:07:05.755   13 Jun 2027 09:07:09.218             3.463          1441.438
       289   13 Jun 2027 10:37:13.052   13 Jun 2027 10:37:18.132             5.080          2120.219
       290   13 Jun 2027 10:38:26.268   13 Jun 2027 10:38:29.292             3.024           985.656
       291   13 Jun 2027 10:40:21.768   13 Jun 2027 10:40:21.768             0.000             0.000
       292   13 Jun 2027 10:40:57.142   13 Jun 2027 10:41:09.107            11.965          4521.250
       293   13 Jun 2027 10:42:50.358   13 Jun 2027 10:42:58.094             7.736          2690.625
       294   13 Jun 2027 10:43:34.409   13 Jun 2027 10:43:37.054             2.645           378.656
       295   13 Jun 2027 10:44:19.038   13 Jun 2027 10:44:19.038             0.000             0.000
       296   13 Jun 2027 10:45:11.873   13 Jun 2027 10:45:13.674             1.801           739.000
       297   13 Jun 2027 10:45:21.598   13 Jun 2027 10:45:23.929             2.331           244.250
