uniorb/output/strategy_4/Camera/Camera_KinoSat_110702.txt

KinoSat_110702
-------------------------
    Access    *     Start Time (UTCG)     *     Stop Time (UTCG)  *   Duration (s) *   Data (Mbytes)
         1   01 Jun 2027 04:08:33.420   01 Jun 2027 04:10:23.040           109.620         54810.000
         2   01 Jun 2027 05:43:41.984   01 Jun 2027 05:45:15.502            93.518         46759.000
         3   01 Jun 2027 05:45:40.724   01 Jun 2027 05:46:09.922            29.198         14599.000
         4   01 Jun 2027 05:47:19.736   01 Jun 2027 05:47:29.728             9.992          4996.000
         5   01 Jun 2027 05:47:38.634   01 Jun 2027 05:47:46.847             8.213          4106.500
         6   01 Jun 2027 05:49:30.861   01 Jun 2027 05:49:39.095             8.234          4117.000
         7   01 Jun 2027 05:50:23.507   01 Jun 2027 05:50:30.714             7.207          3603.500
         8   01 Jun 2027 07:20:01.992   01 Jun 2027 07:22:08.622           126.630         63315.000
         9   01 Jun 2027 07:22:13.162   01 Jun 2027 07:22:31.324            18.162          9081.000
        10   01 Jun 2027 07:22:41.154   01 Jun 2027 07:22:49.137             7.983          3991.500
        11   01 Jun 2027 07:24:27.515   01 Jun 2027 07:24:39.211            11.696          5848.000
        12   01 Jun 2027 07:24:44.823   01 Jun 2027 07:24:45.387             0.564           282.000
        13   01 Jun 2027 07:26:03.897   01 Jun 2027 07:26:09.793             5.896          2948.000
        14   01 Jun 2027 08:57:36.972   01 Jun 2027 09:00:44.165           187.193         93596.500
        15   01 Jun 2027 09:01:36.084   01 Jun 2027 09:01:49.634            13.550          6775.000
        16   01 Jun 2027 10:33:39.475   01 Jun 2027 10:35:21.457           101.982         50991.000
        17   01 Jun 2027 10:36:21.974   01 Jun 2027 10:37:10.429            48.455         24227.500
        18   01 Jun 2027 10:37:36.054   01 Jun 2027 10:37:45.640             9.586          4793.000
        19   02 Jun 2027 04:20:43.965   02 Jun 2027 04:21:13.210            29.245         14622.500
        20   02 Jun 2027 04:22:50.918   02 Jun 2027 04:23:43.475            52.557         26278.500
        21   02 Jun 2027 04:23:55.130   02 Jun 2027 04:24:06.044            10.914          5457.000
        22   02 Jun 2027 05:55:53.754   02 Jun 2027 05:58:08.955           135.201         67600.500
        23   02 Jun 2027 05:58:19.488   02 Jun 2027 05:58:22.945             3.457          1728.500
        24   02 Jun 2027 05:58:51.984   02 Jun 2027 05:58:51.984             0.000             0.000
        25   02 Jun 2027 06:00:04.295   02 Jun 2027 06:00:09.815             5.520          2760.000
        26   02 Jun 2027 06:01:31.012   02 Jun 2027 06:02:01.667            30.655         15327.500
        27   02 Jun 2027 06:02:11.465   02 Jun 2027 06:02:29.612            18.147          9073.500
        28   02 Jun 2027 07:32:14.933   02 Jun 2027 07:33:01.401            46.468         23234.000
        29   02 Jun 2027 07:33:34.652   02 Jun 2027 07:35:26.973           112.321         56160.500
        30   02 Jun 2027 07:36:51.763   02 Jun 2027 07:36:53.718             1.955           977.500
        31   02 Jun 2027 07:37:05.119   02 Jun 2027 07:38:15.605            70.486         35243.000
        32   02 Jun 2027 09:09:31.977   02 Jun 2027 09:13:02.413           210.436        105153.750
        33   02 Jun 2027 09:13:18.143   02 Jun 2027 09:13:19.758             1.615           491.562
        34   02 Jun 2027 09:14:04.083   02 Jun 2027 09:14:09.373             5.290           944.375
        35   02 Jun 2027 10:45:44.179   02 Jun 2027 10:46:02.553            18.374          7762.656
        36   02 Jun 2027 10:47:15.438   02 Jun 2027 10:47:20.421             4.983            90.125
        37   02 Jun 2027 10:50:22.246   02 Jun 2027 10:50:29.521             7.275          1956.656
        38   03 Jun 2027 04:32:32.307   03 Jun 2027 04:32:45.477            13.170          6585.000
        39   03 Jun 2027 04:34:11.848   03 Jun 2027 04:35:12.195            60.347         30173.500
        40   03 Jun 2027 04:35:56.643   03 Jun 2027 04:36:40.298            43.655         21827.500
        41   03 Jun 2027 06:07:26.417   03 Jun 2027 06:10:21.644           175.227         87613.500
        42   03 Jun 2027 06:12:06.224   03 Jun 2027 06:12:09.787             3.563          1781.500
        43   03 Jun 2027 06:13:09.148   03 Jun 2027 06:13:22.458            13.310          6069.594
        44   03 Jun 2027 06:13:43.202   03 Jun 2027 06:13:46.796             3.594           263.156
        45   03 Jun 2027 06:14:03.395   03 Jun 2027 06:14:06.813             3.418           442.906
        46   03 Jun 2027 07:43:52.321   03 Jun 2027 07:43:53.957             1.636            94.500
        47   03 Jun 2027 07:47:37.233   03 Jun 2027 07:47:45.233             8.000          2167.000
        48   03 Jun 2027 07:48:31.903   03 Jun 2027 07:48:38.405             6.502          1247.406
        49   03 Jun 2027 09:22:10.789   03 Jun 2027 09:22:20.503             9.714          4306.562
        50   03 Jun 2027 09:22:28.817   03 Jun 2027 09:22:30.345             1.528           217.594
        51   03 Jun 2027 09:23:55.406   03 Jun 2027 09:23:58.513             3.107          1506.312
        52   03 Jun 2027 09:24:11.596   03 Jun 2027 09:24:12.655             1.059           408.844
        53   03 Jun 2027 09:24:47.746   03 Jun 2027 09:24:48.615             0.869            71.563
        54   03 Jun 2027 09:25:21.989   03 Jun 2027 09:25:24.277             2.288           293.469
        55   03 Jun 2027 10:57:37.134   03 Jun 2027 10:57:49.429            12.295          5868.062
        56   03 Jun 2027 10:59:26.278   03 Jun 2027 10:59:27.219             0.941           289.469
        57   04 Jun 2027 03:07:15.950   04 Jun 2027 03:07:42.156            26.206         13103.000
        58   04 Jun 2027 04:42:48.742   04 Jun 2027 04:43:38.656            49.914         24957.000
        59   04 Jun 2027 04:44:16.753   04 Jun 2027 04:47:05.295           168.542         84271.000
        60   04 Jun 2027 04:48:20.151   04 Jun 2027 04:48:33.790            13.639          6819.500
        61   04 Jun 2027 06:19:06.133   04 Jun 2027 06:19:59.833            53.700         26751.156
        62   04 Jun 2027 06:21:41.679   04 Jun 2027 06:21:42.959             1.280           269.687
        63   04 Jun 2027 06:22:25.815   04 Jun 2027 06:22:26.479             0.664           299.344
        64   04 Jun 2027 06:24:08.632   04 Jun 2027 06:24:15.040             6.408          2600.000
        65   04 Jun 2027 06:24:53.341   04 Jun 2027 06:24:58.536             5.195          1078.250
        66   04 Jun 2027 06:25:03.181   04 Jun 2027 06:25:03.634             0.453            50.594
        67   04 Jun 2027 06:25:54.013   04 Jun 2027 06:25:57.871             3.858            45.594
        68   04 Jun 2027 07:56:11.872   04 Jun 2027 07:56:12.332             0.460           127.094
        69   04 Jun 2027 07:58:25.279   04 Jun 2027 07:58:29.034             3.755          1782.219
        70   04 Jun 2027 07:59:29.327   04 Jun 2027 07:59:30.970             1.643           712.375
        71   04 Jun 2027 07:59:56.350   04 Jun 2027 07:59:56.866             0.516           160.094
        72   04 Jun 2027 08:00:39.648   04 Jun 2027 08:00:41.889             2.241          1007.625
        73   04 Jun 2027 08:01:28.383   04 Jun 2027 08:01:32.729             4.346          1421.687
        74   04 Jun 2027 08:01:40.204   04 Jun 2027 08:01:41.440             1.236           233.594
        75   04 Jun 2027 08:02:12.759   04 Jun 2027 08:02:14.560             1.801           127.063
        76   04 Jun 2027 09:34:09.218   04 Jun 2027 09:34:22.147            12.929          4807.531
        77   04 Jun 2027 09:36:55.606   04 Jun 2027 09:36:57.997             2.391             0.719
        78   04 Jun 2027 09:37:55.449   04 Jun 2027 09:37:58.285             2.836           479.531
        79   04 Jun 2027 11:07:14.101   04 Jun 2027 11:07:25.165            11.064          4775.531
        80   05 Jun 2027 03:19:02.374   05 Jun 2027 03:19:57.230            54.856         27428.000
        81   05 Jun 2027 04:53:57.302   05 Jun 2027 04:55:51.482           114.180         57090.000
        82   05 Jun 2027 04:56:00.649   05 Jun 2027 04:56:42.403            41.754         20877.000
        83   05 Jun 2027 04:56:52.844   05 Jun 2027 04:57:02.240             9.396          4698.000
        84   05 Jun 2027 04:59:53.884   05 Jun 2027 05:00:02.419             8.535          4267.500
        85   05 Jun 2027 05:02:02.628   05 Jun 2027 05:02:14.474            11.846          5923.000
        86   05 Jun 2027 06:31:25.471   05 Jun 2027 06:32:53.223            87.752         43608.813
        87   05 Jun 2027 06:34:07.483   05 Jun 2027 06:34:09.228             1.745           835.562
        88   05 Jun 2027 06:34:29.098   05 Jun 2027 06:34:29.098             0.000             0.000
        89   05 Jun 2027 06:34:49.559   05 Jun 2027 06:34:58.590             9.031           960.281
        90   05 Jun 2027 06:36:56.225   05 Jun 2027 06:36:56.225             0.000             0.000
        91   05 Jun 2027 06:37:23.088   05 Jun 2027 06:37:28.125             5.037          2350.156
        92   05 Jun 2027 08:08:10.662   05 Jun 2027 08:08:15.171             4.509           761.594
        93   05 Jun 2027 08:11:46.189   05 Jun 2027 08:11:52.029             5.840          1767.094
        94   05 Jun 2027 08:11:59.957   05 Jun 2027 08:12:00.470             0.513           163.406
        95   05 Jun 2027 08:12:17.793   05 Jun 2027 08:12:18.760             0.967           267.250
        96   05 Jun 2027 08:13:27.894   05 Jun 2027 08:13:32.293             4.399          1398.594
        97   05 Jun 2027 08:14:27.251   05 Jun 2027 08:14:32.825             5.574          1612.500
        98   05 Jun 2027 09:46:08.744   05 Jun 2027 09:46:22.796            14.052          6007.656
        99   05 Jun 2027 09:49:30.520   05 Jun 2027 09:49:32.370             1.850           208.094
       100   05 Jun 2027 09:50:02.223   05 Jun 2027 09:50:07.753             5.530           795.125
       101   05 Jun 2027 11:19:46.500   05 Jun 2027 11:19:52.884             6.384           491.469
       102   06 Jun 2027 03:30:34.066   06 Jun 2027 03:30:49.561            15.495          7747.500
       103   06 Jun 2027 03:33:46.618   06 Jun 2027 03:33:52.641             6.023          3011.500
       104   06 Jun 2027 05:05:25.170   06 Jun 2027 05:09:03.778           218.608        109304.000
       105   06 Jun 2027 05:14:18.454   06 Jun 2027 05:14:46.397            27.943         13971.500
       106   06 Jun 2027 06:43:18.475   06 Jun 2027 06:44:15.287            56.812         26756.750
       107   06 Jun 2027 06:45:17.169   06 Jun 2027 06:45:21.729             4.560          1258.750
       108   06 Jun 2027 06:45:59.421   06 Jun 2027 06:46:04.050             4.629          1140.250
       109   06 Jun 2027 06:48:05.771   06 Jun 2027 06:48:14.413             8.642          3291.562
       110   06 Jun 2027 06:48:18.489   06 Jun 2027 06:48:22.395             3.906           127.375
       111   06 Jun 2027 06:48:53.207   06 Jun 2027 06:48:53.207             0.000             0.000
       112   06 Jun 2027 06:48:54.960   06 Jun 2027 06:49:00.185             5.225           960.031
       113   06 Jun 2027 08:20:02.342   06 Jun 2027 08:20:06.479             4.137           804.812
       114   06 Jun 2027 08:23:07.835   06 Jun 2027 08:23:10.793             2.958           473.844
       115   06 Jun 2027 08:23:35.918   06 Jun 2027 08:23:36.885             0.967           372.687
       116   06 Jun 2027 08:24:09.566   06 Jun 2027 08:24:12.565             2.999           951.937
       117   06 Jun 2027 08:24:46.036   06 Jun 2027 08:24:50.805             4.769           448.781
       118   06 Jun 2027 08:25:22.865   06 Jun 2027 08:25:24.021             1.156           448.688
       119   06 Jun 2027 08:26:21.662   06 Jun 2027 08:26:24.961             3.299          1240.375
       120   06 Jun 2027 09:58:09.041   06 Jun 2027 09:58:25.542            16.501          4668.187
       121   06 Jun 2027 10:01:00.068   06 Jun 2027 10:01:02.561             2.493           152.344
       122   06 Jun 2027 10:01:32.111   06 Jun 2027 10:01:34.891             2.780           620.125
       123   06 Jun 2027 10:02:08.570   06 Jun 2027 10:02:09.111             0.541           176.500
       124   06 Jun 2027 11:33:52.577   06 Jun 2027 11:33:55.212             2.635          1198.313
       125   07 Jun 2027 03:44:29.687   07 Jun 2027 03:44:32.940             3.253          1626.500
       126   07 Jun 2027 03:45:47.380   07 Jun 2027 03:45:49.712             2.332          1166.000
       127   07 Jun 2027 03:46:37.917   07 Jun 2027 03:46:44.926             7.009          3504.500
       128   07 Jun 2027 05:18:17.027   07 Jun 2027 05:21:19.372           182.345         91172.500
       129   07 Jun 2027 05:26:23.087   07 Jun 2027 05:26:47.612            24.525         12262.500
       130   07 Jun 2027 06:55:25.813   07 Jun 2027 06:57:13.829           108.016         49697.124
       131   07 Jun 2027 06:57:46.507   07 Jun 2027 06:57:49.168             2.661           925.469
       132   07 Jun 2027 06:58:35.712   07 Jun 2027 06:58:35.712             0.000             0.000
       133   07 Jun 2027 06:59:34.987   07 Jun 2027 06:59:41.467             6.480          2289.719
       134   07 Jun 2027 07:00:17.609   07 Jun 2027 07:00:19.263             1.654           466.656
       135   07 Jun 2027 08:32:40.114   07 Jun 2027 08:32:46.175             6.061          2083.969
       136   07 Jun 2027 08:34:24.042   07 Jun 2027 08:34:25.451             1.409           690.250
       137   07 Jun 2027 08:35:25.354   07 Jun 2027 08:35:30.565             5.211          1871.969
       138   07 Jun 2027 08:36:41.843   07 Jun 2027 08:36:45.263             3.420          1257.531
       139   07 Jun 2027 08:36:59.076   07 Jun 2027 08:37:02.580             3.504           175.031
       140   07 Jun 2027 08:37:42.358   07 Jun 2027 08:37:47.430             5.072           756.125
       141   07 Jun 2027 08:38:14.079   07 Jun 2027 08:38:17.694             3.615           832.781
       142   07 Jun 2027 10:09:22.705   07 Jun 2027 10:09:34.169            11.464          5594.219
       143   07 Jun 2027 10:11:18.844   07 Jun 2027 10:11:24.868             6.024          1235.063
       144   07 Jun 2027 10:13:19.284   07 Jun 2027 10:13:23.652             4.368           434.875
       145   07 Jun 2027 11:44:34.072   07 Jun 2027 11:44:36.919             2.847           729.937
       146   08 Jun 2027 03:56:43.340   08 Jun 2027 03:57:14.495            31.155         15577.500
       147   08 Jun 2027 05:30:40.272   08 Jun 2027 05:33:25.205           164.933         82466.500
       148   08 Jun 2027 05:37:26.616   08 Jun 2027 05:37:39.211            12.595          6297.500
       149   08 Jun 2027 05:37:39.921   08 Jun 2027 05:37:59.024            19.103          9551.500
       150   08 Jun 2027 05:38:31.219   08 Jun 2027 05:38:40.550             9.331          4665.500
       151   08 Jun 2027 05:38:43.527   08 Jun 2027 05:38:46.322             2.795          1397.500
       152   08 Jun 2027 07:07:51.281   08 Jun 2027 07:09:28.042            96.761         44614.156
       153   08 Jun 2027 07:10:11.252   08 Jun 2027 07:10:16.383             5.131           693.000
       154   08 Jun 2027 07:10:49.955   08 Jun 2027 07:10:53.779             3.824           818.938
       155   08 Jun 2027 07:11:35.319   08 Jun 2027 07:11:37.571             2.252           855.625
       156   08 Jun 2027 07:14:21.453   08 Jun 2027 07:14:28.872             7.419           833.469
       157   08 Jun 2027 08:44:51.984   08 Jun 2027 08:44:59.575             7.591          3624.969
       158   08 Jun 2027 08:47:50.004   08 Jun 2027 08:47:51.132             1.128           550.625
       159   08 Jun 2027 08:50:03.975   08 Jun 2027 08:50:09.101             5.126           371.312
       160   08 Jun 2027 10:21:37.677   08 Jun 2027 10:21:52.901            15.224          7535.563
       161   08 Jun 2027 10:24:06.240   08 Jun 2027 10:24:09.466             3.226           684.188
       162   08 Jun 2027 10:25:33.403   08 Jun 2027 10:25:37.959             4.556           243.375
       163   08 Jun 2027 11:59:47.452   08 Jun 2027 11:59:54.995             7.543          1917.375
       164   09 Jun 2027 04:08:48.217   09 Jun 2027 04:09:14.888            26.671         13335.500
       165   09 Jun 2027 04:09:39.950   09 Jun 2027 04:09:42.311             2.361          1180.500
       166   09 Jun 2027 05:43:57.062   09 Jun 2027 05:45:30.205            93.143         46571.500
       167   09 Jun 2027 05:46:22.879   09 Jun 2027 05:46:46.047            23.168         11584.000
       168   09 Jun 2027 05:47:28.772   09 Jun 2027 05:48:21.113            52.341         26170.500
       169   09 Jun 2027 05:50:38.125   09 Jun 2027 05:50:45.635             7.510          3755.000
       170   09 Jun 2027 07:20:17.005   09 Jun 2027 07:22:17.726           120.721         59458.281
       171   09 Jun 2027 07:23:56.234   09 Jun 2027 07:24:01.812             5.578           663.313
       172   09 Jun 2027 07:26:30.484   09 Jun 2027 07:26:33.364             2.880           178.094
       173   09 Jun 2027 08:57:51.644   09 Jun 2027 08:58:01.509             9.865          4391.188
       174   09 Jun 2027 09:00:08.399   09 Jun 2027 09:00:12.612             4.213          2058.594
       175   09 Jun 2027 09:01:42.814   09 Jun 2027 09:01:48.988             6.174          1008.563
       176   09 Jun 2027 09:01:50.478   09 Jun 2027 09:01:52.640             2.162            46.562
       177   09 Jun 2027 10:33:54.360   09 Jun 2027 10:34:07.490            13.130          5913.937
       178   10 Jun 2027 04:22:29.836   10 Jun 2027 04:23:58.308            88.472         44236.000
       179   10 Jun 2027 05:56:08.693   10 Jun 2027 05:58:16.297           127.604         63802.000
       180   10 Jun 2027 06:00:31.010   10 Jun 2027 06:00:58.274            27.264         13632.000
       181   10 Jun 2027 06:01:18.778   10 Jun 2027 06:01:46.375            27.597         13798.500
       182   10 Jun 2027 06:02:28.592   10 Jun 2027 06:02:44.320            15.728          7864.000
       183   10 Jun 2027 07:32:29.625   10 Jun 2027 07:33:11.412            41.787         19844.375
       184   10 Jun 2027 07:33:42.130   10 Jun 2027 07:33:44.556             2.426           575.094
       185   10 Jun 2027 07:35:49.802   10 Jun 2027 07:35:50.882             1.080           446.875
       186   10 Jun 2027 09:09:46.471   10 Jun 2027 09:09:57.911            11.440          4671.031
       187   10 Jun 2027 09:11:16.600   10 Jun 2027 09:11:19.315             2.715           475.375
       188   10 Jun 2027 09:12:01.222   10 Jun 2027 09:12:04.028             2.806            54.156
       189   10 Jun 2027 09:12:15.589   10 Jun 2027 09:12:19.958             4.369           284.156
       190   10 Jun 2027 10:45:58.828   10 Jun 2027 10:46:15.060            16.232          7789.938
       191   11 Jun 2027 04:32:46.460   11 Jun 2027 04:35:00.290           133.830         66915.000
       192   11 Jun 2027 04:35:28.945   11 Jun 2027 04:36:07.512            38.567         19283.500
       193   11 Jun 2027 06:07:39.954   11 Jun 2027 06:09:51.397           131.443         63606.219
       194   11 Jun 2027 06:10:30.887   11 Jun 2027 06:10:30.887             0.000             0.000
       195   11 Jun 2027 06:10:59.528   11 Jun 2027 06:11:06.884             7.356          1546.938
       196   11 Jun 2027 06:12:32.703   11 Jun 2027 06:12:37.189             4.486          1226.656
       197   11 Jun 2027 06:14:04.656   11 Jun 2027 06:14:11.978             7.322          1240.406
       198   11 Jun 2027 06:14:21.354   11 Jun 2027 06:14:25.813             4.459            68.750
       199   11 Jun 2027 07:44:07.708   11 Jun 2027 07:44:07.984             0.276            99.031
       200   11 Jun 2027 07:45:28.030   11 Jun 2027 07:45:30.978             2.948            53.344
       201   11 Jun 2027 07:46:15.789   11 Jun 2027 07:46:16.818             1.029           286.312
       202   11 Jun 2027 07:48:10.930   11 Jun 2027 07:48:13.954             3.024          1490.312
       203   11 Jun 2027 07:49:21.533   11 Jun 2027 07:49:24.681             3.148          1089.344
       204   11 Jun 2027 09:22:25.856   11 Jun 2027 09:22:35.342             9.486          4633.187
       205   11 Jun 2027 09:22:36.869   11 Jun 2027 09:22:37.331             0.462            47.719
       206   11 Jun 2027 09:23:23.512   11 Jun 2027 09:23:29.679             6.167          1254.094
       207   11 Jun 2027 09:24:13.912   11 Jun 2027 09:24:14.734             0.822           345.813
       208   11 Jun 2027 09:24:49.527   11 Jun 2027 09:24:50.962             1.435           646.469
       209   11 Jun 2027 09:25:03.655   11 Jun 2027 09:25:06.132             2.477            28.594
       210   11 Jun 2027 09:25:13.055   11 Jun 2027 09:25:14.550             1.495           216.344
       211   11 Jun 2027 09:25:36.945   11 Jun 2027 09:25:38.663             1.718           292.625
       212   11 Jun 2027 09:25:47.225   11 Jun 2027 09:25:48.896             1.671            29.531
       213   11 Jun 2027 10:57:52.618   11 Jun 2027 10:58:05.652            13.034          6113.844
       214   12 Jun 2027 03:07:30.673   12 Jun 2027 03:07:56.771            26.098         13049.000
       215   12 Jun 2027 04:43:02.679   12 Jun 2027 04:43:53.275            50.596         25298.000
       216   12 Jun 2027 04:44:31.340   12 Jun 2027 04:46:31.918           120.578         60289.000
       217   12 Jun 2027 04:48:27.714   12 Jun 2027 04:48:48.981            21.267         10633.500
       218   12 Jun 2027 06:19:21.290   12 Jun 2027 06:21:01.612           100.322         49680.219
       219   12 Jun 2027 06:22:33.016   12 Jun 2027 06:22:33.688             0.672            64.688
       220   12 Jun 2027 06:23:01.242   12 Jun 2027 06:23:03.871             2.629           552.781
       221   12 Jun 2027 06:24:35.598   12 Jun 2027 06:24:35.598             0.000             0.000
       222   12 Jun 2027 06:25:09.048   12 Jun 2027 06:25:12.455             3.407          1397.094
       223   12 Jun 2027 06:25:19.264   12 Jun 2027 06:25:20.179             0.915            55.313
       224   12 Jun 2027 06:26:08.491   12 Jun 2027 06:26:15.161             6.670            27.344
       225   12 Jun 2027 07:56:27.421   12 Jun 2027 07:56:28.829             1.408           170.813
       226   12 Jun 2027 07:58:43.669   12 Jun 2027 07:58:43.934             0.265            12.000
       227   12 Jun 2027 07:59:32.037   12 Jun 2027 07:59:36.190             4.153           969.031
       228   12 Jun 2027 07:59:57.665   12 Jun 2027 08:00:02.397             4.732           650.000
       229   12 Jun 2027 08:00:12.600   12 Jun 2027 08:00:14.139             1.539           184.750
       230   12 Jun 2027 08:00:54.035   12 Jun 2027 08:00:56.324             2.289           994.469
       231   12 Jun 2027 08:01:38.563   12 Jun 2027 08:01:42.422             3.859          1271.969
       232   12 Jun 2027 08:01:55.431   12 Jun 2027 08:01:56.940             1.509           344.625
       233   12 Jun 2027 08:02:28.035   12 Jun 2027 08:02:29.348             1.313           149.750
       234   12 Jun 2027 09:34:23.964   12 Jun 2027 09:34:36.683            12.719          5507.000
       235   12 Jun 2027 09:37:12.795   12 Jun 2027 09:37:13.012             0.217            66.406
       236   12 Jun 2027 09:37:54.177   12 Jun 2027 09:37:55.116             0.939           289.062
       237   12 Jun 2027 09:38:10.007   12 Jun 2027 09:38:12.787             2.780           465.344
       238   12 Jun 2027 11:07:28.830   12 Jun 2027 11:07:38.234             9.404          4396.750
       239   13 Jun 2027 03:19:13.679   13 Jun 2027 03:19:18.688             5.009          2504.500
       240   13 Jun 2027 03:21:09.129   13 Jun 2027 03:21:22.321            13.192          6596.000
       241   13 Jun 2027 03:22:00.145   13 Jun 2027 03:22:09.267             9.122          4561.000
       242   13 Jun 2027 04:54:11.569   13 Jun 2027 04:56:06.362           114.793         57396.500
       243   13 Jun 2027 04:56:15.278   13 Jun 2027 04:57:19.224            63.946         31973.000
       244   13 Jun 2027 04:58:39.030   13 Jun 2027 04:58:57.535            18.505          9252.500
       245   13 Jun 2027 04:59:37.247   13 Jun 2027 04:59:53.347            16.100          8050.000
       246   13 Jun 2027 05:02:08.702   13 Jun 2027 05:02:21.444            12.742          6371.000
       247   13 Jun 2027 06:31:40.062   13 Jun 2027 06:32:47.057            66.995         33477.719
       248   13 Jun 2027 06:33:47.221   13 Jun 2027 06:33:53.109             5.888          1757.156
       249   13 Jun 2027 06:33:56.420   13 Jun 2027 06:33:57.320             0.900            79.844
       250   13 Jun 2027 06:34:34.890   13 Jun 2027 06:34:35.742             0.852           349.875
       251   13 Jun 2027 06:35:05.469   13 Jun 2027 06:35:15.359             9.890           582.406
       252   13 Jun 2027 06:37:12.282   13 Jun 2027 06:37:24.047            11.765          1539.250
       253   13 Jun 2027 06:37:50.738   13 Jun 2027 06:37:51.947             1.209           389.500
       254   13 Jun 2027 08:08:24.813   13 Jun 2027 08:08:26.240             1.427            52.813
       255   13 Jun 2027 08:10:24.248   13 Jun 2027 08:10:25.352             1.104           180.094
       256   13 Jun 2027 08:11:07.518   13 Jun 2027 08:11:10.703             3.185           769.812
       257   13 Jun 2027 08:11:42.848   13 Jun 2027 08:11:48.497             5.649           729.469
       258   13 Jun 2027 08:12:06.753   13 Jun 2027 08:12:07.321             0.568           175.969
       259   13 Jun 2027 08:12:24.254   13 Jun 2027 08:12:25.603             1.349           281.469
       260   13 Jun 2027 08:12:58.178   13 Jun 2027 08:13:01.169             2.991           815.250
       261   13 Jun 2027 08:13:23.849   13 Jun 2027 08:13:27.003             3.154           708.750
       262   13 Jun 2027 08:13:51.625   13 Jun 2027 08:13:56.049             4.424           308.656
       263   13 Jun 2027 09:46:23.174   13 Jun 2027 09:46:35.926            12.752          6286.719
       264   13 Jun 2027 09:47:35.368   13 Jun 2027 09:47:39.300             3.932           617.125
       265   13 Jun 2027 09:49:21.554   13 Jun 2027 09:49:25.451             3.897           785.625
       266   13 Jun 2027 09:49:45.771   13 Jun 2027 09:49:47.306             1.535           224.000
       267   13 Jun 2027 09:50:17.297   13 Jun 2027 09:50:23.337             6.040           820.625
       268   13 Jun 2027 11:20:01.065   13 Jun 2027 11:20:03.507             2.442           595.656
