uniorb/output/strategy_4/Camera/Camera_KinoSat_112008.txt

KinoSat_112008
-------------------------
    Access    *     Start Time (UTCG)     *     Stop Time (UTCG)  *   Duration (s) *   Data (Mbytes)
         1   01 Jun 2027 04:03:58.695   01 Jun 2027 04:04:20.556            21.861         10930.500
         2   01 Jun 2027 04:04:23.784   01 Jun 2027 04:06:36.305           132.521         66260.500
         3   01 Jun 2027 04:10:21.616   01 Jun 2027 04:10:27.471             5.855          2927.500
         4   01 Jun 2027 04:10:57.540   01 Jun 2027 04:10:58.938             1.398           699.000
         5   01 Jun 2027 05:43:16.364   01 Jun 2027 05:45:10.669           114.305         57152.500
         6   01 Jun 2027 05:45:24.412   01 Jun 2027 05:45:30.936             6.524          3262.000
         7   01 Jun 2027 05:46:29.027   01 Jun 2027 05:46:36.279             7.252          3626.000
         8   01 Jun 2027 05:50:10.677   01 Jun 2027 05:50:12.439             1.762           881.000
         9   01 Jun 2027 07:09:36.438   01 Jun 2027 07:09:45.556             9.118          4559.000
        10   01 Jun 2027 07:20:21.473   01 Jun 2027 07:22:07.356           105.883         52941.500
        11   01 Jun 2027 07:23:13.804   01 Jun 2027 07:23:32.117            18.313          9156.500
        12   01 Jun 2027 08:44:21.188   01 Jun 2027 08:45:15.477            54.289         27144.500
        13   01 Jun 2027 11:58:35.011   01 Jun 2027 11:58:56.704            21.693         10846.500
        14   02 Jun 2027 04:16:39.291   02 Jun 2027 04:20:37.633           238.342        119171.000
        15   02 Jun 2027 04:21:13.210   02 Jun 2027 04:22:15.195            61.985         30992.500
        16   02 Jun 2027 05:55:37.335   02 Jun 2027 05:58:20.963           163.628         81814.000
        17   02 Jun 2027 05:59:37.204   02 Jun 2027 06:00:41.656            64.452         32226.000
        18   02 Jun 2027 06:01:26.303   02 Jun 2027 06:03:01.331            95.028         47514.000
        19   02 Jun 2027 07:20:52.958   02 Jun 2027 07:21:37.403            44.445         22222.500
        20   02 Jun 2027 07:32:21.929   02 Jun 2027 07:33:27.642            65.713         32856.500
        21   02 Jun 2027 08:54:59.691   02 Jun 2027 08:55:58.750            59.059         29529.500
        22   02 Jun 2027 08:56:35.507   02 Jun 2027 08:58:32.063           116.556         58278.000
        23   02 Jun 2027 10:30:18.946   02 Jun 2027 10:31:18.541            59.595         29797.500
        24   02 Jun 2027 10:31:51.626   02 Jun 2027 10:32:19.204            27.578         13268.999
        25   02 Jun 2027 10:35:25.097   02 Jun 2027 10:35:34.969             9.872          4897.719
        26   02 Jun 2027 10:36:02.049   02 Jun 2027 10:36:06.074             4.025           450.750
        27   02 Jun 2027 10:36:27.386   02 Jun 2027 10:36:27.386             0.000             0.000
        28   03 Jun 2027 04:28:55.252   03 Jun 2027 04:28:55.557             0.305           152.500
        29   03 Jun 2027 04:29:28.160   03 Jun 2027 04:30:19.095            50.935         25467.500
        30   03 Jun 2027 04:30:22.192   03 Jun 2027 04:31:25.017            62.825         31412.500
        31   03 Jun 2027 04:32:36.010   03 Jun 2027 04:32:45.477             9.467          4733.500
        32   03 Jun 2027 04:34:11.848   03 Jun 2027 04:34:28.932            17.084          8542.000
        33   03 Jun 2027 06:07:53.505   03 Jun 2027 06:11:19.653           206.148        101827.250
        34   03 Jun 2027 06:11:33.346   03 Jun 2027 06:11:34.116             0.770           196.875
        35   03 Jun 2027 06:12:27.658   03 Jun 2027 06:12:29.603             1.945           789.438
        36   03 Jun 2027 06:13:20.477   03 Jun 2027 06:13:23.204             2.727          1060.625
        37   03 Jun 2027 07:32:07.633   03 Jun 2027 07:32:22.979            15.346          5953.000
        38   03 Jun 2027 07:33:26.011   03 Jun 2027 07:33:30.237             4.226          1666.750
        39   03 Jun 2027 07:34:03.930   03 Jun 2027 07:34:05.639             1.709           723.812
        40   03 Jun 2027 07:44:19.854   03 Jun 2027 07:44:27.113             7.259          3286.625
        41   03 Jun 2027 09:06:35.786   03 Jun 2027 09:07:04.842            29.056         14528.000
        42   03 Jun 2027 09:08:31.545   03 Jun 2027 09:08:36.613             5.068          1637.375
        43   03 Jun 2027 09:09:03.270   03 Jun 2027 09:09:10.017             6.747           289.406
        44   03 Jun 2027 09:10:45.262   03 Jun 2027 09:10:45.262             0.000             0.000
        45   03 Jun 2027 09:11:29.412   03 Jun 2027 09:11:36.533             7.121          3409.594
        46   03 Jun 2027 10:41:28.748   03 Jun 2027 10:41:36.080             7.332          3092.531
        47   03 Jun 2027 10:42:58.022   03 Jun 2027 10:43:07.208             9.186          1273.313
        48   03 Jun 2027 10:44:46.025   03 Jun 2027 10:44:53.739             7.714          2957.656
        49   03 Jun 2027 10:47:57.685   03 Jun 2027 10:48:08.259            10.574          4943.281
        50   03 Jun 2027 10:49:34.169   03 Jun 2027 10:49:38.739             4.570          1426.750
        51   04 Jun 2027 03:04:20.360   04 Jun 2027 03:04:32.788            12.428          6214.000
        52   04 Jun 2027 03:06:37.775   04 Jun 2027 03:06:58.849            21.074         10537.000
        53   04 Jun 2027 03:07:10.629   04 Jun 2027 03:07:30.334            19.705          9852.500
        54   04 Jun 2027 03:08:14.932   04 Jun 2027 03:08:34.709            19.777          9888.500
        55   04 Jun 2027 03:09:07.292   04 Jun 2027 03:09:36.145            28.853         14426.500
        56   04 Jun 2027 03:11:18.958   04 Jun 2027 03:11:30.526            11.568          5784.000
        57   04 Jun 2027 04:41:14.555   04 Jun 2027 04:41:27.825            13.270          6635.000
        58   04 Jun 2027 04:41:41.753   04 Jun 2027 04:44:27.740           165.987         82993.500
        59   04 Jun 2027 04:44:51.251   04 Jun 2027 04:44:55.926             4.675          2337.500
        60   04 Jun 2027 06:20:00.052   04 Jun 2027 06:21:00.905            60.853         30314.000
        61   04 Jun 2027 06:21:13.234   04 Jun 2027 06:21:20.287             7.053            24.625
        62   04 Jun 2027 06:21:26.986   04 Jun 2027 06:21:27.568             0.582            46.500
        63   04 Jun 2027 06:22:09.101   04 Jun 2027 06:22:09.265             0.164            35.875
        64   04 Jun 2027 06:22:43.850   04 Jun 2027 06:22:45.432             1.582           775.969
        65   04 Jun 2027 06:23:40.086   04 Jun 2027 06:23:42.985             2.899          1030.469
        66   04 Jun 2027 06:24:19.051   04 Jun 2027 06:24:23.059             4.008           750.125
        67   04 Jun 2027 06:24:44.627   04 Jun 2027 06:24:46.762             2.135           674.000
        68   04 Jun 2027 06:25:23.541   04 Jun 2027 06:25:29.567             6.026          1097.438
        69   04 Jun 2027 07:44:13.653   04 Jun 2027 07:44:21.887             8.234          3891.031
        70   04 Jun 2027 07:45:06.982   04 Jun 2027 07:45:10.054             3.072           555.375
        71   04 Jun 2027 07:56:43.466   04 Jun 2027 07:56:47.288             3.822          1826.594
        72   04 Jun 2027 09:18:04.774   04 Jun 2027 09:18:21.911            17.137          8561.906
        73   04 Jun 2027 09:20:10.044   04 Jun 2027 09:20:16.280             6.236          2042.844
        74   04 Jun 2027 09:20:42.844   04 Jun 2027 09:20:47.914             5.070           494.719
        75   04 Jun 2027 09:21:48.727   04 Jun 2027 09:21:52.659             3.932          1364.312
        76   04 Jun 2027 09:22:43.246   04 Jun 2027 09:22:45.717             2.471           618.844
        77   04 Jun 2027 09:23:27.084   04 Jun 2027 09:23:28.723             1.639           212.906
        78   04 Jun 2027 10:52:59.069   04 Jun 2027 10:53:02.728             3.659          1757.125
        79   04 Jun 2027 10:56:00.424   04 Jun 2027 10:56:00.424             0.000             0.000
        80   04 Jun 2027 11:00:23.668   04 Jun 2027 11:00:43.473            19.805          9358.344
        81   04 Jun 2027 11:01:31.928   04 Jun 2027 11:01:35.390             3.462           620.156
        82   04 Jun 2027 11:01:54.242   04 Jun 2027 11:01:56.619             2.377           589.125
        83   04 Jun 2027 11:02:04.959   04 Jun 2027 11:02:07.685             2.726           260.625
        84   05 Jun 2027 03:16:08.081   05 Jun 2027 03:16:22.525            14.444          7222.000
        85   05 Jun 2027 03:18:24.200   05 Jun 2027 03:20:12.241           108.041         54020.500
        86   05 Jun 2027 03:21:38.600   05 Jun 2027 03:22:18.115            39.515         19757.500
        87   05 Jun 2027 03:23:32.262   05 Jun 2027 03:23:54.480            22.218         11109.000
        88   05 Jun 2027 04:53:52.358   05 Jun 2027 04:54:01.099             8.741          4370.500
        89   05 Jun 2027 04:54:13.925   05 Jun 2027 04:54:22.715             8.790          4395.000
        90   05 Jun 2027 04:54:23.913   05 Jun 2027 04:55:15.554            51.641         25820.500
        91   05 Jun 2027 04:55:20.537   05 Jun 2027 04:55:59.053            38.516         19258.000
        92   05 Jun 2027 04:55:59.551   05 Jun 2027 04:56:05.917             6.366          3183.000
        93   05 Jun 2027 04:59:21.761   05 Jun 2027 04:59:28.805             7.044          3522.000
        94   05 Jun 2027 06:32:21.269   05 Jun 2027 06:33:24.647            63.378         29888.344
        95   05 Jun 2027 06:34:02.267   05 Jun 2027 06:34:07.483             5.216          1175.625
        96   05 Jun 2027 06:34:48.822   05 Jun 2027 06:34:58.590             9.768           866.906
        97   05 Jun 2027 06:35:37.383   05 Jun 2027 06:35:38.321             0.938           341.875
        98   05 Jun 2027 06:36:47.393   05 Jun 2027 06:36:53.226             5.833          1894.563
        99   05 Jun 2027 07:56:09.639   05 Jun 2027 07:56:21.066            11.427          3446.000
       100   05 Jun 2027 07:57:29.317   05 Jun 2027 07:57:33.073             3.756          1424.844
       101   05 Jun 2027 09:32:09.571   05 Jun 2027 09:32:19.976            10.405          4748.844
       102   05 Jun 2027 09:33:11.809   05 Jun 2027 09:33:13.965             2.156          1066.719
       103   05 Jun 2027 09:34:51.595   05 Jun 2027 09:34:56.747             5.152          2222.844
       104   05 Jun 2027 09:35:27.171   05 Jun 2027 09:35:32.022             4.851           950.750
       105   05 Jun 2027 11:05:53.458   05 Jun 2027 11:05:59.117             5.659          2748.312
       106   05 Jun 2027 11:08:32.443   05 Jun 2027 11:08:32.443             0.000             0.000
       107   05 Jun 2027 11:12:03.088   05 Jun 2027 11:12:21.599            18.511          8386.469
       108   05 Jun 2027 11:13:08.359   05 Jun 2027 11:13:11.927             3.568           962.469
       109   05 Jun 2027 11:14:04.145   05 Jun 2027 11:14:10.676             6.531          1389.250
       110   06 Jun 2027 03:28:12.496   06 Jun 2027 03:28:29.204            16.708          8354.000
       111   06 Jun 2027 03:30:05.342   06 Jun 2027 03:32:06.610           121.268         60634.000
       112   06 Jun 2027 03:32:59.011   06 Jun 2027 03:33:56.968            57.957         28978.500
       113   06 Jun 2027 03:35:16.280   06 Jun 2027 03:35:26.166             9.886          4943.000
       114   06 Jun 2027 05:07:42.372   06 Jun 2027 05:08:53.279            70.907         35453.500
       115   06 Jun 2027 05:10:21.665   06 Jun 2027 05:11:35.466            73.801         36318.812
       116   06 Jun 2027 05:11:39.622   06 Jun 2027 05:11:41.199             1.577           129.875
       117   06 Jun 2027 05:12:28.654   06 Jun 2027 05:12:31.468             2.814          1324.781
       118   06 Jun 2027 06:44:20.201   06 Jun 2027 06:44:45.897            25.696         11970.375
       119   06 Jun 2027 06:44:52.773   06 Jun 2027 06:44:54.750             1.977           207.000
       120   06 Jun 2027 06:45:21.729   06 Jun 2027 06:45:22.933             1.204           198.250
       121   06 Jun 2027 06:46:22.594   06 Jun 2027 06:46:27.925             5.331           657.219
       122   06 Jun 2027 06:47:18.636   06 Jun 2027 06:47:22.132             3.496           988.281
       123   06 Jun 2027 06:47:43.382   06 Jun 2027 06:47:52.311             8.929           342.781
       124   06 Jun 2027 06:48:25.683   06 Jun 2027 06:48:29.257             3.574          1042.875
       125   06 Jun 2027 08:08:01.325   06 Jun 2027 08:08:11.800            10.475          5101.750
       126   06 Jun 2027 08:09:30.708   06 Jun 2027 08:09:35.023             4.315          1706.719
       127   06 Jun 2027 08:09:58.623   06 Jun 2027 08:10:00.986             2.363           151.531
       128   06 Jun 2027 09:44:24.454   06 Jun 2027 09:44:34.522            10.068          4089.469
       129   06 Jun 2027 11:16:37.192   06 Jun 2027 11:16:48.585            11.393          5696.500
       130   06 Jun 2027 11:20:14.934   06 Jun 2027 11:20:26.887            11.953          5637.844
       131   06 Jun 2027 11:22:20.562   06 Jun 2027 11:22:29.124             8.562          3456.844
       132   06 Jun 2027 11:23:26.552   06 Jun 2027 11:23:29.908             3.356          1669.812
       133   06 Jun 2027 11:23:55.852   06 Jun 2027 11:23:59.607             3.755           644.438
       134   06 Jun 2027 11:25:06.081   06 Jun 2027 11:25:09.024             2.943          1444.938
       135   06 Jun 2027 11:26:12.609   06 Jun 2027 11:26:12.609             0.000             0.000
       136   06 Jun 2027 11:26:24.982   06 Jun 2027 11:26:27.769             2.787          1393.500
       137   07 Jun 2027 03:40:15.721   07 Jun 2027 03:40:32.123            16.402          8201.000
       138   07 Jun 2027 03:40:33.044   07 Jun 2027 03:41:03.586            30.542         15271.000
       139   07 Jun 2027 03:41:33.222   07 Jun 2027 03:44:07.924           154.702         77351.000
       140   07 Jun 2027 03:44:55.053   07 Jun 2027 03:45:27.423            32.370         16185.000
       141   07 Jun 2027 05:18:25.605   07 Jun 2027 05:18:55.789            30.184         15092.000
       142   07 Jun 2027 05:20:53.805   07 Jun 2027 05:22:16.004            82.199         41099.500
       143   07 Jun 2027 05:24:38.444   07 Jun 2027 05:24:42.992             4.548          2274.000
       144   07 Jun 2027 06:57:34.083   07 Jun 2027 06:58:07.341            33.258         16037.437
       145   07 Jun 2027 06:58:25.103   07 Jun 2027 06:58:27.509             2.406           461.750
       146   07 Jun 2027 06:58:54.968   07 Jun 2027 06:58:57.273             2.305           295.406
       147   07 Jun 2027 06:59:37.410   07 Jun 2027 06:59:41.467             4.057           747.281
       148   07 Jun 2027 06:59:52.293   07 Jun 2027 06:59:52.925             0.632           125.063
       149   07 Jun 2027 07:00:12.850   07 Jun 2027 07:00:15.015             2.165           312.844
       150   07 Jun 2027 07:00:36.884   07 Jun 2027 07:00:37.797             0.913           254.188
       151   07 Jun 2027 08:20:06.262   07 Jun 2027 08:20:18.255            11.993          5702.969
       152   07 Jun 2027 08:21:31.856   07 Jun 2027 08:21:36.873             5.017          2077.031
       153   07 Jun 2027 08:21:49.811   07 Jun 2027 08:21:50.883             1.072           111.719
       154   07 Jun 2027 08:23:05.729   07 Jun 2027 08:23:06.305             0.576           288.000
       155   07 Jun 2027 09:56:35.262   07 Jun 2027 09:56:44.133             8.871          4188.781
       156   07 Jun 2027 09:58:07.649   07 Jun 2027 09:58:13.278             5.629          1861.844
       157   07 Jun 2027 09:58:31.517   07 Jun 2027 09:58:35.241             3.724            50.187
       158   07 Jun 2027 09:59:34.912   07 Jun 2027 09:59:37.392             2.480           920.281
       159   07 Jun 2027 11:33:11.061   07 Jun 2027 11:33:29.446            18.385          7919.656
       160   07 Jun 2027 11:35:05.515   07 Jun 2027 11:35:11.992             6.477           652.500
       161   07 Jun 2027 11:37:45.570   07 Jun 2027 11:37:54.607             9.037          4320.125
       162   08 Jun 2027 03:52:13.896   08 Jun 2027 03:52:57.801            43.905         21952.500
       163   08 Jun 2027 03:53:02.338   08 Jun 2027 03:56:11.577           189.239         94619.500
       164   08 Jun 2027 05:30:29.986   08 Jun 2027 05:31:11.356            41.370         20685.000
       165   08 Jun 2027 05:31:33.866   08 Jun 2027 05:32:34.032            60.166         29672.313
       166   08 Jun 2027 05:33:44.708   08 Jun 2027 05:33:46.810             2.102           300.938
       167   08 Jun 2027 05:36:19.879   08 Jun 2027 05:36:25.598             5.719          2859.500
       168   08 Jun 2027 07:08:43.126   08 Jun 2027 07:08:53.931            10.805          4871.000
       169   08 Jun 2027 07:09:37.503   08 Jun 2027 07:09:39.725             2.222           441.250
       170   08 Jun 2027 07:11:07.201   08 Jun 2027 07:11:09.721             2.520           710.375
       171   08 Jun 2027 07:11:51.888   08 Jun 2027 07:11:54.364             2.476           592.375
       172   08 Jun 2027 08:32:02.290   08 Jun 2027 08:32:23.920            21.630         10307.719
       173   08 Jun 2027 08:33:23.660   08 Jun 2027 08:33:24.783             1.123           297.813
       174   08 Jun 2027 08:33:48.212   08 Jun 2027 08:33:49.611             1.399           595.812
       175   08 Jun 2027 08:35:01.746   08 Jun 2027 08:35:01.746             0.000             0.000
       176   08 Jun 2027 10:08:39.690   08 Jun 2027 10:08:54.541            14.851          5264.344
       177   08 Jun 2027 10:10:21.867   08 Jun 2027 10:10:30.340             8.473          2306.906
       178   08 Jun 2027 10:10:52.234   08 Jun 2027 10:10:59.422             7.188           208.875
       179   08 Jun 2027 11:43:50.277   08 Jun 2027 11:43:52.806             2.529          1264.500
       180   08 Jun 2027 11:46:14.091   08 Jun 2027 11:46:34.202            20.111          9756.188
       181   08 Jun 2027 11:50:12.525   08 Jun 2027 11:50:26.712            14.187          6198.531
       182   09 Jun 2027 04:04:17.294   09 Jun 2027 04:07:34.563           197.269         98634.500
       183   09 Jun 2027 04:08:32.875   09 Jun 2027 04:09:03.432            30.557         15278.500
       184   09 Jun 2027 04:09:37.313   09 Jun 2027 04:09:50.731            13.418          6709.000
       185   09 Jun 2027 04:10:12.828   09 Jun 2027 04:10:18.949             6.121          3060.500
       186   09 Jun 2027 04:10:41.961   09 Jun 2027 04:10:46.496             4.535          2267.500
       187   09 Jun 2027 05:43:34.694   09 Jun 2027 05:44:47.043            72.349         36174.500
       188   09 Jun 2027 05:46:17.996   09 Jun 2027 05:46:24.514             6.518          3259.000
       189   09 Jun 2027 05:50:14.957   09 Jun 2027 05:51:02.075            47.118         23462.499
       190   09 Jun 2027 07:09:50.688   09 Jun 2027 07:10:07.429            16.741          6483.031
       191   09 Jun 2027 07:20:39.015   09 Jun 2027 07:20:44.337             5.322          2616.750
       192   09 Jun 2027 07:21:45.895   09 Jun 2027 07:21:47.667             1.772           789.937
       193   09 Jun 2027 07:22:12.378   09 Jun 2027 07:22:14.981             2.603           134.500
       194   09 Jun 2027 07:22:59.823   09 Jun 2027 07:23:02.818             2.995           500.000
       195   09 Jun 2027 07:23:29.103   09 Jun 2027 07:23:29.103             0.000             0.000
       196   09 Jun 2027 07:23:47.797   09 Jun 2027 07:23:51.077             3.280           723.219
       197   09 Jun 2027 07:24:07.113   09 Jun 2027 07:24:08.009             0.896           448.000
       198   09 Jun 2027 08:44:37.767   09 Jun 2027 08:44:57.743            19.976          9670.750
       199   09 Jun 2027 08:45:16.709   09 Jun 2027 08:45:19.775             3.066           390.125
       200   09 Jun 2027 08:46:56.131   09 Jun 2027 08:47:03.728             7.597          2592.438
       201   09 Jun 2027 10:20:24.287   09 Jun 2027 10:20:32.087             7.800          3570.063
       202   09 Jun 2027 10:22:10.977   09 Jun 2027 10:22:17.908             6.931          1988.031
       203   09 Jun 2027 10:23:29.914   09 Jun 2027 10:23:32.896             2.982           415.656
       204   09 Jun 2027 11:58:58.502   09 Jun 2027 11:59:12.442            13.940          6970.000
       205   10 Jun 2027 04:16:57.572   10 Jun 2027 04:19:19.410           141.838         70919.000
       206   10 Jun 2027 04:19:46.975   10 Jun 2027 04:19:57.421            10.446          5223.000
       207   10 Jun 2027 04:20:47.916   10 Jun 2027 04:20:51.028             3.112          1556.000
       208   10 Jun 2027 05:55:56.638   10 Jun 2027 05:58:17.855           141.217         70608.500
       209   10 Jun 2027 06:01:18.778   10 Jun 2027 06:01:36.325            17.547          8773.500
       210   10 Jun 2027 06:02:11.526   10 Jun 2027 06:02:54.721            43.195         20840.250
       211   10 Jun 2027 07:21:06.076   10 Jun 2027 07:21:26.227            20.151          9188.063
       212   10 Jun 2027 07:21:45.559   10 Jun 2027 07:21:47.996             2.437           506.969
       213   10 Jun 2027 07:22:22.545   10 Jun 2027 07:22:25.216             2.671           954.344
       214   10 Jun 2027 07:32:40.207   10 Jun 2027 07:32:47.429             7.222          2209.781
       215   10 Jun 2027 07:33:43.265   10 Jun 2027 07:33:47.072             3.807           649.344
       216   10 Jun 2027 08:55:15.857   10 Jun 2027 08:55:38.005            22.148         10928.156
       217   10 Jun 2027 08:57:19.052   10 Jun 2027 08:57:30.924            11.872          1657.688
       218   10 Jun 2027 08:58:48.269   10 Jun 2027 08:58:56.164             7.895          2346.531
       219   10 Jun 2027 08:59:51.463   10 Jun 2027 08:59:57.354             5.891          1507.219
       220   10 Jun 2027 10:30:43.297   10 Jun 2027 10:30:55.190            11.893          5251.219
       221   10 Jun 2027 10:32:20.838   10 Jun 2027 10:32:27.236             6.398          2676.500
       222   10 Jun 2027 10:33:30.016   10 Jun 2027 10:33:44.376            14.360          1304.844
       223   10 Jun 2027 10:35:45.037   10 Jun 2027 10:35:53.658             8.621          3407.188
       224   10 Jun 2027 10:36:22.899   10 Jun 2027 10:36:24.693             1.794           498.781
       225   10 Jun 2027 10:36:44.391   10 Jun 2027 10:36:44.391             0.000             0.000
       226   11 Jun 2027 04:29:13.913   11 Jun 2027 04:29:14.793             0.880           440.000
       227   11 Jun 2027 04:30:04.167   11 Jun 2027 04:30:38.060            33.893         16946.500
       228   11 Jun 2027 04:30:38.442   11 Jun 2027 04:32:50.826           132.384         66192.000
       229   11 Jun 2027 06:08:14.195   11 Jun 2027 06:11:02.572           168.377         83462.906
       230   11 Jun 2027 06:11:43.247   11 Jun 2027 06:11:46.796             3.549          1064.188
       231   11 Jun 2027 06:12:37.189   11 Jun 2027 06:12:43.279             6.090          1547.594
       232   11 Jun 2027 06:13:38.093   11 Jun 2027 06:13:42.655             4.562          1712.937
       233   11 Jun 2027 07:32:24.364   11 Jun 2027 07:32:36.019            11.655          5037.313
       234   11 Jun 2027 07:33:27.636   11 Jun 2027 07:33:31.127             3.491          1154.687
       235   11 Jun 2027 07:34:31.954   11 Jun 2027 07:34:35.098             3.144          1503.062
       236   11 Jun 2027 07:44:37.646   11 Jun 2027 07:44:43.602             5.956          2287.844
       237   11 Jun 2027 09:06:51.553   11 Jun 2027 09:07:21.290            29.737         14398.312
       238   11 Jun 2027 09:09:32.629   11 Jun 2027 09:09:40.514             7.885          2833.750
       239   11 Jun 2027 09:11:02.013   11 Jun 2027 09:11:06.086             4.073          1989.937
       240   11 Jun 2027 09:11:51.840   11 Jun 2027 09:11:54.459             2.619           151.250
       241   11 Jun 2027 10:41:44.552   11 Jun 2027 10:41:50.798             6.246          2735.875
       242   11 Jun 2027 10:43:17.865   11 Jun 2027 10:43:17.865             0.000             0.000
       243   11 Jun 2027 10:43:31.959   11 Jun 2027 10:43:35.696             3.737          1824.875
       244   11 Jun 2027 10:47:23.909   11 Jun 2027 10:47:38.548            14.639          5886.125
       245   11 Jun 2027 10:48:33.453   11 Jun 2027 10:48:37.046             3.593           715.281
       246   11 Jun 2027 10:49:50.709   11 Jun 2027 10:49:54.319             3.610          1589.781
       247   11 Jun 2027 10:50:15.141   11 Jun 2027 10:50:15.839             0.698             3.000
       248   12 Jun 2027 03:04:26.508   12 Jun 2027 03:04:36.183             9.675          4837.500
       249   12 Jun 2027 03:06:40.537   12 Jun 2027 03:06:52.850            12.313          6156.500
       250   12 Jun 2027 03:07:15.624   12 Jun 2027 03:07:15.624             0.000             0.000
       251   12 Jun 2027 03:07:25.563   12 Jun 2027 03:08:14.524            48.961         24480.500
       252   12 Jun 2027 03:09:47.773   12 Jun 2027 03:09:58.178            10.405          5202.500
       253   12 Jun 2027 03:11:10.616   12 Jun 2027 03:11:33.361            22.745         11372.500
       254   12 Jun 2027 03:12:08.208   12 Jun 2027 03:12:08.431             0.223           111.500
       255   12 Jun 2027 04:41:33.128   12 Jun 2027 04:41:45.796            12.668          6334.000
       256   12 Jun 2027 04:42:00.515   12 Jun 2027 04:44:41.989           161.474         80737.000
       257   12 Jun 2027 04:45:07.835   12 Jun 2027 04:45:10.701             2.866          1433.000
       258   12 Jun 2027 06:20:20.986   12 Jun 2027 06:21:35.320            74.334         36425.532
       259   12 Jun 2027 06:21:44.683   12 Jun 2027 06:21:45.260             0.577            99.281
       260   12 Jun 2027 06:22:23.822   12 Jun 2027 06:22:26.871             3.049            11.938
       261   12 Jun 2027 06:22:58.566   12 Jun 2027 06:23:01.242             2.676           777.438
       262   12 Jun 2027 06:23:41.900   12 Jun 2027 06:23:44.519             2.619          1117.500
       263   12 Jun 2027 06:24:37.497   12 Jun 2027 06:24:40.913             3.416          1510.625
       264   12 Jun 2027 06:25:06.136   12 Jun 2027 06:25:06.281             0.145            72.500
       265   12 Jun 2027 06:25:36.540   12 Jun 2027 06:25:41.243             4.703          1036.594
       266   12 Jun 2027 07:44:30.462   12 Jun 2027 07:44:48.787            18.325          5932.063
       267   12 Jun 2027 07:45:45.150   12 Jun 2027 07:45:48.033             2.883          1248.406
       268   12 Jun 2027 09:18:20.568   12 Jun 2027 09:18:37.056            16.488          7651.500
       269   12 Jun 2027 09:20:25.806   12 Jun 2027 09:20:28.370             2.564          1282.000
       270   12 Jun 2027 09:22:20.923   12 Jun 2027 09:22:29.841             8.918          4235.906
       271   12 Jun 2027 09:22:59.929   12 Jun 2027 09:23:10.129            10.200           499.750
       272   12 Jun 2027 09:23:44.896   12 Jun 2027 09:23:47.105             2.209           299.469
       273   12 Jun 2027 10:53:15.032   12 Jun 2027 10:53:24.411             9.379          4058.563
       274   12 Jun 2027 10:56:21.678   12 Jun 2027 10:56:30.344             8.666          3794.594
       275   12 Jun 2027 11:00:30.404   12 Jun 2027 11:00:30.404             0.000             0.000
       276   12 Jun 2027 11:00:43.597   12 Jun 2027 11:00:56.347            12.750          6375.000
       277   13 Jun 2027 03:16:25.886   13 Jun 2027 03:16:43.223            17.337          8668.500
       278   13 Jun 2027 03:16:46.174   13 Jun 2027 03:16:47.974             1.800           900.000
       279   13 Jun 2027 03:18:40.330   13 Jun 2027 03:18:45.400             5.070          2535.000
       280   13 Jun 2027 03:18:52.907   13 Jun 2027 03:20:54.253           121.346         60673.000
       281   13 Jun 2027 03:21:54.214   13 Jun 2027 03:22:05.408            11.194          5597.000
       282   13 Jun 2027 03:22:19.670   13 Jun 2027 03:23:35.575            75.905         37952.500
       283   13 Jun 2027 04:54:11.040   13 Jun 2027 04:54:14.495             3.455          1727.500
       284   13 Jun 2027 04:54:32.515   13 Jun 2027 04:55:32.921            60.406         30203.000
       285   13 Jun 2027 04:55:37.853   13 Jun 2027 04:56:18.563            40.710         18981.687
       286   13 Jun 2027 04:59:34.657   13 Jun 2027 04:59:47.603            12.946          6075.687
       287   13 Jun 2027 06:32:57.643   13 Jun 2027 06:33:26.313            28.670         13825.344
       288   13 Jun 2027 06:34:09.232   13 Jun 2027 06:34:10.721             1.489           680.594
       289   13 Jun 2027 06:34:35.742   13 Jun 2027 06:34:37.443             1.701           738.000
       290   13 Jun 2027 06:36:01.377   13 Jun 2027 06:36:05.234             3.857          1807.687
       291   13 Jun 2027 06:36:16.456   13 Jun 2027 06:36:17.136             0.680           245.906
       292   13 Jun 2027 06:36:49.499   13 Jun 2027 06:36:52.272             2.773           762.531
       293   13 Jun 2027 06:37:34.473   13 Jun 2027 06:37:38.010             3.537          1281.906
       294   13 Jun 2027 07:56:26.970   13 Jun 2027 07:56:43.630            16.660          7138.469
       295   13 Jun 2027 07:57:47.126   13 Jun 2027 07:57:52.377             5.251          1484.906
       296   13 Jun 2027 09:32:39.229   13 Jun 2027 09:32:44.981             5.752          2544.813
       297   13 Jun 2027 09:33:29.236   13 Jun 2027 09:33:33.248             4.012           971.625
       298   13 Jun 2027 09:33:54.965   13 Jun 2027 09:33:56.390             1.425           446.063
       299   13 Jun 2027 09:34:56.795   13 Jun 2027 09:35:01.763             4.968          1198.187
       300   13 Jun 2027 09:35:45.212   13 Jun 2027 09:35:48.854             3.642          1058.969
       301   13 Jun 2027 11:06:12.357   13 Jun 2027 11:06:21.226             8.869          3633.031
       302   13 Jun 2027 11:08:15.235   13 Jun 2027 11:08:15.235             0.000             0.000
       303   13 Jun 2027 11:08:46.963   13 Jun 2027 11:08:53.701             6.738          2106.531
       304   13 Jun 2027 11:12:19.452   13 Jun 2027 11:12:36.472            17.020          6396.781
       305   13 Jun 2027 11:13:23.906   13 Jun 2027 11:13:26.561             2.655           890.344
       306   13 Jun 2027 11:14:22.933   13 Jun 2027 11:14:26.984             4.051          1449.531
