uniorb/output/strategy_4/Camera/Camera_KinoSat_110903.txt

KinoSat_110903
-------------------------
    Access    *     Start Time (UTCG)     *     Stop Time (UTCG)  *   Duration (s) *   Data (Mbytes)
         1   01 Jun 2027 03:50:15.773   01 Jun 2027 03:51:54.597            98.824         49412.000
         2   01 Jun 2027 03:52:00.395   01 Jun 2027 03:52:09.983             9.588          4794.000
         3   01 Jun 2027 03:52:50.263   01 Jun 2027 03:52:50.263             0.000             0.000
         4   01 Jun 2027 03:53:12.813   01 Jun 2027 03:53:21.228             8.415          4207.500
         5   01 Jun 2027 05:26:44.006   01 Jun 2027 05:28:53.154           129.148         64574.000
         6   01 Jun 2027 05:30:01.428   01 Jun 2027 05:30:04.473             3.045          1522.500
         7   01 Jun 2027 07:01:56.696   01 Jun 2027 07:03:59.610           122.914         61457.000
         8   01 Jun 2027 07:05:27.386   01 Jun 2027 07:05:27.894             0.508           254.000
         9   01 Jun 2027 07:08:11.282   01 Jun 2027 07:08:24.031            12.749          6374.500
        10   01 Jun 2027 08:37:51.528   01 Jun 2027 08:40:31.872           160.344         80172.000
        11   01 Jun 2027 08:42:24.675   01 Jun 2027 08:42:37.928            13.253          6626.500
        12   01 Jun 2027 10:15:48.298   01 Jun 2027 10:17:53.442           125.144         62572.000
        13   01 Jun 2027 10:18:06.293   01 Jun 2027 10:18:09.132             2.839          1419.500
        14   01 Jun 2027 10:19:15.255   01 Jun 2027 10:19:35.321            20.066         10033.000
        15   01 Jun 2027 11:51:41.798   01 Jun 2027 11:53:22.599           100.801         50400.500
        16   01 Jun 2027 11:53:36.975   01 Jun 2027 11:53:38.545             1.570           785.000
        17   01 Jun 2027 11:53:52.707   01 Jun 2027 11:53:54.023             1.316           658.000
        18   01 Jun 2027 11:55:36.769   01 Jun 2027 11:55:44.075             7.306          3653.000
        19   02 Jun 2027 04:02:42.259   02 Jun 2027 04:02:55.040            12.781          6390.500
        20   02 Jun 2027 04:03:46.665   02 Jun 2027 04:03:53.312             6.647          3323.500
        21   02 Jun 2027 04:05:22.402   02 Jun 2027 04:05:31.823             9.421          4710.500
        22   02 Jun 2027 05:38:27.156   02 Jun 2027 05:41:00.520           153.364         76682.000
        23   02 Jun 2027 05:41:59.483   02 Jun 2027 05:42:30.126            30.643         15321.500
        24   02 Jun 2027 07:13:10.940   02 Jun 2027 07:16:22.045           191.105         95552.500
        25   02 Jun 2027 07:17:42.549   02 Jun 2027 07:17:59.918            17.369          8684.500
        26   02 Jun 2027 07:18:28.808   02 Jun 2027 07:19:05.736            36.928         18464.000
        27   02 Jun 2027 07:20:04.864   02 Jun 2027 07:20:24.825            19.961          9980.500
        28   02 Jun 2027 08:49:58.567   02 Jun 2027 08:53:22.379           203.812        101906.000
        29   02 Jun 2027 08:54:23.174   02 Jun 2027 08:54:29.053             5.879          2939.500
        30   02 Jun 2027 10:28:13.849   02 Jun 2027 10:28:37.626            23.777         10812.843
        31   02 Jun 2027 10:30:02.413   02 Jun 2027 10:30:06.559             4.146          1203.094
        32   02 Jun 2027 10:31:31.175   02 Jun 2027 10:31:36.704             5.529          2562.594
        33   03 Jun 2027 04:13:18.064   03 Jun 2027 04:13:49.591            31.527         15763.500
        34   03 Jun 2027 04:15:27.059   03 Jun 2027 04:15:30.575             3.516          1758.000
        35   03 Jun 2027 04:15:45.968   03 Jun 2027 04:15:45.968             0.000             0.000
        36   03 Jun 2027 04:15:53.883   03 Jun 2027 04:15:57.420             3.537          1768.500
        37   03 Jun 2027 04:17:23.409   03 Jun 2027 04:17:32.923             9.514          4757.000
        38   03 Jun 2027 05:48:21.954   03 Jun 2027 05:49:38.983            77.029         38514.500
        39   03 Jun 2027 05:50:11.640   03 Jun 2027 05:51:10.239            58.599         29299.500
        40   03 Jun 2027 05:51:45.972   03 Jun 2027 05:52:16.312            30.340         15170.000
        41   03 Jun 2027 05:53:00.635   03 Jun 2027 05:53:17.994            17.359          8679.500
        42   03 Jun 2027 05:53:57.188   03 Jun 2027 05:54:12.697            15.509          7754.500
        43   03 Jun 2027 07:25:19.101   03 Jun 2027 07:26:33.496            74.395         36965.032
        44   03 Jun 2027 07:27:17.264   03 Jun 2027 07:27:19.132             1.868           592.500
        45   03 Jun 2027 07:28:12.962   03 Jun 2027 07:28:13.469             0.507           110.500
        46   03 Jun 2027 07:28:25.725   03 Jun 2027 07:28:30.110             4.385           325.750
        47   03 Jun 2027 07:29:06.243   03 Jun 2027 07:29:09.139             2.896           224.594
        48   03 Jun 2027 07:30:40.256   03 Jun 2027 07:30:49.347             9.091          2012.938
        49   03 Jun 2027 07:31:07.657   03 Jun 2027 07:31:08.570             0.913            98.063
        50   03 Jun 2027 07:31:41.715   03 Jun 2027 07:31:44.111             2.396          1035.781
        51   03 Jun 2027 09:02:17.789   03 Jun 2027 09:02:26.959             9.170          4467.281
        52   03 Jun 2027 09:03:25.594   03 Jun 2027 09:03:30.760             5.166          1179.000
        53   03 Jun 2027 09:04:21.630   03 Jun 2027 09:04:33.185            11.555          1525.969
        54   03 Jun 2027 09:05:43.732   03 Jun 2027 09:05:51.507             7.775          1923.063
        55   03 Jun 2027 09:06:20.448   03 Jun 2027 09:06:21.915             1.467           627.031
        56   03 Jun 2027 09:06:32.671   03 Jun 2027 09:06:35.313             2.642           321.469
        57   03 Jun 2027 09:07:06.903   03 Jun 2027 09:07:07.306             0.403             7.781
        58   03 Jun 2027 10:40:12.019   03 Jun 2027 10:40:24.370            12.351          5604.031
        59   03 Jun 2027 10:41:44.850   03 Jun 2027 10:41:51.450             6.600          1934.031
        60   03 Jun 2027 10:42:08.419   03 Jun 2027 10:42:09.066             0.647            14.719
        61   03 Jun 2027 10:43:20.051   03 Jun 2027 10:43:26.061             6.010           356.094
        62   03 Jun 2027 10:44:09.193   03 Jun 2027 10:44:11.342             2.149           898.813
        63   04 Jun 2027 03:02:42.918   04 Jun 2027 03:03:38.637            55.719         27859.500
        64   04 Jun 2027 04:24:47.891   04 Jun 2027 04:25:30.922            43.031         21515.500
        65   04 Jun 2027 04:26:50.374   04 Jun 2027 04:26:58.263             7.889          3944.500
        66   04 Jun 2027 04:27:18.827   04 Jun 2027 04:27:18.827             0.000             0.000
        67   04 Jun 2027 04:28:32.713   04 Jun 2027 04:28:40.446             7.733          3866.500
        68   04 Jun 2027 04:29:31.908   04 Jun 2027 04:29:51.678            19.770          9885.000
        69   04 Jun 2027 05:59:46.923   04 Jun 2027 06:02:12.158           145.235         72617.500
        70   04 Jun 2027 06:03:21.804   04 Jun 2027 06:03:33.794            11.990          5995.000
        71   04 Jun 2027 06:05:01.010   04 Jun 2027 06:05:18.942            17.932          8966.000
        72   04 Jun 2027 06:06:36.148   04 Jun 2027 06:06:37.911             1.763           881.500
        73   04 Jun 2027 06:07:00.175   04 Jun 2027 06:07:05.758             5.583          2791.500
        74   04 Jun 2027 06:07:52.561   04 Jun 2027 06:08:01.737             9.176          4588.000
        75   04 Jun 2027 07:37:23.118   04 Jun 2027 07:37:32.464             9.346          2796.969
        76   04 Jun 2027 07:39:20.340   04 Jun 2027 07:39:22.063             1.723           697.594
        77   04 Jun 2027 07:40:35.085   04 Jun 2027 07:40:37.148             2.063           563.156
        78   04 Jun 2027 07:42:38.132   04 Jun 2027 07:42:41.795             3.663          1699.000
        79   04 Jun 2027 07:43:11.231   04 Jun 2027 07:43:12.506             1.275           608.187
        80   04 Jun 2027 07:44:07.486   04 Jun 2027 07:44:12.377             4.891          1645.656
        81   04 Jun 2027 09:14:06.913   04 Jun 2027 09:14:20.216            13.303          6626.594
        82   04 Jun 2027 09:17:14.986   04 Jun 2027 09:17:18.502             3.516          1055.937
        83   04 Jun 2027 09:18:00.080   04 Jun 2027 09:18:03.889             3.809          1169.094
        84   04 Jun 2027 09:18:15.068   04 Jun 2027 09:18:20.166             5.098             4.094
        85   04 Jun 2027 09:18:35.520   04 Jun 2027 09:18:38.855             3.335           479.812
        86   04 Jun 2027 09:19:19.024   04 Jun 2027 09:19:25.117             6.093           318.125
        87   04 Jun 2027 09:19:53.278   04 Jun 2027 09:19:55.793             2.515           309.719
        88   04 Jun 2027 09:20:27.830   04 Jun 2027 09:20:30.694             2.864           845.219
        89   04 Jun 2027 10:52:11.435   04 Jun 2027 10:52:26.103            14.668          7220.906
        90   04 Jun 2027 10:54:06.766   04 Jun 2027 10:54:12.953             6.187          2234.000
        91   04 Jun 2027 10:55:27.362   04 Jun 2027 10:55:30.605             3.243          1097.438
        92   04 Jun 2027 10:55:42.358   04 Jun 2027 10:55:43.730             1.372           285.375
        93   04 Jun 2027 10:56:04.741   04 Jun 2027 10:56:07.170             2.429           112.969
        94   05 Jun 2027 03:02:34.204   05 Jun 2027 03:02:47.321            13.117          6558.500
        95   05 Jun 2027 03:15:03.737   05 Jun 2027 03:15:14.143            10.406          5203.000
        96   05 Jun 2027 04:36:24.002   05 Jun 2027 04:39:01.228           157.226         78613.000
        97   05 Jun 2027 04:40:52.230   05 Jun 2027 04:41:01.041             8.811          4405.500
        98   05 Jun 2027 04:41:06.757   05 Jun 2027 04:41:24.689            17.932          8966.000
        99   05 Jun 2027 04:41:35.665   05 Jun 2027 04:41:35.665             0.000             0.000
       100   05 Jun 2027 04:42:03.093   05 Jun 2027 04:42:23.013            19.920          9960.000
       101   05 Jun 2027 06:11:17.523   05 Jun 2027 06:12:37.166            79.643         39470.094
       102   05 Jun 2027 06:13:09.468   05 Jun 2027 06:13:09.468             0.000             0.000
       103   05 Jun 2027 06:13:20.347   05 Jun 2027 06:13:27.273             6.926           989.375
       104   05 Jun 2027 06:14:59.011   05 Jun 2027 06:15:02.780             3.769          1856.281
       105   05 Jun 2027 06:15:06.902   05 Jun 2027 06:15:08.472             1.570             3.906
       106   05 Jun 2027 06:15:35.314   05 Jun 2027 06:15:37.824             2.510           771.813
       107   05 Jun 2027 06:16:16.247   05 Jun 2027 06:16:16.247             0.000             0.000
       108   05 Jun 2027 06:16:51.054   05 Jun 2027 06:16:58.778             7.724          1952.094
       109   05 Jun 2027 06:17:56.439   05 Jun 2027 06:17:57.019             0.580           290.000
       110   05 Jun 2027 06:18:48.539   05 Jun 2027 06:18:55.159             6.620          3121.906
       111   05 Jun 2027 06:19:07.487   05 Jun 2027 06:19:10.270             2.783           385.250
       112   05 Jun 2027 06:20:02.154   05 Jun 2027 06:20:03.982             1.828           900.719
       113   05 Jun 2027 06:20:14.455   05 Jun 2027 06:20:15.431             0.976           243.406
       114   05 Jun 2027 07:49:21.313   05 Jun 2027 07:49:24.708             3.395          1152.656
       115   05 Jun 2027 07:49:52.955   05 Jun 2027 07:49:53.332             0.377           184.438
       116   05 Jun 2027 07:51:26.570   05 Jun 2027 07:51:30.096             3.526           102.781
       117   05 Jun 2027 07:52:43.749   05 Jun 2027 07:52:48.312             4.563          1826.500
       118   05 Jun 2027 07:53:54.459   05 Jun 2027 07:53:56.330             1.871           687.125
       119   05 Jun 2027 07:56:06.099   05 Jun 2027 07:56:09.639             3.540          1716.250
       120   05 Jun 2027 09:26:14.530   05 Jun 2027 09:26:26.513            11.983          5753.250
       121   05 Jun 2027 09:26:57.593   05 Jun 2027 09:27:01.781             4.188           311.469
       122   05 Jun 2027 09:28:01.042   05 Jun 2027 09:28:05.392             4.350          1367.281
       123   05 Jun 2027 09:29:31.106   05 Jun 2027 09:29:35.187             4.081          1626.313
       124   05 Jun 2027 09:29:56.478   05 Jun 2027 09:29:57.710             1.232           478.938
       125   05 Jun 2027 09:30:19.774   05 Jun 2027 09:30:20.248             0.474            58.594
       126   05 Jun 2027 09:30:39.545   05 Jun 2027 09:30:40.821             1.276           405.938
       127   05 Jun 2027 09:30:50.312   05 Jun 2027 09:30:55.091             4.779           179.594
       128   05 Jun 2027 09:31:02.565   05 Jun 2027 09:31:03.836             1.271            84.937
       129   05 Jun 2027 09:31:58.426   05 Jun 2027 09:32:04.179             5.753          1614.750
       130   05 Jun 2027 11:03:24.681   05 Jun 2027 11:03:36.060            11.379          5108.375
       131   05 Jun 2027 11:06:04.064   05 Jun 2027 11:06:09.166             5.102          1684.375
       132   05 Jun 2027 11:07:01.638   05 Jun 2027 11:07:04.248             2.610           470.750
       133   05 Jun 2027 11:08:05.737   05 Jun 2027 11:08:11.102             5.365          1921.531
       134   06 Jun 2027 03:14:31.113   06 Jun 2027 03:14:35.583             4.470          2235.000
       135   06 Jun 2027 03:15:22.604   06 Jun 2027 03:15:36.677            14.073          7036.500
       136   06 Jun 2027 04:50:42.733   06 Jun 2027 04:53:49.296           186.563         93281.500
       137   06 Jun 2027 06:24:16.194   06 Jun 2027 06:25:52.386            96.192         48050.906
       138   06 Jun 2027 06:26:37.296   06 Jun 2027 06:26:38.666             1.370           277.375
       139   06 Jun 2027 06:27:22.326   06 Jun 2027 06:27:23.861             1.535           620.594
       140   06 Jun 2027 06:28:36.533   06 Jun 2027 06:28:42.482             5.949          1865.281
       141   06 Jun 2027 06:30:09.762   06 Jun 2027 06:30:16.459             6.697          2727.500
       142   06 Jun 2027 06:31:02.725   06 Jun 2027 06:31:02.725             0.000             0.000
       143   06 Jun 2027 06:31:38.825   06 Jun 2027 06:31:45.919             7.094          2332.469
       144   06 Jun 2027 06:32:48.778   06 Jun 2027 06:32:49.885             1.107           253.469
       145   06 Jun 2027 08:01:43.274   06 Jun 2027 08:01:46.333             3.059           214.219
       146   06 Jun 2027 08:03:49.553   06 Jun 2027 08:03:52.896             3.343           704.156
       147   06 Jun 2027 08:05:09.248   06 Jun 2027 08:05:14.460             5.212          2217.406
       148   06 Jun 2027 08:05:33.656   06 Jun 2027 08:05:35.877             2.221             1.563
       149   06 Jun 2027 08:07:20.738   06 Jun 2027 08:07:23.360             2.622          1067.188
       150   06 Jun 2027 08:07:52.765   06 Jun 2027 08:07:57.584             4.819            48.969
       151   06 Jun 2027 09:38:43.437   06 Jun 2027 09:38:57.034            13.597          5526.625
       152   06 Jun 2027 09:40:15.263   06 Jun 2027 09:40:18.369             3.106           256.688
       153   06 Jun 2027 09:41:41.504   06 Jun 2027 09:41:47.208             5.704          1759.687
       154   06 Jun 2027 09:42:33.379   06 Jun 2027 09:42:38.174             4.795           407.062
       155   06 Jun 2027 09:43:19.152   06 Jun 2027 09:43:21.697             2.545          1106.562
       156   06 Jun 2027 09:43:26.956   06 Jun 2027 09:43:29.933             2.977           134.938
       157   06 Jun 2027 11:15:37.440   06 Jun 2027 11:15:49.822            12.382          5359.938
       158   06 Jun 2027 11:17:14.491   06 Jun 2027 11:17:16.650             2.159           600.281
       159   06 Jun 2027 11:18:21.466   06 Jun 2027 11:18:23.941             2.475           667.437
       160   06 Jun 2027 11:18:40.694   06 Jun 2027 11:18:42.436             1.742           359.625
       161   06 Jun 2027 11:20:06.055   06 Jun 2027 11:20:11.758             5.703          2173.125
       162   07 Jun 2027 03:26:21.404   07 Jun 2027 03:26:36.911            15.507          7753.500
       163   07 Jun 2027 05:02:48.317   07 Jun 2027 05:03:54.422            66.105         33052.500
       164   07 Jun 2027 05:04:59.336   07 Jun 2027 05:05:15.483            16.147          8073.500
       165   07 Jun 2027 05:05:40.407   07 Jun 2027 05:06:23.299            42.892         21446.000
       166   07 Jun 2027 06:34:59.053   07 Jun 2027 06:35:07.540             8.487          4243.500
       167   07 Jun 2027 06:36:55.080   07 Jun 2027 06:39:21.968           146.888         73444.000
       168   07 Jun 2027 06:39:43.127   07 Jun 2027 06:39:51.084             7.957           872.219
       169   07 Jun 2027 06:40:45.217   07 Jun 2027 06:40:49.000             3.783           684.063
       170   07 Jun 2027 06:41:04.224   07 Jun 2027 06:41:04.224             0.000             0.000
       171   07 Jun 2027 06:41:14.034   07 Jun 2027 06:41:17.579             3.545           495.750
       172   07 Jun 2027 06:41:45.960   07 Jun 2027 06:41:49.212             3.252           833.344
       173   07 Jun 2027 06:42:18.174   07 Jun 2027 06:42:20.236             2.062           483.125
       174   07 Jun 2027 06:42:40.163   07 Jun 2027 06:42:51.524            11.361           606.062
       175   07 Jun 2027 06:43:13.952   07 Jun 2027 06:43:15.837             1.885           518.500
       176   07 Jun 2027 06:43:54.351   07 Jun 2027 06:43:59.484             5.133           489.656
       177   07 Jun 2027 08:13:52.998   07 Jun 2027 08:13:57.074             4.076          1929.187
       178   07 Jun 2027 08:16:29.595   07 Jun 2027 08:16:33.384             3.789           346.656
       179   07 Jun 2027 08:16:51.226   07 Jun 2027 08:16:52.243             1.017            81.750
       180   07 Jun 2027 08:16:57.523   07 Jun 2027 08:16:58.393             0.870           165.000
       181   07 Jun 2027 08:17:35.158   07 Jun 2027 08:17:37.580             2.422           827.750
       182   07 Jun 2027 08:18:29.479   07 Jun 2027 08:18:32.610             3.131           880.719
       183   07 Jun 2027 08:19:33.597   07 Jun 2027 08:19:40.541             6.944          1700.750
       184   07 Jun 2027 08:20:03.789   07 Jun 2027 08:20:05.708             1.919           726.500
       185   07 Jun 2027 09:51:09.328   07 Jun 2027 09:51:23.812            14.484          6066.875
       186   07 Jun 2027 09:52:10.027   07 Jun 2027 09:52:12.148             2.121           217.250
       187   07 Jun 2027 09:52:44.295   07 Jun 2027 09:52:50.781             6.486           994.219
       188   07 Jun 2027 09:54:15.039   07 Jun 2027 09:54:15.875             0.836           375.781
       189   07 Jun 2027 09:54:18.309   07 Jun 2027 09:54:22.278             3.969            14.531
       190   07 Jun 2027 09:55:03.300   07 Jun 2027 09:55:07.919             4.619          1281.937
       191   07 Jun 2027 09:55:28.787   07 Jun 2027 09:55:31.323             2.536           620.969
       192   07 Jun 2027 09:55:50.113   07 Jun 2027 09:55:55.773             5.660           166.906
       193   07 Jun 2027 11:27:38.419   07 Jun 2027 11:27:55.530            17.111          7672.906
       194   07 Jun 2027 11:30:16.406   07 Jun 2027 11:30:21.791             5.385           680.437
       195   07 Jun 2027 11:32:10.297   07 Jun 2027 11:32:18.294             7.997           678.844
       196   08 Jun 2027 03:38:29.265   08 Jun 2027 03:38:42.511            13.246          6623.000
       197   08 Jun 2027 05:14:57.352   08 Jun 2027 05:15:15.427            18.075          9037.500
       198   08 Jun 2027 05:17:26.487   08 Jun 2027 05:18:36.231            69.744         34872.000
       199   08 Jun 2027 06:50:07.931   08 Jun 2027 06:53:28.251           200.320         99768.375
       200   08 Jun 2027 06:53:43.902   08 Jun 2027 06:53:43.902             0.000             0.000
       201   08 Jun 2027 06:54:57.842   08 Jun 2027 06:55:04.327             6.485          2582.719
       202   08 Jun 2027 06:56:09.266   08 Jun 2027 06:56:12.940             3.674          1629.906
       203   08 Jun 2027 06:56:22.793   08 Jun 2027 06:56:23.232             0.439           176.406
       204   08 Jun 2027 08:26:27.109   08 Jun 2027 08:26:32.813             5.704          1879.938
       205   08 Jun 2027 08:28:19.726   08 Jun 2027 08:28:20.323             0.597           215.156
       206   08 Jun 2027 08:28:54.246   08 Jun 2027 08:28:58.405             4.159           817.219
       207   08 Jun 2027 08:31:41.562   08 Jun 2027 08:31:49.088             7.526          2614.094
       208   08 Jun 2027 08:32:10.951   08 Jun 2027 08:32:14.054             3.103           316.562
       209   08 Jun 2027 10:03:50.848   08 Jun 2027 10:04:06.963            16.115          5868.438
       210   08 Jun 2027 10:07:18.087   08 Jun 2027 10:07:23.648             5.561          1701.938
       211   08 Jun 2027 10:07:46.795   08 Jun 2027 10:07:49.949             3.154           702.219
       212   08 Jun 2027 10:08:10.888   08 Jun 2027 10:08:15.236             4.348           654.344
       213   08 Jun 2027 11:40:03.202   08 Jun 2027 11:40:18.084            14.882          6151.719
       214   08 Jun 2027 11:43:50.710   08 Jun 2027 11:43:56.063             5.353          1128.656
       215   09 Jun 2027 03:50:30.589   09 Jun 2027 03:51:00.488            29.899         14949.500
       216   09 Jun 2027 03:53:06.791   09 Jun 2027 03:53:11.854             5.063          2531.500
       217   09 Jun 2027 03:53:27.414   09 Jun 2027 03:53:36.461             9.047          4523.500
       218   09 Jun 2027 05:26:58.539   09 Jun 2027 05:29:52.724           174.185         87092.500
       219   09 Jun 2027 05:30:09.995   09 Jun 2027 05:30:19.153             9.158          4579.000
       220   09 Jun 2027 07:02:11.242   09 Jun 2027 07:03:35.986            84.744         41692.594
       221   09 Jun 2027 07:04:47.697   09 Jun 2027 07:04:48.880             1.183            95.406
       222   09 Jun 2027 07:04:52.132   09 Jun 2027 07:04:54.164             2.032            61.562
       223   09 Jun 2027 07:05:10.572   09 Jun 2027 07:05:10.943             0.371            42.313
       224   09 Jun 2027 07:06:57.820   09 Jun 2027 07:07:09.895            12.075          3089.938
       225   09 Jun 2027 07:08:01.245   09 Jun 2027 07:08:04.395             3.150          1283.406
       226   09 Jun 2027 07:08:27.363   09 Jun 2027 07:08:30.275             2.912           585.125
       227   09 Jun 2027 08:38:06.317   09 Jun 2027 08:38:17.080            10.763          4453.969
       228   09 Jun 2027 08:40:10.235   09 Jun 2027 08:40:15.402             5.167           751.813
       229   09 Jun 2027 08:40:46.426   09 Jun 2027 08:40:48.916             2.490           858.125
       230   09 Jun 2027 08:41:13.359   09 Jun 2027 08:41:14.729             1.370           635.750
       231   09 Jun 2027 08:43:30.792   09 Jun 2027 08:43:35.813             5.021          2259.281
       232   09 Jun 2027 08:43:50.266   09 Jun 2027 08:43:51.226             0.960           272.000
       233   09 Jun 2027 10:16:03.975   09 Jun 2027 10:16:16.560            12.585          5504.344
       234   09 Jun 2027 10:16:32.231   09 Jun 2027 10:16:33.246             1.015           326.375
       235   09 Jun 2027 10:18:13.288   09 Jun 2027 10:18:17.867             4.579          1952.687
       236   09 Jun 2027 10:19:30.569   09 Jun 2027 10:19:36.086             5.517          2069.594
       237   09 Jun 2027 10:20:04.566   09 Jun 2027 10:20:05.754             1.188           351.625
       238   09 Jun 2027 10:20:14.070   09 Jun 2027 10:20:15.708             1.638           259.875
       239   09 Jun 2027 11:51:56.820   09 Jun 2027 11:52:08.688            11.868          5394.938
       240   10 Jun 2027 04:02:56.938   10 Jun 2027 04:03:10.893            13.955          6977.500
       241   10 Jun 2027 04:04:40.099   10 Jun 2027 04:04:54.950            14.851          7425.500
       242   10 Jun 2027 04:05:10.761   10 Jun 2027 04:05:14.559             3.798          1899.000
       243   10 Jun 2027 04:05:35.646   10 Jun 2027 04:05:37.628             1.982           991.000
       244   10 Jun 2027 05:38:41.999   10 Jun 2027 05:41:15.138           153.139         76569.500
       245   10 Jun 2027 05:42:14.741   10 Jun 2027 05:42:45.650            30.909         15454.500
       246   10 Jun 2027 07:13:25.889   10 Jun 2027 07:15:01.481            95.592         46930.000
       247   10 Jun 2027 07:15:44.539   10 Jun 2027 07:15:46.420             1.881           503.781
       248   10 Jun 2027 07:16:23.499   10 Jun 2027 07:16:26.529             3.030          1133.687
       249   10 Jun 2027 07:16:47.253   10 Jun 2027 07:16:48.287             1.034            73.750
       250   10 Jun 2027 07:18:57.199   10 Jun 2027 07:19:05.700             8.501          3004.219
       251   10 Jun 2027 07:19:41.579   10 Jun 2027 07:19:44.017             2.438           576.469
       252   10 Jun 2027 07:20:19.572   10 Jun 2027 07:20:23.835             4.263           537.625
       253   10 Jun 2027 07:20:53.210   10 Jun 2027 07:20:54.207             0.997           430.344
       254   10 Jun 2027 08:50:14.074   10 Jun 2027 08:50:26.741            12.667          4491.031
       255   10 Jun 2027 08:52:15.281   10 Jun 2027 08:52:18.497             3.216           834.375
       256   10 Jun 2027 08:53:41.455   10 Jun 2027 08:53:44.258             2.803          1376.656
       257   10 Jun 2027 08:54:38.470   10 Jun 2027 08:54:43.498             5.028          1199.781
       258   10 Jun 2027 08:54:49.968   10 Jun 2027 08:54:53.898             3.930           157.906
       259   10 Jun 2027 08:55:22.254   10 Jun 2027 08:55:27.962             5.708           776.250
       260   10 Jun 2027 08:56:31.628   10 Jun 2027 08:56:34.820             3.192          1596.000
       261   10 Jun 2027 10:28:28.991   10 Jun 2027 10:28:43.236            14.245          6158.031
       262   10 Jun 2027 10:29:39.888   10 Jun 2027 10:29:45.372             5.484          1756.406
       263   10 Jun 2027 10:30:18.373   10 Jun 2027 10:30:20.741             2.368           626.813
       264   10 Jun 2027 10:31:46.563   10 Jun 2027 10:31:52.996             6.433          2568.969
       265   10 Jun 2027 10:32:17.674   10 Jun 2027 10:32:19.609             1.935           718.281
       266   11 Jun 2027 04:13:32.487   11 Jun 2027 04:14:06.528            34.041         17020.500
       267   11 Jun 2027 04:16:14.814   11 Jun 2027 04:16:22.739             7.925          3962.500
       268   11 Jun 2027 04:16:45.044   11 Jun 2027 04:17:04.651            19.607          9803.500
       269   11 Jun 2027 04:17:43.917   11 Jun 2027 04:17:49.582             5.665          2832.500
       270   11 Jun 2027 04:18:02.709   11 Jun 2027 04:18:02.862             0.153            76.500
       271   11 Jun 2027 05:48:36.092   11 Jun 2027 05:49:54.292            78.200         39100.000
       272   11 Jun 2027 05:50:34.328   11 Jun 2027 05:51:01.830            27.502         13751.000
       273   11 Jun 2027 05:51:26.243   11 Jun 2027 05:51:36.185             9.942          4971.000
       274   11 Jun 2027 05:52:00.923   11 Jun 2027 05:53:13.162            72.239         36119.500
       275   11 Jun 2027 05:54:58.436   11 Jun 2027 05:55:07.435             8.999          4499.500
       276   11 Jun 2027 07:25:34.100   11 Jun 2027 07:26:35.900            61.800         28599.594
       277   11 Jun 2027 07:28:25.580   11 Jun 2027 07:28:26.516             0.936           101.625
       278   11 Jun 2027 07:28:31.708   11 Jun 2027 07:28:33.923             2.215            68.781
       279   11 Jun 2027 07:29:17.312   11 Jun 2027 07:29:19.807             2.495          1144.000
       280   11 Jun 2027 07:29:52.472   11 Jun 2027 07:29:54.338             1.866           923.312
       281   11 Jun 2027 07:31:21.539   11 Jun 2027 07:31:23.855             2.316           802.000
       282   11 Jun 2027 07:31:25.951   11 Jun 2027 07:31:32.357             6.406            65.500
       283   11 Jun 2027 09:02:32.271   11 Jun 2027 09:02:42.948            10.677          4332.094
       284   11 Jun 2027 09:03:02.562   11 Jun 2027 09:03:04.104             1.542           240.531
       285   11 Jun 2027 09:04:57.378   11 Jun 2027 09:04:58.518             1.140           543.094
       286   11 Jun 2027 09:06:24.289   11 Jun 2027 09:06:25.190             0.901           266.344
       287   11 Jun 2027 09:06:37.689   11 Jun 2027 09:06:39.798             2.109            87.250
       288   11 Jun 2027 09:07:22.085   11 Jun 2027 09:07:24.677             2.592          1049.531
       289   11 Jun 2027 09:08:37.607   11 Jun 2027 09:08:40.029             2.422          1064.937
       290   11 Jun 2027 10:40:27.145   11 Jun 2027 10:40:40.909            13.764          4957.375
       291   11 Jun 2027 10:43:25.389   11 Jun 2027 10:43:31.959             6.570          1891.563
       292   11 Jun 2027 10:44:06.370   11 Jun 2027 10:44:08.019             1.649           314.437
       293   11 Jun 2027 10:44:11.333   11 Jun 2027 10:44:14.114             2.781             5.188
       294   12 Jun 2027 03:02:57.985   12 Jun 2027 03:03:51.771            53.786         26893.000
       295   12 Jun 2027 04:24:56.823   12 Jun 2027 04:25:29.048            32.225         16112.500
       296   12 Jun 2027 04:27:04.615   12 Jun 2027 04:27:14.406             9.791          4895.500
       297   12 Jun 2027 04:27:36.165   12 Jun 2027 04:27:44.686             8.521          4260.500
       298   12 Jun 2027 04:28:12.217   12 Jun 2027 04:28:14.235             2.018          1009.000
       299   12 Jun 2027 04:28:31.222   12 Jun 2027 04:28:46.910            15.688          7844.000
       300   12 Jun 2027 04:29:19.672   12 Jun 2027 04:29:27.884             8.212          4106.000
       301   12 Jun 2027 04:30:22.121   12 Jun 2027 04:30:33.648            11.527          5763.500
       302   12 Jun 2027 06:00:01.043   12 Jun 2027 06:02:26.848           145.805         72902.500
       303   12 Jun 2027 06:03:49.571   12 Jun 2027 06:04:24.734            35.163         17581.500
       304   12 Jun 2027 06:08:24.785   12 Jun 2027 06:08:39.044            14.259          7129.500
       305   12 Jun 2027 07:37:37.001   12 Jun 2027 07:37:42.287             5.286          1490.844
       306   12 Jun 2027 07:39:13.957   12 Jun 2027 07:39:19.539             5.582          2146.219
       307   12 Jun 2027 07:40:01.603   12 Jun 2027 07:40:04.830             3.227           736.438
       308   12 Jun 2027 07:41:08.483   12 Jun 2027 07:41:10.118             1.635           445.781
       309   12 Jun 2027 07:41:24.473   12 Jun 2027 07:41:25.536             1.063           116.906
       310   12 Jun 2027 07:42:53.711   12 Jun 2027 07:43:02.944             9.233          1661.781
       311   12 Jun 2027 07:43:28.595   12 Jun 2027 07:43:31.067             2.472           639.000
       312   12 Jun 2027 07:44:41.269   12 Jun 2027 07:44:48.787             7.518          1902.156
       313   12 Jun 2027 09:14:21.829   12 Jun 2027 09:14:34.595            12.766          5398.625
       314   12 Jun 2027 09:16:50.573   12 Jun 2027 09:16:50.968             0.395            67.406
       315   12 Jun 2027 09:17:28.174   12 Jun 2027 09:17:33.537             5.363           994.531
       316   12 Jun 2027 09:18:14.427   12 Jun 2027 09:18:15.717             1.290           339.375
       317   12 Jun 2027 09:18:21.130   12 Jun 2027 09:18:22.937             1.807            79.031
       318   12 Jun 2027 09:18:30.230   12 Jun 2027 09:18:35.639             5.409             7.562
       319   12 Jun 2027 09:18:51.315   12 Jun 2027 09:18:55.069             3.754           489.875
       320   12 Jun 2027 09:19:31.318   12 Jun 2027 09:19:35.086             3.768           519.719
       321   12 Jun 2027 09:20:09.205   12 Jun 2027 09:20:13.894             4.689           362.531
       322   12 Jun 2027 09:20:42.702   12 Jun 2027 09:20:44.625             1.923           821.844
       323   12 Jun 2027 10:52:26.556   12 Jun 2027 10:52:40.442            13.886          6825.562
       324   12 Jun 2027 10:52:41.787   12 Jun 2027 10:52:41.857             0.070            34.312
       325   12 Jun 2027 10:54:20.015   12 Jun 2027 10:54:21.902             1.887           551.250
       326   12 Jun 2027 10:54:29.831   12 Jun 2027 10:54:42.708            12.877           247.781
       327   12 Jun 2027 10:55:33.980   12 Jun 2027 10:55:40.169             6.189           271.938
       328   12 Jun 2027 10:55:48.551   12 Jun 2027 10:55:49.776             1.225           172.656
       329   12 Jun 2027 10:56:25.987   12 Jun 2027 10:56:28.077             2.090           861.375
       330   13 Jun 2027 03:02:49.202   13 Jun 2027 03:03:01.948            12.746          6373.000
       331   13 Jun 2027 03:15:19.017   13 Jun 2027 03:15:25.058             6.041          3020.500
       332   13 Jun 2027 04:36:38.725   13 Jun 2027 04:39:17.369           158.644         79322.000
       333   13 Jun 2027 04:41:02.957   13 Jun 2027 04:41:22.024            19.067          9533.500
       334   13 Jun 2027 04:41:53.504   13 Jun 2027 04:41:59.630             6.126          3063.000
       335   13 Jun 2027 06:11:31.479   13 Jun 2027 06:13:11.785           100.306         47330.531
       336   13 Jun 2027 06:14:21.163   13 Jun 2027 06:14:25.000             3.837          1757.438
       337   13 Jun 2027 06:15:15.983   13 Jun 2027 06:15:18.251             2.268          1062.625
       338   13 Jun 2027 06:15:22.984   13 Jun 2027 06:15:23.144             0.160            25.344
       339   13 Jun 2027 06:15:33.157   13 Jun 2027 06:15:36.420             3.263           244.156
       340   13 Jun 2027 06:16:06.177   13 Jun 2027 06:16:06.177             0.000             0.000
       341   13 Jun 2027 06:16:33.511   13 Jun 2027 06:16:37.042             3.531          1717.250
       342   13 Jun 2027 06:17:59.480   13 Jun 2027 06:18:04.878             5.398          1670.469
       343   13 Jun 2027 06:19:04.003   13 Jun 2027 06:19:07.570             3.567          1623.219
       344   13 Jun 2027 06:19:16.806   13 Jun 2027 06:19:18.182             1.376           288.625
       345   13 Jun 2027 06:20:04.824   13 Jun 2027 06:20:08.413             3.589          1065.938
       346   13 Jun 2027 07:49:36.699   13 Jun 2027 07:49:41.711             5.012          1543.031
       347   13 Jun 2027 07:51:12.982   13 Jun 2027 07:51:18.435             5.453          1971.844
       348   13 Jun 2027 07:53:25.656   13 Jun 2027 07:53:27.376             1.720            47.750
       349   13 Jun 2027 07:53:50.169   13 Jun 2027 07:53:52.127             1.958           712.281
       350   13 Jun 2027 07:54:30.772   13 Jun 2027 07:54:34.000             3.228          1114.344
       351   13 Jun 2027 07:55:52.575   13 Jun 2027 07:55:57.578             5.003           439.031
       352   13 Jun 2027 07:56:35.898   13 Jun 2027 07:56:37.600             1.702           404.469
       353   13 Jun 2027 09:26:30.019   13 Jun 2027 09:26:41.666            11.647          5457.219
       354   13 Jun 2027 09:27:08.749   13 Jun 2027 09:27:10.183             1.434           163.281
       355   13 Jun 2027 09:27:31.841   13 Jun 2027 09:27:32.118             0.277            78.219
       356   13 Jun 2027 09:29:01.182   13 Jun 2027 09:29:05.584             4.402          1370.312
       357   13 Jun 2027 09:30:11.502   13 Jun 2027 09:30:15.686             4.184           409.656
       358   13 Jun 2027 09:31:00.149   13 Jun 2027 09:31:03.738             3.589           190.344
       359   13 Jun 2027 09:31:32.519   13 Jun 2027 09:31:34.147             1.628           651.813
       360   13 Jun 2027 11:03:39.687   13 Jun 2027 11:03:50.694            11.007          5401.219
       361   13 Jun 2027 11:08:00.433   13 Jun 2027 11:08:06.160             5.727          1818.500
       362   13 Jun 2027 11:08:26.518   13 Jun 2027 11:08:30.567             4.049           297.531
