uniorb/output/strategy_4/Camera/Camera_KinoSat_111501.txt

KinoSat_111501
-------------------------
    Access    *     Start Time (UTCG)     *     Stop Time (UTCG)  *   Duration (s) *   Data (Mbytes)
         1   01 Jun 2027 03:58:10.180   01 Jun 2027 04:00:30.832           140.652         70326.000
         2   01 Jun 2027 04:01:18.655   01 Jun 2027 04:01:27.209             8.554          4277.000
         3   01 Jun 2027 04:02:15.920   01 Jun 2027 04:02:21.125             5.205          2602.500
         4   01 Jun 2027 04:03:11.332   01 Jun 2027 04:03:13.436             2.104          1052.000
         5   01 Jun 2027 04:04:58.196   01 Jun 2027 04:05:17.824            19.628          9814.000
         6   01 Jun 2027 05:22:59.479   01 Jun 2027 05:24:12.269            72.790         36395.000
         7   01 Jun 2027 05:34:40.001   01 Jun 2027 05:35:34.365            54.364         27182.000
         8   01 Jun 2027 06:56:58.104   01 Jun 2027 06:58:04.289            66.185         33092.500
         9   01 Jun 2027 06:58:52.290   01 Jun 2027 06:59:24.085            31.795         15897.500
        10   01 Jun 2027 08:31:54.344   01 Jun 2027 08:33:10.456            76.112         38056.000
        11   01 Jun 2027 08:33:35.773   01 Jun 2027 08:33:51.896            16.123          8061.500
        12   01 Jun 2027 08:33:59.979   01 Jun 2027 08:34:08.038             8.059          4029.500
        13   01 Jun 2027 08:36:50.229   01 Jun 2027 08:36:50.229             0.000             0.000
        14   01 Jun 2027 08:37:12.476   01 Jun 2027 08:37:38.887            26.411         13205.500
        15   01 Jun 2027 10:09:24.436   01 Jun 2027 10:11:16.092           111.656         55828.000
        16   01 Jun 2027 10:15:36.553   01 Jun 2027 10:15:59.590            23.037         11518.500
        17   01 Jun 2027 10:16:42.773   01 Jun 2027 10:16:43.251             0.478           239.000
        18   01 Jun 2027 11:46:09.194   01 Jun 2027 11:48:41.445           152.251         76125.500
        19   01 Jun 2027 11:51:37.572   01 Jun 2027 11:51:37.572             0.000             0.000
        20   01 Jun 2027 11:52:05.402   01 Jun 2027 11:52:08.116             2.714          1357.000
        21   01 Jun 2027 11:52:37.294   01 Jun 2027 11:52:42.175             4.881          2440.500
        22   02 Jun 2027 04:10:12.705   02 Jun 2027 04:12:03.304           110.599         55299.500
        23   02 Jun 2027 04:12:24.315   02 Jun 2027 04:12:30.059             5.744          2872.000
        24   02 Jun 2027 04:14:14.428   02 Jun 2027 04:14:27.131            12.703          6351.500
        25   02 Jun 2027 05:34:33.114   02 Jun 2027 05:36:18.050           104.936         52468.000
        26   02 Jun 2027 05:46:48.677   02 Jun 2027 05:47:15.488            26.811         13405.500
        27   02 Jun 2027 07:08:30.097   02 Jun 2027 07:09:49.866            79.769         39884.500
        28   02 Jun 2027 07:10:38.426   02 Jun 2027 07:12:18.637           100.211         50105.500
        29   02 Jun 2027 07:13:36.747   02 Jun 2027 07:13:47.129            10.382          5191.000
        30   02 Jun 2027 08:43:23.624   02 Jun 2027 08:45:29.486           125.862         62931.000
        31   02 Jun 2027 08:45:35.137   02 Jun 2027 08:46:19.654            44.517         22258.500
        32   02 Jun 2027 08:46:52.802   02 Jun 2027 08:46:52.802             0.000             0.000
        33   02 Jun 2027 08:47:57.630   02 Jun 2027 08:48:47.197            49.567         24783.500
        34   02 Jun 2027 08:49:25.544   02 Jun 2027 08:50:05.210            39.666         19833.000
        35   02 Jun 2027 10:21:18.652   02 Jun 2027 10:21:55.915            37.263         17414.625
        36   02 Jun 2027 10:25:28.269   02 Jun 2027 10:25:38.277            10.008          4154.687
        37   02 Jun 2027 10:26:02.670   02 Jun 2027 10:26:03.875             1.205           537.187
        38   02 Jun 2027 10:26:39.273   02 Jun 2027 10:26:41.925             2.652            38.344
        39   02 Jun 2027 10:27:10.420   02 Jun 2027 10:27:11.609             1.189           433.437
        40   02 Jun 2027 10:28:09.542   02 Jun 2027 10:28:11.809             2.267          1101.281
        41   02 Jun 2027 10:28:33.505   02 Jun 2027 10:28:37.626             4.121           473.812
        42   02 Jun 2027 11:58:03.235   02 Jun 2027 11:58:17.429            14.194          6397.469
        43   02 Jun 2027 11:59:05.842   02 Jun 2027 11:59:14.509             8.667           332.594
        44   03 Jun 2027 04:22:38.590   03 Jun 2027 04:23:51.980            73.390         36695.000
        45   03 Jun 2027 04:24:46.722   03 Jun 2027 04:25:10.146            23.424         11712.000
        46   03 Jun 2027 04:25:55.494   03 Jun 2027 04:26:06.547            11.053          5526.500
        47   03 Jun 2027 05:46:28.949   03 Jun 2027 05:47:47.319            78.370         39185.000
        48   03 Jun 2027 07:22:28.970   03 Jun 2027 07:24:52.689           143.719         70323.969
        49   03 Jun 2027 07:25:20.401   03 Jun 2027 07:25:24.658             4.257           793.438
        50   03 Jun 2027 08:56:16.988   03 Jun 2027 08:56:23.312             6.324          2926.437
        51   03 Jun 2027 08:57:50.023   03 Jun 2027 08:57:51.878             1.855           616.906
        52   03 Jun 2027 08:59:41.245   03 Jun 2027 08:59:49.855             8.610          1987.125
        53   03 Jun 2027 09:01:11.931   03 Jun 2027 09:01:19.204             7.273          2207.187
        54   03 Jun 2027 09:02:11.797   03 Jun 2027 09:02:14.930             3.133           408.938
        55   03 Jun 2027 09:02:57.518   03 Jun 2027 09:03:01.794             4.276           524.531
        56   03 Jun 2027 09:04:05.025   03 Jun 2027 09:04:09.990             4.965          1975.969
        57   03 Jun 2027 09:04:22.847   03 Jun 2027 09:04:23.944             1.097            38.031
        58   03 Jun 2027 09:04:43.821   03 Jun 2027 09:04:44.105             0.284            28.750
        59   03 Jun 2027 10:33:28.568   03 Jun 2027 10:33:40.179            11.611          5713.313
        60   03 Jun 2027 10:36:02.356   03 Jun 2027 10:36:08.551             6.195          1519.531
        61   03 Jun 2027 10:37:52.988   03 Jun 2027 10:37:54.690             1.702           705.000
        62   03 Jun 2027 10:38:16.582   03 Jun 2027 10:38:17.920             1.338           604.719
        63   03 Jun 2027 10:38:46.033   03 Jun 2027 10:38:47.004             0.971           248.312
        64   03 Jun 2027 10:38:51.937   03 Jun 2027 10:38:52.524             0.587           154.156
        65   03 Jun 2027 10:39:46.514   03 Jun 2027 10:39:54.461             7.947          1118.875
        66   03 Jun 2027 10:40:05.234   03 Jun 2027 10:40:06.666             1.432           336.656
        67   03 Jun 2027 10:40:09.145   03 Jun 2027 10:40:10.251             1.106            77.469
        68   03 Jun 2027 10:40:14.049   03 Jun 2027 10:40:14.868             0.819            32.656
        69   03 Jun 2027 10:40:24.370   03 Jun 2027 10:40:26.177             1.807           116.875
        70   04 Jun 2027 03:00:03.429   04 Jun 2027 03:00:16.947            13.518          6759.000
        71   04 Jun 2027 03:00:44.340   04 Jun 2027 03:00:46.890             2.550          1275.000
        72   04 Jun 2027 03:00:58.353   04 Jun 2027 03:01:05.816             7.463          3731.500
        73   04 Jun 2027 03:01:39.334   04 Jun 2027 03:02:07.685            28.351         14175.500
        74   04 Jun 2027 04:34:59.371   04 Jun 2027 04:37:17.550           138.179         69089.500
        75   04 Jun 2027 05:58:21.404   04 Jun 2027 05:59:55.654            94.250         47125.000
        76   04 Jun 2027 06:00:49.235   04 Jun 2027 06:00:54.981             5.746          2873.000
        77   04 Jun 2027 07:34:42.459   04 Jun 2027 07:35:42.487            60.028         27810.532
        78   04 Jun 2027 07:35:52.153   04 Jun 2027 07:35:52.875             0.722           170.781
        79   04 Jun 2027 07:36:21.041   04 Jun 2027 07:36:22.670             1.629           372.750
        80   04 Jun 2027 07:36:44.445   04 Jun 2027 07:36:44.445             0.000             0.000
        81   04 Jun 2027 07:37:22.686   04 Jun 2027 07:37:27.335             4.649          1304.750
        82   04 Jun 2027 07:38:11.265   04 Jun 2027 07:38:11.265             0.000             0.000
        83   04 Jun 2027 09:08:45.471   04 Jun 2027 09:08:50.528             5.057          2177.219
        84   04 Jun 2027 09:10:22.828   04 Jun 2027 09:10:26.781             3.953          1632.875
        85   04 Jun 2027 09:10:52.034   04 Jun 2027 09:10:52.979             0.945           311.250
        86   04 Jun 2027 09:11:34.760   04 Jun 2027 09:11:40.620             5.860           166.125
        87   04 Jun 2027 09:13:10.606   04 Jun 2027 09:13:15.936             5.330          1969.563
        88   04 Jun 2027 09:13:59.223   04 Jun 2027 09:14:03.108             3.885           147.031
        89   04 Jun 2027 09:15:27.901   04 Jun 2027 09:15:32.022             4.121           245.656
        90   04 Jun 2027 09:16:17.993   04 Jun 2027 09:16:20.835             2.842          1026.594
        91   04 Jun 2027 10:45:52.202   04 Jun 2027 10:46:02.432            10.230          4995.969
        92   04 Jun 2027 10:47:37.646   04 Jun 2027 10:47:44.844             7.198          1252.500
        93   04 Jun 2027 10:49:04.062   04 Jun 2027 10:49:05.282             1.220           563.875
        94   04 Jun 2027 10:50:35.713   04 Jun 2027 10:50:40.086             4.373          1986.844
        95   04 Jun 2027 10:50:58.544   04 Jun 2027 10:51:00.448             1.904           313.562
        96   04 Jun 2027 10:51:57.862   04 Jun 2027 10:52:02.434             4.572          1537.844
        97   04 Jun 2027 10:52:15.964   04 Jun 2027 10:52:18.303             2.339           422.812
        98   04 Jun 2027 10:52:25.544   04 Jun 2027 10:52:26.103             0.559            77.063
        99   05 Jun 2027 03:08:53.442   05 Jun 2027 03:09:34.644            41.202         20601.000
       100   05 Jun 2027 03:09:57.419   05 Jun 2027 03:10:15.203            17.784          8892.000
       101   05 Jun 2027 03:11:26.381   05 Jun 2027 03:11:56.490            30.109         15054.500
       102   05 Jun 2027 03:13:01.703   05 Jun 2027 03:13:24.464            22.761         11380.500
       103   05 Jun 2027 04:47:25.441   05 Jun 2027 04:50:43.601           198.160         98999.094
       104   05 Jun 2027 06:10:22.976   05 Jun 2027 06:10:52.797            29.821         13461.312
       105   05 Jun 2027 06:11:00.692   05 Jun 2027 06:11:03.009             2.317           246.719
       106   05 Jun 2027 06:11:55.041   05 Jun 2027 06:11:55.041             0.000             0.000
       107   05 Jun 2027 06:12:25.774   05 Jun 2027 06:12:30.566             4.792          2076.875
       108   05 Jun 2027 07:46:48.947   05 Jun 2027 07:46:56.236             7.289          3494.531
       109   05 Jun 2027 07:47:28.570   05 Jun 2027 07:47:31.490             2.920           378.625
       110   05 Jun 2027 07:47:53.845   05 Jun 2027 07:47:54.977             1.132           427.156
       111   05 Jun 2027 07:48:49.890   05 Jun 2027 07:48:53.583             3.693          1646.594
       112   05 Jun 2027 07:50:14.162   05 Jun 2027 07:50:21.183             7.021          2518.094
       113   05 Jun 2027 09:21:57.300   05 Jun 2027 09:22:06.896             9.596          3317.375
       114   05 Jun 2027 09:23:00.960   05 Jun 2027 09:23:02.823             1.863           850.062
       115   05 Jun 2027 09:23:31.169   05 Jun 2027 09:23:34.863             3.694           561.406
       116   05 Jun 2027 09:25:08.391   05 Jun 2027 09:25:13.142             4.751          1619.281
       117   05 Jun 2027 09:25:41.779   05 Jun 2027 09:25:44.643             2.864           798.250
       118   05 Jun 2027 09:27:20.698   05 Jun 2027 09:27:26.876             6.178          2750.219
       119   05 Jun 2027 09:27:58.259   05 Jun 2027 09:28:01.042             2.783           499.969
       120   05 Jun 2027 09:28:38.744   05 Jun 2027 09:28:40.857             2.113           363.594
       121   05 Jun 2027 10:58:18.021   05 Jun 2027 10:58:28.140            10.119          4156.156
       122   05 Jun 2027 11:00:30.394   05 Jun 2027 11:00:31.911             1.517           356.750
       123   05 Jun 2027 11:02:31.947   05 Jun 2027 11:02:35.831             3.884          1741.344
       124   05 Jun 2027 11:02:59.081   05 Jun 2027 11:03:00.891             1.810           723.344
       125   05 Jun 2027 11:03:57.935   05 Jun 2027 11:04:00.438             2.503           414.906
       126   05 Jun 2027 11:04:18.412   05 Jun 2027 11:04:21.316             2.904           390.687
       127   06 Jun 2027 03:20:46.490   06 Jun 2027 03:21:43.666            57.176         28588.000
       128   06 Jun 2027 03:21:53.555   06 Jun 2027 03:23:53.082           119.527         59763.500
       129   06 Jun 2027 03:24:48.790   06 Jun 2027 03:25:03.376            14.586          7293.000
       130   06 Jun 2027 03:25:43.580   06 Jun 2027 03:25:51.992             8.412          4206.000
       131   06 Jun 2027 04:59:02.787   06 Jun 2027 05:00:44.098           101.311         49858.375
       132   06 Jun 2027 05:01:51.148   06 Jun 2027 05:01:57.967             6.819          1837.844
       133   06 Jun 2027 05:02:17.309   06 Jun 2027 05:02:20.087             2.778           560.531
       134   06 Jun 2027 06:22:22.989   06 Jun 2027 06:22:40.673            17.684          7270.563
       135   06 Jun 2027 06:23:21.893   06 Jun 2027 06:23:23.306             1.413           154.813
       136   06 Jun 2027 06:23:51.908   06 Jun 2027 06:23:55.086             3.178           888.313
       137   06 Jun 2027 06:25:10.049   06 Jun 2027 06:25:15.335             5.286          2253.719
       138   06 Jun 2027 06:25:26.314   06 Jun 2027 06:25:26.314             0.000             0.000
       139   06 Jun 2027 07:58:59.433   06 Jun 2027 07:59:05.718             6.285          2257.937
       140   06 Jun 2027 07:59:55.393   06 Jun 2027 08:00:00.350             4.957          1481.594
       141   06 Jun 2027 08:00:22.284   06 Jun 2027 08:00:22.284             0.000             0.000
       142   06 Jun 2027 08:01:07.957   06 Jun 2027 08:01:13.781             5.824          1502.781
       143   06 Jun 2027 08:02:00.044   06 Jun 2027 08:02:03.290             3.246          1049.969
       144   06 Jun 2027 08:02:24.486   06 Jun 2027 08:02:25.533             1.047           168.469
       145   06 Jun 2027 09:34:09.569   06 Jun 2027 09:34:13.992             4.423          2079.750
       146   06 Jun 2027 09:35:32.522   06 Jun 2027 09:35:37.019             4.497          2187.063
       147   06 Jun 2027 09:35:45.647   06 Jun 2027 09:35:47.558             1.911           236.219
       148   06 Jun 2027 09:37:05.097   06 Jun 2027 09:37:08.806             3.709          1146.156
       149   06 Jun 2027 09:37:53.294   06 Jun 2027 09:37:55.731             2.437          1161.437
       150   06 Jun 2027 09:39:01.257   06 Jun 2027 09:39:02.373             1.116           333.469
       151   06 Jun 2027 09:40:32.232   06 Jun 2027 09:40:40.025             7.793          2231.531
       152   06 Jun 2027 09:40:45.194   06 Jun 2027 09:40:45.394             0.200            13.219
       153   06 Jun 2027 11:10:26.821   06 Jun 2027 11:10:37.234            10.413          4854.063
       154   06 Jun 2027 11:12:37.017   06 Jun 2027 11:12:38.434             1.417           597.313
       155   06 Jun 2027 11:13:32.889   06 Jun 2027 11:13:36.427             3.538          1596.250
       156   06 Jun 2027 11:13:43.724   06 Jun 2027 11:13:45.969             2.245           133.687
       157   06 Jun 2027 11:14:20.672   06 Jun 2027 11:14:26.156             5.484           672.875
       158   06 Jun 2027 11:15:04.332   06 Jun 2027 11:15:08.460             4.128          1181.125
       159   06 Jun 2027 11:15:59.876   06 Jun 2027 11:16:02.338             2.462          1026.125
       160   06 Jun 2027 11:16:15.885   06 Jun 2027 11:16:17.233             1.348           362.031
       161   07 Jun 2027 03:33:52.512   07 Jun 2027 03:36:58.332           185.820         92910.000
       162   07 Jun 2027 03:37:24.122   07 Jun 2027 03:37:48.975            24.853         12426.500
       163   07 Jun 2027 03:38:19.147   07 Jun 2027 03:38:22.451             3.304          1652.000
       164   07 Jun 2027 03:38:55.373   07 Jun 2027 03:39:04.919             9.546          4773.000
       165   07 Jun 2027 03:40:44.797   07 Jun 2027 03:41:40.843            56.046         28023.000
       166   07 Jun 2027 05:00:17.925   07 Jun 2027 05:00:19.696             1.771           885.500
       167   07 Jun 2027 05:10:59.048   07 Jun 2027 05:11:40.945            41.897         20948.500
       168   07 Jun 2027 05:11:47.840   07 Jun 2027 05:12:19.691            31.851         15262.875
       169   07 Jun 2027 05:13:23.821   07 Jun 2027 05:13:29.125             5.304           520.594
       170   07 Jun 2027 05:14:06.726   07 Jun 2027 05:14:07.743             1.017           364.406
       171   07 Jun 2027 06:34:58.581   07 Jun 2027 06:35:07.540             8.959          3946.812
       172   07 Jun 2027 06:35:24.282   07 Jun 2027 06:35:26.647             2.365           337.531
       173   07 Jun 2027 06:35:29.710   07 Jun 2027 06:35:31.599             1.889            95.719
       174   07 Jun 2027 06:37:10.148   07 Jun 2027 06:37:20.842            10.694          3079.656
       175   07 Jun 2027 08:10:43.850   07 Jun 2027 08:10:59.604            15.754          2057.344
       176   07 Jun 2027 08:11:56.733   07 Jun 2027 08:12:00.488             3.755          1778.875
       177   07 Jun 2027 08:12:21.942   07 Jun 2027 08:12:22.596             0.654           107.531
       178   07 Jun 2027 08:13:24.843   07 Jun 2027 08:13:27.836             2.993          1069.875
       179   07 Jun 2027 08:14:09.869   07 Jun 2027 08:14:13.490             3.621          1313.531
       180   07 Jun 2027 09:45:38.322   07 Jun 2027 09:45:43.716             5.394          2486.500
       181   07 Jun 2027 09:47:33.453   07 Jun 2027 09:47:44.015            10.562          2697.562
       182   07 Jun 2027 09:48:32.169   07 Jun 2027 09:48:33.740             1.571           784.469
       183   07 Jun 2027 09:48:43.262   07 Jun 2027 09:48:43.883             0.621           129.031
       184   07 Jun 2027 09:49:56.412   07 Jun 2027 09:50:01.729             5.317          1748.563
       185   07 Jun 2027 09:51:08.742   07 Jun 2027 09:51:10.369             1.627           491.219
       186   07 Jun 2027 09:52:22.735   07 Jun 2027 09:52:27.007             4.272          1950.781
       187   07 Jun 2027 09:52:50.781   07 Jun 2027 09:52:52.216             1.435           630.406
       188   07 Jun 2027 11:22:09.635   07 Jun 2027 11:22:21.779            12.144          4830.500
       189   07 Jun 2027 11:24:08.512   07 Jun 2027 11:24:13.751             5.239          1853.031
       190   07 Jun 2027 11:24:35.797   07 Jun 2027 11:24:37.592             1.795           664.281
       191   07 Jun 2027 11:25:25.938   07 Jun 2027 11:25:29.561             3.623          1192.969
       192   07 Jun 2027 11:26:21.831   07 Jun 2027 11:26:28.793             6.962           644.125
       193   07 Jun 2027 11:27:11.762   07 Jun 2027 11:27:16.060             4.298          1146.187
       194   07 Jun 2027 11:27:29.653   07 Jun 2027 11:27:33.681             4.028           205.750
       195   07 Jun 2027 11:27:44.114   07 Jun 2027 11:27:46.057             1.943           218.344
       196   07 Jun 2027 11:28:10.388   07 Jun 2027 11:28:11.201             0.813           264.969
       197   07 Jun 2027 11:28:21.619   07 Jun 2027 11:28:21.697             0.078            15.750
       198   08 Jun 2027 03:46:00.610   08 Jun 2027 03:48:39.262           158.652         79326.000
       199   08 Jun 2027 03:48:47.885   08 Jun 2027 03:49:05.214            17.329          8664.500
       200   08 Jun 2027 03:49:25.621   08 Jun 2027 03:49:29.428             3.807          1903.500
       201   08 Jun 2027 03:50:50.109   08 Jun 2027 03:50:50.109             0.000             0.000
       202   08 Jun 2027 03:51:16.992   08 Jun 2027 03:51:34.184            17.192          8596.000
       203   08 Jun 2027 03:52:12.584   08 Jun 2027 03:52:12.584             0.000             0.000
       204   08 Jun 2027 03:52:33.853   08 Jun 2027 03:52:47.872            14.019          7009.500
       205   08 Jun 2027 05:11:33.093   08 Jun 2027 05:11:41.239             8.146          4073.000
       206   08 Jun 2027 05:22:56.907   08 Jun 2027 05:24:27.621            90.714         45018.156
       207   08 Jun 2027 06:45:33.739   08 Jun 2027 06:45:52.563            18.824          8149.219
       208   08 Jun 2027 06:47:07.382   08 Jun 2027 06:47:11.219             3.837          1380.406
       209   08 Jun 2027 06:47:29.918   08 Jun 2027 06:47:30.832             0.914           107.844
       210   08 Jun 2027 06:48:33.369   08 Jun 2027 06:48:35.893             2.524          1262.000
       211   08 Jun 2027 06:49:09.682   08 Jun 2027 06:49:14.324             4.642          1434.906
       212   08 Jun 2027 06:50:00.435   08 Jun 2027 06:50:06.963             6.528           967.406
       213   08 Jun 2027 08:20:58.780   08 Jun 2027 08:21:03.309             4.529          2045.094
       214   08 Jun 2027 08:22:29.776   08 Jun 2027 08:22:34.038             4.262          1021.031
       215   08 Jun 2027 08:24:08.751   08 Jun 2027 08:24:15.025             6.274           969.812
       216   08 Jun 2027 08:25:28.828   08 Jun 2027 08:25:34.673             5.845          2306.344
       217   08 Jun 2027 08:25:57.572   08 Jun 2027 08:26:01.524             3.952           412.531
       218   08 Jun 2027 08:26:22.580   08 Jun 2027 08:26:24.067             1.487           597.688
       219   08 Jun 2027 09:57:24.201   08 Jun 2027 09:57:33.906             9.705          4470.500
       220   08 Jun 2027 09:59:33.882   08 Jun 2027 09:59:41.229             7.347          3401.406
       221   08 Jun 2027 10:00:54.123   08 Jun 2027 10:01:00.511             6.388           419.094
       222   08 Jun 2027 10:01:46.584   08 Jun 2027 10:01:51.813             5.229          1415.469
       223   08 Jun 2027 10:03:19.057   08 Jun 2027 10:03:24.600             5.543          2404.281
       224   08 Jun 2027 10:04:06.963   08 Jun 2027 10:04:09.822             2.859          1306.531
       225   08 Jun 2027 10:04:30.694   08 Jun 2027 10:04:38.284             7.590           499.312
       226   08 Jun 2027 11:34:30.330   08 Jun 2027 11:34:45.141            14.811          6862.531
       227   08 Jun 2027 11:36:23.073   08 Jun 2027 11:36:23.897             0.824            54.187
       228   08 Jun 2027 11:37:08.640   08 Jun 2027 11:37:13.338             4.698           959.063
       229   08 Jun 2027 11:38:09.141   08 Jun 2027 11:38:11.882             2.741           956.531
       230   08 Jun 2027 11:38:35.552   08 Jun 2027 11:38:37.431             1.879            20.656
       231   08 Jun 2027 11:38:39.315   08 Jun 2027 11:38:39.480             0.165            36.594
       232   08 Jun 2027 11:39:12.467   08 Jun 2027 11:39:14.697             2.230           810.719
       233   08 Jun 2027 11:40:22.270   08 Jun 2027 11:40:27.453             5.183          2036.656
       234   09 Jun 2027 03:58:26.691   09 Jun 2027 04:01:12.982           166.291         83145.500
       235   09 Jun 2027 04:03:28.214   09 Jun 2027 04:03:38.943            10.729          5364.500
       236   09 Jun 2027 04:04:18.380   09 Jun 2027 04:04:35.186            16.806          8403.000
       237   09 Jun 2027 04:05:15.577   09 Jun 2027 04:05:33.779            18.202          9101.000
       238   09 Jun 2027 05:23:24.258   09 Jun 2027 05:23:29.886             5.628          2814.000
       239   09 Jun 2027 05:34:56.257   09 Jun 2027 05:35:56.677            60.420         30210.000
       240   09 Jun 2027 06:57:13.847   09 Jun 2027 06:58:20.167            66.320         33160.000
       241   09 Jun 2027 06:59:30.191   09 Jun 2027 06:59:33.259             3.068          1124.688
       242   09 Jun 2027 07:01:08.556   09 Jun 2027 07:01:16.816             8.260          2978.031
       243   09 Jun 2027 07:02:06.384   09 Jun 2027 07:02:08.658             2.274          1065.187
       244   09 Jun 2027 08:32:07.807   09 Jun 2027 08:32:25.358            17.551          4292.125
       245   09 Jun 2027 08:33:08.147   09 Jun 2027 08:33:08.947             0.800           400.000
       246   09 Jun 2027 08:33:29.517   09 Jun 2027 08:33:29.644             0.127            63.500
       247   09 Jun 2027 08:33:52.761   09 Jun 2027 08:33:56.951             4.190          1769.844
       248   09 Jun 2027 08:35:12.159   09 Jun 2027 08:35:16.719             4.560          1454.625
       249   09 Jun 2027 08:35:50.411   09 Jun 2027 08:35:52.043             1.632           311.250
       250   09 Jun 2027 08:37:29.365   09 Jun 2027 08:37:38.258             8.893          2357.531
       251   09 Jun 2027 08:38:46.846   09 Jun 2027 08:38:51.878             5.032          1515.031
       252   09 Jun 2027 10:09:40.002   09 Jun 2027 10:09:46.223             6.221          2944.969
       253   09 Jun 2027 10:11:09.280   09 Jun 2027 10:11:12.657             3.377           951.156
       254   09 Jun 2027 10:11:40.247   09 Jun 2027 10:11:40.608             0.361            57.062
       255   09 Jun 2027 10:13:19.832   09 Jun 2027 10:13:22.741             2.909          1070.875
       256   09 Jun 2027 10:14:10.532   09 Jun 2027 10:14:14.127             3.595          1493.469
       257   09 Jun 2027 10:14:55.410   09 Jun 2027 10:14:57.666             2.256           257.875
       258   09 Jun 2027 10:15:51.787   09 Jun 2027 10:15:57.293             5.506          1090.281
       259   09 Jun 2027 10:16:08.032   09 Jun 2027 10:16:14.492             6.460           242.844
       260   09 Jun 2027 10:16:56.815   09 Jun 2027 10:16:59.579             2.764          1322.594
       261   09 Jun 2027 11:46:23.672   09 Jun 2027 11:46:37.344            13.672          6805.063
       262   09 Jun 2027 11:49:55.814   09 Jun 2027 11:50:00.580             4.766          1447.500
       263   09 Jun 2027 11:50:24.833   09 Jun 2027 11:50:28.267             3.434           611.781
       264   09 Jun 2027 11:50:50.710   09 Jun 2027 11:50:52.315             1.605           701.344
       265   09 Jun 2027 11:52:22.186   09 Jun 2027 11:52:30.997             8.811          2134.188
       266   10 Jun 2027 04:10:30.372   10 Jun 2027 04:12:08.492            98.120         49060.000
       267   10 Jun 2027 04:12:27.187   10 Jun 2027 04:12:44.982            17.795          8897.500
       268   10 Jun 2027 04:13:17.965   10 Jun 2027 04:13:25.415             7.450          3725.000
       269   10 Jun 2027 04:14:29.302   10 Jun 2027 04:14:55.235            25.933         12966.500
       270   10 Jun 2027 05:34:49.879   10 Jun 2027 05:35:27.260            37.381         18690.500
       271   10 Jun 2027 05:35:36.978   10 Jun 2027 05:35:44.094             7.116          3558.000
       272   10 Jun 2027 05:36:33.529   10 Jun 2027 05:36:33.529             0.000             0.000
       273   10 Jun 2027 05:47:09.836   10 Jun 2027 05:47:30.868            21.032         10516.000
       274   10 Jun 2027 07:08:45.460   10 Jun 2027 07:10:05.901            80.441         40220.500
       275   10 Jun 2027 07:10:54.195   10 Jun 2027 07:11:17.055            22.860         11430.000
       276   10 Jun 2027 07:11:39.097   10 Jun 2027 07:11:44.016             4.919          2166.562
       277   10 Jun 2027 07:13:25.678   10 Jun 2027 07:13:31.307             5.629          2558.469
       278   10 Jun 2027 08:43:38.771   10 Jun 2027 08:43:45.224             6.453          3095.875
       279   10 Jun 2027 08:44:29.012   10 Jun 2027 08:44:33.563             4.551          1368.375
       280   10 Jun 2027 08:45:52.731   10 Jun 2027 08:45:54.439             1.708           187.781
       281   10 Jun 2027 08:47:08.850   10 Jun 2027 08:47:14.217             5.367           981.875
       282   10 Jun 2027 08:47:42.984   10 Jun 2027 08:47:47.840             4.856           619.125
       283   10 Jun 2027 08:49:20.395   10 Jun 2027 08:49:26.112             5.717          2544.188
       284   10 Jun 2027 08:50:22.411   10 Jun 2027 08:50:26.741             4.330          1657.656
       285   10 Jun 2027 08:50:38.893   10 Jun 2027 08:50:44.855             5.962           278.094
       286   10 Jun 2027 08:52:12.785   10 Jun 2027 08:52:18.497             5.712          2357.625
       287   10 Jun 2027 10:21:35.059   10 Jun 2027 10:21:44.280             9.221          4514.344
       288   10 Jun 2027 10:25:13.295   10 Jun 2027 10:25:17.038             3.743          1124.500
       289   10 Jun 2027 10:25:50.053   10 Jun 2027 10:25:50.590             0.537           239.719
       290   10 Jun 2027 10:26:23.276   10 Jun 2027 10:26:25.431             2.155           608.094
       291   10 Jun 2027 10:26:56.205   10 Jun 2027 10:26:57.223             1.018            30.844
       292   10 Jun 2027 10:28:25.705   10 Jun 2027 10:28:28.991             3.286          1025.437
       293   10 Jun 2027 10:28:48.821   10 Jun 2027 10:28:50.652             1.831           492.375
       294   10 Jun 2027 11:58:22.959   10 Jun 2027 11:58:34.692            11.733          5662.562
       295   11 Jun 2027 04:22:56.691   11 Jun 2027 04:24:06.579            69.888         34944.000
       296   11 Jun 2027 04:25:02.138   11 Jun 2027 04:25:30.600            28.462         14231.000
       297   11 Jun 2027 04:25:43.634   11 Jun 2027 04:26:25.389            41.755         20877.500
       298   11 Jun 2027 04:26:31.521   11 Jun 2027 04:26:34.576             3.055          1527.500
       299   11 Jun 2027 05:46:45.748   11 Jun 2027 05:47:27.543            41.795         20897.500
       300   11 Jun 2027 05:48:03.553   11 Jun 2027 05:48:03.553             0.000             0.000
       301   11 Jun 2027 07:22:45.347   11 Jun 2027 07:25:02.219           136.872         67674.500
       302   11 Jun 2027 07:25:11.345   11 Jun 2027 07:25:15.148             3.803           237.187
       303   11 Jun 2027 07:26:03.209   11 Jun 2027 07:26:05.273             2.064           805.094
       304   11 Jun 2027 08:56:32.693   11 Jun 2027 08:56:39.602             6.909          2658.781
       305   11 Jun 2027 08:59:45.278   11 Jun 2027 08:59:54.133             8.855          1283.000
       306   11 Jun 2027 09:01:11.963   11 Jun 2027 09:01:16.534             4.571          2283.750
       307   11 Jun 2027 09:02:16.124   11 Jun 2027 09:02:25.023             8.899          1481.156
       308   11 Jun 2027 09:03:15.742   11 Jun 2027 09:03:19.844             4.102          1515.469
       309   11 Jun 2027 09:03:36.468   11 Jun 2027 09:03:41.057             4.589           519.500
       310   11 Jun 2027 09:03:56.064   11 Jun 2027 09:03:57.352             1.288           425.844
       311   11 Jun 2027 09:05:02.115   11 Jun 2027 09:05:04.571             2.456          1228.000
       312   11 Jun 2027 10:33:47.652   11 Jun 2027 10:33:59.196            11.544          4257.094
       313   11 Jun 2027 10:35:31.216   11 Jun 2027 10:35:33.908             2.692           733.187
       314   11 Jun 2027 10:38:17.248   11 Jun 2027 10:38:28.199            10.951          3729.469
       315   11 Jun 2027 10:39:25.951   11 Jun 2027 10:39:29.696             3.745          1642.813
       316   11 Jun 2027 10:40:17.253   11 Jun 2027 10:40:20.103             2.850           984.562
       317   11 Jun 2027 10:40:36.803   11 Jun 2027 10:40:40.909             4.106           517.063
       318   11 Jun 2027 10:40:56.499   11 Jun 2027 10:40:59.339             2.840           454.938
       319   12 Jun 2027 03:00:00.000   12 Jun 2027 03:00:16.522            16.522          8261.000
       320   12 Jun 2027 03:00:59.189   12 Jun 2027 03:01:10.787            11.598          5799.000
       321   12 Jun 2027 03:01:46.598   12 Jun 2027 03:01:49.634             3.036          1518.000
       322   12 Jun 2027 03:02:06.901   12 Jun 2027 03:02:25.094            18.193          9096.500
       323   12 Jun 2027 03:02:51.979   12 Jun 2027 03:02:53.082             1.103           551.500
       324   12 Jun 2027 03:03:00.694   12 Jun 2027 03:03:00.694             0.000             0.000
       325   12 Jun 2027 03:03:03.941   12 Jun 2027 03:03:07.772             3.831          1915.500
       326   12 Jun 2027 04:35:15.939   12 Jun 2027 04:37:32.097           136.158         68079.000
       327   12 Jun 2027 04:38:36.104   12 Jun 2027 04:38:36.104             0.000             0.000
       328   12 Jun 2027 05:58:37.772   12 Jun 2027 06:00:13.481            95.709         47854.500
       329   12 Jun 2027 06:01:05.952   12 Jun 2027 06:01:10.007             4.055          2027.500
       330   12 Jun 2027 07:34:59.610   12 Jun 2027 07:35:49.630            50.020         24809.375
       331   12 Jun 2027 07:36:04.629   12 Jun 2027 07:36:07.465             2.836           351.219
       332   12 Jun 2027 07:36:59.941   12 Jun 2027 07:37:04.434             4.493          1560.969
       333   12 Jun 2027 07:38:05.278   12 Jun 2027 07:38:07.049             1.771           799.125
       334   12 Jun 2027 09:07:17.624   12 Jun 2027 09:07:22.774             5.150          2218.812
       335   12 Jun 2027 09:09:04.508   12 Jun 2027 09:09:12.182             7.674          1132.406
       336   12 Jun 2027 09:10:57.937   12 Jun 2027 09:10:59.524             1.587           529.406
       337   12 Jun 2027 09:11:47.294   12 Jun 2027 09:11:53.516             6.222          1158.062
       338   12 Jun 2027 09:12:25.653   12 Jun 2027 09:12:28.727             3.074          1004.281
       339   12 Jun 2027 09:14:12.152   12 Jun 2027 09:14:17.873             5.721          1400.156
       340   12 Jun 2027 09:15:23.772   12 Jun 2027 09:15:27.326             3.554           756.062
       341   12 Jun 2027 09:16:48.416   12 Jun 2027 09:16:53.372             4.956          2243.844
       342   12 Jun 2027 09:17:00.758   12 Jun 2027 09:17:01.036             0.278            47.531
       343   12 Jun 2027 10:46:08.474   12 Jun 2027 10:46:18.727            10.253          5043.875
       344   12 Jun 2027 10:48:21.902   12 Jun 2027 10:48:28.253             6.351          1525.938
       345   12 Jun 2027 10:49:21.158   12 Jun 2027 10:49:23.347             2.189           597.031
       346   12 Jun 2027 10:50:51.541   12 Jun 2027 10:50:57.961             6.420          1958.688
       347   12 Jun 2027 10:51:05.192   12 Jun 2027 10:51:10.992             5.800           197.844
       348   12 Jun 2027 10:51:23.113   12 Jun 2027 10:51:24.593             1.480           378.781
       349   12 Jun 2027 10:52:12.494   12 Jun 2027 10:52:17.070             4.576          1460.313
       350   12 Jun 2027 10:52:32.072   12 Jun 2027 10:52:35.201             3.129           468.813
       351   12 Jun 2027 10:52:48.123   12 Jun 2027 10:52:50.867             2.744           251.250
       352   13 Jun 2027 03:09:07.169   13 Jun 2027 03:09:42.952            35.783         17891.500
       353   13 Jun 2027 03:10:42.693   13 Jun 2027 03:11:04.499            21.806         10903.000
       354   13 Jun 2027 03:11:39.667   13 Jun 2027 03:11:41.230             1.563           781.500
       355   13 Jun 2027 03:12:25.184   13 Jun 2027 03:12:34.800             9.616          4808.000
       356   13 Jun 2027 03:12:59.904   13 Jun 2027 03:13:40.510            40.606         20303.000
       357   13 Jun 2027 03:14:16.791   13 Jun 2027 03:14:32.991            16.200          8100.000
       358   13 Jun 2027 04:48:08.342   13 Jun 2027 04:51:19.524           191.182         95399.812
       359   13 Jun 2027 06:10:41.174   13 Jun 2027 06:10:57.660            16.486          7880.094
       360   13 Jun 2027 06:11:56.116   13 Jun 2027 06:11:56.116             0.000             0.000
       361   13 Jun 2027 06:12:51.663   13 Jun 2027 06:12:58.887             7.224          3256.562
       362   13 Jun 2027 07:47:07.190   13 Jun 2027 07:47:14.636             7.446          2220.062
       363   13 Jun 2027 07:47:46.557   13 Jun 2027 07:47:50.548             3.991           432.000
       364   13 Jun 2027 07:48:11.667   13 Jun 2027 07:48:14.281             2.614           412.844
       365   13 Jun 2027 07:48:41.141   13 Jun 2027 07:48:43.840             2.699           796.219
       366   13 Jun 2027 07:48:54.204   13 Jun 2027 07:48:55.537             1.333           161.531
       367   13 Jun 2027 07:50:32.443   13 Jun 2027 07:50:38.599             6.156          2625.063
       368   13 Jun 2027 09:22:14.901   13 Jun 2027 09:22:22.495             7.594          2703.281
       369   13 Jun 2027 09:23:19.442   13 Jun 2027 09:23:23.541             4.099           936.219
       370   13 Jun 2027 09:23:48.988   13 Jun 2027 09:23:56.766             7.778           541.750
       371   13 Jun 2027 09:25:25.057   13 Jun 2027 09:25:30.519             5.462          1568.250
       372   13 Jun 2027 09:25:56.752   13 Jun 2027 09:25:59.399             2.647           580.094
       373   13 Jun 2027 09:27:38.157   13 Jun 2027 09:27:51.958            13.801          2737.719
       374   13 Jun 2027 09:28:16.830   13 Jun 2027 09:28:20.783             3.953           737.625
       375   13 Jun 2027 09:28:54.181   13 Jun 2027 09:28:55.453             1.272           415.187
       376   13 Jun 2027 10:58:36.510   13 Jun 2027 10:58:46.041             9.531          3962.406
       377   13 Jun 2027 11:00:35.903   13 Jun 2027 11:00:40.666             4.763           149.281
       378   13 Jun 2027 11:01:23.923   13 Jun 2027 11:01:27.889             3.966          1163.656
       379   13 Jun 2027 11:02:47.702   13 Jun 2027 11:02:53.635             5.933          1704.594
       380   13 Jun 2027 11:03:01.985   13 Jun 2027 11:03:02.964             0.979           120.375
       381   13 Jun 2027 11:03:59.908   13 Jun 2027 11:04:04.970             5.062          1776.656
       382   13 Jun 2027 11:04:10.507   13 Jun 2027 11:04:11.285             0.778           129.750
       383   13 Jun 2027 11:04:23.310   13 Jun 2027 11:04:24.074             0.764           281.375
       384   13 Jun 2027 11:04:34.492   13 Jun 2027 11:04:36.967             2.475           325.563
       385   13 Jun 2027 11:04:40.909   13 Jun 2027 11:04:41.126             0.217            65.844
