uniorb/output/strategy_4/Camera/Camera_KinoSat_110503.txt

KinoSat_110503
-------------------------
    Access    *     Start Time (UTCG)     *     Stop Time (UTCG)  *   Duration (s) *   Data (Mbytes)
         1   01 Jun 2027 04:04:09.944   01 Jun 2027 04:06:14.357           124.413         62206.500
         2   01 Jun 2027 04:07:18.878   01 Jun 2027 04:07:18.878             0.000             0.000
         3   01 Jun 2027 04:07:25.521   01 Jun 2027 04:07:54.083            28.562         14281.000
         4   01 Jun 2027 04:10:33.298   01 Jun 2027 04:10:42.595             9.297          4648.500
         5   01 Jun 2027 04:11:30.003   01 Jun 2027 04:11:37.005             7.002          3501.000
         6   01 Jun 2027 04:11:49.704   01 Jun 2027 04:12:03.810            14.106          7053.000
         7   01 Jun 2027 04:13:07.901   01 Jun 2027 04:13:07.901             0.000             0.000
         8   01 Jun 2027 04:13:31.568   01 Jun 2027 04:13:47.163            15.595          7797.500
         9   01 Jun 2027 05:42:20.050   01 Jun 2027 05:44:42.113           142.063         71031.500
        10   01 Jun 2027 05:45:46.569   01 Jun 2027 05:46:06.713            20.144         10072.000
        11   01 Jun 2027 05:46:31.458   01 Jun 2027 05:46:39.963             8.505          4252.500
        12   01 Jun 2027 05:47:29.728   01 Jun 2027 05:47:38.634             8.906          4453.000
        13   01 Jun 2027 05:48:21.745   01 Jun 2027 05:48:34.774            13.029          6514.500
        14   01 Jun 2027 07:19:14.797   01 Jun 2027 07:21:39.107           144.310         72155.000
        15   01 Jun 2027 07:22:07.356   01 Jun 2027 07:22:13.162             5.806          2903.000
        16   01 Jun 2027 07:22:49.137   01 Jun 2027 07:23:09.211            20.074         10037.000
        17   01 Jun 2027 07:23:14.526   01 Jun 2027 07:23:17.453             2.927          1463.500
        18   01 Jun 2027 07:23:32.117   01 Jun 2027 07:23:40.846             8.729          4364.500
        19   01 Jun 2027 07:25:16.666   01 Jun 2027 07:25:36.507            19.841          9920.500
        20   01 Jun 2027 08:56:21.210   01 Jun 2027 08:59:33.893           192.683         96341.500
        21   01 Jun 2027 08:59:43.464   01 Jun 2027 08:59:53.702            10.238          5119.000
        22   01 Jun 2027 10:31:20.050   01 Jun 2027 10:32:06.857            46.807         23403.500
        23   01 Jun 2027 10:33:08.506   01 Jun 2027 10:36:21.974           193.468         96734.000
        24   02 Jun 2027 04:17:13.873   02 Jun 2027 04:24:36.043           442.170        221085.000
        25   02 Jun 2027 04:25:08.416   02 Jun 2027 04:25:12.063             3.647          1823.500
        26   02 Jun 2027 04:25:15.364   02 Jun 2027 04:25:26.035            10.671          5335.500
        27   02 Jun 2027 04:25:27.485   02 Jun 2027 04:25:27.830             0.345           172.500
        28   02 Jun 2027 04:25:44.554   02 Jun 2027 04:25:46.378             1.824           912.000
        29   02 Jun 2027 05:54:46.186   02 Jun 2027 05:58:01.291           195.105         97552.500
        30   02 Jun 2027 06:00:16.537   02 Jun 2027 06:01:02.847            46.310         23155.000
        31   02 Jun 2027 07:31:41.906   02 Jun 2027 07:36:08.778           266.872        133436.000
        32   02 Jun 2027 07:36:14.024   02 Jun 2027 07:37:29.822            75.798         37899.000
        33   02 Jun 2027 09:08:36.941   02 Jun 2027 09:13:05.292           268.351        134175.500
        34   02 Jun 2027 10:46:05.992   02 Jun 2027 10:48:10.293           124.301         62150.500
        35   03 Jun 2027 04:29:53.433   03 Jun 2027 04:36:40.398           406.965        203482.500
        36   03 Jun 2027 04:36:51.084   03 Jun 2027 04:37:41.168            50.084         25042.000
        37   03 Jun 2027 06:06:51.969   03 Jun 2027 06:13:35.542           403.573        201786.500
        38   03 Jun 2027 07:44:30.027   03 Jun 2027 07:49:00.192           270.165        135082.500
        39   03 Jun 2027 09:20:41.787   03 Jun 2027 09:25:24.277           282.490        141245.000
        40   04 Jun 2027 03:07:56.024   04 Jun 2027 03:11:31.181           215.157        107578.500
        41   04 Jun 2027 04:43:06.123   04 Jun 2027 04:49:42.897           396.774        198387.000
        42   04 Jun 2027 06:19:28.111   04 Jun 2027 06:25:41.863           373.752        186876.000
        43   04 Jun 2027 07:56:58.476   04 Jun 2027 08:01:21.616           263.140        131570.000
        44   04 Jun 2027 09:33:17.383   04 Jun 2027 09:37:38.153           260.770        130385.000
        45   05 Jun 2027 03:19:51.118   05 Jun 2027 03:23:27.701           216.583        108291.500
        46   05 Jun 2027 04:54:48.761   05 Jun 2027 05:01:50.393           421.632        210816.000
        47   05 Jun 2027 06:31:00.991   05 Jun 2027 06:37:27.568           386.577        193288.500
        48   05 Jun 2027 08:09:32.231   05 Jun 2027 08:13:13.032           220.801        110400.500
        49   05 Jun 2027 09:45:00.454   05 Jun 2027 09:49:05.739           245.285        122642.500
        50   05 Jun 2027 09:49:12.057   05 Jun 2027 09:50:08.522            56.465         28232.500
        51   06 Jun 2027 03:30:27.132   06 Jun 2027 03:30:33.213             6.081          3040.500
        52   06 Jun 2027 03:31:36.775   06 Jun 2027 03:36:03.538           266.763        133381.500
        53   06 Jun 2027 05:06:22.604   06 Jun 2027 05:13:55.620           453.016        226508.000
        54   06 Jun 2027 06:43:22.141   06 Jun 2027 06:49:30.102           367.961        183980.500
        55   06 Jun 2027 08:21:41.149   06 Jun 2027 08:25:19.775           218.626        109313.000
        56   06 Jun 2027 09:54:38.222   06 Jun 2027 10:01:07.232           389.010        194505.000
        57   06 Jun 2027 10:01:42.605   06 Jun 2027 10:02:29.703            47.098         23549.000
        58   07 Jun 2027 03:41:19.665   07 Jun 2027 03:42:51.413            91.748         45874.000
        59   07 Jun 2027 03:43:20.195   07 Jun 2027 03:48:16.980           296.785        148392.500
        60   07 Jun 2027 05:18:30.349   07 Jun 2027 05:25:56.317           445.968        222984.000
        61   07 Jun 2027 06:55:27.630   07 Jun 2027 07:01:36.290           368.660        184330.000
        62   07 Jun 2027 08:33:48.905   07 Jun 2027 08:37:22.412           213.507        106753.500
        63   07 Jun 2027 10:06:48.155   07 Jun 2027 10:13:26.572           398.417        199208.500
        64   07 Jun 2027 10:13:58.300   07 Jun 2027 10:14:04.176             5.876          2938.000
        65   07 Jun 2027 10:14:21.480   07 Jun 2027 10:14:27.267             5.787          2893.500
        66   08 Jun 2027 03:52:48.768   08 Jun 2027 04:00:38.263           469.495        234747.500
        67   08 Jun 2027 04:01:30.465   08 Jun 2027 04:01:54.122            23.657         11828.500
        68   08 Jun 2027 05:30:31.550   08 Jun 2027 05:37:58.130           446.580        223290.000
        69   08 Jun 2027 07:07:19.739   08 Jun 2027 07:13:13.763           354.024        177012.000
        70   08 Jun 2027 07:13:58.527   08 Jun 2027 07:14:02.516             3.989          1994.500
        71   08 Jun 2027 08:45:54.897   08 Jun 2027 08:49:31.455           216.558        108279.000
        72   08 Jun 2027 10:19:14.084   08 Jun 2027 10:24:57.614           343.530        171765.000
        73   08 Jun 2027 10:25:26.808   08 Jun 2027 10:25:54.813            28.005         14002.500
        74   09 Jun 2027 04:05:32.248   09 Jun 2027 04:12:51.685           439.437        219718.500
        75   09 Jun 2027 04:13:33.628   09 Jun 2027 04:14:01.776            28.148         14074.000
        76   09 Jun 2027 05:42:34.841   09 Jun 2027 05:49:55.804           440.963        220481.500
        77   09 Jun 2027 07:19:29.613   09 Jun 2027 07:24:32.963           303.350        151675.000
        78   09 Jun 2027 07:24:54.250   09 Jun 2027 07:25:50.944            56.694         28347.000
        79   09 Jun 2027 08:56:35.800   09 Jun 2027 09:01:29.495           293.695        146847.500
        80   09 Jun 2027 10:31:35.264   09 Jun 2027 10:32:21.408            46.144         23072.000
        81   09 Jun 2027 10:33:23.672   09 Jun 2027 10:36:37.752           194.080         97040.000
        82   10 Jun 2027 04:17:28.723   10 Jun 2027 04:26:00.990           512.267        256133.500
        83   10 Jun 2027 05:55:00.736   10 Jun 2027 06:01:45.962           405.226        202613.000
        84   10 Jun 2027 07:33:00.867   10 Jun 2027 07:36:23.018           202.151        101075.500
        85   10 Jun 2027 07:36:28.672   10 Jun 2027 07:37:44.324            75.652         37826.000
        86   10 Jun 2027 09:08:51.835   10 Jun 2027 09:13:19.835           268.000        134000.000
        87   10 Jun 2027 10:46:26.169   10 Jun 2027 10:48:24.735           118.566         59283.000
        88   11 Jun 2027 04:30:08.266   11 Jun 2027 04:36:55.050           406.784        203392.000
        89   11 Jun 2027 04:37:07.715   11 Jun 2027 04:37:55.902            48.187         24093.500
        90   11 Jun 2027 06:07:06.754   11 Jun 2027 06:13:50.267           403.513        201756.500
        91   11 Jun 2027 07:45:19.240   11 Jun 2027 07:49:15.248           236.008        118004.000
        92   11 Jun 2027 09:20:50.719   11 Jun 2027 09:25:38.663           287.944        143972.000
        93   12 Jun 2027 03:08:10.754   12 Jun 2027 03:11:45.662           214.908        107454.000
        94   12 Jun 2027 04:43:20.786   12 Jun 2027 04:49:57.597           396.811        198405.500
        95   12 Jun 2027 06:19:42.810   12 Jun 2027 06:25:56.491           373.681        186840.500
        96   12 Jun 2027 07:57:13.020   12 Jun 2027 08:01:36.331           263.311        131655.500
        97   12 Jun 2027 09:33:32.419   12 Jun 2027 09:37:53.004           260.585        130292.500
        98   13 Jun 2027 03:20:05.600   13 Jun 2027 03:23:45.246           219.646        109823.000
        99   13 Jun 2027 04:55:03.039   13 Jun 2027 05:02:05.049           422.010        211005.000
       100   13 Jun 2027 06:31:15.505   13 Jun 2027 06:37:42.423           386.918        193459.000
       101   13 Jun 2027 08:09:48.675   13 Jun 2027 08:13:27.482           218.807        109403.500
       102   13 Jun 2027 09:45:12.279   13 Jun 2027 09:49:20.259           247.980        123990.000
       103   13 Jun 2027 09:49:38.603   13 Jun 2027 09:50:23.337            44.734         22367.000
