uniorb/output/strategy_4/Camera/Camera_KinoSat_111805.txt

KinoSat_111805
-------------------------
    Access    *     Start Time (UTCG)     *     Stop Time (UTCG)  *   Duration (s) *   Data (Mbytes)
         1   01 Jun 2027 03:04:36.342   01 Jun 2027 03:05:49.161            72.819         36409.500
         2   01 Jun 2027 03:08:17.626   01 Jun 2027 03:08:24.522             6.896          3448.000
         3   01 Jun 2027 03:09:22.474   01 Jun 2027 03:09:35.336            12.862          6431.000
         4   01 Jun 2027 03:10:14.907   01 Jun 2027 03:10:15.053             0.146            73.000
         5   01 Jun 2027 03:10:42.698   01 Jun 2027 03:10:50.603             7.905          3952.500
         6   01 Jun 2027 03:10:55.043   01 Jun 2027 03:11:04.398             9.355          4677.500
         7   01 Jun 2027 04:42:52.642   01 Jun 2027 04:43:00.187             7.545          3772.500
         8   01 Jun 2027 04:43:53.749   01 Jun 2027 04:45:16.659            82.910         41455.000
         9   01 Jun 2027 04:45:38.035   01 Jun 2027 04:45:58.626            20.591         10295.500
        10   01 Jun 2027 04:47:08.617   01 Jun 2027 04:47:09.719             1.102           551.000
        11   01 Jun 2027 04:48:04.355   01 Jun 2027 04:48:04.631             0.276           138.000
        12   01 Jun 2027 04:48:27.453   01 Jun 2027 04:48:32.847             5.394          2697.000
        13   01 Jun 2027 04:50:55.729   01 Jun 2027 04:51:27.631            31.902         15951.000
        14   01 Jun 2027 06:21:02.404   01 Jun 2027 06:21:41.399            38.995         19497.500
        15   01 Jun 2027 06:22:05.053   01 Jun 2027 06:23:02.882            57.829         28914.500
        16   01 Jun 2027 07:45:08.670   01 Jun 2027 07:45:28.795            20.125         10062.500
        17   01 Jun 2027 07:45:43.349   01 Jun 2027 07:45:57.120            13.771          6885.500
        18   01 Jun 2027 07:47:08.315   01 Jun 2027 07:47:31.040            22.725         11362.500
        19   01 Jun 2027 09:20:53.818   01 Jun 2027 09:22:29.747            95.929         47964.500
        20   01 Jun 2027 09:22:55.620   01 Jun 2027 09:23:30.517            34.897         17448.500
        21   01 Jun 2027 10:55:51.280   01 Jun 2027 10:57:45.829           114.549         57274.500
        22   01 Jun 2027 10:58:56.372   01 Jun 2027 10:58:56.372             0.000             0.000
        23   01 Jun 2027 11:02:29.235   01 Jun 2027 11:02:53.088            23.853         11926.500
        24   02 Jun 2027 03:17:13.863   02 Jun 2027 03:19:39.142           145.279         72639.500
        25   02 Jun 2027 03:19:51.703   02 Jun 2027 03:19:57.485             5.782          2891.000
        26   02 Jun 2027 03:20:26.187   02 Jun 2027 03:20:26.187             0.000             0.000
        27   02 Jun 2027 03:21:32.139   02 Jun 2027 03:21:35.773             3.634          1817.000
        28   02 Jun 2027 03:22:17.011   02 Jun 2027 03:22:19.232             2.221          1110.500
        29   02 Jun 2027 03:23:16.097   02 Jun 2027 03:23:44.882            28.785         14392.500
        30   02 Jun 2027 04:55:57.591   02 Jun 2027 04:59:45.132           227.541        113770.500
        31   02 Jun 2027 05:00:22.473   02 Jun 2027 05:00:30.672             8.199          4099.500
        32   02 Jun 2027 05:02:28.704   02 Jun 2027 05:02:33.350             4.646          2323.000
        33   02 Jun 2027 05:03:32.060   02 Jun 2027 05:03:36.647             4.587          2293.500
        34   02 Jun 2027 06:21:54.000   02 Jun 2027 06:22:29.377            35.377         17688.500
        35   02 Jun 2027 06:32:58.927   02 Jun 2027 06:34:39.994           101.067         50533.500
        36   02 Jun 2027 06:35:06.148   02 Jun 2027 06:36:16.287            70.139         35069.500
        37   02 Jun 2027 07:55:56.493   02 Jun 2027 07:56:40.415            43.922         21961.000
        38   02 Jun 2027 07:59:46.488   02 Jun 2027 07:59:46.488             0.000             0.000
        39   02 Jun 2027 09:31:16.025   02 Jun 2027 09:31:41.514            25.489         12744.500
        40   02 Jun 2027 09:32:39.126   02 Jun 2027 09:33:25.364            46.238         23119.000
        41   02 Jun 2027 09:35:28.312   02 Jun 2027 09:35:52.680            24.368         11977.407
        42   02 Jun 2027 09:36:56.802   02 Jun 2027 09:37:00.778             3.976          1176.563
        43   02 Jun 2027 11:07:59.391   02 Jun 2027 11:08:02.736             3.345          1672.500
        44   02 Jun 2027 11:10:17.014   02 Jun 2027 11:10:31.468            14.454          6668.593
        45   02 Jun 2027 11:10:53.573   02 Jun 2027 11:10:53.573             0.000             0.000
        46   02 Jun 2027 11:14:17.996   02 Jun 2027 11:14:34.463            16.467          6605.344
        47   03 Jun 2027 03:29:20.970   03 Jun 2027 03:32:18.959           177.989         88994.500
        48   03 Jun 2027 03:32:32.902   03 Jun 2027 03:33:04.062            31.160         15580.000
        49   03 Jun 2027 03:33:54.363   03 Jun 2027 03:33:59.579             5.216          2608.000
        50   03 Jun 2027 03:34:19.553   03 Jun 2027 03:34:23.871             4.318          2159.000
        51   03 Jun 2027 03:35:17.256   03 Jun 2027 03:35:17.732             0.476           238.000
        52   03 Jun 2027 05:08:27.356   03 Jun 2027 05:09:15.694            48.338         24169.000
        53   03 Jun 2027 05:10:36.960   03 Jun 2027 05:11:21.363            44.403         22201.500
        54   03 Jun 2027 05:13:31.042   03 Jun 2027 05:13:45.882            14.840          7079.375
        55   03 Jun 2027 05:13:58.897   03 Jun 2027 05:14:00.428             1.531           346.406
        56   03 Jun 2027 05:14:28.862   03 Jun 2027 05:14:29.984             1.122           197.687
        57   03 Jun 2027 06:33:18.892   03 Jun 2027 06:33:28.406             9.514          4757.000
        58   03 Jun 2027 06:33:34.507   03 Jun 2027 06:33:40.752             6.245           340.563
        59   03 Jun 2027 06:34:32.368   03 Jun 2027 06:34:36.824             4.456          1128.406
        60   03 Jun 2027 06:45:01.692   03 Jun 2027 06:45:07.154             5.462          1969.781
        61   03 Jun 2027 08:07:14.496   03 Jun 2027 08:07:25.121            10.625          5262.719
        62   03 Jun 2027 08:07:38.049   03 Jun 2027 08:07:40.725             2.676           354.969
        63   03 Jun 2027 08:09:46.638   03 Jun 2027 08:09:55.866             9.228          2961.219
        64   03 Jun 2027 08:11:07.673   03 Jun 2027 08:11:20.602            12.929          2059.719
        65   03 Jun 2027 08:12:09.971   03 Jun 2027 08:12:14.420             4.449          1379.813
        66   03 Jun 2027 09:42:20.611   03 Jun 2027 09:42:28.194             7.583          2851.094
        67   03 Jun 2027 09:43:14.084   03 Jun 2027 09:43:15.915             1.831           514.188
        68   03 Jun 2027 09:44:22.988   03 Jun 2027 09:44:26.102             3.114          1419.375
        69   03 Jun 2027 09:45:59.496   03 Jun 2027 09:46:03.418             3.922          1266.812
        70   03 Jun 2027 09:48:52.663   03 Jun 2027 09:49:04.155            11.492          4723.844
        71   03 Jun 2027 11:20:57.455   03 Jun 2027 11:21:13.381            15.926          5377.094
        72   03 Jun 2027 11:22:43.710   03 Jun 2027 11:22:46.470             2.760          1380.000
        73   03 Jun 2027 11:24:55.529   03 Jun 2027 11:25:01.600             6.071          3035.500
        74   03 Jun 2027 11:25:46.115   03 Jun 2027 11:25:53.226             7.111          2840.812
        75   03 Jun 2027 11:26:13.197   03 Jun 2027 11:26:21.281             8.084           620.719
        76   03 Jun 2027 11:26:37.249   03 Jun 2027 11:26:38.671             1.422           168.219
        77   03 Jun 2027 11:26:59.897   03 Jun 2027 11:27:00.428             0.531            55.375
        78   04 Jun 2027 03:41:40.143   04 Jun 2027 03:43:52.585           132.442         66221.000
        79   04 Jun 2027 03:43:53.085   04 Jun 2027 03:44:13.554            20.469         10234.500
        80   04 Jun 2027 03:45:48.240   04 Jun 2027 03:46:02.381            14.141          7070.500
        81   04 Jun 2027 03:46:35.252   04 Jun 2027 03:46:36.535             1.283           641.500
        82   04 Jun 2027 03:47:37.171   04 Jun 2027 03:47:40.110             2.939          1469.500
        83   04 Jun 2027 05:20:27.971   04 Jun 2027 05:22:32.224           124.253         62126.500
        84   04 Jun 2027 05:23:36.120   04 Jun 2027 05:23:48.663            12.543          6226.593
        85   04 Jun 2027 05:25:24.038   04 Jun 2027 05:25:29.897             5.859          1530.406
        86   04 Jun 2027 05:26:07.174   04 Jun 2027 05:26:08.437             1.263           626.250
        87   04 Jun 2027 05:26:46.339   04 Jun 2027 05:26:49.613             3.274          1165.594
        88   04 Jun 2027 05:27:24.282   04 Jun 2027 05:27:25.837             1.555           454.156
        89   04 Jun 2027 06:44:47.664   04 Jun 2027 06:45:02.736            15.072          4930.906
        90   04 Jun 2027 06:45:28.603   04 Jun 2027 06:45:28.603             0.000             0.000
        91   04 Jun 2027 06:45:57.955   04 Jun 2027 06:46:01.561             3.606          1725.594
        92   04 Jun 2027 06:46:41.961   04 Jun 2027 06:46:41.961             0.000             0.000
        93   04 Jun 2027 06:57:03.230   04 Jun 2027 06:57:08.508             5.278          2468.844
        94   04 Jun 2027 08:19:00.134   04 Jun 2027 08:19:16.247            16.113          5466.313
        95   04 Jun 2027 08:19:54.681   04 Jun 2027 08:19:57.379             2.698          1035.656
        96   04 Jun 2027 08:21:04.419   04 Jun 2027 08:21:09.255             4.836          1510.000
        97   04 Jun 2027 08:22:07.940   04 Jun 2027 08:22:10.212             2.272          1019.594
        98   04 Jun 2027 08:23:48.945   04 Jun 2027 08:23:55.427             6.482          2137.031
        99   04 Jun 2027 08:24:06.401   04 Jun 2027 08:24:09.462             3.061           159.437
       100   04 Jun 2027 09:53:49.654   04 Jun 2027 09:53:57.089             7.435          2522.250
       101   04 Jun 2027 09:55:31.937   04 Jun 2027 09:55:37.554             5.617          1681.500
       102   04 Jun 2027 09:56:26.130   04 Jun 2027 09:56:29.782             3.652          1518.000
       103   04 Jun 2027 09:57:37.636   04 Jun 2027 09:57:42.232             4.596           671.031
       104   04 Jun 2027 09:59:28.438   04 Jun 2027 09:59:33.080             4.642           903.250
       105   04 Jun 2027 10:00:45.948   04 Jun 2027 10:00:51.765             5.817           465.844
       106   04 Jun 2027 10:01:36.356   04 Jun 2027 10:01:41.961             5.605          1393.469
       107   04 Jun 2027 11:37:39.932   04 Jun 2027 11:38:13.476            33.544         15352.563
       108   04 Jun 2027 11:38:27.584   04 Jun 2027 11:38:29.787             2.203           406.031
       109   04 Jun 2027 11:38:58.931   04 Jun 2027 11:39:02.948             4.017           869.156
       110   05 Jun 2027 03:54:24.665   05 Jun 2027 03:56:04.453            99.788         49894.000
       111   05 Jun 2027 03:56:26.296   05 Jun 2027 03:58:17.815           111.519         55759.500
       112   05 Jun 2027 05:32:47.787   05 Jun 2027 05:34:25.352            97.565         48782.500
       113   05 Jun 2027 05:34:53.417   05 Jun 2027 05:35:14.732            21.315          9106.032
       114   05 Jun 2027 05:36:42.906   05 Jun 2027 05:36:46.221             3.315          1293.813
       115   05 Jun 2027 05:37:50.183   05 Jun 2027 05:37:52.877             2.694           993.656
       116   05 Jun 2027 06:56:49.738   05 Jun 2027 06:56:57.586             7.848          3827.344
       117   05 Jun 2027 06:57:38.873   05 Jun 2027 06:57:42.587             3.714           818.844
       118   05 Jun 2027 06:57:59.533   05 Jun 2027 06:58:04.410             4.877           289.500
       119   05 Jun 2027 06:58:32.770   05 Jun 2027 06:58:34.670             1.900            79.625
       120   05 Jun 2027 08:32:47.578   05 Jun 2027 08:32:59.495            11.917          5958.500
       121   05 Jun 2027 08:33:06.291   05 Jun 2027 08:33:08.257             1.966           552.938
       122   05 Jun 2027 08:33:22.537   05 Jun 2027 08:33:26.463             3.926            77.781
       123   05 Jun 2027 08:34:16.822   05 Jun 2027 08:34:22.008             5.186          1247.594
       124   05 Jun 2027 08:35:49.735   05 Jun 2027 08:35:55.339             5.604          2682.031
       125   05 Jun 2027 10:06:36.633   05 Jun 2027 10:06:42.784             6.151          2366.187
       126   05 Jun 2027 10:08:04.962   05 Jun 2027 10:08:11.093             6.131           993.406
       127   05 Jun 2027 10:08:39.458   05 Jun 2027 10:08:39.458             0.000             0.000
       128   05 Jun 2027 10:09:03.016   05 Jun 2027 10:09:08.756             5.740          1034.094
       129   05 Jun 2027 10:11:24.911   05 Jun 2027 10:11:33.273             8.362          4149.250
       130   05 Jun 2027 10:12:35.922   05 Jun 2027 10:12:42.153             6.231          1415.625
       131   05 Jun 2027 10:13:47.292   05 Jun 2027 10:13:51.588             4.296          1491.750
       132   05 Jun 2027 11:43:42.495   05 Jun 2027 11:43:59.194            16.699          5886.125
       133   05 Jun 2027 11:48:44.496   05 Jun 2027 11:49:01.105            16.609          7891.313
       134   05 Jun 2027 11:49:48.188   05 Jun 2027 11:49:51.846             3.658          1471.344
       135   05 Jun 2027 11:50:16.186   05 Jun 2027 11:50:19.739             3.553           587.781
       136   05 Jun 2027 11:50:21.917   05 Jun 2027 11:50:22.776             0.859            68.062
       137   05 Jun 2027 11:50:38.650   05 Jun 2027 11:50:42.138             3.488           129.688
       138   06 Jun 2027 04:07:02.369   06 Jun 2027 04:07:22.054            19.685          9842.500
       139   06 Jun 2027 04:07:50.858   06 Jun 2027 04:08:37.955            47.097         23548.500
       140   06 Jun 2027 04:08:40.033   06 Jun 2027 04:09:05.217            25.184         12592.000
       141   06 Jun 2027 04:10:54.212   06 Jun 2027 04:12:01.196            66.984         33492.000
       142   06 Jun 2027 05:45:21.696   06 Jun 2027 05:45:52.902            31.206         15603.000
       143   06 Jun 2027 05:48:05.846   06 Jun 2027 05:50:00.630           114.784         57392.000
       144   06 Jun 2027 07:08:44.111   06 Jun 2027 07:09:00.131            16.020          7623.625
       145   06 Jun 2027 07:10:00.961   06 Jun 2027 07:10:00.961             0.000             0.000
       146   06 Jun 2027 07:10:14.893   06 Jun 2027 07:10:18.380             3.487          1743.500
       147   06 Jun 2027 07:11:08.088   06 Jun 2027 07:11:09.384             1.296           648.000
       148   06 Jun 2027 08:45:07.009   06 Jun 2027 08:45:28.074            21.065         10344.438
       149   06 Jun 2027 08:45:43.934   06 Jun 2027 08:45:44.867             0.933           182.156
       150   06 Jun 2027 08:47:50.139   06 Jun 2027 08:47:57.553             7.414          3528.875
       151   06 Jun 2027 10:18:35.116   06 Jun 2027 10:18:40.134             5.018          2327.781
       152   06 Jun 2027 10:20:36.793   06 Jun 2027 10:20:42.320             5.527          1963.563
       153   06 Jun 2027 10:21:31.486   06 Jun 2027 10:21:33.903             2.417          1112.812
       154   06 Jun 2027 10:24:25.994   06 Jun 2027 10:24:30.792             4.798          1934.031
       155   06 Jun 2027 10:25:55.613   06 Jun 2027 10:25:58.943             3.330           547.344
       156   06 Jun 2027 10:27:05.100   06 Jun 2027 10:27:06.656             1.556           778.000
       157   06 Jun 2027 11:56:09.123   06 Jun 2027 11:56:22.200            13.077          6369.187
       158   06 Jun 2027 11:58:23.560   06 Jun 2027 11:58:24.804             1.244           274.500
       159   06 Jun 2027 11:59:14.856   06 Jun 2027 11:59:22.336             7.480           309.750
       160   07 Jun 2027 04:18:55.707   07 Jun 2027 04:19:00.597             4.890          2445.000
       161   07 Jun 2027 04:19:25.416   07 Jun 2027 04:21:01.976            96.560         48280.000
       162   07 Jun 2027 04:22:04.862   07 Jun 2027 04:23:08.349            63.487         31743.500
       163   07 Jun 2027 04:23:22.806   07 Jun 2027 04:23:26.572             3.766          1883.000
       164   07 Jun 2027 04:23:49.171   07 Jun 2027 04:24:02.911            13.740          6870.000
       165   07 Jun 2027 04:24:21.883   07 Jun 2027 04:24:35.920            14.037          7018.500
       166   07 Jun 2027 05:57:36.755   07 Jun 2027 05:59:55.258           138.503         68912.500
       167   07 Jun 2027 06:01:05.652   07 Jun 2027 06:01:12.001             6.349          1994.875
       168   07 Jun 2027 07:20:33.187   07 Jun 2027 07:20:51.865            18.678          7852.281
       169   07 Jun 2027 07:22:02.180   07 Jun 2027 07:22:06.477             4.297          1992.125
       170   07 Jun 2027 07:22:35.146   07 Jun 2027 07:22:37.025             1.879           511.906
       171   07 Jun 2027 08:57:08.715   07 Jun 2027 08:57:14.111             5.396          2392.313
       172   07 Jun 2027 08:57:53.689   07 Jun 2027 08:57:53.689             0.000             0.000
       173   07 Jun 2027 08:59:50.066   07 Jun 2027 09:00:02.093            12.027          4123.500
       174   07 Jun 2027 10:32:58.990   07 Jun 2027 10:33:13.751            14.761          6311.469
       175   07 Jun 2027 10:33:15.600   07 Jun 2027 10:33:16.438             0.838            57.781
       176   07 Jun 2027 10:36:10.135   07 Jun 2027 10:36:16.133             5.998          2313.125
       177   07 Jun 2027 10:37:15.757   07 Jun 2027 10:37:17.714             1.957            95.375
       178   07 Jun 2027 10:38:46.034   07 Jun 2027 10:38:50.438             4.404          2076.219
       179   07 Jun 2027 10:39:00.559   07 Jun 2027 10:39:01.197             0.638           316.281
       180   08 Jun 2027 03:00:00.000   08 Jun 2027 03:00:09.757             9.757          4878.500
       181   08 Jun 2027 04:31:04.545   08 Jun 2027 04:32:06.706            62.161         31080.500
       182   08 Jun 2027 04:32:13.264   08 Jun 2027 04:33:43.092            89.828         44914.000
       183   08 Jun 2027 04:35:32.888   08 Jun 2027 04:35:55.753            22.865         11432.500
       184   08 Jun 2027 06:09:22.985   08 Jun 2027 06:09:54.699            31.714         15857.000
       185   08 Jun 2027 06:10:12.584   08 Jun 2027 06:11:48.797            96.213         47891.188
       186   08 Jun 2027 07:32:45.752   08 Jun 2027 07:32:58.457            12.705          5226.969
       187   08 Jun 2027 07:33:38.059   08 Jun 2027 07:33:40.566             2.507           774.594
       188   08 Jun 2027 07:34:05.984   08 Jun 2027 07:34:09.001             3.017           701.219
       189   08 Jun 2027 07:35:24.113   08 Jun 2027 07:35:28.209             4.096          2012.719
       190   08 Jun 2027 09:09:17.666   08 Jun 2027 09:09:30.860            13.194          3585.844
       191   08 Jun 2027 09:10:32.395   08 Jun 2027 09:10:41.273             8.878          1859.563
       192   08 Jun 2027 09:11:01.132   08 Jun 2027 09:11:01.132             0.000             0.000
       193   08 Jun 2027 09:11:38.369   08 Jun 2027 09:11:44.133             5.764          1511.281
       194   08 Jun 2027 09:12:16.616   08 Jun 2027 09:12:19.955             3.339          1015.094
       195   08 Jun 2027 10:44:27.306   08 Jun 2027 10:44:35.031             7.725          2637.344
       196   08 Jun 2027 10:47:19.862   08 Jun 2027 10:47:29.630             9.768          4722.656
       197   08 Jun 2027 10:48:04.213   08 Jun 2027 10:48:07.659             3.446           569.969
       198   08 Jun 2027 10:48:54.034   08 Jun 2027 10:48:58.475             4.441          1325.781
       199   08 Jun 2027 10:49:40.498   08 Jun 2027 10:49:53.382            12.884           871.437
       200   08 Jun 2027 10:50:27.769   08 Jun 2027 10:50:32.201             4.432           777.750
       201   08 Jun 2027 10:50:54.316   08 Jun 2027 10:50:56.852             2.536           414.281
       202   09 Jun 2027 03:04:54.067   09 Jun 2027 03:05:08.343            14.276          7138.000
       203   09 Jun 2027 03:05:27.805   09 Jun 2027 03:06:02.755            34.950         17475.000
       204   09 Jun 2027 03:06:31.823   09 Jun 2027 03:07:00.566            28.743         14371.500
       205   09 Jun 2027 03:10:32.891   09 Jun 2027 03:10:35.289             2.398          1199.000
       206   09 Jun 2027 03:11:32.572   09 Jun 2027 03:11:49.101            16.529          8264.500
       207   09 Jun 2027 04:44:11.266   09 Jun 2027 04:45:41.576            90.310         45155.000
       208   09 Jun 2027 04:46:45.557   09 Jun 2027 04:48:42.246           116.689         57969.687
       209   09 Jun 2027 06:21:19.849   09 Jun 2027 06:21:41.663            21.814         10621.875
       210   09 Jun 2027 06:22:48.205   09 Jun 2027 06:22:51.061             2.856          1052.313
       211   09 Jun 2027 07:45:21.939   09 Jun 2027 07:45:37.156            15.217          7019.281
       212   09 Jun 2027 07:46:13.988   09 Jun 2027 07:46:23.886             9.898           507.969
       213   09 Jun 2027 07:47:49.315   09 Jun 2027 07:47:53.713             4.398           858.625
       214   09 Jun 2027 09:21:10.719   09 Jun 2027 09:21:22.010            11.291          3115.969
       215   09 Jun 2027 09:22:49.958   09 Jun 2027 09:22:55.950             5.992          2637.625
       216   09 Jun 2027 09:23:22.427   09 Jun 2027 09:23:23.822             1.395           382.125
       217   09 Jun 2027 09:24:25.722   09 Jun 2027 09:24:28.814             3.092          1426.281
       218   09 Jun 2027 10:56:07.343   09 Jun 2027 10:56:20.585            13.242          5137.156
       219   09 Jun 2027 10:58:06.094   09 Jun 2027 10:58:11.915             5.821          2856.813
       220   09 Jun 2027 11:02:45.842   09 Jun 2027 11:03:04.013            18.171          7425.562
       221   10 Jun 2027 03:17:32.964   10 Jun 2027 03:20:28.239           175.275         87637.500
       222   10 Jun 2027 03:22:33.117   10 Jun 2027 03:22:33.710             0.593           296.500
       223   10 Jun 2027 03:23:31.101   10 Jun 2027 03:23:38.521             7.420          3710.000
       224   10 Jun 2027 04:56:15.095   10 Jun 2027 04:58:14.866           119.771         59885.500
       225   10 Jun 2027 04:58:51.743   10 Jun 2027 04:58:58.566             6.823          3158.688
       226   10 Jun 2027 04:59:23.349   10 Jun 2027 04:59:25.582             2.233           591.906
       227   10 Jun 2027 04:59:56.966   10 Jun 2027 04:59:58.946             1.980           481.031
       228   10 Jun 2027 05:00:25.666   10 Jun 2027 05:00:27.698             2.032           780.469
       229   10 Jun 2027 05:00:59.955   10 Jun 2027 05:01:02.850             2.895           723.094
       230   10 Jun 2027 05:02:17.518   10 Jun 2027 05:02:20.035             2.517          1054.344
       231   10 Jun 2027 05:02:43.769   10 Jun 2027 05:02:48.107             4.338           644.250
       232   10 Jun 2027 05:03:48.234   10 Jun 2027 05:03:52.301             4.067          1846.969
       233   10 Jun 2027 06:22:07.770   10 Jun 2027 06:22:16.102             8.332          3626.531
       234   10 Jun 2027 06:22:43.223   10 Jun 2027 06:22:44.803             1.580            29.281
       235   10 Jun 2027 06:33:16.006   10 Jun 2027 06:33:20.834             4.828          1810.594
       236   10 Jun 2027 06:34:18.957   10 Jun 2027 06:34:23.391             4.434          1571.344
       237   10 Jun 2027 07:56:00.681   10 Jun 2027 07:56:09.272             8.591          3860.281
       238   10 Jun 2027 07:56:58.970   10 Jun 2027 07:57:07.548             8.578          1553.062
       239   10 Jun 2027 07:57:23.173   10 Jun 2027 07:57:28.422             5.249           430.562
       240   10 Jun 2027 07:58:15.221   10 Jun 2027 07:58:18.525             3.304           833.156
       241   10 Jun 2027 08:00:04.296   10 Jun 2027 08:00:07.556             3.260          1511.938
       242   10 Jun 2027 09:31:29.801   10 Jun 2027 09:31:36.399             6.598          2432.750
       243   10 Jun 2027 09:32:55.011   10 Jun 2027 09:33:00.253             5.242          1247.156
       244   10 Jun 2027 09:35:20.316   10 Jun 2027 09:35:28.607             8.291          3909.688
       245   10 Jun 2027 09:35:47.443   10 Jun 2027 09:35:47.907             0.464           188.406
       246   10 Jun 2027 09:36:37.684   10 Jun 2027 09:36:40.382             2.698          1331.187
       247   10 Jun 2027 09:37:23.349   10 Jun 2027 09:37:23.349             0.000             0.000
       248   10 Jun 2027 11:08:14.714   10 Jun 2027 11:08:19.015             4.301          2150.500
       249   10 Jun 2027 11:10:37.692   10 Jun 2027 11:10:50.263            12.571          5874.625
       250   10 Jun 2027 11:11:10.691   10 Jun 2027 11:11:10.691             0.000             0.000
       251   10 Jun 2027 11:11:51.728   10 Jun 2027 11:12:09.607            17.879          1580.063
       252   10 Jun 2027 11:12:45.587   10 Jun 2027 11:12:46.859             1.272           606.625
       253   10 Jun 2027 11:12:49.118   10 Jun 2027 11:12:50.085             0.967            32.687
       254   10 Jun 2027 11:13:41.403   10 Jun 2027 11:13:44.723             3.320          1603.688
       255   10 Jun 2027 11:13:52.295   10 Jun 2027 11:13:52.851             0.556           199.562
       256   10 Jun 2027 11:14:29.296   10 Jun 2027 11:14:34.309             5.013           696.031
       257   10 Jun 2027 11:15:13.253   10 Jun 2027 11:15:17.204             3.951          1215.031
       258   11 Jun 2027 03:29:39.084   11 Jun 2027 03:31:22.356           103.272         51636.000
       259   11 Jun 2027 03:31:23.808   11 Jun 2027 03:32:50.349            86.541         43270.500
       260   11 Jun 2027 05:08:44.538   11 Jun 2027 05:10:36.534           111.996         55594.656
       261   11 Jun 2027 05:10:58.564   11 Jun 2027 05:10:59.723             1.159           323.938
       262   11 Jun 2027 05:13:49.241   11 Jun 2027 05:14:01.637            12.396          5126.438
       263   11 Jun 2027 05:14:14.552   11 Jun 2027 05:14:26.647            12.095           403.594
       264   11 Jun 2027 05:14:48.230   11 Jun 2027 05:14:52.034             3.804           314.188
       265   11 Jun 2027 06:33:36.730   11 Jun 2027 06:33:45.069             8.339          4025.562
       266   11 Jun 2027 06:33:50.071   11 Jun 2027 06:33:54.956             4.885           132.219
       267   11 Jun 2027 06:34:16.283   11 Jun 2027 06:34:16.283             0.000             0.000
       268   11 Jun 2027 06:34:49.827   11 Jun 2027 06:34:53.029             3.202          1133.750
       269   11 Jun 2027 06:45:18.816   11 Jun 2027 06:45:23.081             4.265          2014.125
       270   11 Jun 2027 08:07:32.461   11 Jun 2027 08:07:42.963            10.502          5168.125
       271   11 Jun 2027 08:07:56.819   11 Jun 2027 08:07:58.377             1.558           433.000
       272   11 Jun 2027 08:08:05.848   11 Jun 2027 08:08:06.665             0.817           233.469
       273   11 Jun 2027 08:09:33.294   11 Jun 2027 08:09:38.194             4.900          1841.813
       274   11 Jun 2027 08:10:18.971   11 Jun 2027 08:10:23.079             4.108           882.625
       275   11 Jun 2027 08:12:05.629   11 Jun 2027 08:12:05.629             0.000             0.000
       276   11 Jun 2027 09:42:36.469   11 Jun 2027 09:42:43.659             7.190          3512.719
       277   11 Jun 2027 09:43:32.889   11 Jun 2027 09:43:37.605             4.716           509.281
       278   11 Jun 2027 09:44:39.864   11 Jun 2027 09:44:43.949             4.085          1432.469
       279   11 Jun 2027 09:47:42.322   11 Jun 2027 09:47:51.600             9.278          2736.344
       280   11 Jun 2027 09:49:07.272   11 Jun 2027 09:49:19.997            12.725          2275.437
       281   11 Jun 2027 11:19:58.674   11 Jun 2027 11:20:04.673             5.999          2606.562
       282   11 Jun 2027 11:22:44.875   11 Jun 2027 11:22:44.875             0.000             0.000
       283   11 Jun 2027 11:23:14.366   11 Jun 2027 11:23:26.582            12.216          4093.875
       284   11 Jun 2027 11:25:13.543   11 Jun 2027 11:25:17.288             3.745          1769.750
       285   11 Jun 2027 11:26:03.475   11 Jun 2027 11:26:09.100             5.625          1404.813
       286   11 Jun 2027 11:26:30.463   11 Jun 2027 11:26:36.049             5.586           667.594
       287   11 Jun 2027 11:26:54.197   11 Jun 2027 11:26:56.408             2.211           240.281
       288   11 Jun 2027 11:27:17.675   11 Jun 2027 11:27:18.211             0.536           113.531
       289   12 Jun 2027 03:41:58.752   12 Jun 2027 03:43:07.302            68.550         34275.000
       290   12 Jun 2027 03:43:10.046   12 Jun 2027 03:44:29.378            79.332         39666.000
       291   12 Jun 2027 03:46:02.570   12 Jun 2027 03:46:13.070            10.500          5250.000
       292   12 Jun 2027 03:46:42.671   12 Jun 2027 03:46:52.407             9.736          4868.000
       293   12 Jun 2027 03:47:51.226   12 Jun 2027 03:47:58.730             7.504          3752.000
       294   12 Jun 2027 05:20:46.282   12 Jun 2027 05:22:46.647           120.365         60182.500
       295   12 Jun 2027 05:23:50.158   12 Jun 2027 05:24:00.021             9.863          4814.312
       296   12 Jun 2027 05:25:38.609   12 Jun 2027 05:25:42.489             3.880          1252.000
       297   12 Jun 2027 05:26:22.856   12 Jun 2027 05:26:24.541             1.685           583.156
       298   12 Jun 2027 05:27:05.378   12 Jun 2027 05:27:15.543            10.165          1276.156
       299   12 Jun 2027 05:27:40.089   12 Jun 2027 05:27:44.303             4.214           495.156
       300   12 Jun 2027 06:45:07.007   12 Jun 2027 06:45:14.829             7.822          3911.000
       301   12 Jun 2027 06:45:20.880   12 Jun 2027 06:45:20.880             0.000             0.000
       302   12 Jun 2027 06:45:32.504   12 Jun 2027 06:45:41.618             9.114          1682.531
       303   12 Jun 2027 06:46:15.234   12 Jun 2027 06:46:17.986             2.752           914.844
       304   12 Jun 2027 06:46:30.619   12 Jun 2027 06:46:36.423             5.804           394.781
       305   12 Jun 2027 06:47:14.673   12 Jun 2027 06:47:16.071             1.398           483.781
       306   12 Jun 2027 06:57:20.993   12 Jun 2027 06:57:26.170             5.177          1920.656
       307   12 Jun 2027 08:19:16.765   12 Jun 2027 08:19:31.398            14.633          6637.781
       308   12 Jun 2027 08:21:19.674   12 Jun 2027 08:21:23.393             3.719          1705.531
       309   12 Jun 2027 08:22:56.048   12 Jun 2027 08:23:03.835             7.787          2895.469
       310   12 Jun 2027 08:23:46.688   12 Jun 2027 08:23:53.674             6.986           756.250
       311   12 Jun 2027 09:54:04.723   12 Jun 2027 09:54:11.688             6.965          2667.906
       312   12 Jun 2027 09:55:49.976   12 Jun 2027 09:55:53.489             3.513          1750.594
       313   12 Jun 2027 09:56:44.875   12 Jun 2027 09:56:49.709             4.834          1426.000
       314   12 Jun 2027 09:57:52.424   12 Jun 2027 09:57:58.023             5.599           605.406
       315   12 Jun 2027 10:00:50.387   12 Jun 2027 10:00:54.739             4.352          2114.406
       316   12 Jun 2027 10:01:10.818   12 Jun 2027 10:01:12.451             1.633           266.406
       317   12 Jun 2027 10:02:25.362   12 Jun 2027 10:02:28.133             2.771          1306.781
       318   12 Jun 2027 10:02:45.891   12 Jun 2027 10:02:50.039             4.148            68.469
       319   12 Jun 2027 11:33:58.801   12 Jun 2027 11:34:17.507            18.706          8037.719
       320   12 Jun 2027 11:34:54.968   12 Jun 2027 11:34:56.749             1.781           695.812
       321   12 Jun 2027 11:36:10.766   12 Jun 2027 11:36:14.605             3.839          1462.125
       322   12 Jun 2027 11:36:26.846   12 Jun 2027 11:36:27.359             0.513           184.937
       323   12 Jun 2027 11:36:46.137   12 Jun 2027 11:36:54.171             8.034           176.687
       324   12 Jun 2027 11:38:11.147   12 Jun 2027 11:38:16.853             5.706          2108.313
       325   12 Jun 2027 11:38:18.474   12 Jun 2027 11:38:19.380             0.906            50.656
       326   12 Jun 2027 11:38:42.193   12 Jun 2027 11:38:43.342             1.149           322.563
       327   12 Jun 2027 11:38:56.017   12 Jun 2027 11:38:58.713             2.696           396.094
       328   13 Jun 2027 03:54:42.730   13 Jun 2027 03:56:05.058            82.328         41164.000
       329   13 Jun 2027 03:57:39.497   13 Jun 2027 03:58:33.490            53.993         26996.500
       330   13 Jun 2027 03:59:18.294   13 Jun 2027 03:59:36.929            18.635          9317.500
       331   13 Jun 2027 05:33:08.863   13 Jun 2027 05:34:40.340            91.477         45738.500
       332   13 Jun 2027 05:35:07.521   13 Jun 2027 05:36:09.995            62.474         31237.000
       333   13 Jun 2027 05:36:57.235   13 Jun 2027 05:37:01.128             3.893          1847.093
       334   13 Jun 2027 06:57:06.370   13 Jun 2027 06:57:17.503            11.133          4822.812
       335   13 Jun 2027 06:57:56.032   13 Jun 2027 06:58:02.715             6.683           871.688
       336   13 Jun 2027 06:59:11.599   13 Jun 2027 06:59:12.475             0.876           438.000
       337   13 Jun 2027 08:33:03.121   13 Jun 2027 08:33:16.800            13.679          6434.906
       338   13 Jun 2027 08:33:23.766   13 Jun 2027 08:33:24.334             0.568           217.688
       339   13 Jun 2027 08:34:34.402   13 Jun 2027 08:34:37.544             3.142          1257.469
       340   13 Jun 2027 08:36:07.457   13 Jun 2027 08:36:18.356            10.899          2763.906
       341   13 Jun 2027 10:06:53.700   13 Jun 2027 10:07:02.385             8.685          2348.687
       342   13 Jun 2027 10:08:24.363   13 Jun 2027 10:08:26.680             2.317          1037.344
       343   13 Jun 2027 10:09:28.912   13 Jun 2027 10:09:38.094             9.182          1220.062
       344   13 Jun 2027 10:12:53.642   13 Jun 2027 10:12:58.331             4.689          2221.844
       345   13 Jun 2027 10:14:03.454   13 Jun 2027 10:14:06.681             3.227          1457.406
       346   13 Jun 2027 10:14:45.099   13 Jun 2027 10:14:50.443             5.344          1007.000
       347   13 Jun 2027 10:15:05.023   13 Jun 2027 10:15:09.913             4.890           389.500
       348   13 Jun 2027 11:44:00.843   13 Jun 2027 11:44:13.949            13.106          3821.656
       349   13 Jun 2027 11:46:24.108   13 Jun 2027 11:46:24.108             0.000             0.000
       350   13 Jun 2027 11:46:37.365   13 Jun 2027 11:46:39.828             2.463          1231.500
       351   13 Jun 2027 11:48:47.915   13 Jun 2027 11:49:00.401            12.486          5913.156
       352   13 Jun 2027 11:49:16.687   13 Jun 2027 11:49:17.878             1.191           508.937
       353   13 Jun 2027 11:50:03.433   13 Jun 2027 11:50:09.317             5.884          1423.594
       354   13 Jun 2027 11:50:33.477   13 Jun 2027 11:50:35.542             2.065           635.781
       355   13 Jun 2027 11:50:59.281   13 Jun 2027 11:51:08.047             8.766           741.844
