uniorb/output/strategy_4/Camera/Camera_KinoSat_110107.txt

KinoSat_110107
-------------------------
    Access    *     Start Time (UTCG)     *     Stop Time (UTCG)  *   Duration (s) *   Data (Mbytes)
         1   01 Jun 2027 03:47:48.833   01 Jun 2027 03:49:58.094           129.261         64630.500
         2   01 Jun 2027 03:50:30.260   01 Jun 2027 03:50:57.056            26.796         13398.000
         3   01 Jun 2027 03:51:21.780   01 Jun 2027 03:51:21.780             0.000             0.000
         4   01 Jun 2027 03:51:59.529   01 Jun 2027 03:52:19.985            20.456         10228.000
         5   01 Jun 2027 05:25:20.519   01 Jun 2027 05:28:20.883           180.364         90182.000
         6   01 Jun 2027 05:28:37.598   01 Jun 2027 05:29:15.250            37.652         18826.000
         7   01 Jun 2027 07:01:21.322   01 Jun 2027 07:03:34.756           133.434         66717.000
         8   01 Jun 2027 07:04:11.887   01 Jun 2027 07:04:19.346             7.459          3729.500
         9   01 Jun 2027 07:04:43.844   01 Jun 2027 07:04:54.269            10.425          5212.500
        10   01 Jun 2027 07:05:07.933   01 Jun 2027 07:05:18.531            10.598          5299.000
        11   01 Jun 2027 07:06:13.428   01 Jun 2027 07:06:17.855             4.427          2213.500
        12   02 Jun 2027 03:59:32.258   02 Jun 2027 04:05:55.382           383.124        191562.000
        13   02 Jun 2027 05:37:49.475   02 Jun 2027 05:41:33.065           223.590        111795.000
        14   02 Jun 2027 07:13:10.591   02 Jun 2027 07:17:19.504           248.913        124456.500
        15   02 Jun 2027 07:17:44.070   02 Jun 2027 07:18:38.420            54.350         27175.000
        16   03 Jun 2027 04:11:52.716   03 Jun 2027 04:17:42.224           349.508        174754.000
        17   03 Jun 2027 04:17:43.543   03 Jun 2027 04:18:09.076            25.533         12766.500
        18   03 Jun 2027 05:49:47.301   03 Jun 2027 05:53:45.961           238.660        119330.000
        19   03 Jun 2027 07:22:53.462   03 Jun 2027 07:29:17.413           383.951        191975.500
        20   03 Jun 2027 07:30:03.506   03 Jun 2027 07:30:53.484            49.978         24989.000
        21   04 Jun 2027 04:23:47.597   04 Jun 2027 04:28:59.351           311.754        155877.000
        22   04 Jun 2027 04:29:00.338   04 Jun 2027 04:29:58.722            58.384         29192.000
        23   04 Jun 2027 04:30:02.723   04 Jun 2027 04:30:21.310            18.587          9293.500
        24   04 Jun 2027 06:01:47.343   04 Jun 2027 06:05:56.694           249.351        124675.500
        25   04 Jun 2027 07:35:23.667   04 Jun 2027 07:42:48.017           444.350        222175.000
        26   05 Jun 2027 03:00:00.000   05 Jun 2027 03:06:22.707           382.707        191353.500
        27   05 Jun 2027 04:35:44.341   05 Jun 2027 04:41:23.474           339.133        169566.500
        28   05 Jun 2027 04:41:42.115   05 Jun 2027 04:42:22.935            40.820         20410.000
        29   05 Jun 2027 06:13:34.561   05 Jun 2027 06:17:55.640           261.079        130539.500
        30   05 Jun 2027 07:50:32.736   05 Jun 2027 07:53:50.623           197.887         98943.500
        31   06 Jun 2027 03:11:08.722   06 Jun 2027 03:18:21.195           432.473        216236.500
        32   06 Jun 2027 04:48:20.899   06 Jun 2027 04:52:49.272           268.373        134186.500
        33   06 Jun 2027 04:52:58.935   06 Jun 2027 04:54:10.571            71.636         35818.000
        34   06 Jun 2027 06:25:08.527   06 Jun 2027 06:29:52.829           284.302        142151.000
        35   06 Jun 2027 08:00:22.211   06 Jun 2027 08:00:28.821             6.610          3305.000
        36   06 Jun 2027 08:02:00.836   06 Jun 2027 08:04:54.072           173.236         86618.000
        37   07 Jun 2027 03:23:29.494   07 Jun 2027 03:30:12.119           402.625        201312.500
        38   07 Jun 2027 05:00:27.421   07 Jun 2027 05:05:25.318           297.897        148948.500
        39   07 Jun 2027 06:37:32.958   07 Jun 2027 06:41:52.538           259.580        129790.000
        40   07 Jun 2027 08:15:34.971   07 Jun 2027 08:16:24.591            49.620         24810.000
        41   08 Jun 2027 03:35:56.878   08 Jun 2027 03:42:18.242           381.364        190682.000
        42   08 Jun 2027 05:13:28.954   08 Jun 2027 05:17:53.419           264.465        132232.500
        43   08 Jun 2027 06:49:47.885   08 Jun 2027 06:53:47.249           239.364        119682.000
        44   09 Jun 2027 03:48:03.877   09 Jun 2027 03:53:50.890           347.013        173506.500
        45   09 Jun 2027 03:53:59.295   09 Jun 2027 03:54:09.146             9.851          4925.500
        46   09 Jun 2027 05:25:34.784   09 Jun 2027 05:30:06.181           271.397        135698.500
        47   09 Jun 2027 07:01:35.866   09 Jun 2027 07:05:47.648           251.782        125891.000
        48   09 Jun 2027 07:05:51.866   09 Jun 2027 07:06:33.855            41.989         20994.500
        49   10 Jun 2027 03:59:47.072   10 Jun 2027 04:06:10.469           383.397        191698.500
        50   10 Jun 2027 05:38:04.635   10 Jun 2027 05:41:59.132           234.497        117248.500
        51   10 Jun 2027 07:12:05.782   10 Jun 2027 07:12:50.640            44.858         22429.000
        52   10 Jun 2027 07:13:44.930   10 Jun 2027 07:17:34.709           229.779        114889.500
        53   10 Jun 2027 07:17:58.333   10 Jun 2027 07:18:53.601            55.268         27634.000
        54   11 Jun 2027 04:12:08.642   11 Jun 2027 04:17:57.439           348.797        174398.500
        55   11 Jun 2027 04:17:58.805   11 Jun 2027 04:18:21.172            22.367         11183.500
        56   11 Jun 2027 05:50:02.213   11 Jun 2027 05:54:01.300           239.087        119543.500
        57   11 Jun 2027 07:23:08.940   11 Jun 2027 07:29:33.360           384.420        192210.000
        58   11 Jun 2027 07:30:20.641   11 Jun 2027 07:31:07.787            47.146         23573.000
        59   12 Jun 2027 04:23:59.341   12 Jun 2027 04:29:13.237           313.896        156948.000
        60   12 Jun 2027 04:29:16.056   12 Jun 2027 04:30:12.825            56.769         28384.500
        61   12 Jun 2027 04:30:17.340   12 Jun 2027 04:30:36.464            19.124          9562.000
        62   12 Jun 2027 06:02:02.228   12 Jun 2027 06:06:11.611           249.383        124691.500
        63   12 Jun 2027 07:35:38.664   12 Jun 2027 07:43:02.944           444.280        222140.000
        64   13 Jun 2027 03:00:00.000   13 Jun 2027 03:06:37.907           397.907        198953.500
        65   13 Jun 2027 04:35:59.924   13 Jun 2027 04:41:28.414           328.490        164245.000
        66   13 Jun 2027 04:42:19.041   13 Jun 2027 04:42:37.582            18.541          9270.500
        67   13 Jun 2027 06:13:49.346   13 Jun 2027 06:18:10.432           261.086        130543.000
        68   13 Jun 2027 07:49:49.133   13 Jun 2027 07:53:45.002           235.869        117934.500
