uniorb/output/strategy_4/Camera/Camera_KinoSat_110407.txt

KinoSat_110407
-------------------------
    Access    *     Start Time (UTCG)     *     Stop Time (UTCG)  *   Duration (s) *   Data (Mbytes)
         1   01 Jun 2027 03:31:25.486   01 Jun 2027 03:32:38.405            72.919         36459.500
         2   01 Jun 2027 03:32:56.215   01 Jun 2027 03:33:15.128            18.913          9456.500
         3   01 Jun 2027 03:33:43.057   01 Jun 2027 03:33:43.057             0.000             0.000
         4   01 Jun 2027 03:34:23.562   01 Jun 2027 03:34:41.142            17.580          8790.000
         5   01 Jun 2027 03:36:31.282   01 Jun 2027 03:36:47.461            16.179          8089.500
         6   01 Jun 2027 03:37:32.108   01 Jun 2027 03:37:46.269            14.161          7080.500
         7   01 Jun 2027 03:38:29.226   01 Jun 2027 03:38:29.226             0.000             0.000
         8   01 Jun 2027 03:38:30.580   01 Jun 2027 03:38:36.549             5.969          2984.500
         9   01 Jun 2027 03:38:55.882   01 Jun 2027 03:39:21.527            25.645         12822.500
        10   01 Jun 2027 05:08:32.961   01 Jun 2027 05:10:57.613           144.652         72326.000
        11   01 Jun 2027 05:11:36.621   01 Jun 2027 05:11:41.962             5.341          2670.500
        12   01 Jun 2027 05:11:52.678   01 Jun 2027 05:12:18.025            25.347         12673.500
        13   01 Jun 2027 05:13:31.014   01 Jun 2027 05:13:37.384             6.370          3185.000
        14   01 Jun 2027 05:13:43.477   01 Jun 2027 05:13:59.529            16.052          8026.000
        15   01 Jun 2027 05:15:25.687   01 Jun 2027 05:15:52.422            26.735         13367.500
        16   01 Jun 2027 06:45:36.008   01 Jun 2027 06:48:07.074           151.066         75533.000
        17   01 Jun 2027 06:48:14.768   01 Jun 2027 06:48:23.818             9.050          4525.000
        18   01 Jun 2027 06:48:51.539   01 Jun 2027 06:49:03.621            12.082          6041.000
        19   01 Jun 2027 06:49:23.722   01 Jun 2027 06:49:32.694             8.972          4486.000
        20   01 Jun 2027 06:49:37.709   01 Jun 2027 06:49:56.683            18.974          9487.000
        21   01 Jun 2027 08:22:33.539   01 Jun 2027 08:24:39.367           125.828         62914.000
        22   01 Jun 2027 08:25:29.690   01 Jun 2027 08:26:00.415            30.725         15362.500
        23   01 Jun 2027 08:26:28.139   01 Jun 2027 08:26:51.315            23.176         11588.000
        24   01 Jun 2027 09:57:36.867   01 Jun 2027 09:58:01.682            24.815         12407.500
        25   01 Jun 2027 09:59:29.328   01 Jun 2027 10:02:24.340           175.012         87506.000
        26   02 Jun 2027 03:43:39.256   02 Jun 2027 03:49:57.862           378.606        189303.000
        27   02 Jun 2027 03:50:28.018   02 Jun 2027 03:50:33.699             5.681          2840.500
        28   02 Jun 2027 03:50:39.033   02 Jun 2027 03:50:47.185             8.152          4076.000
        29   02 Jun 2027 03:51:52.441   02 Jun 2027 03:51:54.916             2.475          1237.500
        30   02 Jun 2027 05:20:59.231   02 Jun 2027 05:23:59.814           180.583         90291.500
        31   02 Jun 2027 05:24:39.574   02 Jun 2027 05:25:45.015            65.441         32720.500
        32   02 Jun 2027 05:27:21.127   02 Jun 2027 05:27:39.736            18.609          9304.500
        33   02 Jun 2027 06:57:56.001   02 Jun 2027 07:02:17.529           261.528        130764.000
        34   02 Jun 2027 07:02:19.565   02 Jun 2027 07:03:21.376            61.811         30905.500
        35   02 Jun 2027 08:35:09.503   02 Jun 2027 08:39:14.516           245.013        122506.500
        36   02 Jun 2027 10:12:27.507   02 Jun 2027 10:14:03.091            95.584         47792.000
        37   03 Jun 2027 03:56:58.854   03 Jun 2027 04:02:48.974           350.120        175060.000
        38   03 Jun 2027 04:02:52.474   03 Jun 2027 04:03:51.726            59.252         29626.000
        39   03 Jun 2027 05:33:06.785   03 Jun 2027 05:39:46.670           399.885        199942.500
        40   03 Jun 2027 07:10:51.095   03 Jun 2027 07:15:15.118           264.023        132011.500
        41   03 Jun 2027 08:47:08.774   03 Jun 2027 08:51:16.208           247.434        123717.000
        42   04 Jun 2027 04:09:16.248   04 Jun 2027 04:15:52.406           396.158        198079.000
        43   04 Jun 2027 05:45:39.504   04 Jun 2027 05:51:48.561           369.057        184528.500
        44   04 Jun 2027 07:22:56.545   04 Jun 2027 07:27:33.096           276.551        138275.500
        45   04 Jun 2027 08:59:09.601   04 Jun 2027 09:03:53.345           283.744        141872.000
        46   05 Jun 2027 04:20:54.288   05 Jun 2027 04:23:20.821           146.533         73266.500
        47   05 Jun 2027 04:24:02.701   05 Jun 2027 04:28:01.317           238.616        119308.000
        48   05 Jun 2027 05:57:13.650   05 Jun 2027 06:03:38.858           385.208        192604.000
        49   05 Jun 2027 07:35:45.979   05 Jun 2027 07:39:22.421           216.442        108221.000
        50   05 Jun 2027 09:11:03.988   05 Jun 2027 09:15:00.890           236.902        118451.000
        51   05 Jun 2027 09:15:35.173   05 Jun 2027 09:16:20.339            45.166         22583.000
        52   06 Jun 2027 03:00:00.000   06 Jun 2027 03:02:16.527           136.527         68263.500
        53   06 Jun 2027 04:32:27.690   06 Jun 2027 04:40:01.868           454.178        227089.000
        54   06 Jun 2027 06:09:33.511   06 Jun 2027 06:15:55.882           382.371        191185.500
        55   06 Jun 2027 07:47:31.760   06 Jun 2027 07:51:27.260           235.500        117750.000
        56   06 Jun 2027 09:20:40.610   06 Jun 2027 09:26:54.724           374.114        187057.000
        57   06 Jun 2027 09:27:21.742   06 Jun 2027 09:28:23.562            61.820         30910.000
        58   07 Jun 2027 03:07:22.783   07 Jun 2027 03:09:06.722           103.939         51969.500
        59   07 Jun 2027 03:09:26.842   07 Jun 2027 03:14:38.330           311.488        155744.000
        60   07 Jun 2027 03:15:18.915   07 Jun 2027 03:15:40.485            21.570         10785.000
        61   07 Jun 2027 04:44:47.104   07 Jun 2027 04:52:06.064           438.960        219480.000
        62   07 Jun 2027 06:21:34.937   07 Jun 2027 06:28:03.345           388.408        194204.000
        63   07 Jun 2027 07:59:46.984   07 Jun 2027 08:03:30.658           223.674        111837.000
        64   07 Jun 2027 09:33:07.705   07 Jun 2027 09:39:22.894           375.189        187594.500
        65   08 Jun 2027 03:18:51.304   08 Jun 2027 03:26:49.790           478.486        239243.000
        66   08 Jun 2027 03:27:12.777   08 Jun 2027 03:27:54.452            41.675         20837.500
        67   08 Jun 2027 04:56:41.016   08 Jun 2027 05:04:06.467           445.451        222725.500
        68   08 Jun 2027 06:33:25.450   08 Jun 2027 06:39:18.940           353.490        176745.000
        69   08 Jun 2027 06:39:25.135   08 Jun 2027 06:40:10.266            45.131         22565.500
        70   08 Jun 2027 08:11:34.058   08 Jun 2027 08:15:40.156           246.098        123049.000
        71   08 Jun 2027 09:45:24.730   08 Jun 2027 09:51:04.732           340.002        170001.000
        72   09 Jun 2027 03:31:39.614   09 Jun 2027 03:38:58.086           438.472        219236.000
        73   09 Jun 2027 03:39:24.689   09 Jun 2027 03:40:10.757            46.068         23034.000
        74   09 Jun 2027 05:08:47.756   09 Jun 2027 05:16:07.114           439.358        219679.000
        75   09 Jun 2027 06:45:50.734   09 Jun 2027 06:50:38.011           287.277        143638.500
        76   09 Jun 2027 06:51:02.654   09 Jun 2027 06:51:56.921            54.267         27133.500
        77   09 Jun 2027 08:23:01.489   09 Jun 2027 08:27:40.310           278.821        139410.500
        78   09 Jun 2027 09:59:31.457   09 Jun 2027 10:02:42.844           191.387         95693.500
        79   10 Jun 2027 03:43:59.509   10 Jun 2027 03:51:07.681           428.172        214086.000
        80   10 Jun 2027 03:51:08.744   10 Jun 2027 03:52:09.484            60.740         30370.000
        81   10 Jun 2027 05:21:14.041   10 Jun 2027 05:27:55.251           401.210        200605.000
        82   10 Jun 2027 06:58:24.282   10 Jun 2027 07:02:32.334           248.052        124026.000
        83   10 Jun 2027 07:02:34.311   10 Jun 2027 07:03:41.072            66.761         33380.500
        84   10 Jun 2027 08:35:01.125   10 Jun 2027 08:39:29.207           268.082        134041.000
        85   10 Jun 2027 10:12:59.501   10 Jun 2027 10:14:17.993            78.492         39246.000
        86   11 Jun 2027 03:57:13.528   11 Jun 2027 04:03:03.704           350.176        175088.000
        87   11 Jun 2027 04:03:07.062   11 Jun 2027 04:04:06.465            59.403         29701.500
        88   11 Jun 2027 05:33:22.124   11 Jun 2027 05:40:01.401           399.277        199638.500
        89   11 Jun 2027 07:11:20.212   11 Jun 2027 07:15:30.276           250.064        125032.000
        90   11 Jun 2027 08:47:23.974   11 Jun 2027 08:51:30.574           246.600        123300.000
        91   12 Jun 2027 04:09:31.009   12 Jun 2027 04:16:07.017           396.008        198004.000
        92   12 Jun 2027 05:45:53.788   12 Jun 2027 05:52:03.140           369.352        184676.000
        93   12 Jun 2027 07:23:14.659   12 Jun 2027 07:27:47.891           273.232        136616.000
        94   12 Jun 2027 08:59:24.031   12 Jun 2027 09:04:08.377           284.346        142173.000
        95   13 Jun 2027 04:21:08.433   13 Jun 2027 04:28:16.019           427.586        213793.000
        96   13 Jun 2027 05:57:28.168   13 Jun 2027 06:03:53.689           385.521        192760.500
        97   13 Jun 2027 07:36:11.224   13 Jun 2027 07:39:37.108           205.884        102942.000
        98   13 Jun 2027 09:11:18.191   13 Jun 2027 09:15:15.526           237.335        118667.500
        99   13 Jun 2027 09:15:37.308   13 Jun 2027 09:16:34.933            57.625         28812.500
