uniorb/output/strategy_4/Camera/Camera_KinoSat_110306.txt

KinoSat_110306
-------------------------
    Access    *     Start Time (UTCG)     *     Stop Time (UTCG)  *   Duration (s) *   Data (Mbytes)
         1   01 Jun 2027 03:46:48.356   01 Jun 2027 03:48:36.093           107.737         53868.500
         2   01 Jun 2027 03:48:57.009   01 Jun 2027 03:49:10.474            13.465          6732.500
         3   01 Jun 2027 03:50:49.847   01 Jun 2027 03:51:00.027            10.180          5090.000
         4   01 Jun 2027 03:51:30.541   01 Jun 2027 03:51:30.541             0.000             0.000
         5   01 Jun 2027 03:52:09.983   01 Jun 2027 03:52:22.944            12.961          6480.500
         6   01 Jun 2027 03:52:50.263   01 Jun 2027 03:53:12.813            22.550         11275.000
         7   01 Jun 2027 03:53:35.042   01 Jun 2027 03:53:53.138            18.096          9048.000
         8   01 Jun 2027 05:23:25.366   01 Jun 2027 05:26:24.241           178.875         89437.500
         9   01 Jun 2027 05:28:53.154   01 Jun 2027 05:29:41.158            48.004         24002.000
        10   01 Jun 2027 05:29:44.935   01 Jun 2027 05:29:48.984             4.049          2024.500
        11   01 Jun 2027 07:01:43.253   01 Jun 2027 07:04:22.722           159.469         79734.500
        12   01 Jun 2027 07:04:48.240   01 Jun 2027 07:04:56.963             8.723          4361.500
        13   01 Jun 2027 08:35:02.715   01 Jun 2027 08:36:30.326            87.611         43805.500
        14   01 Jun 2027 08:37:28.898   01 Jun 2027 08:39:29.122           120.224         60112.000
        15   01 Jun 2027 08:41:35.623   01 Jun 2027 08:42:03.518            27.895         13947.500
        16   02 Jun 2027 03:58:43.448   02 Jun 2027 04:06:12.214           448.766        224383.000
        17   02 Jun 2027 05:35:46.368   02 Jun 2027 05:40:27.008           280.640        140320.000
        18   02 Jun 2027 07:13:40.538   02 Jun 2027 07:17:40.086           239.548        119774.000
        19   02 Jun 2027 08:46:54.304   02 Jun 2027 08:53:15.501           381.197        190598.500
        20   02 Jun 2027 08:54:14.161   02 Jun 2027 08:54:46.821            32.660         16330.000
        21   03 Jun 2027 04:10:54.171   03 Jun 2027 04:18:15.743           441.572        220786.000
        22   03 Jun 2027 05:47:36.905   03 Jun 2027 05:53:50.294           373.389        186694.500
        23   03 Jun 2027 05:53:54.547   03 Jun 2027 05:54:15.444            20.897         10448.500
        24   03 Jun 2027 07:25:40.440   03 Jun 2027 07:29:49.793           249.353        124676.500
        25   03 Jun 2027 08:59:22.242   03 Jun 2027 09:06:17.367           415.125        207562.500
        26   04 Jun 2027 04:22:48.483   04 Jun 2027 04:30:17.156           448.673        224336.500
        27   04 Jun 2027 05:59:44.868   04 Jun 2027 06:05:03.319           318.451        159225.500
        28   04 Jun 2027 06:05:22.582   04 Jun 2027 06:06:13.963            51.381         25690.500
        29   04 Jun 2027 07:37:18.417   04 Jun 2027 07:41:48.272           269.855        134927.500
        30   04 Jun 2027 09:11:42.076   04 Jun 2027 09:12:54.590            72.514         36257.000
        31   04 Jun 2027 09:13:26.294   04 Jun 2027 09:17:00.064           213.770        106885.000
        32   05 Jun 2027 03:00:00.000   05 Jun 2027 03:05:14.407           314.407        157203.500
        33   05 Jun 2027 03:05:18.527   05 Jun 2027 03:06:18.822            60.295         30147.500
        34   05 Jun 2027 04:35:09.881   05 Jun 2027 04:42:10.289           420.408        210204.000
        35   05 Jun 2027 06:12:13.437   05 Jun 2027 06:16:42.396           268.959        134479.500
        36   05 Jun 2027 06:17:28.543   05 Jun 2027 06:18:03.400            34.857         17428.500
        37   05 Jun 2027 07:48:58.937   05 Jun 2027 07:53:46.311           287.374        143687.000
        38   05 Jun 2027 09:25:56.589   05 Jun 2027 09:28:45.494           168.905         84452.500
        39   06 Jun 2027 03:10:20.207   06 Jun 2027 03:17:12.798           412.591        206295.500
        40   06 Jun 2027 03:18:13.501   06 Jun 2027 03:18:15.721             2.220          1110.000
        41   06 Jun 2027 04:47:22.259   06 Jun 2027 04:54:05.663           403.404        201702.000
        42   06 Jun 2027 06:25:50.825   06 Jun 2027 06:29:20.280           209.455        104727.500
        43   06 Jun 2027 08:01:52.340   06 Jun 2027 08:06:12.623           260.283        130141.500
        44   06 Jun 2027 09:39:40.732   06 Jun 2027 09:40:14.668            33.936         16968.000
        45   07 Jun 2027 03:23:31.330   07 Jun 2027 03:30:17.306           405.976        202988.000
        46   07 Jun 2027 04:59:53.306   07 Jun 2027 05:06:12.209           378.903        189451.500
        47   07 Jun 2027 06:37:21.192   07 Jun 2027 06:41:49.212           268.020        134010.000
        48   07 Jun 2027 08:13:27.982   07 Jun 2027 08:17:41.501           253.519        126759.500
        49   08 Jun 2027 03:35:39.567   08 Jun 2027 03:42:16.274           396.707        198353.500
        50   08 Jun 2027 05:11:37.818   08 Jun 2027 05:17:45.056           367.238        183619.000
        51   08 Jun 2027 06:50:20.158   08 Jun 2027 06:53:58.215           218.057        109028.500
        52   08 Jun 2027 08:25:35.534   08 Jun 2027 08:29:40.182           244.648        122324.000
        53   08 Jun 2027 08:29:44.328   08 Jun 2027 08:30:30.890            46.562         23281.000
        54   09 Jun 2027 03:46:58.864   09 Jun 2027 03:54:26.747           447.883        223941.500
        55   09 Jun 2027 05:23:40.448   09 Jun 2027 05:30:03.684           383.236        191618.000
        56   09 Jun 2027 07:02:20.028   09 Jun 2027 07:05:52.437           212.409        106204.500
        57   09 Jun 2027 08:35:17.159   09 Jun 2027 08:36:45.129            87.970         43985.000
        58   09 Jun 2027 08:37:16.773   09 Jun 2027 08:41:30.605           253.832        126916.000
        59   09 Jun 2027 08:41:55.120   09 Jun 2027 08:42:55.251            60.131         30065.500
        60   10 Jun 2027 03:58:58.670   10 Jun 2027 04:06:26.936           448.266        224133.000
        61   10 Jun 2027 05:36:01.190   10 Jun 2027 05:41:51.948           350.758        175379.000
        62   10 Jun 2027 07:14:18.895   10 Jun 2027 07:17:54.669           215.774        107887.000
        63   10 Jun 2027 08:47:09.832   10 Jun 2027 08:53:30.546           380.714        190357.000
        64   10 Jun 2027 08:54:31.791   10 Jun 2027 08:55:01.720            29.929         14964.500
        65   11 Jun 2027 04:11:08.515   11 Jun 2027 04:18:30.481           441.966        220983.000
        66   11 Jun 2027 05:47:51.302   11 Jun 2027 05:54:04.916           373.614        186807.000
        67   11 Jun 2027 05:54:09.235   11 Jun 2027 05:54:30.292            21.057         10528.500
        68   11 Jun 2027 07:25:55.329   11 Jun 2027 07:30:04.478           249.149        124574.500
        69   11 Jun 2027 08:59:37.439   11 Jun 2027 09:06:31.720           414.281        207140.500
        70   12 Jun 2027 04:23:03.155   12 Jun 2027 04:30:31.911           448.756        224378.000
        71   12 Jun 2027 05:59:59.569   12 Jun 2027 06:05:17.833           318.264        159132.000
        72   12 Jun 2027 06:05:53.733   12 Jun 2027 06:06:28.450            34.717         17358.500
        73   12 Jun 2027 07:37:12.815   12 Jun 2027 07:42:02.969           290.154        145077.000
        74   12 Jun 2027 09:11:57.009   12 Jun 2027 09:12:56.092            59.083         29541.500
        75   12 Jun 2027 09:13:41.416   12 Jun 2027 09:17:14.313           212.897        106448.500
        76   13 Jun 2027 03:00:00.000   13 Jun 2027 03:05:29.048           329.048        164524.000
        77   13 Jun 2027 03:05:33.248   13 Jun 2027 03:06:33.496            60.248         30124.000
        78   13 Jun 2027 04:35:24.699   13 Jun 2027 04:42:18.940           414.241        207120.500
        79   13 Jun 2027 06:12:28.268   13 Jun 2027 06:16:57.056           268.788        134394.000
        80   13 Jun 2027 06:17:42.686   13 Jun 2027 06:18:18.091            35.405         17702.500
        81   13 Jun 2027 07:49:39.159   13 Jun 2027 07:54:00.949           261.790        130895.000
        82   13 Jun 2027 09:26:11.488   13 Jun 2027 09:29:00.114           168.626         84313.000
