uniorb/output/strategy_4/Camera/Camera_KinoSat_111305.txt

KinoSat_111305
-------------------------
    Access    *     Start Time (UTCG)     *     Stop Time (UTCG)  *   Duration (s) *   Data (Mbytes)
         1   01 Jun 2027 03:27:29.954   01 Jun 2027 03:29:41.953           131.999         65999.500
         2   01 Jun 2027 03:30:47.189   01 Jun 2027 03:31:00.066            12.877          6438.500
         3   01 Jun 2027 04:51:36.975   01 Jun 2027 04:52:21.077            44.102         22051.000
         4   01 Jun 2027 04:52:29.845   01 Jun 2027 04:52:45.246            15.401          7700.500
         5   01 Jun 2027 06:25:23.993   01 Jun 2027 06:26:58.713            94.720         47360.000
         6   01 Jun 2027 06:27:04.081   01 Jun 2027 06:27:07.214             3.133          1566.500
         7   01 Jun 2027 06:27:44.772   01 Jun 2027 06:27:50.718             5.946          2973.000
         8   01 Jun 2027 06:29:23.636   01 Jun 2027 06:29:37.673            14.037          7018.500
         9   01 Jun 2027 08:00:16.193   01 Jun 2027 08:02:33.635           137.442         68721.000
        10   01 Jun 2027 08:03:30.888   01 Jun 2027 08:03:30.888             0.000             0.000
        11   01 Jun 2027 08:03:40.565   01 Jun 2027 08:03:54.391            13.826          6913.000
        12   01 Jun 2027 08:04:41.093   01 Jun 2027 08:04:55.360            14.267          7133.500
        13   01 Jun 2027 08:08:16.587   01 Jun 2027 08:08:27.446            10.859          5429.500
        14   01 Jun 2027 09:38:25.949   01 Jun 2027 09:40:28.386           122.437         61218.500
        15   01 Jun 2027 09:43:35.876   01 Jun 2027 09:43:35.876             0.000             0.000
        16   01 Jun 2027 09:43:55.723   01 Jun 2027 09:44:08.198            12.475          6237.500
        17   01 Jun 2027 09:45:03.162   01 Jun 2027 09:45:25.317            22.155         11077.500
        18   01 Jun 2027 09:45:28.780   01 Jun 2027 09:45:50.750            21.970         10985.000
        19   01 Jun 2027 11:15:20.798   01 Jun 2027 11:15:35.128            14.330          7165.000
        20   01 Jun 2027 11:15:53.509   01 Jun 2027 11:17:46.556           113.047         56523.500
        21   01 Jun 2027 11:18:45.104   01 Jun 2027 11:19:09.813            24.709         12354.500
        22   02 Jun 2027 03:40:06.664   02 Jun 2027 03:42:34.293           147.629         73814.500
        23   02 Jun 2027 03:44:35.976   02 Jun 2027 03:44:48.336            12.360          6180.000
        24   02 Jun 2027 05:03:31.887   02 Jun 2027 05:04:17.342            45.455         22727.500
        25   02 Jun 2027 06:39:48.164   02 Jun 2027 06:43:19.467           211.303        105651.500
        26   02 Jun 2027 08:13:20.060   02 Jun 2027 08:16:18.754           178.694         89347.000
        27   02 Jun 2027 08:18:56.985   02 Jun 2027 08:19:16.046            19.061          9530.500
        28   02 Jun 2027 08:21:16.985   02 Jun 2027 08:21:46.891            29.906         14953.000
        29   02 Jun 2027 08:21:51.539   02 Jun 2027 08:21:52.966             1.427           713.500
        30   02 Jun 2027 09:50:52.482   02 Jun 2027 09:51:22.324            29.842         13843.313
        31   02 Jun 2027 09:52:34.373   02 Jun 2027 09:52:36.712             2.339           289.063
        32   02 Jun 2027 09:54:33.374   02 Jun 2027 09:54:39.370             5.996          2832.375
        33   02 Jun 2027 09:55:46.894   02 Jun 2027 09:55:49.554             2.660           436.719
        34   02 Jun 2027 09:55:59.502   02 Jun 2027 09:56:02.405             2.903           310.875
        35   02 Jun 2027 09:57:02.435   02 Jun 2027 09:57:07.306             4.871          1747.187
        36   02 Jun 2027 09:57:10.651   02 Jun 2027 09:57:13.792             3.141            85.906
        37   02 Jun 2027 11:27:47.714   02 Jun 2027 11:27:57.492             9.778          4633.625
        38   02 Jun 2027 11:28:56.988   02 Jun 2027 11:29:03.218             6.230           987.437
        39   02 Jun 2027 11:29:38.479   02 Jun 2027 11:29:43.262             4.783            89.719
        40   02 Jun 2027 11:29:49.888   02 Jun 2027 11:29:58.570             8.682           108.656
        41   02 Jun 2027 11:31:04.516   02 Jun 2027 11:31:14.136             9.620          1641.688
        42   02 Jun 2027 11:31:18.015   02 Jun 2027 11:31:18.845             0.830           121.219
        43   02 Jun 2027 11:31:52.419   02 Jun 2027 11:31:58.464             6.045           676.844
        44   02 Jun 2027 11:33:14.575   02 Jun 2027 11:33:22.549             7.974          2115.188
        45   03 Jun 2027 03:51:45.326   03 Jun 2027 03:53:34.288           108.962         54481.000
        46   03 Jun 2027 03:54:15.372   03 Jun 2027 03:55:26.286            70.914         35457.000
        47   03 Jun 2027 03:55:47.852   03 Jun 2027 03:55:50.339             2.487          1243.500
        48   03 Jun 2027 03:56:24.088   03 Jun 2027 03:56:32.481             8.393          4196.500
        49   03 Jun 2027 05:15:23.652   03 Jun 2027 05:16:26.507            62.855         31427.500
        50   03 Jun 2027 06:51:51.808   03 Jun 2027 06:52:56.758            64.950         32130.000
        51   03 Jun 2027 06:53:57.260   03 Jun 2027 06:54:00.739             3.479          1556.219
        52   03 Jun 2027 06:54:41.230   03 Jun 2027 06:54:46.503             5.273          1265.344
        53   03 Jun 2027 08:25:59.736   03 Jun 2027 08:26:04.874             5.138          2332.375
        54   03 Jun 2027 08:27:36.434   03 Jun 2027 08:27:40.169             3.735          1758.156
        55   03 Jun 2027 08:27:52.183   03 Jun 2027 08:27:53.054             0.871           214.875
        56   03 Jun 2027 08:29:21.439   03 Jun 2027 08:29:28.806             7.367          1143.406
        57   03 Jun 2027 08:30:18.024   03 Jun 2027 08:30:18.638             0.614           129.563
        58   03 Jun 2027 08:31:00.179   03 Jun 2027 08:31:04.714             4.535           667.281
        59   03 Jun 2027 08:32:29.378   03 Jun 2027 08:32:34.450             5.072          2358.000
        60   03 Jun 2027 08:33:14.233   03 Jun 2027 08:33:17.653             3.420           826.250
        61   03 Jun 2027 10:02:58.315   03 Jun 2027 10:03:08.352            10.037          4855.250
        62   03 Jun 2027 10:05:03.839   03 Jun 2027 10:05:10.266             6.427          1769.781
        63   03 Jun 2027 10:05:21.169   03 Jun 2027 10:05:23.219             2.050           118.250
        64   03 Jun 2027 10:06:10.016   03 Jun 2027 10:06:16.151             6.135           762.437
        65   03 Jun 2027 10:07:25.643   03 Jun 2027 10:07:30.857             5.214          2171.625
        66   03 Jun 2027 10:08:55.180   03 Jun 2027 10:09:05.116             9.936          2145.906
        67   03 Jun 2027 10:09:36.836   03 Jun 2027 10:09:40.431             3.595           986.594
        68   03 Jun 2027 11:40:34.542   03 Jun 2027 11:40:49.778            15.236          7487.719
        69   03 Jun 2027 11:42:03.402   03 Jun 2027 11:42:08.111             4.709           815.906
        70   03 Jun 2027 11:42:59.937   03 Jun 2027 11:43:06.085             6.148          1334.562
        71   03 Jun 2027 11:43:30.388   03 Jun 2027 11:43:33.921             3.533           323.469
        72   03 Jun 2027 11:44:02.564   03 Jun 2027 11:44:05.696             3.132           720.188
        73   03 Jun 2027 11:45:02.881   03 Jun 2027 11:45:05.152             2.271          1135.500
        74   04 Jun 2027 04:04:13.245   04 Jun 2027 04:04:35.813            22.568         11284.000
        75   04 Jun 2027 04:04:58.524   04 Jun 2027 04:08:08.354           189.830         94915.000
        76   04 Jun 2027 05:27:32.307   04 Jun 2027 05:28:11.429            39.122         19561.000
        77   04 Jun 2027 07:04:02.477   04 Jun 2027 07:05:13.154            70.677         35195.594
        78   04 Jun 2027 07:06:10.522   04 Jun 2027 07:06:14.570             4.048          1792.750
        79   04 Jun 2027 07:06:34.664   04 Jun 2027 07:06:40.067             5.403           146.750
        80   04 Jun 2027 08:39:30.831   04 Jun 2027 08:39:39.772             8.941          3580.500
        81   04 Jun 2027 08:40:46.219   04 Jun 2027 08:40:50.539             4.320           388.969
        82   04 Jun 2027 08:42:11.064   04 Jun 2027 08:42:16.485             5.421          1221.844
        83   04 Jun 2027 08:42:41.457   04 Jun 2027 08:42:42.737             1.280           126.250
        84   04 Jun 2027 08:44:29.632   04 Jun 2027 08:44:39.577             9.945          2359.125
        85   04 Jun 2027 08:45:11.184   04 Jun 2027 08:45:13.387             2.203           951.750
        86   04 Jun 2027 08:45:25.575   04 Jun 2027 08:45:26.791             1.216           162.187
        87   04 Jun 2027 10:15:34.561   04 Jun 2027 10:15:46.566            12.005          4642.312
        88   04 Jun 2027 10:16:11.783   04 Jun 2027 10:16:12.994             1.211           162.125
        89   04 Jun 2027 10:18:48.523   04 Jun 2027 10:18:51.909             3.386          1065.938
        90   04 Jun 2027 10:19:45.292   04 Jun 2027 10:19:47.274             1.982           404.875
        91   04 Jun 2027 10:20:52.419   04 Jun 2027 10:20:56.629             4.210          1285.344
        92   04 Jun 2027 10:21:07.048   04 Jun 2027 10:21:15.631             8.583           325.594
        93   04 Jun 2027 10:21:16.997   04 Jun 2027 10:21:18.271             1.274            35.187
        94   04 Jun 2027 10:21:32.789   04 Jun 2027 10:21:36.226             3.437           398.281
        95   04 Jun 2027 11:52:52.949   04 Jun 2027 11:53:04.965            12.016          5090.750
        96   04 Jun 2027 11:54:21.686   04 Jun 2027 11:54:26.874             5.188          1419.000
        97   04 Jun 2027 11:55:34.072   04 Jun 2027 11:55:38.385             4.313          1670.594
        98   04 Jun 2027 11:55:40.746   04 Jun 2027 11:55:41.152             0.406            73.781
        99   04 Jun 2027 11:56:11.064   04 Jun 2027 11:56:12.997             1.933           934.750
       100   04 Jun 2027 11:57:00.930   04 Jun 2027 11:57:05.212             4.282          1163.469
       101   05 Jun 2027 04:16:06.829   05 Jun 2027 04:16:43.807            36.978         18489.000
       102   05 Jun 2027 04:17:12.855   05 Jun 2027 04:19:29.970           137.115         68557.500
       103   05 Jun 2027 05:40:12.460   05 Jun 2027 05:41:00.714            48.254         24127.000
       104   05 Jun 2027 07:15:58.086   05 Jun 2027 07:17:36.091            98.005         47142.594
       105   05 Jun 2027 07:18:26.231   05 Jun 2027 07:18:26.231             0.000             0.000
       106   05 Jun 2027 07:18:38.709   05 Jun 2027 07:18:43.926             5.217          1846.313
       107   05 Jun 2027 07:19:09.687   05 Jun 2027 07:19:13.018             3.331           720.344
       108   05 Jun 2027 08:50:55.633   05 Jun 2027 08:51:03.433             7.800          2824.344
       109   05 Jun 2027 08:51:27.550   05 Jun 2027 08:51:29.721             2.171           180.344
       110   05 Jun 2027 08:52:28.685   05 Jun 2027 08:52:38.771            10.086           278.281
       111   05 Jun 2027 08:52:55.554   05 Jun 2027 08:52:56.846             1.292           261.563
       112   05 Jun 2027 08:53:45.416   05 Jun 2027 08:53:49.016             3.600           700.031
       113   05 Jun 2027 08:54:17.842   05 Jun 2027 08:54:22.777             4.935           679.563
       114   05 Jun 2027 08:55:27.414   05 Jun 2027 08:55:31.359             3.945          1788.969
       115   05 Jun 2027 08:56:05.309   05 Jun 2027 08:56:09.386             4.077           742.375
       116   05 Jun 2027 08:56:32.553   05 Jun 2027 08:56:37.442             4.889           458.187
       117   05 Jun 2027 08:57:53.388   05 Jun 2027 08:57:56.487             3.099          1549.500
       118   05 Jun 2027 10:27:07.794   05 Jun 2027 10:27:21.945            14.151          5611.125
       119   05 Jun 2027 10:30:04.324   05 Jun 2027 10:30:08.063             3.739           673.531
       120   05 Jun 2027 10:30:15.528   05 Jun 2027 10:30:18.095             2.567            25.406
       121   05 Jun 2027 10:31:37.197   05 Jun 2027 10:31:43.104             5.907          2024.187
       122   05 Jun 2027 10:32:15.953   05 Jun 2027 10:32:19.140             3.187           818.563
       123   05 Jun 2027 10:32:48.839   05 Jun 2027 10:32:52.393             3.554           590.406
       124   06 Jun 2027 04:16:59.902   06 Jun 2027 04:17:29.295            29.393         14696.500
       125   06 Jun 2027 04:28:02.718   06 Jun 2027 04:29:46.368           103.650         51825.000
       126   06 Jun 2027 04:29:55.840   06 Jun 2027 04:30:30.639            34.799         17399.500
       127   06 Jun 2027 05:51:02.161   06 Jun 2027 05:51:49.623            47.462         23731.000
       128   06 Jun 2027 07:26:34.093   06 Jun 2027 07:26:40.173             6.080          3040.000
       129   06 Jun 2027 07:27:43.762   06 Jun 2027 07:29:11.345            87.583         43791.500
       130   06 Jun 2027 07:30:09.475   06 Jun 2027 07:30:19.843            10.368          3488.563
       131   06 Jun 2027 07:30:41.380   06 Jun 2027 07:30:42.151             0.771           276.656
       132   06 Jun 2027 07:31:54.934   06 Jun 2027 07:32:02.209             7.275          2200.437
       133   06 Jun 2027 09:02:29.346   06 Jun 2027 09:02:35.796             6.450          3120.719
       134   06 Jun 2027 09:04:47.675   06 Jun 2027 09:04:55.787             8.112          3275.844
       135   06 Jun 2027 09:06:03.278   06 Jun 2027 09:06:06.224             2.946           603.688
       136   06 Jun 2027 09:06:44.664   06 Jun 2027 09:06:49.526             4.862           925.594
       137   06 Jun 2027 09:07:40.990   06 Jun 2027 09:07:43.741             2.751           834.188
       138   06 Jun 2027 09:08:07.080   06 Jun 2027 09:08:08.269             1.189           272.687
       139   06 Jun 2027 09:09:13.174   06 Jun 2027 09:09:17.181             4.007          1403.344
       140   06 Jun 2027 10:39:29.160   06 Jun 2027 10:39:44.740            15.580          7540.594
       141   06 Jun 2027 10:42:40.205   06 Jun 2027 10:42:43.406             3.201           804.344
       142   06 Jun 2027 10:42:51.584   06 Jun 2027 10:42:56.420             4.836             8.781
       143   06 Jun 2027 10:43:47.281   06 Jun 2027 10:43:48.472             1.191           178.875
       144   06 Jun 2027 10:44:19.851   06 Jun 2027 10:44:20.580             0.729           309.969
       145   06 Jun 2027 10:44:24.946   06 Jun 2027 10:44:25.859             0.913             3.625
       146   06 Jun 2027 10:45:10.916   06 Jun 2027 10:45:13.364             2.448           902.063
       147   06 Jun 2027 10:45:36.170   06 Jun 2027 10:45:36.325             0.155            77.500
       148   07 Jun 2027 03:03:23.415   07 Jun 2027 03:03:57.431            34.016         17008.000
       149   07 Jun 2027 03:04:34.147   07 Jun 2027 03:04:40.845             6.698          3349.000
       150   07 Jun 2027 03:05:34.294   07 Jun 2027 03:05:44.060             9.766          4883.000
       151   07 Jun 2027 03:07:18.162   07 Jun 2027 03:07:23.657             5.495          2747.500
       152   07 Jun 2027 03:07:44.100   07 Jun 2027 03:08:04.460            20.360         10180.000
       153   07 Jun 2027 03:09:14.747   07 Jun 2027 03:09:22.523             7.776          3888.000
       154   07 Jun 2027 03:09:58.507   07 Jun 2027 03:10:02.326             3.819          1909.500
       155   07 Jun 2027 04:28:22.349   07 Jun 2027 04:29:24.144            61.795         30897.500
       156   07 Jun 2027 04:29:38.774   07 Jun 2027 04:29:41.043             2.269          1134.500
       157   07 Jun 2027 04:40:04.129   07 Jun 2027 04:41:24.560            80.431         40215.500
       158   07 Jun 2027 06:02:18.382   07 Jun 2027 06:03:32.988            74.606         37303.000
       159   07 Jun 2027 06:04:18.191   07 Jun 2027 06:04:35.496            17.305          8652.500
       160   07 Jun 2027 06:05:21.346   07 Jun 2027 06:05:21.346             0.000             0.000
       161   07 Jun 2027 06:06:35.171   07 Jun 2027 06:06:36.564             1.393           696.500
       162   07 Jun 2027 06:06:58.367   07 Jun 2027 06:07:13.669            15.302          6443.562
       163   07 Jun 2027 07:37:26.081   07 Jun 2027 07:37:36.194            10.113          4973.406
       164   07 Jun 2027 07:38:38.516   07 Jun 2027 07:38:43.151             4.635          1470.906
       165   07 Jun 2027 07:39:27.333   07 Jun 2027 07:39:29.500             2.167          1077.031
       166   07 Jun 2027 07:39:55.635   07 Jun 2027 07:39:55.635             0.000             0.000
       167   07 Jun 2027 07:41:12.119   07 Jun 2027 07:41:16.663             4.544          2272.000
       168   07 Jun 2027 07:41:22.820   07 Jun 2027 07:41:24.495             1.675           594.406
       169   07 Jun 2027 07:42:32.512   07 Jun 2027 07:42:37.494             4.982          1576.719
       170   07 Jun 2027 07:43:05.532   07 Jun 2027 07:43:10.532             5.000           702.188
       171   07 Jun 2027 07:44:06.043   07 Jun 2027 07:44:12.232             6.189          1734.719
       172   07 Jun 2027 09:14:37.480   07 Jun 2027 09:14:47.283             9.803          2904.531
       173   07 Jun 2027 09:15:28.222   07 Jun 2027 09:15:31.366             3.144          1143.813
       174   07 Jun 2027 09:18:02.503   07 Jun 2027 09:18:04.071             1.568           262.031
       175   07 Jun 2027 09:19:04.255   07 Jun 2027 09:19:12.181             7.926          1669.875
       176   07 Jun 2027 09:19:51.988   07 Jun 2027 09:19:54.349             2.361           747.156
       177   07 Jun 2027 09:21:00.502   07 Jun 2027 09:21:04.667             4.165          1640.188
       178   07 Jun 2027 09:21:18.854   07 Jun 2027 09:21:20.942             2.088           443.344
       179   07 Jun 2027 10:51:34.815   07 Jun 2027 10:51:47.038            12.223          5767.500
       180   07 Jun 2027 10:54:09.424   07 Jun 2027 10:54:14.113             4.689          1895.062
       181   07 Jun 2027 10:55:12.819   07 Jun 2027 10:55:18.495             5.676          1834.563
       182   07 Jun 2027 10:55:53.124   07 Jun 2027 10:56:01.004             7.880           928.750
       183   07 Jun 2027 10:56:20.145   07 Jun 2027 10:56:21.984             1.839           516.969
       184   07 Jun 2027 10:56:51.245   07 Jun 2027 10:56:53.271             2.026           883.562
       185   07 Jun 2027 10:57:12.956   07 Jun 2027 10:57:13.753             0.797           368.375
       186   07 Jun 2027 10:57:34.986   07 Jun 2027 10:57:36.659             1.673            93.375
       187   08 Jun 2027 03:15:41.756   08 Jun 2027 03:17:40.359           118.603         59301.500
       188   08 Jun 2027 03:19:01.573   08 Jun 2027 03:19:31.066            29.493         14746.500
       189   08 Jun 2027 03:19:44.298   08 Jun 2027 03:20:20.618            36.320         18160.000
       190   08 Jun 2027 03:21:30.986   08 Jun 2027 03:21:41.711            10.725          5362.500
       191   08 Jun 2027 04:39:48.822   08 Jun 2027 04:40:34.058            45.236         22618.000
       192   08 Jun 2027 04:52:01.059   08 Jun 2027 04:52:40.466            39.407         19703.500
       193   08 Jun 2027 06:14:03.311   08 Jun 2027 06:14:57.624            54.313         26776.594
       194   08 Jun 2027 06:15:20.444   08 Jun 2027 06:15:20.444             0.000             0.000
       195   08 Jun 2027 06:16:26.535   08 Jun 2027 06:16:37.164            10.629          2256.281
       196   08 Jun 2027 06:17:14.109   08 Jun 2027 06:17:19.325             5.216          1154.531
       197   08 Jun 2027 06:17:48.418   08 Jun 2027 06:17:53.536             5.118           900.344
       198   08 Jun 2027 06:18:57.164   08 Jun 2027 06:18:57.164             0.000             0.000
       199   08 Jun 2027 06:19:15.537   08 Jun 2027 06:19:24.974             9.437          2363.594
       200   08 Jun 2027 07:48:55.629   08 Jun 2027 07:49:00.750             5.121          1793.469
       201   08 Jun 2027 07:49:12.687   08 Jun 2027 07:49:13.333             0.646           215.844
       202   08 Jun 2027 07:50:48.504   08 Jun 2027 07:50:51.469             2.965           386.500
       203   08 Jun 2027 07:51:05.474   08 Jun 2027 07:51:10.405             4.931           437.656
       204   08 Jun 2027 07:51:24.604   08 Jun 2027 07:51:25.468             0.864           240.563
       205   08 Jun 2027 07:52:17.934   08 Jun 2027 07:52:21.259             3.325          1346.437
       206   08 Jun 2027 07:52:48.427   08 Jun 2027 07:52:50.635             2.208           789.781
       207   08 Jun 2027 07:53:23.035   08 Jun 2027 07:53:27.555             4.520           839.875
       208   08 Jun 2027 07:54:47.880   08 Jun 2027 07:54:50.213             2.333           453.000
       209   08 Jun 2027 07:55:20.928   08 Jun 2027 07:55:21.621             0.693           274.594
       210   08 Jun 2027 07:56:19.506   08 Jun 2027 07:56:22.674             3.168          1563.938
       211   08 Jun 2027 09:26:39.024   08 Jun 2027 09:26:50.988            11.964          4615.781
       212   08 Jun 2027 09:27:32.327   08 Jun 2027 09:27:32.327             0.000             0.000
       213   08 Jun 2027 09:28:46.892   08 Jun 2027 09:28:54.935             8.043          3529.125
       214   08 Jun 2027 09:30:44.485   08 Jun 2027 09:30:49.138             4.653          1886.094
       215   08 Jun 2027 09:31:01.426   08 Jun 2027 09:31:09.106             7.680           129.187
       216   08 Jun 2027 09:32:23.546   08 Jun 2027 09:32:30.579             7.033          1333.937
       217   08 Jun 2027 09:33:20.661   08 Jun 2027 09:33:24.901             4.240            21.000
       218   08 Jun 2027 09:33:35.773   08 Jun 2027 09:33:37.388             1.615            94.062
       219   08 Jun 2027 09:33:59.334   08 Jun 2027 09:34:01.712             2.378           189.719
       220   08 Jun 2027 11:03:27.212   08 Jun 2027 11:03:28.974             1.762           881.000
       221   08 Jun 2027 11:03:39.949   08 Jun 2027 11:03:49.130             9.181          4290.844
       222   08 Jun 2027 11:05:07.374   08 Jun 2027 11:05:09.838             2.464           960.875
       223   08 Jun 2027 11:05:26.386   08 Jun 2027 11:05:31.842             5.456            57.531
       224   08 Jun 2027 11:06:19.484   08 Jun 2027 11:06:21.601             2.117           930.094
       225   08 Jun 2027 11:07:39.456   08 Jun 2027 11:07:44.439             4.983          1346.875
       226   08 Jun 2027 11:08:05.324   08 Jun 2027 11:08:08.829             3.505           652.656
       227   08 Jun 2027 11:08:53.022   08 Jun 2027 11:08:56.885             3.863          1326.531
       228   08 Jun 2027 11:09:33.162   08 Jun 2027 11:09:37.452             4.290           800.375
       229   08 Jun 2027 11:09:59.035   08 Jun 2027 11:10:02.609             3.574           674.469
       230   09 Jun 2027 03:27:46.445   09 Jun 2027 03:30:26.526           160.081         80040.500
       231   09 Jun 2027 03:30:42.991   09 Jun 2027 03:31:01.665            18.674          9337.000
       232   09 Jun 2027 03:31:15.007   09 Jun 2027 03:31:26.194            11.187          5593.500
       233   09 Jun 2027 03:32:02.127   09 Jun 2027 03:32:05.429             3.302          1651.000
       234   09 Jun 2027 03:33:32.142   09 Jun 2027 03:33:47.962            15.820          7910.000
       235   09 Jun 2027 04:51:52.789   09 Jun 2027 04:52:36.119            43.330         21665.000
       236   09 Jun 2027 06:25:38.862   09 Jun 2027 06:26:53.459            74.597         36708.375
       237   09 Jun 2027 06:27:22.944   09 Jun 2027 06:27:32.903             9.959           921.406
       238   09 Jun 2027 06:28:01.148   09 Jun 2027 06:28:04.503             3.355           851.906
       239   09 Jun 2027 06:28:24.940   09 Jun 2027 06:28:28.611             3.671           529.656
       240   09 Jun 2027 06:28:45.410   09 Jun 2027 06:28:46.802             1.392           524.969
       241   09 Jun 2027 06:28:53.057   09 Jun 2027 06:28:53.354             0.297           128.594
       242   09 Jun 2027 06:29:37.983   09 Jun 2027 06:29:42.607             4.624           518.500
       243   09 Jun 2027 06:30:57.679   09 Jun 2027 06:31:02.261             4.582          1956.469
       244   09 Jun 2027 08:01:39.666   09 Jun 2027 08:01:52.009            12.343          2464.219
       245   09 Jun 2027 08:02:35.803   09 Jun 2027 08:02:36.169             0.366           171.375
       246   09 Jun 2027 08:03:02.680   09 Jun 2027 08:03:03.639             0.959           322.969
       247   09 Jun 2027 08:04:13.578   09 Jun 2027 08:04:16.470             2.892          1308.531
       248   09 Jun 2027 08:05:25.739   09 Jun 2027 08:05:31.221             5.482           853.469
       249   09 Jun 2027 08:07:13.565   09 Jun 2027 08:07:19.376             5.811          1669.531
       250   09 Jun 2027 08:07:42.715   09 Jun 2027 08:07:44.666             1.951           158.656
       251   09 Jun 2027 08:08:35.437   09 Jun 2027 08:08:37.925             2.488          1216.156
       252   09 Jun 2027 08:09:22.758   09 Jun 2027 08:09:28.538             5.780          1198.281
       253   09 Jun 2027 09:38:42.525   09 Jun 2027 09:38:53.226            10.701          5209.187
       254   09 Jun 2027 09:41:30.531   09 Jun 2027 09:41:34.398             3.867          1410.688
       255   09 Jun 2027 09:42:19.538   09 Jun 2027 09:42:21.127             1.589           707.844
       256   09 Jun 2027 09:44:07.031   09 Jun 2027 09:44:14.789             7.758          2300.281
       257   09 Jun 2027 09:45:06.192   09 Jun 2027 09:45:09.315             3.123          1277.031
       258   09 Jun 2027 09:45:36.515   09 Jun 2027 09:45:39.465             2.950           590.813
       259   09 Jun 2027 11:15:37.408   09 Jun 2027 11:15:48.175            10.767          4691.031
       260   09 Jun 2027 11:16:10.347   09 Jun 2027 11:16:11.328             0.981           421.000
       261   09 Jun 2027 11:18:24.186   09 Jun 2027 11:18:25.702             1.516           442.844
       262   09 Jun 2027 11:19:28.903   09 Jun 2027 11:19:32.483             3.580          1725.437
       263   09 Jun 2027 11:19:49.390   09 Jun 2027 11:19:51.708             2.318           518.156
       264   09 Jun 2027 11:20:19.213   09 Jun 2027 11:20:24.831             5.618           859.531
       265   09 Jun 2027 11:21:04.437   09 Jun 2027 11:21:07.108             2.671          1176.531
       266   09 Jun 2027 11:21:39.038   09 Jun 2027 11:21:50.416            11.378           997.812
       267   10 Jun 2027 03:40:22.829   10 Jun 2027 03:43:32.141           189.312         94656.000
       268   10 Jun 2027 03:44:50.476   10 Jun 2027 03:45:03.544            13.068          6534.000
       269   10 Jun 2027 05:03:47.662   10 Jun 2027 05:04:32.465            44.803         22401.500
       270   10 Jun 2027 06:40:07.200   10 Jun 2027 06:41:11.360            64.160         31385.875
       271   10 Jun 2027 06:41:34.072   10 Jun 2027 06:41:41.189             7.117           590.063
       272   10 Jun 2027 06:42:57.809   10 Jun 2027 06:43:04.308             6.499          1684.875
       273   10 Jun 2027 08:13:37.222   10 Jun 2027 08:13:40.836             3.614          1807.000
       274   10 Jun 2027 08:14:52.750   10 Jun 2027 08:15:04.206            11.456          2874.781
       275   10 Jun 2027 08:16:01.208   10 Jun 2027 08:16:02.993             1.785           864.625
       276   10 Jun 2027 08:16:08.184   10 Jun 2027 08:16:10.569             2.385           127.875
       277   10 Jun 2027 08:17:31.002   10 Jun 2027 08:17:35.238             4.236           955.375
       278   10 Jun 2027 08:19:14.756   10 Jun 2027 08:19:21.108             6.352          2021.062
       279   10 Jun 2027 08:19:33.285   10 Jun 2027 08:19:35.549             2.264            71.063
       280   10 Jun 2027 08:20:49.019   10 Jun 2027 08:20:50.473             1.454           687.937
       281   10 Jun 2027 08:21:03.482   10 Jun 2027 08:21:05.351             1.869           297.688
       282   10 Jun 2027 08:22:03.604   10 Jun 2027 08:22:07.321             3.717           914.156
       283   10 Jun 2027 09:51:08.414   10 Jun 2027 09:51:17.668             9.254          4048.344
       284   10 Jun 2027 09:54:42.736   10 Jun 2027 09:54:48.040             5.304          2252.031
       285   10 Jun 2027 09:55:48.519   10 Jun 2027 09:55:49.267             0.748           340.188
       286   10 Jun 2027 09:56:04.893   10 Jun 2027 09:56:05.891             0.998           448.750
       287   10 Jun 2027 09:56:52.303   10 Jun 2027 09:56:56.814             4.511          1107.781
       288   10 Jun 2027 09:57:52.631   10 Jun 2027 09:57:53.560             0.929           464.500
       289   10 Jun 2027 11:28:04.885   10 Jun 2027 11:28:26.164            21.279          6600.469
       290   10 Jun 2027 11:30:00.474   10 Jun 2027 11:30:05.257             4.783          1442.281
       291   10 Jun 2027 11:30:30.178   10 Jun 2027 11:30:32.218             2.040           758.969
       292   10 Jun 2027 11:31:08.845   10 Jun 2027 11:31:09.984             1.139            27.594
       293   10 Jun 2027 11:32:27.377   10 Jun 2027 11:32:31.101             3.724          1862.000
       294   10 Jun 2027 11:32:36.359   10 Jun 2027 11:32:37.810             1.451           197.875
       295   10 Jun 2027 11:33:19.182   10 Jun 2027 11:33:21.774             2.592          1244.063
       296   10 Jun 2027 11:33:39.827   10 Jun 2027 11:33:44.795             4.968           439.250
       297   11 Jun 2027 03:52:01.370   11 Jun 2027 03:54:52.758           171.388         85694.000
       298   11 Jun 2027 03:56:38.582   11 Jun 2027 03:56:43.722             5.140          2570.000
       299   11 Jun 2027 05:15:38.406   11 Jun 2027 05:16:42.318            63.912         31956.000
       300   11 Jun 2027 05:17:18.069   11 Jun 2027 05:17:20.260             2.191          1095.500
       301   11 Jun 2027 06:52:09.512   11 Jun 2027 06:53:18.485            68.973         34428.000
       302   11 Jun 2027 06:54:14.965   11 Jun 2027 06:54:21.573             6.608          1569.625
       303   11 Jun 2027 06:54:44.568   11 Jun 2027 06:54:48.389             3.821           718.594
       304   11 Jun 2027 06:55:11.870   11 Jun 2027 06:55:13.552             1.682           704.656
       305   11 Jun 2027 08:26:16.955   11 Jun 2027 08:26:27.433            10.478          2820.562
       306   11 Jun 2027 08:26:58.393   11 Jun 2027 08:26:58.393             0.000             0.000
       307   11 Jun 2027 08:27:53.534   11 Jun 2027 08:27:59.427             5.893          1903.938
       308   11 Jun 2027 08:28:09.390   11 Jun 2027 08:28:10.051             0.661           273.469
       309   11 Jun 2027 08:29:02.129   11 Jun 2027 08:29:05.350             3.221          1206.406
       310   11 Jun 2027 08:30:30.016   11 Jun 2027 08:30:34.937             4.921          1596.063
       311   11 Jun 2027 08:30:56.762   11 Jun 2027 08:30:58.900             2.138           624.250
       312   11 Jun 2027 08:31:52.281   11 Jun 2027 08:31:55.064             2.783          1303.875
       313   11 Jun 2027 08:32:02.158   11 Jun 2027 08:32:06.627             4.469           197.281
       314   11 Jun 2027 08:32:31.549   11 Jun 2027 08:32:32.757             1.208           423.438
       315   11 Jun 2027 08:33:05.568   11 Jun 2027 08:33:08.142             2.574           590.344
       316   11 Jun 2027 08:33:48.924   11 Jun 2027 08:33:51.956             3.032           688.125
       317   11 Jun 2027 08:34:02.691   11 Jun 2027 08:34:03.275             0.584           292.000
       318   11 Jun 2027 10:03:14.971   11 Jun 2027 10:03:24.230             9.259          4505.563
       319   11 Jun 2027 10:05:52.530   11 Jun 2027 10:05:54.865             2.335           923.656
       320   11 Jun 2027 10:06:31.486   11 Jun 2027 10:06:34.983             3.497           458.438
       321   11 Jun 2027 10:07:09.700   11 Jun 2027 10:07:13.856             4.156           453.313
       322   11 Jun 2027 10:07:43.548   11 Jun 2027 10:07:45.734             2.186           115.125
       323   11 Jun 2027 10:08:14.062   11 Jun 2027 10:08:21.220             7.158           394.844
       324   11 Jun 2027 10:09:15.192   11 Jun 2027 10:09:20.803             5.611          1627.625
       325   11 Jun 2027 10:09:53.958   11 Jun 2027 10:09:57.155             3.197          1029.063
       326   11 Jun 2027 11:40:55.587   11 Jun 2027 11:41:07.547            11.960          5282.938
       327   11 Jun 2027 11:43:17.139   11 Jun 2027 11:43:21.400             4.261          1305.812
       328   11 Jun 2027 11:43:29.177   11 Jun 2027 11:43:30.286             1.109           243.031
       329   11 Jun 2027 11:43:36.729   11 Jun 2027 11:43:37.265             0.536           191.125
       330   11 Jun 2027 11:43:55.874   11 Jun 2027 11:43:57.694             1.820           331.938
       331   11 Jun 2027 11:44:30.071   11 Jun 2027 11:44:32.594             2.523           355.344
       332   12 Jun 2027 04:04:28.336   12 Jun 2027 04:04:52.632            24.296         12148.000
       333   12 Jun 2027 04:05:14.617   12 Jun 2027 04:08:06.127           171.510         85755.000
       334   12 Jun 2027 05:27:48.105   12 Jun 2027 05:28:25.698            37.593         18796.500
       335   12 Jun 2027 05:30:49.067   12 Jun 2027 05:30:52.048             2.981          1490.500
       336   12 Jun 2027 07:04:18.897   12 Jun 2027 07:05:47.737            88.840         43107.375
       337   12 Jun 2027 07:05:52.699   12 Jun 2027 07:05:54.006             1.307           155.063
       338   12 Jun 2027 07:06:13.982   12 Jun 2027 07:06:17.621             3.639           252.594
       339   12 Jun 2027 07:06:46.331   12 Jun 2027 07:06:46.331             0.000             0.000
       340   12 Jun 2027 07:06:52.675   12 Jun 2027 07:06:54.809             2.134           983.594
       341   12 Jun 2027 08:39:28.871   12 Jun 2027 08:39:35.752             6.881          3010.719
       342   12 Jun 2027 08:40:46.498   12 Jun 2027 08:40:51.240             4.742          1823.969
       343   12 Jun 2027 08:41:03.466   12 Jun 2027 08:41:05.192             1.726           382.062
       344   12 Jun 2027 08:42:51.888   12 Jun 2027 08:42:57.777             5.889           773.594
       345   12 Jun 2027 08:43:31.705   12 Jun 2027 08:43:34.739             3.034          1010.312
       346   12 Jun 2027 08:44:10.505   12 Jun 2027 08:44:11.564             1.059           366.187
       347   12 Jun 2027 08:44:18.273   12 Jun 2027 08:44:19.007             0.734           209.656
       348   12 Jun 2027 08:45:37.988   12 Jun 2027 08:45:41.449             3.461          1609.188
       349   12 Jun 2027 08:45:56.420   12 Jun 2027 08:46:00.176             3.756           428.844
       350   12 Jun 2027 10:15:51.197   12 Jun 2027 10:16:03.365            12.168          5299.344
       351   12 Jun 2027 10:19:03.011   12 Jun 2027 10:19:05.788             2.777          1036.625
       352   12 Jun 2027 10:20:00.247   12 Jun 2027 10:20:04.414             4.167           354.594
       353   12 Jun 2027 10:21:08.651   12 Jun 2027 10:21:11.984             3.333          1254.219
       354   12 Jun 2027 10:21:31.240   12 Jun 2027 10:21:32.488             1.248           263.344
       355   12 Jun 2027 10:21:48.279   12 Jun 2027 10:21:50.817             2.538           337.500
       356   12 Jun 2027 11:53:07.349   12 Jun 2027 11:53:21.282            13.933          5237.219
       357   12 Jun 2027 11:53:52.044   12 Jun 2027 11:53:54.267             2.223           527.719
       358   12 Jun 2027 11:56:25.488   12 Jun 2027 11:56:33.771             8.283          3304.750
       359   12 Jun 2027 11:57:17.388   12 Jun 2027 11:57:20.424             3.036          1161.594
       360   13 Jun 2027 04:16:22.405   13 Jun 2027 04:16:59.965            37.560         18780.000
       361   13 Jun 2027 04:17:29.974   13 Jun 2027 04:19:56.999           147.025         73512.500
       362   13 Jun 2027 05:40:28.099   13 Jun 2027 05:40:56.030            27.931         13965.500
       363   13 Jun 2027 07:16:13.561   13 Jun 2027 07:17:57.409           103.848         51924.000
       364   13 Jun 2027 07:18:44.270   13 Jun 2027 07:18:52.894             8.624          3137.062
       365   13 Jun 2027 07:19:24.805   13 Jun 2027 07:19:26.115             1.310           655.000
       366   13 Jun 2027 08:51:10.873   13 Jun 2027 08:51:20.118             9.245          3099.187
       367   13 Jun 2027 08:53:04.395   13 Jun 2027 08:53:12.313             7.918          2736.875
       368   13 Jun 2027 08:53:40.840   13 Jun 2027 08:53:45.838             4.998           858.562
       369   13 Jun 2027 08:54:32.786   13 Jun 2027 08:54:42.628             9.842           624.594
       370   13 Jun 2027 08:55:42.719   13 Jun 2027 08:55:47.926             5.207          1848.000
       371   13 Jun 2027 08:56:20.815   13 Jun 2027 08:56:24.084             3.269           475.406
       372   13 Jun 2027 08:56:46.952   13 Jun 2027 08:56:52.002             5.050           430.719
       373   13 Jun 2027 08:58:09.632   13 Jun 2027 08:58:13.011             3.379          1689.500
       374   13 Jun 2027 10:27:23.481   13 Jun 2027 10:27:37.552            14.071          5767.656
       375   13 Jun 2027 10:30:31.047   13 Jun 2027 10:30:34.266             3.219            50.063
       376   13 Jun 2027 10:31:53.730   13 Jun 2027 10:31:58.033             4.303          1924.000
       377   13 Jun 2027 10:32:47.829   13 Jun 2027 10:32:51.320             3.491          1556.125
       378   13 Jun 2027 10:33:04.161   13 Jun 2027 10:33:05.297             1.136           158.344
