uniorb/output/strategy_4/Camera/Camera_KinoSat_111105.txt

KinoSat_111105
-------------------------
    Access    *     Start Time (UTCG)     *     Stop Time (UTCG)  *   Duration (s) *   Data (Mbytes)
         1   01 Jun 2027 03:24:34.793   01 Jun 2027 03:25:06.653            31.860         15930.000
         2   01 Jun 2027 03:35:34.213   01 Jun 2027 03:37:11.808            97.595         48797.500
         3   01 Jun 2027 03:37:37.329   01 Jun 2027 03:38:23.624            46.295         23147.500
         4   01 Jun 2027 04:58:52.652   01 Jun 2027 04:59:30.560            37.908         18954.000
         5   01 Jun 2027 04:59:58.889   01 Jun 2027 05:00:11.459            12.570          6285.000
         6   01 Jun 2027 05:00:51.928   01 Jun 2027 05:00:53.479             1.551           775.500
         7   01 Jun 2027 05:01:02.720   01 Jun 2027 05:01:02.720             0.000             0.000
         8   01 Jun 2027 05:02:20.634   01 Jun 2027 05:02:24.647             4.013          2006.500
         9   01 Jun 2027 06:35:15.281   01 Jun 2027 06:37:15.501           120.220         60110.000
        10   01 Jun 2027 06:39:33.506   01 Jun 2027 06:39:33.506             0.000             0.000
        11   01 Jun 2027 08:10:00.552   01 Jun 2027 08:12:10.465           129.913         64956.500
        12   01 Jun 2027 08:14:04.854   01 Jun 2027 08:14:29.511            24.657         12328.500
        13   01 Jun 2027 08:15:50.607   01 Jun 2027 08:15:54.875             4.268          2134.000
        14   01 Jun 2027 08:17:16.778   01 Jun 2027 08:17:28.546            11.768          5884.000
        15   01 Jun 2027 09:46:49.914   01 Jun 2027 09:48:37.534           107.620         53810.000
        16   01 Jun 2027 09:48:53.037   01 Jun 2027 09:49:22.891            29.854         14927.000
        17   01 Jun 2027 09:51:06.503   01 Jun 2027 09:51:08.388             1.885           942.500
        18   01 Jun 2027 11:25:00.701   01 Jun 2027 11:27:25.219           144.518         72259.000
        19   01 Jun 2027 11:27:28.737   01 Jun 2027 11:27:50.574            21.837         10918.500
        20   02 Jun 2027 03:35:54.359   02 Jun 2027 03:36:08.687            14.328          7164.000
        21   02 Jun 2027 03:37:05.064   02 Jun 2027 03:37:13.803             8.739          4369.500
        22   02 Jun 2027 03:47:34.967   02 Jun 2027 03:48:23.959            48.992         24496.000
        23   02 Jun 2027 03:48:41.027   02 Jun 2027 03:48:59.075            18.048          9024.000
        24   02 Jun 2027 05:09:50.889   02 Jun 2027 05:11:06.538            75.649         37824.500
        25   02 Jun 2027 05:11:47.689   02 Jun 2027 05:12:25.554            37.865         18932.500
        26   02 Jun 2027 05:12:52.566   02 Jun 2027 05:12:55.848             3.282          1641.000
        27   02 Jun 2027 05:14:26.601   02 Jun 2027 05:14:40.851            14.250          7125.000
        28   02 Jun 2027 06:45:03.483   02 Jun 2027 06:46:28.020            84.537         42268.500
        29   02 Jun 2027 06:46:59.229   02 Jun 2027 06:49:19.293           140.064         70032.000
        30   02 Jun 2027 06:50:41.415   02 Jun 2027 06:50:49.023             7.608          3804.000
        31   02 Jun 2027 06:50:49.618   02 Jun 2027 06:50:57.978             8.360          4180.000
        32   02 Jun 2027 06:51:32.984   02 Jun 2027 06:51:32.984             0.000             0.000
        33   02 Jun 2027 08:22:07.748   02 Jun 2027 08:25:12.124           184.376         92188.000
        34   02 Jun 2027 08:27:28.820   02 Jun 2027 08:27:46.952            18.132          9066.000
        35   02 Jun 2027 08:28:21.394   02 Jun 2027 08:28:47.030            25.636         12580.188
        36   02 Jun 2027 09:59:05.773   02 Jun 2027 09:59:29.487            23.714         11573.625
        37   02 Jun 2027 10:00:31.822   02 Jun 2027 10:00:40.939             9.117           129.563
        38   02 Jun 2027 10:01:39.921   02 Jun 2027 10:01:39.942             0.021             5.062
        39   02 Jun 2027 10:02:21.209   02 Jun 2027 10:02:21.665             0.456           181.844
        40   02 Jun 2027 10:03:10.380   02 Jun 2027 10:03:12.524             2.144          1062.094
        41   02 Jun 2027 10:03:23.186   02 Jun 2027 10:03:25.248             2.062           222.531
        42   02 Jun 2027 10:03:38.192   02 Jun 2027 10:03:38.817             0.625           177.094
        43   02 Jun 2027 10:04:12.677   02 Jun 2027 10:04:18.373             5.696           902.094
        44   02 Jun 2027 11:37:02.186   02 Jun 2027 11:37:16.735            14.549          6687.437
        45   02 Jun 2027 11:37:54.722   02 Jun 2027 11:37:59.578             4.856           862.344
        46   02 Jun 2027 11:38:15.295   02 Jun 2027 11:38:17.503             2.208           338.312
        47   02 Jun 2027 11:39:10.624   02 Jun 2027 11:39:12.125             1.501           625.500
        48   02 Jun 2027 11:39:37.713   02 Jun 2027 11:39:43.281             5.568           799.625
        49   02 Jun 2027 11:40:13.987   02 Jun 2027 11:40:17.033             3.046           959.563
        50   02 Jun 2027 11:40:25.225   02 Jun 2027 11:40:28.935             3.710           256.000
        51   02 Jun 2027 11:40:49.651   02 Jun 2027 11:40:53.955             4.304           647.375
        52   03 Jun 2027 03:47:18.492   03 Jun 2027 03:47:30.445            11.953          5976.500
        53   03 Jun 2027 03:48:12.048   03 Jun 2027 03:48:12.048             0.000             0.000
        54   03 Jun 2027 03:49:33.125   03 Jun 2027 03:49:33.281             0.156            78.000
        55   03 Jun 2027 03:59:32.142   03 Jun 2027 04:00:27.216            55.074         27537.000
        56   03 Jun 2027 05:21:31.659   03 Jun 2027 05:22:53.763            82.104         41052.000
        57   03 Jun 2027 05:23:37.984   03 Jun 2027 05:24:26.609            48.625         24312.500
        58   03 Jun 2027 05:25:02.370   03 Jun 2027 05:25:08.308             5.938          2969.000
        59   03 Jun 2027 05:25:51.254   03 Jun 2027 05:26:02.965            11.711          5855.500
        60   03 Jun 2027 06:56:31.029   03 Jun 2027 06:58:11.172           100.143         48934.001
        61   03 Jun 2027 06:58:54.907   03 Jun 2027 06:58:57.699             2.792          1315.031
        62   03 Jun 2027 06:59:55.131   03 Jun 2027 07:00:05.247            10.116          1794.750
        63   03 Jun 2027 07:00:18.313   03 Jun 2027 07:00:19.631             1.318           307.219
        64   03 Jun 2027 07:00:20.590   03 Jun 2027 07:00:21.157             0.567            29.969
        65   03 Jun 2027 07:01:53.880   03 Jun 2027 07:01:58.911             5.031          2463.250
        66   03 Jun 2027 07:03:10.593   03 Jun 2027 07:03:16.357             5.764          2240.063
        67   03 Jun 2027 07:03:32.278   03 Jun 2027 07:03:33.750             1.472           368.063
        68   03 Jun 2027 07:04:03.998   03 Jun 2027 07:04:07.114             3.116           893.656
        69   03 Jun 2027 07:05:12.531   03 Jun 2027 07:05:13.730             1.199           599.500
        70   03 Jun 2027 08:34:09.797   03 Jun 2027 08:34:15.436             5.639          1936.937
        71   03 Jun 2027 08:35:02.735   03 Jun 2027 08:35:05.646             2.911           959.906
        72   03 Jun 2027 08:36:29.657   03 Jun 2027 08:36:34.725             5.068          1008.125
        73   03 Jun 2027 08:38:20.253   03 Jun 2027 08:38:21.687             1.434           658.844
        74   03 Jun 2027 08:38:32.095   03 Jun 2027 08:38:34.766             2.671           107.250
        75   03 Jun 2027 08:39:54.111   03 Jun 2027 08:39:57.328             3.217          1054.031
        76   03 Jun 2027 08:40:21.637   03 Jun 2027 08:40:23.107             1.470           283.938
        77   03 Jun 2027 08:41:11.635   03 Jun 2027 08:41:21.726            10.091           902.219
        78   03 Jun 2027 08:41:25.817   03 Jun 2027 08:41:27.328             1.511           127.844
        79   03 Jun 2027 10:10:56.269   03 Jun 2027 10:11:11.180            14.911          6809.750
        80   03 Jun 2027 10:13:11.506   03 Jun 2027 10:13:16.443             4.937          1321.219
        81   03 Jun 2027 10:13:56.183   03 Jun 2027 10:14:04.649             8.466           266.500
        82   03 Jun 2027 10:15:08.683   03 Jun 2027 10:15:10.768             2.085           984.531
        83   03 Jun 2027 10:15:46.300   03 Jun 2027 10:15:48.993             2.693          1065.125
        84   03 Jun 2027 10:16:30.232   03 Jun 2027 10:16:33.532             3.300          1288.719
        85   03 Jun 2027 10:17:16.771   03 Jun 2027 10:17:20.116             3.345          1091.719
        86   03 Jun 2027 11:48:59.945   03 Jun 2027 11:49:11.367            11.422          5517.688
        87   03 Jun 2027 11:50:52.742   03 Jun 2027 11:51:00.090             7.348          2211.500
        88   03 Jun 2027 11:52:16.608   03 Jun 2027 11:52:19.675             3.067           590.281
        89   03 Jun 2027 11:53:06.858   03 Jun 2027 11:53:09.787             2.929          1464.500
        90   04 Jun 2027 03:59:23.690   04 Jun 2027 03:59:36.945            13.255          6627.500
        91   04 Jun 2027 04:00:09.701   04 Jun 2027 04:00:38.520            28.819         14409.500
        92   04 Jun 2027 04:11:57.165   04 Jun 2027 04:11:58.404             1.239           619.500
        93   04 Jun 2027 05:33:12.371   04 Jun 2027 05:36:22.529           190.158         95079.000
        94   04 Jun 2027 05:38:15.836   04 Jun 2027 05:38:22.947             7.111          3555.500
        95   04 Jun 2027 07:08:04.817   04 Jun 2027 07:09:33.267            88.450         43782.625
        96   04 Jun 2027 07:10:30.118   04 Jun 2027 07:10:31.934             1.816           484.969
        97   04 Jun 2027 07:11:43.137   04 Jun 2027 07:11:48.411             5.274          1489.875
        98   04 Jun 2027 07:12:11.787   04 Jun 2027 07:12:15.024             3.237           509.531
        99   04 Jun 2027 07:12:46.141   04 Jun 2027 07:12:52.027             5.886           799.656
       100   04 Jun 2027 07:13:47.105   04 Jun 2027 07:13:50.637             3.532           848.500
       101   04 Jun 2027 07:14:21.788   04 Jun 2027 07:14:21.788             0.000             0.000
       102   04 Jun 2027 07:14:50.045   04 Jun 2027 07:14:53.368             3.323          1608.906
       103   04 Jun 2027 07:15:25.921   04 Jun 2027 07:15:27.394             1.473           651.219
       104   04 Jun 2027 07:16:05.532   04 Jun 2027 07:16:05.532             0.000             0.000
       105   04 Jun 2027 07:16:11.562   04 Jun 2027 07:16:12.249             0.687           343.500
       106   04 Jun 2027 07:16:42.163   04 Jun 2027 07:16:45.443             3.280          1560.688
       107   04 Jun 2027 08:46:11.399   04 Jun 2027 08:46:25.559            14.160          5296.531
       108   04 Jun 2027 08:47:09.033   04 Jun 2027 08:47:15.763             6.730           738.969
       109   04 Jun 2027 08:48:19.844   04 Jun 2027 08:48:20.779             0.935           353.375
       110   04 Jun 2027 08:50:21.304   04 Jun 2027 08:50:27.018             5.714          2469.875
       111   04 Jun 2027 08:52:09.894   04 Jun 2027 08:52:14.951             5.057          2329.563
       112   04 Jun 2027 08:52:52.989   04 Jun 2027 08:52:55.498             2.509          1188.688
       113   04 Jun 2027 08:53:04.876   04 Jun 2027 08:53:05.577             0.701           174.437
       114   04 Jun 2027 10:23:06.372   04 Jun 2027 10:23:19.240            12.868          5830.188
       115   04 Jun 2027 10:23:33.101   04 Jun 2027 10:23:34.751             1.650           192.437
       116   04 Jun 2027 10:24:29.807   04 Jun 2027 10:24:33.876             4.069           872.937
       117   04 Jun 2027 10:26:12.274   04 Jun 2027 10:26:13.503             1.229           554.031
       118   04 Jun 2027 10:27:16.672   04 Jun 2027 10:27:19.454             2.782           562.438
       119   04 Jun 2027 10:27:27.404   04 Jun 2027 10:27:30.422             3.018           174.250
       120   04 Jun 2027 10:27:47.978   04 Jun 2027 10:27:49.522             1.544           333.875
       121   04 Jun 2027 10:27:55.758   04 Jun 2027 10:27:57.914             2.156           194.875
       122   04 Jun 2027 10:29:10.611   04 Jun 2027 10:29:18.130             7.519          2153.313
       123   05 Jun 2027 04:11:19.112   05 Jun 2027 04:11:57.146            38.034         19017.000
       124   05 Jun 2027 04:12:12.187   05 Jun 2027 04:12:12.187             0.000             0.000
       125   05 Jun 2027 05:47:33.804   05 Jun 2027 05:50:17.001           163.197         81598.500
       126   05 Jun 2027 05:50:30.818   05 Jun 2027 05:50:38.971             8.153          4076.500
       127   05 Jun 2027 07:21:06.085   05 Jun 2027 07:22:51.646           105.561         52697.531
       128   05 Jun 2027 07:23:25.226   05 Jun 2027 07:23:26.665             1.439           397.000
       129   05 Jun 2027 07:23:33.404   05 Jun 2027 07:23:39.561             6.157            41.281
       130   05 Jun 2027 07:24:15.174   05 Jun 2027 07:24:15.174             0.000             0.000
       131   05 Jun 2027 07:24:22.531   05 Jun 2027 07:24:25.352             2.821          1171.219
       132   05 Jun 2027 07:25:37.708   05 Jun 2027 07:25:40.104             2.396          1198.000
       133   05 Jun 2027 07:25:57.558   05 Jun 2027 07:26:01.942             4.384          1321.313
       134   05 Jun 2027 07:26:31.419   05 Jun 2027 07:26:31.419             0.000             0.000
       135   05 Jun 2027 07:27:00.074   05 Jun 2027 07:27:04.862             4.788          1106.406
       136   05 Jun 2027 07:28:04.182   05 Jun 2027 07:28:04.182             0.000             0.000
       137   05 Jun 2027 07:28:06.706   05 Jun 2027 07:28:11.166             4.460          1673.062
       138   05 Jun 2027 07:28:37.074   05 Jun 2027 07:28:41.830             4.756           809.625
       139   05 Jun 2027 07:29:05.146   05 Jun 2027 07:29:07.403             2.257           421.063
       140   05 Jun 2027 08:58:38.651   05 Jun 2027 08:58:48.739            10.088          4673.813
       141   05 Jun 2027 08:59:22.944   05 Jun 2027 08:59:25.068             2.124           695.531
       142   05 Jun 2027 09:01:00.872   05 Jun 2027 09:01:02.803             1.931           598.500
       143   05 Jun 2027 09:02:33.809   05 Jun 2027 09:02:38.168             4.359           372.156
       144   05 Jun 2027 09:04:09.619   05 Jun 2027 09:04:15.855             6.236          2115.656
       145   05 Jun 2027 09:04:51.130   05 Jun 2027 09:04:55.077             3.947           651.125
       146   05 Jun 2027 10:35:33.459   05 Jun 2027 10:35:55.016            21.557          7090.625
       147   05 Jun 2027 10:38:00.538   05 Jun 2027 10:38:03.947             3.409           803.844
       148   05 Jun 2027 10:39:24.389   05 Jun 2027 10:39:25.554             1.165           166.656
       149   05 Jun 2027 10:40:07.732   05 Jun 2027 10:40:09.129             1.397           592.031
       150   05 Jun 2027 10:40:22.277   05 Jun 2027 10:40:24.734             2.457           208.688
       151   05 Jun 2027 10:41:15.075   05 Jun 2027 10:41:23.971             8.896             0.969
       152   06 Jun 2027 03:00:09.311   06 Jun 2027 03:00:31.087            21.776         10888.000
       153   06 Jun 2027 03:01:17.292   06 Jun 2027 03:01:19.001             1.709           854.500
       154   06 Jun 2027 03:01:52.346   06 Jun 2027 03:01:59.639             7.293          3646.500
       155   06 Jun 2027 03:02:32.457   06 Jun 2027 03:03:10.118            37.661         18830.500
       156   06 Jun 2027 04:23:10.702   06 Jun 2027 04:23:50.892            40.190         20095.000
       157   06 Jun 2027 04:24:02.283   06 Jun 2027 04:24:14.433            12.150          6075.000
       158   06 Jun 2027 04:24:19.997   06 Jun 2027 04:24:40.472            20.475         10237.500
       159   06 Jun 2027 05:59:37.925   06 Jun 2027 06:01:55.903           137.978         68989.000
       160   06 Jun 2027 06:02:37.003   06 Jun 2027 06:03:13.621            36.618         18309.000
       161   06 Jun 2027 07:31:45.780   06 Jun 2027 07:31:56.377            10.597          5298.500
       162   06 Jun 2027 07:33:44.847   06 Jun 2027 07:34:00.698            15.851          6344.874
       163   06 Jun 2027 07:34:36.433   06 Jun 2027 07:34:38.481             2.048           669.969
       164   06 Jun 2027 07:35:25.373   06 Jun 2027 07:35:26.671             1.298           465.125
       165   06 Jun 2027 07:35:43.709   06 Jun 2027 07:35:47.971             4.262           199.938
       166   06 Jun 2027 07:36:18.586   06 Jun 2027 07:36:21.348             2.762           939.812
       167   06 Jun 2027 07:36:57.285   06 Jun 2027 07:37:00.648             3.363          1033.000
       168   06 Jun 2027 07:38:46.273   06 Jun 2027 07:38:51.776             5.503          2230.750
       169   06 Jun 2027 07:40:07.475   06 Jun 2027 07:40:13.076             5.601          2247.562
       170   06 Jun 2027 07:40:31.795   06 Jun 2027 07:40:32.726             0.931           424.219
       171   06 Jun 2027 07:40:39.619   06 Jun 2027 07:40:40.123             0.504           215.406
       172   06 Jun 2027 07:41:26.861   06 Jun 2027 07:41:29.554             2.693          1109.500
       173   06 Jun 2027 07:41:33.509   06 Jun 2027 07:41:33.784             0.275           123.594
       174   06 Jun 2027 09:10:43.312   06 Jun 2027 09:10:55.463            12.151          6068.312
       175   06 Jun 2027 09:14:25.145   06 Jun 2027 09:14:29.141             3.996          1060.344
       176   06 Jun 2027 09:15:07.848   06 Jun 2027 09:15:10.642             2.794           937.281
       177   06 Jun 2027 09:15:46.301   06 Jun 2027 09:15:51.740             5.439           112.938
       178   06 Jun 2027 09:16:42.793   06 Jun 2027 09:16:45.742             2.949          1071.062
       179   06 Jun 2027 10:48:13.540   06 Jun 2027 10:48:25.105            11.565          5525.562
       180   06 Jun 2027 10:48:40.905   06 Jun 2027 10:48:41.742             0.837           407.531
       181   06 Jun 2027 10:49:28.082   06 Jun 2027 10:49:28.341             0.259           124.750
       182   06 Jun 2027 10:50:45.817   06 Jun 2027 10:50:48.116             2.299           490.813
       183   06 Jun 2027 10:51:15.512   06 Jun 2027 10:51:20.895             5.383           611.281
       184   06 Jun 2027 10:51:21.352   06 Jun 2027 10:51:22.241             0.889            14.281
       185   06 Jun 2027 10:51:40.792   06 Jun 2027 10:51:41.867             1.075           422.281
       186   06 Jun 2027 10:51:48.641   06 Jun 2027 10:51:49.986             1.345           211.688
       187   06 Jun 2027 10:52:37.640   06 Jun 2027 10:52:44.556             6.916          1193.531
       188   07 Jun 2027 03:12:02.103   07 Jun 2027 03:13:48.320           106.217         53108.500
       189   07 Jun 2027 03:14:21.094   07 Jun 2027 03:14:36.231            15.137          7568.500
       190   07 Jun 2027 03:16:03.441   07 Jun 2027 03:16:16.725            13.284          6642.000
       191   07 Jun 2027 04:35:18.852   07 Jun 2027 04:36:00.076            41.224         20612.000
       192   07 Jun 2027 04:36:48.776   07 Jun 2027 04:36:59.398            10.622          5311.000
       193   07 Jun 2027 04:37:47.008   07 Jun 2027 04:38:07.898            20.890         10445.000
       194   07 Jun 2027 06:11:47.858   07 Jun 2027 06:13:41.279           113.421         55996.094
       195   07 Jun 2027 06:14:21.849   07 Jun 2027 06:14:21.849             0.000             0.000
       196   07 Jun 2027 06:14:53.517   07 Jun 2027 06:14:59.336             5.819          2149.469
       197   07 Jun 2027 07:46:58.910   07 Jun 2027 07:47:05.010             6.100          2706.531
       198   07 Jun 2027 07:48:05.641   07 Jun 2027 07:48:11.386             5.745          1208.469
       199   07 Jun 2027 07:48:25.584   07 Jun 2027 07:48:26.393             0.809           112.031
       200   07 Jun 2027 07:49:06.896   07 Jun 2027 07:49:09.252             2.356          1135.656
       201   07 Jun 2027 07:50:00.172   07 Jun 2027 07:50:02.798             2.626           222.469
       202   07 Jun 2027 07:50:29.938   07 Jun 2027 07:50:33.532             3.594             5.687
       203   07 Jun 2027 07:52:07.764   07 Jun 2027 07:52:15.003             7.239          2208.187
       204   07 Jun 2027 07:52:37.814   07 Jun 2027 07:52:40.283             2.469           712.844
       205   07 Jun 2027 07:53:03.847   07 Jun 2027 07:53:06.900             3.053           736.375
       206   07 Jun 2027 07:53:22.743   07 Jun 2027 07:53:25.918             3.175            79.187
       207   07 Jun 2027 09:23:17.906   07 Jun 2027 09:23:31.204            13.298          4958.906
       208   07 Jun 2027 09:25:20.090   07 Jun 2027 09:25:21.936             1.846           762.281
       209   07 Jun 2027 09:26:30.446   07 Jun 2027 09:26:31.950             1.504           663.563
       210   07 Jun 2027 09:27:13.206   07 Jun 2027 09:27:15.638             2.432          1121.875
       211   07 Jun 2027 09:27:57.607   07 Jun 2027 09:28:02.795             5.188           292.219
       212   07 Jun 2027 09:28:56.590   07 Jun 2027 09:29:00.192             3.602           839.469
       213   07 Jun 2027 11:00:40.980   07 Jun 2027 11:00:57.045            16.065          6550.344
       214   07 Jun 2027 11:02:30.341   07 Jun 2027 11:02:41.025            10.684           285.281
       215   07 Jun 2027 11:03:47.444   07 Jun 2027 11:03:52.168             4.724          2053.938
       216   07 Jun 2027 11:04:50.076   07 Jun 2027 11:04:54.006             3.930          1281.062
       217   07 Jun 2027 11:05:04.215   07 Jun 2027 11:05:04.614             0.399           122.062
       218   08 Jun 2027 03:23:53.961   08 Jun 2027 03:24:30.318            36.357         18178.500
       219   08 Jun 2027 03:24:58.899   08 Jun 2027 03:26:55.354           116.455         58227.500
       220   08 Jun 2027 03:27:16.183   08 Jun 2027 03:27:24.952             8.769          4384.500
       221   08 Jun 2027 04:48:01.401   08 Jun 2027 04:48:39.551            38.150         19075.000
       222   08 Jun 2027 04:49:21.104   08 Jun 2027 04:49:40.555            19.451          9725.500
       223   08 Jun 2027 06:23:45.443   08 Jun 2027 06:24:58.841            73.398         36682.187
       224   08 Jun 2027 06:25:09.528   08 Jun 2027 06:25:11.217             1.689           260.375
       225   08 Jun 2027 06:26:00.084   08 Jun 2027 06:26:01.254             1.170           585.000
       226   08 Jun 2027 06:26:12.698   08 Jun 2027 06:26:18.614             5.916          1299.719
       227   08 Jun 2027 06:26:26.665   08 Jun 2027 06:26:29.893             3.228           251.594
       228   08 Jun 2027 07:58:49.625   08 Jun 2027 07:59:02.065            12.440          3256.594
       229   08 Jun 2027 08:00:25.380   08 Jun 2027 08:00:29.744             4.364          2163.969
       230   08 Jun 2027 08:01:19.378   08 Jun 2027 08:01:26.128             6.750          1500.406
       231   08 Jun 2027 08:02:22.690   08 Jun 2027 08:02:28.514             5.824          1446.750
       232   08 Jun 2027 08:02:59.284   08 Jun 2027 08:03:02.600             3.316           844.594
       233   08 Jun 2027 08:03:15.003   08 Jun 2027 08:03:20.236             5.233           177.187
       234   08 Jun 2027 08:04:21.433   08 Jun 2027 08:04:24.386             2.953           439.375
       235   08 Jun 2027 08:05:13.091   08 Jun 2027 08:05:16.178             3.087          1516.000
       236   08 Jun 2027 08:05:39.416   08 Jun 2027 08:05:41.173             1.757           488.031
       237   08 Jun 2027 09:34:55.189   08 Jun 2027 09:35:10.080            14.891          5490.750
       238   08 Jun 2027 09:37:36.011   08 Jun 2027 09:37:38.275             2.264           994.031
       239   08 Jun 2027 09:37:55.147   08 Jun 2027 09:37:57.843             2.696           527.250
       240   08 Jun 2027 09:38:29.591   08 Jun 2027 09:38:31.335             1.744           350.563
       241   08 Jun 2027 09:39:33.200   08 Jun 2027 09:39:41.388             8.188          1687.594
       242   08 Jun 2027 09:40:17.034   08 Jun 2027 09:40:19.324             2.290           750.344
       243   08 Jun 2027 11:12:53.698   08 Jun 2027 11:13:06.288            12.590          6122.875
       244   08 Jun 2027 11:14:07.499   08 Jun 2027 11:14:10.544             3.045           954.188
       245   08 Jun 2027 11:15:22.726   08 Jun 2027 11:15:28.246             5.520          2115.156
       246   08 Jun 2027 11:16:19.741   08 Jun 2027 11:16:23.669             3.928          1584.531
       247   08 Jun 2027 11:17:00.603   08 Jun 2027 11:17:02.016             1.413           126.156
       248   08 Jun 2027 11:17:06.776   08 Jun 2027 11:17:09.921             3.145           148.750
       249   09 Jun 2027 03:24:48.853   09 Jun 2027 03:24:49.789             0.936           468.000
       250   09 Jun 2027 03:25:09.227   09 Jun 2027 03:25:22.770            13.543          6771.500
       251   09 Jun 2027 03:35:49.521   09 Jun 2027 03:39:15.943           206.422        103211.000
       252   09 Jun 2027 04:59:07.569   09 Jun 2027 04:59:29.224            21.655         10827.500
       253   09 Jun 2027 05:00:02.024   09 Jun 2027 05:00:13.951            11.927          5963.500
       254   09 Jun 2027 05:02:13.537   09 Jun 2027 05:02:13.537             0.000             0.000
       255   09 Jun 2027 05:02:23.171   09 Jun 2027 05:02:36.373            13.202          6601.000
       256   09 Jun 2027 06:35:30.167   09 Jun 2027 06:36:29.988            59.821         28703.469
       257   09 Jun 2027 06:37:30.680   09 Jun 2027 06:37:35.005             4.325          1896.625
       258   09 Jun 2027 06:38:17.033   09 Jun 2027 06:38:17.033             0.000             0.000
       259   09 Jun 2027 06:38:43.529   09 Jun 2027 06:38:48.051             4.522          2011.906
       260   09 Jun 2027 06:39:36.199   09 Jun 2027 06:39:41.041             4.842          1223.437
       261   09 Jun 2027 08:10:16.002   09 Jun 2027 08:10:17.273             1.271           635.500
       262   09 Jun 2027 08:10:44.946   09 Jun 2027 08:10:49.600             4.654          2198.531
       263   09 Jun 2027 08:12:16.748   09 Jun 2027 08:12:24.203             7.455           285.781
       264   09 Jun 2027 08:13:01.298   09 Jun 2027 08:13:04.370             3.072          1070.187
       265   09 Jun 2027 08:13:37.324   09 Jun 2027 08:13:39.917             2.593            76.094
       266   09 Jun 2027 08:14:21.935   09 Jun 2027 08:14:24.507             2.572          1188.500
       267   09 Jun 2027 08:15:04.010   09 Jun 2027 08:15:06.066             2.056           927.781
       268   09 Jun 2027 08:15:46.049   09 Jun 2027 08:15:49.685             3.636           935.750
       269   09 Jun 2027 08:16:27.576   09 Jun 2027 08:16:30.806             3.230           656.500
       270   09 Jun 2027 08:17:44.424   09 Jun 2027 08:17:48.281             3.857          1069.281
       271   09 Jun 2027 09:47:05.606   09 Jun 2027 09:47:22.796            17.190          6233.375
       272   09 Jun 2027 09:49:33.924   09 Jun 2027 09:49:35.503             1.579           748.375
       273   09 Jun 2027 09:49:43.910   09 Jun 2027 09:49:44.889             0.979           180.125
       274   09 Jun 2027 09:50:16.710   09 Jun 2027 09:50:19.528             2.818           730.625
       275   09 Jun 2027 09:51:22.375   09 Jun 2027 09:51:28.945             6.570          1321.906
       276   09 Jun 2027 09:52:09.661   09 Jun 2027 09:52:11.614             1.953           395.000
       277   09 Jun 2027 09:53:07.294   09 Jun 2027 09:53:11.656             4.362          1740.000
       278   09 Jun 2027 11:25:15.982   09 Jun 2027 11:25:25.736             9.754          4744.625
       279   09 Jun 2027 11:25:47.369   09 Jun 2027 11:25:48.241             0.872           209.125
       280   09 Jun 2027 11:27:06.562   09 Jun 2027 11:27:17.006            10.444          1716.688
       281   09 Jun 2027 11:27:34.851   09 Jun 2027 11:27:36.378             1.527           383.438
       282   09 Jun 2027 11:27:42.929   09 Jun 2027 11:27:49.448             6.519            52.719
       283   09 Jun 2027 11:29:03.552   09 Jun 2027 11:29:07.654             4.102          1510.063
       284   10 Jun 2027 03:36:09.317   10 Jun 2027 03:36:24.546            15.229          7614.500
       285   10 Jun 2027 03:47:50.471   10 Jun 2027 03:49:13.918            83.447         41723.500
       286   10 Jun 2027 05:10:05.746   10 Jun 2027 05:11:21.409            75.663         37831.500
       287   10 Jun 2027 05:12:03.161   10 Jun 2027 05:12:56.885            53.724         26862.000
       288   10 Jun 2027 05:14:57.321   10 Jun 2027 05:14:57.321             0.000             0.000
       289   10 Jun 2027 06:45:18.098   10 Jun 2027 06:46:41.278            83.180         40803.812
       290   10 Jun 2027 06:47:43.595   10 Jun 2027 06:47:49.125             5.530          1471.000
       291   10 Jun 2027 06:48:23.534   10 Jun 2027 06:48:23.534             0.000             0.000
       292   10 Jun 2027 06:48:26.487   10 Jun 2027 06:48:30.097             3.610           411.156
       293   10 Jun 2027 06:49:01.296   10 Jun 2027 06:49:01.296             0.000             0.000
       294   10 Jun 2027 06:49:02.620   10 Jun 2027 06:49:07.525             4.905           937.875
       295   10 Jun 2027 06:50:33.081   10 Jun 2027 06:50:37.118             4.037          2018.500
       296   10 Jun 2027 06:50:58.695   10 Jun 2027 06:51:01.056             2.361          1013.562
       297   10 Jun 2027 06:51:19.704   10 Jun 2027 06:51:21.880             2.176           188.406
       298   10 Jun 2027 06:51:48.611   10 Jun 2027 06:51:50.770             2.159           331.156
       299   10 Jun 2027 08:22:22.885   10 Jun 2027 08:22:33.843            10.958          1960.375
       300   10 Jun 2027 08:23:16.398   10 Jun 2027 08:23:19.515             3.117           905.875
       301   10 Jun 2027 08:24:10.431   10 Jun 2027 08:24:17.019             6.588           535.938
       302   10 Jun 2027 08:25:53.632   10 Jun 2027 08:25:54.700             1.068           526.094
       303   10 Jun 2027 08:26:51.210   10 Jun 2027 08:26:53.779             2.569           695.063
       304   10 Jun 2027 08:27:27.450   10 Jun 2027 08:27:33.454             6.004           399.094
       305   10 Jun 2027 08:27:58.592   10 Jun 2027 08:28:00.378             1.786           585.906
       306   10 Jun 2027 08:28:30.422   10 Jun 2027 08:28:32.129             1.707           799.062
       307   10 Jun 2027 08:29:23.616   10 Jun 2027 08:29:29.972             6.356          1362.719
       308   10 Jun 2027 09:59:21.058   10 Jun 2027 09:59:30.446             9.388          4671.344
       309   10 Jun 2027 10:03:02.583   10 Jun 2027 10:03:07.775             5.192          2031.250
       310   10 Jun 2027 10:03:09.729   10 Jun 2027 10:03:13.216             3.487            58.156
       311   10 Jun 2027 10:03:47.686   10 Jun 2027 10:03:52.799             5.113           670.406
       312   10 Jun 2027 10:05:16.753   10 Jun 2027 10:05:22.248             5.495          2623.562
       313   10 Jun 2027 11:37:17.344   10 Jun 2027 11:37:33.200            15.856          6793.312
       314   10 Jun 2027 11:38:11.039   10 Jun 2027 11:38:17.870             6.831           848.375
       315   10 Jun 2027 11:38:29.883   10 Jun 2027 11:38:34.420             4.537           280.500
       316   10 Jun 2027 11:39:06.676   10 Jun 2027 11:39:09.209             2.533           999.312
       317   10 Jun 2027 11:39:40.118   10 Jun 2027 11:39:43.099             2.981           578.344
       318   10 Jun 2027 11:40:30.315   10 Jun 2027 11:40:33.121             2.806           973.906
       319   10 Jun 2027 11:40:58.985   10 Jun 2027 11:41:01.255             2.270           548.656
       320   10 Jun 2027 11:41:10.652   10 Jun 2027 11:41:12.718             2.066           180.875
       321   11 Jun 2027 03:47:33.501   11 Jun 2027 03:47:35.769             2.268          1134.000
       322   11 Jun 2027 03:48:52.524   11 Jun 2027 03:48:56.756             4.232          2116.000
       323   11 Jun 2027 03:49:47.884   11 Jun 2027 03:49:49.144             1.260           630.000
       324   11 Jun 2027 03:59:47.576   11 Jun 2027 04:00:42.131            54.555         27277.500
       325   11 Jun 2027 05:21:48.195   11 Jun 2027 05:23:08.139            79.944         39972.000
       326   11 Jun 2027 05:23:53.234   11 Jun 2027 05:24:58.582            65.348         32674.000
       327   11 Jun 2027 05:26:05.569   11 Jun 2027 05:26:18.769            13.200          6600.000
       328   11 Jun 2027 06:56:45.552   11 Jun 2027 06:58:14.786            89.234         44135.656
       329   11 Jun 2027 06:59:12.491   11 Jun 2027 06:59:13.821             1.330           665.000
       330   11 Jun 2027 06:59:42.868   11 Jun 2027 06:59:49.189             6.321          1894.000
       331   11 Jun 2027 07:00:51.634   11 Jun 2027 07:00:58.241             6.607          1886.844
       332   11 Jun 2027 07:02:14.598   11 Jun 2027 07:02:22.885             8.287          2309.031
       333   11 Jun 2027 07:03:26.381   11 Jun 2027 07:03:31.181             4.800          1568.719
       334   11 Jun 2027 07:03:48.087   11 Jun 2027 07:03:50.203             2.116           360.969
       335   11 Jun 2027 07:04:20.365   11 Jun 2027 07:04:24.987             4.622           942.563
       336   11 Jun 2027 08:34:25.023   11 Jun 2027 08:34:31.427             6.404          2898.750
       337   11 Jun 2027 08:35:20.279   11 Jun 2027 08:35:27.038             6.759           957.781
       338   11 Jun 2027 08:36:16.317   11 Jun 2027 08:36:21.133             4.816           119.906
       339   11 Jun 2027 08:36:35.056   11 Jun 2027 08:36:35.056             0.000             0.000
       340   11 Jun 2027 08:37:23.300   11 Jun 2027 08:37:27.279             3.979          1778.813
       341   11 Jun 2027 08:38:15.849   11 Jun 2027 08:38:18.987             3.138          1517.813
       342   11 Jun 2027 08:38:43.910   11 Jun 2027 08:38:46.986             3.076           704.469
       343   11 Jun 2027 08:39:37.166   11 Jun 2027 08:39:40.311             3.145          1568.125
       344   11 Jun 2027 08:40:00.468   11 Jun 2027 08:40:02.145             1.677            41.875
       345   11 Jun 2027 08:41:00.942   11 Jun 2027 08:41:04.619             3.677          1620.406
       346   11 Jun 2027 08:41:36.863   11 Jun 2027 08:41:38.819             1.956           400.750
       347   11 Jun 2027 08:41:44.933   11 Jun 2027 08:41:45.892             0.959           159.625
       348   11 Jun 2027 10:11:12.080   11 Jun 2027 10:11:25.909            13.829          6861.594
       349   11 Jun 2027 10:13:28.679   11 Jun 2027 10:13:35.016             6.337          1350.813
       350   11 Jun 2027 10:14:09.455   11 Jun 2027 10:14:09.824             0.369           127.000
       351   11 Jun 2027 10:15:24.684   11 Jun 2027 10:15:28.135             3.451          1030.719
       352   11 Jun 2027 10:15:28.389   11 Jun 2027 10:15:29.601             1.212             7.937
       353   11 Jun 2027 10:15:50.096   11 Jun 2027 10:15:51.737             1.641           168.750
       354   11 Jun 2027 10:16:15.066   11 Jun 2027 10:16:20.262             5.196           386.844
       355   11 Jun 2027 10:16:33.951   11 Jun 2027 10:16:36.160             2.209           382.875
       356   11 Jun 2027 10:17:27.462   11 Jun 2027 10:17:30.423             2.961          1173.438
       357   11 Jun 2027 11:49:14.425   11 Jun 2027 11:49:25.871            11.446          5549.250
       358   11 Jun 2027 11:51:24.917   11 Jun 2027 11:51:27.123             2.206           503.469
       359   11 Jun 2027 11:52:32.996   11 Jun 2027 11:52:35.447             2.451           650.063
       360   11 Jun 2027 11:53:23.612   11 Jun 2027 11:53:24.843             1.231           615.500
       361   12 Jun 2027 03:59:39.078   12 Jun 2027 03:59:51.783            12.705          6352.500
       362   12 Jun 2027 04:01:30.196   12 Jun 2027 04:01:30.196             0.000             0.000
       363   12 Jun 2027 04:01:37.947   12 Jun 2027 04:01:38.448             0.501           250.500
       364   12 Jun 2027 05:33:27.016   12 Jun 2027 05:36:37.646           190.630         95315.000
       365   12 Jun 2027 05:37:10.229   12 Jun 2027 05:37:26.818            16.589          8294.500
       366   12 Jun 2027 05:38:21.157   12 Jun 2027 05:38:31.341            10.184          5092.000
       367   12 Jun 2027 05:38:48.135   12 Jun 2027 05:38:48.135             0.000             0.000
       368   12 Jun 2027 07:08:19.633   12 Jun 2027 07:09:51.307            91.674         43776.219
       369   12 Jun 2027 07:10:47.840   12 Jun 2027 07:10:49.756             1.916           538.594
       370   12 Jun 2027 07:11:26.192   12 Jun 2027 07:11:28.189             1.997           896.000
       371   12 Jun 2027 07:12:51.601   12 Jun 2027 07:12:54.794             3.193          1577.375
       372   12 Jun 2027 07:14:14.221   12 Jun 2027 07:14:25.945            11.724          2238.844
       373   12 Jun 2027 07:15:06.004   12 Jun 2027 07:15:08.087             2.083           838.031
       374   12 Jun 2027 07:15:40.657   12 Jun 2027 07:15:41.866             1.209           597.344
       375   12 Jun 2027 07:16:28.197   12 Jun 2027 07:16:29.633             1.436           718.000
       376   12 Jun 2027 07:16:58.647   12 Jun 2027 07:17:06.215             7.568          1173.312
       377   12 Jun 2027 08:46:27.413   12 Jun 2027 08:46:40.286            12.873          5978.906
       378   12 Jun 2027 08:47:26.780   12 Jun 2027 08:47:32.477             5.697           728.687
       379   12 Jun 2027 08:48:13.715   12 Jun 2027 08:48:16.798             3.083           938.031
       380   12 Jun 2027 08:49:14.412   12 Jun 2027 08:49:17.334             2.922          1136.687
       381   12 Jun 2027 08:50:38.524   12 Jun 2027 08:50:46.979             8.455          2462.063
       382   12 Jun 2027 08:51:51.669   12 Jun 2027 08:51:57.018             5.349          1260.281
       383   12 Jun 2027 08:52:28.233   12 Jun 2027 08:52:35.514             7.281           641.469
       384   12 Jun 2027 08:52:57.245   12 Jun 2027 08:53:03.061             5.816           397.219
       385   12 Jun 2027 08:53:20.160   12 Jun 2027 08:53:21.260             1.100            92.094
       386   12 Jun 2027 08:53:24.412   12 Jun 2027 08:53:26.207             1.795            98.500
       387   12 Jun 2027 10:23:22.573   12 Jun 2027 10:23:41.041            18.468          6553.500
       388   12 Jun 2027 10:27:40.559   12 Jun 2027 10:27:42.349             1.790           845.750
       389   12 Jun 2027 10:27:53.630   12 Jun 2027 10:27:58.235             4.605           352.531
       390   12 Jun 2027 10:28:42.533   12 Jun 2027 10:28:46.521             3.988          1194.187
       391   12 Jun 2027 10:29:25.509   12 Jun 2027 10:29:26.505             0.996             1.500
       392   12 Jun 2027 10:29:33.065   12 Jun 2027 10:29:34.955             1.890           184.812
       393   13 Jun 2027 04:11:34.111   13 Jun 2027 04:12:12.029            37.918         18959.000
       394   13 Jun 2027 04:12:28.944   13 Jun 2027 04:12:41.145            12.201          6100.500
       395   13 Jun 2027 05:47:49.322   13 Jun 2027 05:50:34.436           165.114         82557.000
       396   13 Jun 2027 05:50:45.429   13 Jun 2027 05:50:45.429             0.000             0.000
       397   13 Jun 2027 07:21:21.769   13 Jun 2027 07:23:07.996           106.227         51413.781
       398   13 Jun 2027 07:23:41.583   13 Jun 2027 07:23:42.404             0.821           405.094
       399   13 Jun 2027 07:23:49.884   13 Jun 2027 07:23:54.452             4.568            62.781
       400   13 Jun 2027 07:24:33.428   13 Jun 2027 07:24:38.054             4.626          1043.062
       401   13 Jun 2027 07:25:06.972   13 Jun 2027 07:25:10.012             3.040           867.281
       402   13 Jun 2027 07:27:55.356   13 Jun 2027 07:28:11.564            16.208          4190.031
       403   13 Jun 2027 07:28:32.913   13 Jun 2027 07:28:33.012             0.099            49.500
       404   13 Jun 2027 07:28:51.342   13 Jun 2027 07:28:53.175             1.833           912.719
       405   13 Jun 2027 07:29:11.593   13 Jun 2027 07:29:15.019             3.426           479.500
       406   13 Jun 2027 07:29:53.350   13 Jun 2027 07:29:54.808             1.458           729.000
       407   13 Jun 2027 08:58:54.354   13 Jun 2027 08:59:09.834            15.480          5966.625
       408   13 Jun 2027 09:01:18.554   13 Jun 2027 09:01:22.429             3.875           681.656
       409   13 Jun 2027 09:02:06.184   13 Jun 2027 09:02:07.230             1.046            71.094
       410   13 Jun 2027 09:02:38.589   13 Jun 2027 09:02:40.253             1.664           575.406
       411   13 Jun 2027 09:04:10.929   13 Jun 2027 09:04:18.396             7.467          1657.844
       412   13 Jun 2027 09:04:55.559   13 Jun 2027 09:05:02.274             6.715           976.156
       413   13 Jun 2027 09:05:30.536   13 Jun 2027 09:05:34.885             4.349           749.500
       414   13 Jun 2027 10:35:48.978   13 Jun 2027 10:36:10.908            21.930          6786.250
       415   13 Jun 2027 10:37:48.730   13 Jun 2027 10:37:50.751             2.021            26.531
       416   13 Jun 2027 10:39:13.469   13 Jun 2027 10:39:14.597             1.128           252.062
       417   13 Jun 2027 10:39:34.836   13 Jun 2027 10:39:35.950             1.114           294.188
       418   13 Jun 2027 10:40:08.565   13 Jun 2027 10:40:13.737             5.172           914.562
       419   13 Jun 2027 10:40:54.753   13 Jun 2027 10:40:57.142             2.389           953.031
       420   13 Jun 2027 10:41:31.582   13 Jun 2027 10:41:39.478             7.896            51.000
