uniorb/output/strategy_4/Camera/Camera_KinoSat_111301.txt

KinoSat_111301
-------------------------
    Access    *     Start Time (UTCG)     *     Stop Time (UTCG)  *   Duration (s) *   Data (Mbytes)
         1   01 Jun 2027 04:06:26.890   01 Jun 2027 04:06:57.256            30.366         15183.000
         2   01 Jun 2027 04:07:15.819   01 Jun 2027 04:09:05.450           109.631         54815.500
         3   01 Jun 2027 04:10:05.757   01 Jun 2027 04:10:09.469             3.712          1856.000
         4   01 Jun 2027 05:29:49.379   01 Jun 2027 05:31:29.999           100.620         50310.000
         5   01 Jun 2027 07:06:21.317   01 Jun 2027 07:08:30.301           128.984         64492.000
         6   01 Jun 2027 08:41:31.077   01 Jun 2027 08:43:03.548            92.471         46235.500
         7   01 Jun 2027 08:44:27.937   01 Jun 2027 08:44:58.796            30.859         15429.500
         8   01 Jun 2027 08:46:46.867   01 Jun 2027 08:47:24.419            37.552         18776.000
         9   01 Jun 2027 08:47:31.457   01 Jun 2027 08:47:36.584             5.127          2563.500
        10   01 Jun 2027 08:47:48.655   01 Jun 2027 08:48:04.505            15.850          7925.000
        11   01 Jun 2027 10:17:56.216   01 Jun 2027 10:19:46.929           110.713         55356.500
        12   01 Jun 2027 10:20:04.779   01 Jun 2027 10:20:10.963             6.184          3092.000
        13   01 Jun 2027 10:21:05.045   01 Jun 2027 10:21:11.830             6.785          3392.500
        14   01 Jun 2027 11:55:09.708   01 Jun 2027 11:56:31.594            81.886         40943.000
        15   01 Jun 2027 11:56:53.616   01 Jun 2027 11:57:15.617            22.001         11000.500
        16   01 Jun 2027 11:59:01.305   01 Jun 2027 11:59:21.830            20.525         10262.500
        17   02 Jun 2027 04:18:23.636   02 Jun 2027 04:19:02.456            38.820         19410.000
        18   02 Jun 2027 04:19:27.565   02 Jun 2027 04:19:50.245            22.680         11340.000
        19   02 Jun 2027 04:20:34.056   02 Jun 2027 04:21:13.735            39.679         19839.500
        20   02 Jun 2027 05:42:25.021   02 Jun 2027 05:44:37.656           132.635         66317.500
        21   02 Jun 2027 07:18:14.267   02 Jun 2027 07:20:39.119           144.852         72426.000
        22   02 Jun 2027 07:21:12.972   02 Jun 2027 07:21:33.356            20.384         10192.000
        23   02 Jun 2027 07:21:57.218   02 Jun 2027 07:22:04.431             7.213          3606.500
        24   02 Jun 2027 08:53:10.914   02 Jun 2027 08:56:08.953           178.039         89019.500
        25   02 Jun 2027 08:59:34.092   02 Jun 2027 08:59:34.092             0.000             0.000
        26   02 Jun 2027 08:59:48.334   02 Jun 2027 09:00:15.090            26.756         13378.000
        27   02 Jun 2027 10:29:28.919   02 Jun 2027 10:30:56.815            87.896         43641.563
        28   02 Jun 2027 10:31:57.909   02 Jun 2027 10:31:58.752             0.843           402.906
        29   02 Jun 2027 10:32:08.719   02 Jun 2027 10:32:09.852             1.133           311.469
        30   02 Jun 2027 10:32:11.872   02 Jun 2027 10:32:15.540             3.668            35.219
        31   02 Jun 2027 10:32:30.860   02 Jun 2027 10:32:31.513             0.653           138.750
        32   02 Jun 2027 10:32:31.853   02 Jun 2027 10:32:33.215             1.362            10.625
        33   02 Jun 2027 10:32:52.922   02 Jun 2027 10:32:57.927             5.005           594.969
        34   02 Jun 2027 10:33:38.800   02 Jun 2027 10:33:41.643             2.843          1277.281
        35   02 Jun 2027 10:34:07.217   02 Jun 2027 10:34:09.432             2.215           712.156
        36   02 Jun 2027 10:35:06.293   02 Jun 2027 10:35:12.692             6.399          1642.844
        37   02 Jun 2027 10:35:34.969   02 Jun 2027 10:35:35.588             0.619           248.469
        38   02 Jun 2027 10:35:52.194   02 Jun 2027 10:35:53.145             0.951           198.250
        39   03 Jun 2027 03:00:00.000   03 Jun 2027 03:00:14.111            14.111          7055.500
        40   03 Jun 2027 04:19:09.919   03 Jun 2027 04:19:50.630            40.711         20355.500
        41   03 Jun 2027 04:30:20.015   03 Jun 2027 04:31:42.980            82.965         41482.500
        42   03 Jun 2027 04:33:02.458   03 Jun 2027 04:33:16.370            13.912          6956.000
        43   03 Jun 2027 05:53:03.415   03 Jun 2027 05:54:08.846            65.431         32715.500
        44   03 Jun 2027 05:55:58.828   03 Jun 2027 05:56:05.082             6.254          3127.000
        45   03 Jun 2027 05:56:50.387   03 Jun 2027 05:56:51.419             1.032           516.000
        46   03 Jun 2027 07:28:33.145   03 Jun 2027 07:29:06.384            33.239         16619.500
        47   03 Jun 2027 07:29:58.345   03 Jun 2027 07:31:19.806            81.461         40585.750
        48   03 Jun 2027 07:32:32.675   03 Jun 2027 07:32:37.029             4.354          2001.156
        49   03 Jun 2027 07:32:57.831   03 Jun 2027 07:32:58.842             1.011           239.375
        50   03 Jun 2027 07:33:40.768   03 Jun 2027 07:33:45.379             4.611          1310.188
        51   03 Jun 2027 07:34:14.776   03 Jun 2027 07:34:16.341             1.565           338.938
        52   03 Jun 2027 07:34:19.824   03 Jun 2027 07:34:19.824             0.000             0.000
        53   03 Jun 2027 09:04:44.105   03 Jun 2027 09:04:48.232             4.127          2063.500
        54   03 Jun 2027 09:05:06.300   03 Jun 2027 09:05:08.253             1.953           713.750
        55   03 Jun 2027 09:05:43.667   03 Jun 2027 09:05:46.601             2.934           856.750
        56   03 Jun 2027 09:06:22.384   03 Jun 2027 09:06:24.084             1.700            60.500
        57   03 Jun 2027 09:07:50.058   03 Jun 2027 09:07:53.870             3.812          1413.000
        58   03 Jun 2027 09:08:22.397   03 Jun 2027 09:08:22.397             0.000             0.000
        59   03 Jun 2027 09:08:54.009   03 Jun 2027 09:09:00.610             6.601          1129.250
        60   03 Jun 2027 09:09:40.305   03 Jun 2027 09:09:43.237             2.932          1157.344
        61   03 Jun 2027 09:10:25.146   03 Jun 2027 09:10:26.324             1.178           470.000
        62   03 Jun 2027 09:11:29.412   03 Jun 2027 09:11:32.468             3.056          1379.688
        63   03 Jun 2027 09:12:16.886   03 Jun 2027 09:12:19.788             2.902            35.156
        64   03 Jun 2027 10:41:48.400   03 Jun 2027 10:42:05.126            16.726          7563.844
        65   03 Jun 2027 10:44:18.888   03 Jun 2027 10:44:22.881             3.993          1499.344
        66   03 Jun 2027 10:45:04.643   03 Jun 2027 10:45:08.160             3.517          1021.250
        67   03 Jun 2027 10:45:19.697   03 Jun 2027 10:45:21.145             1.448           267.750
        68   03 Jun 2027 10:45:45.653   03 Jun 2027 10:45:50.866             5.213           153.031
        69   03 Jun 2027 10:45:59.770   03 Jun 2027 10:46:01.909             2.139            87.156
        70   03 Jun 2027 10:46:11.004   03 Jun 2027 10:46:23.925            12.921            80.812
        71   03 Jun 2027 10:46:37.693   03 Jun 2027 10:46:39.308             1.615           430.250
        72   03 Jun 2027 10:46:43.349   03 Jun 2027 10:46:43.559             0.210            61.437
        73   03 Jun 2027 10:47:25.489   03 Jun 2027 10:47:29.011             3.522           847.469
        74   03 Jun 2027 10:47:53.359   03 Jun 2027 10:47:57.685             4.326           760.875
        75   04 Jun 2027 03:05:48.208   04 Jun 2027 03:06:36.363            48.155         24077.500
        76   04 Jun 2027 03:08:14.932   04 Jun 2027 03:08:34.056            19.124          9562.000
        77   04 Jun 2027 03:08:51.666   04 Jun 2027 03:08:52.359             0.693           346.500
        78   04 Jun 2027 03:09:43.071   04 Jun 2027 03:09:43.237             0.166            83.000
        79   04 Jun 2027 03:09:56.378   04 Jun 2027 03:10:19.452            23.074         11537.000
        80   04 Jun 2027 03:11:38.780   04 Jun 2027 03:11:57.886            19.106          9553.000
        81   04 Jun 2027 03:12:33.419   04 Jun 2027 03:12:54.835            21.416         10708.000
        82   04 Jun 2027 04:30:39.839   04 Jun 2027 04:31:11.700            31.861         15930.500
        83   04 Jun 2027 04:31:59.976   04 Jun 2027 04:32:11.919            11.943          5971.500
        84   04 Jun 2027 04:42:22.945   04 Jun 2027 04:43:36.197            73.252         36626.000
        85   04 Jun 2027 06:04:35.651   04 Jun 2027 06:05:46.663            71.012         35506.000
        86   04 Jun 2027 06:06:36.438   04 Jun 2027 06:06:53.544            17.106          8553.000
        87   04 Jun 2027 06:08:53.138   04 Jun 2027 06:08:54.239             1.101           550.500
        88   04 Jun 2027 07:39:39.977   04 Jun 2027 07:39:52.575            12.598          6217.937
        89   04 Jun 2027 07:40:58.424   04 Jun 2027 07:41:02.480             4.056          1295.156
        90   04 Jun 2027 07:41:07.815   04 Jun 2027 07:41:08.563             0.748           166.719
        91   04 Jun 2027 07:41:43.074   04 Jun 2027 07:41:43.764             0.690           345.000
        92   04 Jun 2027 07:42:38.132   04 Jun 2027 07:42:42.922             4.790          1865.500
        93   04 Jun 2027 07:43:11.231   04 Jun 2027 07:43:12.506             1.275           608.187
        94   04 Jun 2027 07:44:50.765   04 Jun 2027 07:44:58.220             7.455          2518.031
        95   04 Jun 2027 07:45:27.112   04 Jun 2027 07:45:32.976             5.864           780.875
        96   04 Jun 2027 07:46:08.557   04 Jun 2027 07:46:10.158             1.601           410.781
        97   04 Jun 2027 07:47:35.564   04 Jun 2027 07:47:43.765             8.201          1372.656
        98   04 Jun 2027 09:17:01.369   04 Jun 2027 09:17:08.848             7.479          2752.031
        99   04 Jun 2027 09:19:04.673   04 Jun 2027 09:19:10.181             5.508          2469.594
       100   04 Jun 2027 09:20:00.783   04 Jun 2027 09:20:05.012             4.229          1451.500
       101   04 Jun 2027 09:20:27.013   04 Jun 2027 09:20:29.040             2.027           530.281
       102   04 Jun 2027 09:22:10.962   04 Jun 2027 09:22:13.793             2.831           952.750
       103   04 Jun 2027 09:23:21.277   04 Jun 2027 09:23:24.801             3.524          1730.000
       104   04 Jun 2027 09:23:44.124   04 Jun 2027 09:23:46.464             2.340           591.813
       105   04 Jun 2027 10:53:50.299   04 Jun 2027 10:54:03.061            12.762          6092.656
       106   04 Jun 2027 10:56:46.192   04 Jun 2027 10:56:54.145             7.953           981.781
       107   04 Jun 2027 10:57:51.981   04 Jun 2027 10:57:53.813             1.832           835.875
       108   04 Jun 2027 10:58:17.439   04 Jun 2027 10:58:21.022             3.583           433.594
       109   04 Jun 2027 10:58:37.199   04 Jun 2027 10:58:39.581             2.382           505.531
       110   04 Jun 2027 10:59:09.453   04 Jun 2027 10:59:16.160             6.707           899.188
       111   04 Jun 2027 10:59:31.061   04 Jun 2027 10:59:32.020             0.959           448.813
       112   04 Jun 2027 10:59:52.743   04 Jun 2027 10:59:53.899             1.156           319.688
       113   05 Jun 2027 03:17:56.785   05 Jun 2027 03:19:48.588           111.803         55901.500
       114   05 Jun 2027 03:20:13.214   05 Jun 2027 03:20:15.315             2.101          1050.500
       115   05 Jun 2027 03:20:30.971   05 Jun 2027 03:20:58.807            27.836         13918.000
       116   05 Jun 2027 03:21:29.112   05 Jun 2027 03:21:50.478            21.366         10683.000
       117   05 Jun 2027 03:22:45.070   05 Jun 2027 03:23:28.656            43.586         21793.000
       118   05 Jun 2027 03:24:46.441   05 Jun 2027 03:24:55.434             8.993          4496.500
       119   05 Jun 2027 04:42:10.095   05 Jun 2027 04:42:28.284            18.189          9094.500
       120   05 Jun 2027 04:44:05.445   05 Jun 2027 04:44:19.758            14.313          7156.500
       121   05 Jun 2027 04:54:23.690   05 Jun 2027 04:54:55.503            31.813         15906.500
       122   05 Jun 2027 06:16:19.958   05 Jun 2027 06:17:24.884            64.926         30899.594
       123   05 Jun 2027 06:18:22.646   05 Jun 2027 06:18:26.489             3.843          1089.063
       124   05 Jun 2027 06:18:33.276   05 Jun 2027 06:18:33.524             0.248           123.094
       125   05 Jun 2027 06:18:53.055   05 Jun 2027 06:18:55.159             2.104           141.125
       126   05 Jun 2027 06:19:07.487   05 Jun 2027 06:19:10.270             2.783           385.250
       127   05 Jun 2027 06:20:02.154   05 Jun 2027 06:20:03.982             1.828           900.719
       128   05 Jun 2027 06:20:14.455   05 Jun 2027 06:20:15.431             0.976           243.406
       129   05 Jun 2027 06:20:55.569   05 Jun 2027 06:20:56.163             0.594           111.344
       130   05 Jun 2027 06:21:26.761   05 Jun 2027 06:21:30.938             4.177           927.938
       131   05 Jun 2027 07:51:08.198   05 Jun 2027 07:51:13.256             5.058          2188.906
       132   05 Jun 2027 07:51:26.570   05 Jun 2027 07:51:30.096             3.526           102.781
       133   05 Jun 2027 07:53:05.882   05 Jun 2027 07:53:09.025             3.143           232.313
       134   05 Jun 2027 07:53:32.471   05 Jun 2027 07:53:34.050             1.579           732.687
       135   05 Jun 2027 07:54:21.926   05 Jun 2027 07:54:29.208             7.282          1496.125
       136   05 Jun 2027 07:54:37.948   05 Jun 2027 07:54:38.354             0.406            92.063
       137   05 Jun 2027 07:55:13.693   05 Jun 2027 07:55:23.744            10.051           451.125
       138   05 Jun 2027 07:56:43.722   05 Jun 2027 07:56:48.573             4.851          2313.219
       139   05 Jun 2027 07:57:05.318   05 Jun 2027 07:57:09.187             3.869           451.969
       140   05 Jun 2027 07:57:51.151   05 Jun 2027 07:57:56.790             5.639           682.313
       141   05 Jun 2027 07:58:01.124   05 Jun 2027 07:58:02.019             0.895            33.812
       142   05 Jun 2027 07:58:13.215   05 Jun 2027 07:58:18.332             5.117           168.719
       143   05 Jun 2027 07:59:52.099   05 Jun 2027 07:59:58.399             6.300          2283.656
       144   05 Jun 2027 09:28:57.042   05 Jun 2027 09:29:06.575             9.533          4327.813
       145   05 Jun 2027 09:31:03.836   05 Jun 2027 09:31:10.190             6.354          2301.844
       146   05 Jun 2027 09:33:12.563   05 Jun 2027 09:33:19.274             6.711          1227.062
       147   05 Jun 2027 09:34:25.749   05 Jun 2027 09:34:26.149             0.400           173.438
       148   05 Jun 2027 09:34:56.747   05 Jun 2027 09:35:00.217             3.470           517.250
       149   05 Jun 2027 09:35:40.561   05 Jun 2027 09:35:41.265             0.704            24.344
       150   05 Jun 2027 09:35:50.754   05 Jun 2027 09:35:53.822             3.068           296.531
       151   05 Jun 2027 11:05:41.456   05 Jun 2027 11:05:48.340             6.884          3442.000
       152   05 Jun 2027 11:06:06.994   05 Jun 2027 11:06:17.451            10.457          2100.312
       153   05 Jun 2027 11:06:56.759   05 Jun 2027 11:06:57.907             1.148            73.812
       154   05 Jun 2027 11:08:29.797   05 Jun 2027 11:08:35.418             5.621          2034.156
       155   05 Jun 2027 11:09:10.512   05 Jun 2027 11:09:25.233            14.721          1096.687
       156   05 Jun 2027 11:09:45.222   05 Jun 2027 11:09:47.164             1.942           260.875
       157   05 Jun 2027 11:10:06.363   05 Jun 2027 11:10:07.213             0.850           370.719
       158   05 Jun 2027 11:11:05.633   05 Jun 2027 11:11:08.687             3.054           931.750
       159   05 Jun 2027 11:11:29.069   05 Jun 2027 11:11:30.235             1.166           401.156
       160   05 Jun 2027 11:11:54.746   05 Jun 2027 11:11:58.814             4.068           675.031
       161   06 Jun 2027 03:30:07.456   06 Jun 2027 03:33:32.422           204.966        102483.000
       162   06 Jun 2027 04:54:09.176   06 Jun 2027 04:54:18.934             9.758          4879.000
       163   06 Jun 2027 06:30:06.000   06 Jun 2027 06:31:42.421            96.421         48210.500
       164   06 Jun 2027 06:32:40.667   06 Jun 2027 06:32:45.267             4.600          2031.531
       165   06 Jun 2027 06:32:52.772   06 Jun 2027 06:32:55.605             2.833           124.812
       166   06 Jun 2027 06:33:00.203   06 Jun 2027 06:33:00.203             0.000             0.000
       167   06 Jun 2027 06:33:11.200   06 Jun 2027 06:33:13.307             2.107           406.906
       168   06 Jun 2027 08:03:56.830   06 Jun 2027 08:04:12.046            15.216          2647.281
       169   06 Jun 2027 08:05:22.632   06 Jun 2027 08:05:25.750             3.118          1052.812
       170   06 Jun 2027 08:06:22.614   06 Jun 2027 08:06:26.183             3.569          1529.937
       171   06 Jun 2027 08:06:30.622   06 Jun 2027 08:06:32.381             1.759           136.750
       172   06 Jun 2027 08:07:29.567   06 Jun 2027 08:07:29.567             0.000             0.000
       173   06 Jun 2027 08:08:36.093   06 Jun 2027 08:08:46.353            10.260          3866.000
       174   06 Jun 2027 08:09:08.406   06 Jun 2027 08:09:10.854             2.448           564.438
       175   06 Jun 2027 08:10:18.780   06 Jun 2027 08:10:24.828             6.048          1502.250
       176   06 Jun 2027 08:10:40.737   06 Jun 2027 08:10:41.520             0.783           197.250
       177   06 Jun 2027 08:11:43.980   06 Jun 2027 08:11:48.086             4.106          1519.125
       178   06 Jun 2027 09:41:03.616   06 Jun 2027 09:41:13.173             9.557          4428.750
       179   06 Jun 2027 09:43:02.189   06 Jun 2027 09:43:11.283             9.094          2008.375
       180   06 Jun 2027 09:45:35.027   06 Jun 2027 09:45:37.554             2.527           859.344
       181   06 Jun 2027 09:46:28.230   06 Jun 2027 09:46:31.477             3.247           114.969
       182   06 Jun 2027 09:47:24.103   06 Jun 2027 09:47:26.522             2.419          1188.000
       183   06 Jun 2027 09:47:45.492   06 Jun 2027 09:47:48.394             2.902           438.438
       184   06 Jun 2027 09:47:55.872   06 Jun 2027 09:47:56.135             0.263           108.875
       185   06 Jun 2027 09:48:13.226   06 Jun 2027 09:48:15.948             2.722           435.656
       186   06 Jun 2027 11:18:06.160   06 Jun 2027 11:18:19.880            13.720          6110.375
       187   06 Jun 2027 11:18:31.186   06 Jun 2027 11:18:35.523             4.337           105.562
       188   06 Jun 2027 11:20:14.111   06 Jun 2027 11:20:14.934             0.823           251.750
       189   06 Jun 2027 11:20:42.152   06 Jun 2027 11:20:46.317             4.165           477.031
       190   06 Jun 2027 11:21:44.467   06 Jun 2027 11:21:48.331             3.864          1817.188
       191   06 Jun 2027 11:23:03.421   06 Jun 2027 11:23:09.825             6.404          1133.500
       192   06 Jun 2027 11:23:35.276   06 Jun 2027 11:23:37.441             2.165           272.625
       193   06 Jun 2027 11:24:08.458   06 Jun 2027 11:24:13.149             4.691           576.500
       194   07 Jun 2027 03:42:42.201   07 Jun 2027 03:46:09.338           207.137        103568.500
       195   07 Jun 2027 03:46:22.107   07 Jun 2027 03:46:25.934             3.827          1913.500
       196   07 Jun 2027 03:47:06.338   07 Jun 2027 03:47:20.339            14.001          7000.500
       197   07 Jun 2027 05:06:11.466   07 Jun 2027 05:06:15.385             3.919          1959.500
       198   07 Jun 2027 06:42:27.865   07 Jun 2027 06:43:54.351            86.486         42343.968
       199   07 Jun 2027 06:45:15.282   07 Jun 2027 06:45:21.723             6.441          1637.125
       200   07 Jun 2027 08:16:08.350   07 Jun 2027 08:16:14.270             5.920          2425.750
       201   07 Jun 2027 08:17:12.544   07 Jun 2027 08:17:15.040             2.496            75.094
       202   07 Jun 2027 08:18:16.716   07 Jun 2027 08:18:18.457             1.741           601.281
       203   07 Jun 2027 08:19:17.878   07 Jun 2027 08:19:25.616             7.738          1662.312
       204   07 Jun 2027 08:20:25.391   07 Jun 2027 08:20:36.825            11.434          1766.344
       205   07 Jun 2027 08:21:11.351   07 Jun 2027 08:21:13.999             2.648           694.406
       206   07 Jun 2027 08:22:49.890   07 Jun 2027 08:22:56.741             6.851          2438.563
       207   07 Jun 2027 08:23:02.971   07 Jun 2027 08:23:03.255             0.284           113.312
       208   07 Jun 2027 08:23:14.274   07 Jun 2027 08:23:15.065             0.791           267.031
       209   07 Jun 2027 08:23:54.063   07 Jun 2027 08:23:57.412             3.349           834.313
       210   07 Jun 2027 09:53:29.775   07 Jun 2027 09:53:39.806            10.031          4069.063
       211   07 Jun 2027 09:58:19.873   07 Jun 2027 09:58:22.180             2.307           739.281
       212   07 Jun 2027 09:58:35.241   07 Jun 2027 09:58:36.800             1.559           408.156
       213   07 Jun 2027 09:59:40.254   07 Jun 2027 09:59:44.331             4.077          1123.500
       214   07 Jun 2027 11:30:26.850   07 Jun 2027 11:30:38.908            12.058          5656.125
       215   07 Jun 2027 11:31:32.805   07 Jun 2027 11:31:35.150             2.345          1017.813
       216   07 Jun 2027 11:32:27.980   07 Jun 2027 11:32:30.272             2.292           524.625
       217   07 Jun 2027 11:33:52.430   07 Jun 2027 11:33:55.500             3.070           152.719
       218   07 Jun 2027 11:33:57.844   07 Jun 2027 11:34:01.570             3.726            70.250
       219   07 Jun 2027 11:34:11.924   07 Jun 2027 11:34:22.517            10.593           323.562
       220   07 Jun 2027 11:34:55.347   07 Jun 2027 11:35:03.594             8.247           854.375
       221   07 Jun 2027 11:35:40.626   07 Jun 2027 11:35:43.281             2.655          1097.219
       222   08 Jun 2027 03:54:20.014   08 Jun 2027 03:56:08.989           108.975         54487.500
       223   08 Jun 2027 03:56:47.641   08 Jun 2027 03:57:12.229            24.588         12294.000
       224   08 Jun 2027 03:57:23.570   08 Jun 2027 03:58:00.309            36.739         18369.500
       225   08 Jun 2027 05:17:50.931   08 Jun 2027 05:19:00.512            69.581         34790.500
       226   08 Jun 2027 06:54:29.645   08 Jun 2027 06:55:54.980            85.335         39360.656
       227   08 Jun 2027 06:56:10.104   08 Jun 2027 06:56:12.940             2.836            26.188
       228   08 Jun 2027 06:56:22.793   08 Jun 2027 06:56:23.232             0.439           176.406
       229   08 Jun 2027 06:57:14.836   08 Jun 2027 06:57:18.828             3.992          1264.781
       230   08 Jun 2027 08:29:24.923   08 Jun 2027 08:29:30.432             5.509          2280.344
       231   08 Jun 2027 08:30:34.337   08 Jun 2027 08:30:35.439             1.102           550.406
       232   08 Jun 2027 08:31:19.520   08 Jun 2027 08:31:26.267             6.747          1083.406
       233   08 Jun 2027 08:32:47.074   08 Jun 2027 08:32:50.274             3.200          1538.594
       234   08 Jun 2027 08:33:23.660   08 Jun 2027 08:33:24.783             1.123           297.813
       235   08 Jun 2027 08:33:48.212   08 Jun 2027 08:33:49.611             1.399           595.812
       236   08 Jun 2027 08:35:24.284   08 Jun 2027 08:35:25.932             1.648           619.000
       237   08 Jun 2027 08:36:07.228   08 Jun 2027 08:36:09.911             2.683          1214.000
       238   08 Jun 2027 10:05:37.396   08 Jun 2027 10:05:47.795            10.399          5166.656
       239   08 Jun 2027 10:07:31.820   08 Jun 2027 10:07:42.175            10.355           429.156
       240   08 Jun 2027 10:07:42.178   08 Jun 2027 10:07:44.842             2.664             0.094
       241   08 Jun 2027 10:08:48.792   08 Jun 2027 10:08:49.975             1.183           479.313
       242   08 Jun 2027 10:09:29.566   08 Jun 2027 10:09:32.111             2.545          1237.219
       243   08 Jun 2027 10:09:59.369   08 Jun 2027 10:10:02.028             2.659           290.750
       244   08 Jun 2027 10:10:19.328   08 Jun 2027 10:10:21.130             1.802           540.625
       245   08 Jun 2027 10:10:38.504   08 Jun 2027 10:10:39.622             1.118           421.781
       246   08 Jun 2027 10:11:31.195   08 Jun 2027 10:11:39.067             7.872          1557.750
       247   08 Jun 2027 10:12:10.959   08 Jun 2027 10:12:13.807             2.848           996.625
       248   08 Jun 2027 11:43:21.058   08 Jun 2027 11:43:33.379            12.321          5452.031
       249   08 Jun 2027 11:45:33.983   08 Jun 2027 11:45:42.810             8.827           410.656
       250   08 Jun 2027 11:45:54.468   08 Jun 2027 11:45:56.791             2.323           178.719
       251   08 Jun 2027 11:46:13.625   08 Jun 2027 11:46:15.932             2.307           319.750
       252   08 Jun 2027 11:46:50.172   08 Jun 2027 11:46:51.748             1.576           415.469
       253   08 Jun 2027 11:47:42.853   08 Jun 2027 11:47:44.725             1.872           487.219
       254   09 Jun 2027 04:06:42.846   09 Jun 2027 04:07:13.826            30.980         15490.000
       255   09 Jun 2027 04:07:32.378   09 Jun 2027 04:09:17.369           104.991         52495.500
       256   09 Jun 2027 04:10:00.247   09 Jun 2027 04:10:00.247             0.000             0.000
       257   09 Jun 2027 05:30:05.392   09 Jun 2027 05:31:00.767            55.375         27687.500
       258   09 Jun 2027 05:33:01.020   09 Jun 2027 05:33:05.139             4.119          2059.500
       259   09 Jun 2027 07:06:37.167   09 Jun 2027 07:08:41.627           124.460         62100.781
       260   09 Jun 2027 07:09:04.101   09 Jun 2027 07:09:06.204             2.103           546.156
       261   09 Jun 2027 07:09:36.599   09 Jun 2027 07:09:36.599             0.000             0.000
       262   09 Jun 2027 08:41:47.317   09 Jun 2027 08:41:55.120             7.803          3781.156
       263   09 Jun 2027 08:43:08.492   09 Jun 2027 08:43:14.463             5.971          2003.250
       264   09 Jun 2027 08:43:20.792   09 Jun 2027 08:43:22.258             1.466           104.406
       265   09 Jun 2027 08:44:44.001   09 Jun 2027 08:44:50.018             6.017          1091.969
       266   09 Jun 2027 08:45:16.709   09 Jun 2027 08:45:19.775             3.066           390.125
       267   09 Jun 2027 08:47:03.728   09 Jun 2027 08:47:12.072             8.344          2333.906
       268   09 Jun 2027 08:47:35.557   09 Jun 2027 08:47:36.910             1.353           656.531
       269   09 Jun 2027 08:48:02.099   09 Jun 2027 08:48:03.753             1.654           121.094
       270   09 Jun 2027 10:18:11.716   09 Jun 2027 10:18:21.236             9.520          4691.812
       271   09 Jun 2027 10:20:45.074   09 Jun 2027 10:20:46.529             1.455           293.344
       272   09 Jun 2027 10:21:28.168   09 Jun 2027 10:21:37.198             9.030          1301.219
       273   09 Jun 2027 10:22:17.908   09 Jun 2027 10:22:19.499             1.591           332.063
       274   09 Jun 2027 10:23:21.594   09 Jun 2027 10:23:25.237             3.643          1093.063
       275   09 Jun 2027 11:55:27.572   09 Jun 2027 11:55:39.102            11.530          5339.375
       276   09 Jun 2027 11:56:07.847   09 Jun 2027 11:56:10.018             2.171           404.250
       277   09 Jun 2027 11:56:57.307   09 Jun 2027 11:57:06.684             9.377           848.188
       278   09 Jun 2027 11:58:42.361   09 Jun 2027 11:58:47.440             5.079          2163.531
       279   09 Jun 2027 11:59:41.204   09 Jun 2027 11:59:44.824             3.620          1680.125
       280   10 Jun 2027 04:18:39.618   10 Jun 2027 04:19:18.652            39.034         19517.000
       281   10 Jun 2027 04:19:41.684   10 Jun 2027 04:21:10.086            88.402         44201.000
       282   10 Jun 2027 04:21:30.396   10 Jun 2027 04:21:44.591            14.195          7097.500
       283   10 Jun 2027 04:22:09.820   10 Jun 2027 04:22:14.500             4.680          2340.000
       284   10 Jun 2027 05:42:07.913   10 Jun 2027 05:42:14.741             6.828          3414.000
       285   10 Jun 2027 05:42:27.065   10 Jun 2027 05:42:45.650            18.585          9292.500
       286   10 Jun 2027 05:43:05.321   10 Jun 2027 05:43:15.336            10.015          5007.500
       287   10 Jun 2027 05:43:21.212   10 Jun 2027 05:43:22.030             0.818           409.000
       288   10 Jun 2027 07:18:30.123   10 Jun 2027 07:20:53.210           143.087         70961.156
       289   10 Jun 2027 07:21:42.038   10 Jun 2027 07:21:45.559             3.521          1172.375
       290   10 Jun 2027 08:53:26.071   10 Jun 2027 08:53:34.870             8.799          2732.594
       291   10 Jun 2027 08:54:01.709   10 Jun 2027 08:54:02.875             1.166           318.906
       292   10 Jun 2027 08:55:36.101   10 Jun 2027 08:55:38.005             1.904           451.719
       293   10 Jun 2027 08:56:22.437   10 Jun 2027 08:56:24.438             2.001           426.969
       294   10 Jun 2027 08:57:19.052   10 Jun 2027 08:57:21.942             2.890          1230.719
       295   10 Jun 2027 08:59:03.232   10 Jun 2027 08:59:08.105             4.873          2213.750
       296   10 Jun 2027 09:00:28.204   10 Jun 2027 09:00:31.909             3.705          1852.500
       297   10 Jun 2027 10:29:45.372   10 Jun 2027 10:29:58.315            12.943          5455.469
       298   10 Jun 2027 10:32:16.746   10 Jun 2027 10:32:17.284             0.538           135.469
       299   10 Jun 2027 10:32:27.818   10 Jun 2027 10:32:29.832             2.014             6.375
       300   10 Jun 2027 10:32:49.423   10 Jun 2027 10:32:49.769             0.346            99.781
       301   10 Jun 2027 10:34:12.023   10 Jun 2027 10:34:23.522            11.499          1858.625
       302   10 Jun 2027 10:34:51.095   10 Jun 2027 10:34:53.883             2.788           334.563
       303   10 Jun 2027 10:35:22.397   10 Jun 2027 10:35:27.489             5.092           727.563
       304   10 Jun 2027 10:35:50.676   10 Jun 2027 10:35:51.783             1.107           246.500
       305   10 Jun 2027 10:36:07.660   10 Jun 2027 10:36:09.549             1.889           138.750
       306   11 Jun 2027 03:00:00.000   11 Jun 2027 03:00:05.047             5.047          2523.500
       307   11 Jun 2027 03:00:15.078   11 Jun 2027 03:00:28.870            13.792          6896.000
       308   11 Jun 2027 04:19:23.592   11 Jun 2027 04:19:58.181            34.589         17294.500
       309   11 Jun 2027 04:20:01.399   11 Jun 2027 04:20:15.227            13.828          6914.000
       310   11 Jun 2027 04:30:35.992   11 Jun 2027 04:32:06.641            90.649         45324.500
       311   11 Jun 2027 04:33:34.615   11 Jun 2027 04:33:44.246             9.631          4815.500
       312   11 Jun 2027 05:53:12.676   11 Jun 2027 05:53:45.533            32.857         16428.500
       313   11 Jun 2027 05:53:53.647   11 Jun 2027 05:54:25.653            32.006         16003.000
       314   11 Jun 2027 05:55:50.744   11 Jun 2027 05:55:50.744             0.000             0.000
       315   11 Jun 2027 05:56:15.838   11 Jun 2027 05:56:19.916             4.078          2039.000
       316   11 Jun 2027 07:28:48.436   11 Jun 2027 07:29:28.109            39.673         19836.500
       317   11 Jun 2027 07:30:14.367   11 Jun 2027 07:31:12.814            58.447         27127.062
       318   11 Jun 2027 07:31:23.855   11 Jun 2027 07:31:24.244             0.389            72.375
       319   11 Jun 2027 07:31:58.393   11 Jun 2027 07:32:03.939             5.546          1013.812
       320   11 Jun 2027 07:33:06.485   11 Jun 2027 07:33:09.194             2.709          1354.500
       321   11 Jun 2027 07:33:23.448   11 Jun 2027 07:33:25.686             2.238          1010.719
       322   11 Jun 2027 07:33:43.856   11 Jun 2027 07:33:45.264             1.408           506.875
       323   11 Jun 2027 07:34:20.157   11 Jun 2027 07:34:22.129             1.972           712.500
       324   11 Jun 2027 07:34:35.741   11 Jun 2027 07:34:36.988             1.247           238.781
       325   11 Jun 2027 09:04:59.510   11 Jun 2027 09:05:04.253             4.743          2339.937
       326   11 Jun 2027 09:05:24.463   11 Jun 2027 09:05:29.568             5.105           620.844
       327   11 Jun 2027 09:06:01.429   11 Jun 2027 09:06:06.382             4.953           952.781
       328   11 Jun 2027 09:08:08.170   11 Jun 2027 09:08:12.193             4.023          1442.625
       329   11 Jun 2027 09:08:40.558   11 Jun 2027 09:08:40.558             0.000             0.000
       330   11 Jun 2027 09:09:12.560   11 Jun 2027 09:09:15.499             2.939          1212.406
       331   11 Jun 2027 09:09:58.335   11 Jun 2027 09:10:01.051             2.716          1162.656
       332   11 Jun 2027 09:10:40.621   11 Jun 2027 09:10:41.836             1.215           493.219
       333   11 Jun 2027 09:11:47.000   11 Jun 2027 09:11:51.672             4.672          1405.844
       334   11 Jun 2027 09:12:33.082   11 Jun 2027 09:12:34.708             1.626            83.156
       335   11 Jun 2027 10:42:05.207   11 Jun 2027 10:42:23.582            18.375          7526.844
       336   11 Jun 2027 10:44:18.898   11 Jun 2027 10:44:20.213             1.315           236.406
       337   11 Jun 2027 10:45:30.260   11 Jun 2027 10:45:34.566             4.306          1128.844
       338   11 Jun 2027 10:45:58.271   11 Jun 2027 10:46:02.314             4.043           720.500
       339   11 Jun 2027 10:46:16.271   11 Jun 2027 10:46:19.987             3.716           137.313
       340   11 Jun 2027 10:46:54.801   11 Jun 2027 10:46:57.112             2.311           465.469
       341   11 Jun 2027 10:48:08.265   11 Jun 2027 10:48:18.025             9.760          2223.531
       342   12 Jun 2027 03:06:04.283   12 Jun 2027 03:06:48.165            43.882         21941.000
       343   12 Jun 2027 03:07:43.834   12 Jun 2027 03:07:48.444             4.610          2305.000
       344   12 Jun 2027 03:08:20.923   12 Jun 2027 03:08:29.406             8.483          4241.500
       345   12 Jun 2027 03:09:11.976   12 Jun 2027 03:09:13.015             1.039           519.500
       346   12 Jun 2027 03:09:51.090   12 Jun 2027 03:09:57.550             6.460          3230.000
       347   12 Jun 2027 03:10:34.296   12 Jun 2027 03:11:06.869            32.573         16286.500
       348   12 Jun 2027 03:12:45.526   12 Jun 2027 03:13:10.788            25.262         12631.000
       349   12 Jun 2027 04:30:55.568   12 Jun 2027 04:31:19.123            23.555         11777.500
       350   12 Jun 2027 04:42:38.717   12 Jun 2027 04:43:48.367            69.650         34825.000
       351   12 Jun 2027 06:04:51.868   12 Jun 2027 06:06:01.988            70.120         35060.000
       352   12 Jun 2027 06:06:52.280   12 Jun 2027 06:07:34.901            42.621         21310.500
       353   12 Jun 2027 06:09:09.189   12 Jun 2027 06:09:09.566             0.377           188.500
       354   12 Jun 2027 06:09:46.136   12 Jun 2027 06:10:02.534            16.398          7865.063
       355   12 Jun 2027 07:39:54.783   12 Jun 2027 07:40:00.759             5.976          2939.625
       356   12 Jun 2027 07:40:22.489   12 Jun 2027 07:40:26.820             4.331           652.687
       357   12 Jun 2027 07:40:51.626   12 Jun 2027 07:40:54.218             2.592           614.250
       358   12 Jun 2027 07:41:20.732   12 Jun 2027 07:41:23.783             3.051           524.469
       359   12 Jun 2027 07:42:00.534   12 Jun 2027 07:42:02.969             2.435          1126.906
       360   12 Jun 2027 07:43:46.543   12 Jun 2027 07:43:54.631             8.088          2833.781
       361   12 Jun 2027 07:45:07.051   12 Jun 2027 07:45:12.988             5.937          2196.125
       362   12 Jun 2027 07:45:43.579   12 Jun 2027 07:45:45.150             1.571           733.281
       363   12 Jun 2027 07:46:43.636   12 Jun 2027 07:46:48.221             4.585          1827.687
       364   12 Jun 2027 07:48:05.840   12 Jun 2027 07:48:10.254             4.414          1418.531
       365   12 Jun 2027 09:17:18.732   12 Jun 2027 09:17:25.510             6.778          3309.469
       366   12 Jun 2027 09:18:03.633   12 Jun 2027 09:18:10.698             7.065          1145.156
       367   12 Jun 2027 09:19:25.778   12 Jun 2027 09:19:28.701             2.923          1076.969
       368   12 Jun 2027 09:19:42.892   12 Jun 2027 09:19:43.598             0.706           243.937
       369   12 Jun 2027 09:20:45.429   12 Jun 2027 09:20:50.882             5.453           613.219
       370   12 Jun 2027 09:21:22.896   12 Jun 2027 09:21:24.323             1.427           676.719
       371   12 Jun 2027 09:22:28.537   12 Jun 2027 09:22:30.951             2.414          1033.688
       372   12 Jun 2027 09:23:40.561   12 Jun 2027 09:23:44.528             3.967          1850.063
       373   12 Jun 2027 09:23:49.115   12 Jun 2027 09:23:53.985             4.870            62.812
       374   12 Jun 2027 09:24:19.632   12 Jun 2027 09:24:24.218             4.586           624.906
       375   12 Jun 2027 10:54:06.817   12 Jun 2027 10:54:20.015            13.198          5432.719
       376   12 Jun 2027 10:55:44.021   12 Jun 2027 10:55:45.929             1.908           313.781
       377   12 Jun 2027 10:57:42.864   12 Jun 2027 10:57:52.697             9.833          1725.719
       378   12 Jun 2027 10:58:20.036   12 Jun 2027 10:58:21.522             1.486           412.375
       379   12 Jun 2027 10:58:57.730   12 Jun 2027 10:59:00.116             2.386          1057.687
       380   12 Jun 2027 10:59:33.639   12 Jun 2027 10:59:38.016             4.377          1047.594
       381   12 Jun 2027 11:00:11.124   12 Jun 2027 11:00:15.557             4.433           759.219
       382   13 Jun 2027 03:18:04.535   13 Jun 2027 03:20:07.204           122.669         61334.500
       383   13 Jun 2027 03:20:37.142   13 Jun 2027 03:20:56.466            19.324          9662.000
       384   13 Jun 2027 03:21:13.753   13 Jun 2027 03:21:45.307            31.554         15777.000
       385   13 Jun 2027 04:42:26.709   13 Jun 2027 04:43:08.126            41.417         20708.500
       386   13 Jun 2027 04:43:20.255   13 Jun 2027 04:43:33.386            13.131          6565.500
       387   13 Jun 2027 04:54:39.824   13 Jun 2027 04:55:11.509            31.685         15842.500
       388   13 Jun 2027 06:16:35.159   13 Jun 2027 06:17:49.152            73.993         36996.500
       389   13 Jun 2027 06:18:38.103   13 Jun 2027 06:18:49.463            11.360          5552.406
       390   13 Jun 2027 06:19:54.348   13 Jun 2027 06:19:59.143             4.795          2000.469
       391   13 Jun 2027 06:21:06.933   13 Jun 2027 06:21:10.259             3.326          1543.031
       392   13 Jun 2027 06:21:12.166   13 Jun 2027 06:21:14.253             2.087            25.312
       393   13 Jun 2027 06:21:42.629   13 Jun 2027 06:21:45.569             2.940           861.469
       394   13 Jun 2027 07:51:23.297   13 Jun 2027 07:51:31.120             7.823          3854.687
       395   13 Jun 2027 07:51:42.789   13 Jun 2027 07:51:45.513             2.724            57.094
       396   13 Jun 2027 07:53:48.989   13 Jun 2027 07:53:50.820             1.831           776.906
       397   13 Jun 2027 07:54:40.446   13 Jun 2027 07:54:45.105             4.659          1535.313
       398   13 Jun 2027 07:54:54.512   13 Jun 2027 07:54:55.486             0.974           124.344
       399   13 Jun 2027 07:55:31.037   13 Jun 2027 07:55:38.526             7.489           553.219
       400   13 Jun 2027 07:56:59.609   13 Jun 2027 07:57:04.649             5.040          2273.656
       401   13 Jun 2027 07:57:23.293   13 Jun 2027 07:57:24.871             1.578           505.813
       402   13 Jun 2027 07:58:04.171   13 Jun 2027 07:58:04.171             0.000             0.000
       403   13 Jun 2027 07:58:09.808   13 Jun 2027 07:58:11.556             1.748           708.813
       404   13 Jun 2027 07:58:17.759   13 Jun 2027 07:58:17.953             0.194            27.563
       405   13 Jun 2027 07:58:30.093   13 Jun 2027 07:58:32.972             2.879           222.656
       406   13 Jun 2027 08:00:10.535   13 Jun 2027 08:00:15.216             4.681          2276.031
       407   13 Jun 2027 09:29:13.007   13 Jun 2027 09:29:25.156            12.149          4814.156
       408   13 Jun 2027 09:30:08.388   13 Jun 2027 09:30:11.502             3.114          1222.719
       409   13 Jun 2027 09:32:15.084   13 Jun 2027 09:32:20.232             5.148          1693.563
       410   13 Jun 2027 09:33:29.012   13 Jun 2027 09:33:29.236             0.224           107.094
       411   13 Jun 2027 09:33:29.724   13 Jun 2027 09:33:29.874             0.150             2.500
       412   13 Jun 2027 09:35:52.255   13 Jun 2027 09:35:56.950             4.695          2221.844
       413   13 Jun 2027 09:35:59.425   13 Jun 2027 09:36:00.490             1.065            77.344
       414   13 Jun 2027 09:36:23.191   13 Jun 2027 09:36:32.214             9.023           559.750
       415   13 Jun 2027 11:05:57.428   13 Jun 2027 11:06:03.758             6.330          3165.000
       416   13 Jun 2027 11:06:22.671   13 Jun 2027 11:06:28.106             5.435          2140.281
       417   13 Jun 2027 11:07:11.842   13 Jun 2027 11:07:12.801             0.959           321.250
       418   13 Jun 2027 11:07:41.636   13 Jun 2027 11:07:43.531             1.895           841.688
       419   13 Jun 2027 11:09:25.254   13 Jun 2027 11:09:45.626            20.372           984.406
       420   13 Jun 2027 11:10:14.990   13 Jun 2027 11:10:17.366             2.376           467.375
       421   13 Jun 2027 11:10:50.314   13 Jun 2027 11:10:52.700             2.386           839.188
       422   13 Jun 2027 11:11:33.331   13 Jun 2027 11:11:35.478             2.147          1046.219
       423   13 Jun 2027 11:12:17.886   13 Jun 2027 11:12:20.866             2.980          1109.531
