uniorb/output/strategy_4/Camera/Camera_KinoSat_110906.txt

KinoSat_110906
-------------------------
    Access    *     Start Time (UTCG)     *     Stop Time (UTCG)  *   Duration (s) *   Data (Mbytes)
         1   01 Jun 2027 03:21:26.235   01 Jun 2027 03:22:38.003            71.768         35884.000
         2   01 Jun 2027 03:23:14.376   01 Jun 2027 03:23:21.523             7.147          3573.500
         3   01 Jun 2027 04:57:48.616   01 Jun 2027 04:59:45.748           117.132         58566.000
         4   01 Jun 2027 05:00:53.479   01 Jun 2027 05:01:02.720             9.241          4620.500
         5   01 Jun 2027 06:31:43.679   01 Jun 2027 06:33:30.428           106.749         53374.500
         6   01 Jun 2027 06:34:20.227   01 Jun 2027 06:34:20.227             0.000             0.000
         7   01 Jun 2027 06:34:41.608   01 Jun 2027 06:34:50.094             8.486          4243.000
         8   01 Jun 2027 06:37:59.755   01 Jun 2027 06:38:02.262             2.507          1253.500
         9   01 Jun 2027 06:38:29.649   01 Jun 2027 06:38:38.341             8.692          4346.000
        10   01 Jun 2027 06:38:54.661   01 Jun 2027 06:39:06.559            11.898          5949.000
        11   01 Jun 2027 06:39:35.042   01 Jun 2027 06:39:40.047             5.005          2502.500
        12   01 Jun 2027 08:08:55.387   01 Jun 2027 08:11:38.722           163.335         81667.500
        13   01 Jun 2027 08:14:29.511   01 Jun 2027 08:14:30.392             0.881           440.500
        14   01 Jun 2027 08:15:31.587   01 Jun 2027 08:15:36.880             5.293          2646.500
        15   01 Jun 2027 09:45:57.333   01 Jun 2027 09:47:48.797           111.464         55732.000
        16   01 Jun 2027 09:48:37.534   01 Jun 2027 09:48:53.037            15.503          7751.500
        17   01 Jun 2027 09:50:34.944   01 Jun 2027 09:51:16.035            41.091         20545.500
        18   01 Jun 2027 11:22:42.132   01 Jun 2027 11:24:58.497           136.365         68182.500
        19   01 Jun 2027 11:25:23.879   01 Jun 2027 11:25:31.627             7.748          3874.000
        20   01 Jun 2027 11:25:55.461   01 Jun 2027 11:26:25.521            30.060         15030.000
        21   02 Jun 2027 03:33:18.481   02 Jun 2027 03:33:39.289            20.808         10404.000
        22   02 Jun 2027 05:09:52.244   02 Jun 2027 05:12:52.566           180.322         90161.000
        23   02 Jun 2027 05:13:04.524   02 Jun 2027 05:13:04.524             0.000             0.000
        24   02 Jun 2027 06:45:00.779   02 Jun 2027 06:49:03.415           242.636        121318.000
        25   02 Jun 2027 06:51:21.856   02 Jun 2027 06:51:32.984            11.128          5564.000
        26   02 Jun 2027 06:51:42.515   02 Jun 2027 06:51:49.167             6.652          3326.000
        27   02 Jun 2027 08:21:20.810   02 Jun 2027 08:23:55.164           154.354         77177.000
        28   02 Jun 2027 08:26:36.062   02 Jun 2027 08:26:59.983            23.921         11960.500
        29   02 Jun 2027 09:58:54.372   02 Jun 2027 09:59:31.656            37.284         17674.500
        30   02 Jun 2027 10:01:03.736   02 Jun 2027 10:01:04.446             0.710           334.062
        31   02 Jun 2027 10:01:18.254   02 Jun 2027 10:01:19.955             1.701           144.594
        32   02 Jun 2027 10:02:15.390   02 Jun 2027 10:02:21.209             5.819          1590.562
        33   02 Jun 2027 10:02:36.393   02 Jun 2027 10:02:37.421             1.028           474.500
        34   02 Jun 2027 10:02:51.838   02 Jun 2027 10:02:54.009             2.171            49.406
        35   02 Jun 2027 10:02:55.081   02 Jun 2027 10:03:00.926             5.845            33.500
        36   02 Jun 2027 11:34:58.317   02 Jun 2027 11:35:12.248            13.931          6363.469
        37   02 Jun 2027 11:37:21.709   02 Jun 2027 11:37:23.434             1.725           414.094
        38   02 Jun 2027 11:38:50.608   02 Jun 2027 11:38:54.643             4.035          1034.531
        39   03 Jun 2027 03:45:27.892   03 Jun 2027 03:45:40.054            12.162          6081.000
        40   03 Jun 2027 03:48:12.048   03 Jun 2027 03:48:37.292            25.244         12622.000
        41   03 Jun 2027 05:22:02.854   03 Jun 2027 05:24:17.707           134.853         67426.500
        42   03 Jun 2027 06:57:12.626   03 Jun 2027 06:59:36.583           143.957         71374.969
        43   03 Jun 2027 07:00:05.812   03 Jun 2027 07:00:08.482             2.670           913.406
        44   03 Jun 2027 07:00:18.313   03 Jun 2027 07:00:19.631             1.318           307.219
        45   03 Jun 2027 07:00:20.590   03 Jun 2027 07:00:21.157             0.567            29.969
        46   03 Jun 2027 07:01:14.917   03 Jun 2027 07:01:18.669             3.752          1177.437
        47   03 Jun 2027 07:02:40.943   03 Jun 2027 07:02:47.127             6.184          2041.219
        48   03 Jun 2027 07:03:12.362   03 Jun 2027 07:03:16.357             3.995            55.281
        49   03 Jun 2027 07:03:32.278   03 Jun 2027 07:03:33.750             1.472           368.063
        50   03 Jun 2027 08:33:33.814   03 Jun 2027 08:33:40.664             6.850          2362.406
        51   03 Jun 2027 08:35:05.646   03 Jun 2027 08:35:07.590             1.944           603.219
        52   03 Jun 2027 08:35:52.162   03 Jun 2027 08:35:55.740             3.578          1202.250
        53   03 Jun 2027 08:36:01.860   03 Jun 2027 08:36:02.663             0.803           144.563
        54   03 Jun 2027 08:37:02.829   03 Jun 2027 08:37:04.938             2.109           358.125
        55   03 Jun 2027 08:37:48.581   03 Jun 2027 08:37:50.695             2.114           237.500
        56   03 Jun 2027 08:38:28.663   03 Jun 2027 08:38:32.095             3.432           683.594
        57   03 Jun 2027 08:39:20.382   03 Jun 2027 08:39:23.479             3.097          1508.969
        58   03 Jun 2027 10:10:50.876   03 Jun 2027 10:11:03.635            12.759          6306.875
        59   03 Jun 2027 10:11:35.663   03 Jun 2027 10:11:40.608             4.945           466.219
        60   03 Jun 2027 10:12:12.814   03 Jun 2027 10:12:16.151             3.337           980.125
        61   03 Jun 2027 10:13:00.232   03 Jun 2027 10:13:04.698             4.466          1201.094
        62   03 Jun 2027 10:13:25.482   03 Jun 2027 10:13:26.657             1.175           459.406
        63   03 Jun 2027 10:14:26.469   03 Jun 2027 10:14:30.608             4.139            80.250
        64   03 Jun 2027 10:14:53.154   03 Jun 2027 10:15:00.854             7.700           671.531
        65   03 Jun 2027 10:15:13.772   03 Jun 2027 10:15:17.069             3.297            27.000
        66   03 Jun 2027 10:15:23.399   03 Jun 2027 10:15:25.390             1.991            63.500
        67   03 Jun 2027 10:15:30.128   03 Jun 2027 10:15:31.032             0.904            61.531
        68   03 Jun 2027 11:47:03.061   03 Jun 2027 11:47:20.085            17.024          7133.813
        69   03 Jun 2027 11:48:59.064   03 Jun 2027 11:48:59.945             0.881           128.312
        70   04 Jun 2027 03:58:08.279   04 Jun 2027 03:58:13.869             5.590          2795.000
        71   04 Jun 2027 03:59:36.945   04 Jun 2027 03:59:36.945             0.000             0.000
        72   04 Jun 2027 03:59:40.502   04 Jun 2027 04:00:09.701            29.199         14599.500
        73   04 Jun 2027 05:33:51.304   04 Jun 2027 05:37:03.357           192.053         96026.500
        74   04 Jun 2027 07:08:45.305   04 Jun 2027 07:10:12.343            87.038         41629.281
        75   04 Jun 2027 07:10:41.548   04 Jun 2027 07:10:42.746             1.198           357.187
        76   04 Jun 2027 07:12:03.661   04 Jun 2027 07:12:07.082             3.421           647.313
        77   04 Jun 2027 07:12:24.556   04 Jun 2027 07:12:25.163             0.607           125.125
        78   04 Jun 2027 07:13:58.560   04 Jun 2027 07:14:11.245            12.685          2263.094
        79   04 Jun 2027 07:14:50.045   04 Jun 2027 07:14:53.368             3.323           883.031
        80   04 Jun 2027 07:15:25.921   04 Jun 2027 07:15:27.394             1.473           651.219
        81   04 Jun 2027 07:15:52.018   04 Jun 2027 07:15:53.734             1.716           312.281
        82   04 Jun 2027 08:45:11.278   04 Jun 2027 08:45:21.502            10.224          4746.219
        83   04 Jun 2027 08:47:25.879   04 Jun 2027 08:47:28.377             2.498          1004.094
        84   04 Jun 2027 08:47:58.494   04 Jun 2027 08:48:00.668             2.174           921.750
        85   04 Jun 2027 08:48:56.203   04 Jun 2027 08:48:59.334             3.131           834.156
        86   04 Jun 2027 08:49:56.706   04 Jun 2027 08:50:01.614             4.908           392.219
        87   04 Jun 2027 08:50:24.339   04 Jun 2027 08:50:27.018             2.679           521.156
        88   04 Jun 2027 08:50:54.702   04 Jun 2027 08:50:58.181             3.479           858.375
        89   04 Jun 2027 10:23:29.701   04 Jun 2027 10:23:41.634            11.933          5768.719
        90   04 Jun 2027 10:24:11.326   04 Jun 2027 10:24:13.066             1.740           152.062
        91   04 Jun 2027 10:25:25.805   04 Jun 2027 10:25:30.365             4.560           271.031
        92   04 Jun 2027 10:26:40.976   04 Jun 2027 10:26:45.725             4.749          1896.469
        93   04 Jun 2027 10:26:58.674   04 Jun 2027 10:26:59.484             0.810            84.500
        94   04 Jun 2027 10:27:19.454   04 Jun 2027 10:27:21.828             2.374            86.937
        95   04 Jun 2027 11:58:56.119   04 Jun 2027 11:59:12.098            15.979          7281.531
        96   05 Jun 2027 04:08:34.895   05 Jun 2027 04:09:06.425            31.530         15765.000
        97   05 Jun 2027 04:09:34.583   05 Jun 2027 04:09:39.402             4.819          2409.500
        98   05 Jun 2027 04:11:57.146   05 Jun 2027 04:12:12.187            15.041          7520.500
        99   05 Jun 2027 05:44:07.600   05 Jun 2027 05:44:57.603            50.003         25001.500
       100   05 Jun 2027 05:45:35.703   05 Jun 2027 05:46:14.799            39.096         19548.000
       101   05 Jun 2027 05:46:38.754   05 Jun 2027 05:46:54.290            15.536          7768.000
       102   05 Jun 2027 05:47:21.695   05 Jun 2027 05:48:16.962            55.267         27633.500
       103   05 Jun 2027 05:50:07.433   05 Jun 2027 05:50:13.916             6.483          3241.500
       104   05 Jun 2027 07:20:25.143   05 Jun 2027 07:22:12.409           107.266         52469.000
       105   05 Jun 2027 07:22:33.323   05 Jun 2027 07:22:33.323             0.000             0.000
       106   05 Jun 2027 07:23:12.522   05 Jun 2027 07:23:16.935             4.413          1795.812
       107   05 Jun 2027 07:23:32.083   05 Jun 2027 07:23:33.404             1.321           214.281
       108   05 Jun 2027 07:23:45.052   05 Jun 2027 07:23:45.052             0.000             0.000
       109   05 Jun 2027 07:24:15.174   05 Jun 2027 07:24:20.875             5.701          1305.313
       110   05 Jun 2027 07:25:40.104   05 Jun 2027 07:25:45.713             5.609          2424.156
       111   05 Jun 2027 07:26:42.925   05 Jun 2027 07:26:51.784             8.859          1558.000
       112   05 Jun 2027 07:27:13.168   05 Jun 2027 07:27:14.470             1.302           409.188
       113   05 Jun 2027 08:57:30.878   05 Jun 2027 08:57:43.268            12.390          5266.687
       114   05 Jun 2027 08:58:59.926   05 Jun 2027 08:59:01.705             1.779           469.406
       115   05 Jun 2027 08:59:36.257   05 Jun 2027 08:59:39.990             3.733          1079.750
       116   05 Jun 2027 09:00:53.557   05 Jun 2027 09:01:00.872             7.315          1709.125
       117   05 Jun 2027 09:01:43.326   05 Jun 2027 09:01:46.529             3.203          1033.156
       118   05 Jun 2027 09:01:48.070   05 Jun 2027 09:01:48.546             0.476            48.156
       119   05 Jun 2027 09:02:04.807   05 Jun 2027 09:02:12.358             7.551           318.969
       120   05 Jun 2027 09:03:27.306   05 Jun 2027 09:03:32.281             4.975          2005.187
       121   05 Jun 2027 09:03:50.219   05 Jun 2027 09:03:51.854             1.635           436.406
       122   05 Jun 2027 10:35:28.180   05 Jun 2027 10:35:42.276            14.096          6235.500
       123   05 Jun 2027 10:37:00.915   05 Jun 2027 10:37:04.830             3.915          1814.531
       124   05 Jun 2027 10:37:25.372   05 Jun 2027 10:37:27.495             2.123            77.875
       125   05 Jun 2027 10:38:41.707   05 Jun 2027 10:38:48.982             7.275          2093.094
       126   05 Jun 2027 10:39:05.226   05 Jun 2027 10:39:07.596             2.370           189.563
       127   05 Jun 2027 10:39:19.056   05 Jun 2027 10:39:21.291             2.235           358.125
       128   06 Jun 2027 04:20:18.106   06 Jun 2027 04:21:23.952            65.846         32923.000
       129   06 Jun 2027 04:22:37.199   06 Jun 2027 04:22:44.815             7.616          3808.000
       130   06 Jun 2027 04:23:11.885   06 Jun 2027 04:23:13.606             1.721           860.500
       131   06 Jun 2027 04:24:40.472   06 Jun 2027 04:25:09.748            29.276         14638.000
       132   06 Jun 2027 05:55:16.207   06 Jun 2027 05:57:09.389           113.182         56591.000
       133   06 Jun 2027 05:58:20.505   06 Jun 2027 05:58:37.721            17.216          8608.000
       134   06 Jun 2027 05:58:42.055   06 Jun 2027 05:58:44.091             2.036          1018.000
       135   06 Jun 2027 05:58:52.447   06 Jun 2027 05:58:52.447             0.000             0.000
       136   06 Jun 2027 05:58:59.586   06 Jun 2027 05:59:03.394             3.808          1904.000
       137   06 Jun 2027 05:59:33.437   06 Jun 2027 06:00:13.362            39.925         19962.500
       138   06 Jun 2027 06:01:26.782   06 Jun 2027 06:01:38.695            11.913          5956.500
       139   06 Jun 2027 06:03:17.460   06 Jun 2027 06:03:37.583            20.123         10061.500
       140   06 Jun 2027 07:32:44.443   06 Jun 2027 07:32:50.579             6.136          2256.313
       141   06 Jun 2027 07:35:37.311   06 Jun 2027 07:35:41.567             4.256           373.062
       142   06 Jun 2027 07:36:07.928   06 Jun 2027 07:36:09.500             1.572           440.063
       143   06 Jun 2027 07:36:57.285   06 Jun 2027 07:37:00.648             3.363          1033.000
       144   06 Jun 2027 07:38:14.770   06 Jun 2027 07:38:17.868             3.098           593.656
       145   06 Jun 2027 07:38:55.553   06 Jun 2027 07:38:57.393             1.840           879.750
       146   06 Jun 2027 07:39:55.270   06 Jun 2027 07:39:58.130             2.860           517.375
       147   06 Jun 2027 09:09:29.485   06 Jun 2027 09:09:43.617            14.132          5170.531
       148   06 Jun 2027 09:11:58.274   06 Jun 2027 09:11:59.147             0.873           408.156
       149   06 Jun 2027 09:13:11.628   06 Jun 2027 09:13:12.548             0.920           328.313
       150   06 Jun 2027 09:13:28.356   06 Jun 2027 09:13:28.592             0.236            94.187
       151   06 Jun 2027 09:13:51.214   06 Jun 2027 09:14:01.288            10.074           706.937
       152   06 Jun 2027 09:14:45.820   06 Jun 2027 09:14:47.176             1.356           646.094
       153   06 Jun 2027 09:15:04.152   06 Jun 2027 09:15:07.848             3.696           310.219
       154   06 Jun 2027 10:47:27.700   06 Jun 2027 10:47:39.400            11.700          5530.562
       155   06 Jun 2027 10:48:02.052   06 Jun 2027 10:48:03.673             1.621           252.156
       156   06 Jun 2027 10:48:21.285   06 Jun 2027 10:48:25.105             3.820           456.437
       157   06 Jun 2027 10:49:24.090   06 Jun 2027 10:49:28.082             3.992          1843.281
       158   06 Jun 2027 10:50:30.111   06 Jun 2027 10:50:37.343             7.232          1938.406
       159   06 Jun 2027 10:50:58.397   06 Jun 2027 10:51:00.712             2.315           602.000
       160   06 Jun 2027 10:51:20.895   06 Jun 2027 10:51:21.352             0.457           168.219
       161   07 Jun 2027 03:10:04.309   07 Jun 2027 03:10:35.791            31.482         15741.000
       162   07 Jun 2027 04:31:52.254   07 Jun 2027 04:33:10.863            78.609         39304.500
       163   07 Jun 2027 04:33:59.299   07 Jun 2027 04:34:16.880            17.581          8790.500
       164   07 Jun 2027 04:36:00.076   07 Jun 2027 04:36:31.364            31.288         15644.000
       165   07 Jun 2027 04:36:56.029   07 Jun 2027 04:36:59.398             3.369          1684.500
       166   07 Jun 2027 06:06:44.085   07 Jun 2027 06:08:47.089           123.004         61502.000
       167   07 Jun 2027 06:10:39.883   07 Jun 2027 06:10:51.307            11.424          5168.500
       168   07 Jun 2027 06:12:15.313   07 Jun 2027 06:12:15.313             0.000             0.000
       169   07 Jun 2027 06:12:17.381   07 Jun 2027 06:12:23.075             5.694          2678.406
       170   07 Jun 2027 06:13:21.455   07 Jun 2027 06:13:29.310             7.855          1785.531
       171   07 Jun 2027 06:14:21.849   07 Jun 2027 06:14:23.418             1.569           784.500
       172   07 Jun 2027 06:15:21.616   07 Jun 2027 06:15:26.376             4.760          1995.062
       173   07 Jun 2027 07:44:37.478   07 Jun 2027 07:44:41.035             3.557           398.406
       174   07 Jun 2027 07:46:14.312   07 Jun 2027 07:46:19.119             4.807          2074.531
       175   07 Jun 2027 07:47:01.041   07 Jun 2027 07:47:05.010             3.969           751.188
       176   07 Jun 2027 07:47:59.655   07 Jun 2027 07:48:01.895             2.240           467.937
       177   07 Jun 2027 07:48:21.999   07 Jun 2027 07:48:25.532             3.533           511.187
       178   07 Jun 2027 07:48:30.555   07 Jun 2027 07:48:31.426             0.871           155.344
       179   07 Jun 2027 07:49:02.348   07 Jun 2027 07:49:04.421             2.073           284.750
       180   07 Jun 2027 07:49:53.053   07 Jun 2027 07:49:57.373             4.320          1442.406
       181   07 Jun 2027 07:50:29.756   07 Jun 2027 07:50:33.532             3.776           924.500
       182   07 Jun 2027 07:51:37.732   07 Jun 2027 07:51:44.925             7.193           487.406
       183   07 Jun 2027 09:21:21.361   07 Jun 2027 09:21:37.011            15.650          7412.062
       184   07 Jun 2027 09:23:15.360   07 Jun 2027 09:23:17.906             2.546          1226.875
       185   07 Jun 2027 09:24:01.473   07 Jun 2027 09:24:02.830             1.357           152.094
       186   07 Jun 2027 09:24:54.103   07 Jun 2027 09:24:58.666             4.563          1602.281
       187   07 Jun 2027 09:25:53.584   07 Jun 2027 09:26:00.831             7.247            84.656
       188   07 Jun 2027 09:26:26.074   07 Jun 2027 09:26:30.446             4.372           784.062
       189   07 Jun 2027 09:27:40.750   07 Jun 2027 09:27:47.938             7.188          2197.000
       190   07 Jun 2027 10:59:27.998   07 Jun 2027 10:59:39.820            11.822          5283.750
       191   07 Jun 2027 11:01:21.821   07 Jun 2027 11:01:25.894             4.073          1924.531
       192   07 Jun 2027 11:02:54.732   07 Jun 2027 11:02:59.123             4.391          1518.906
       193   07 Jun 2027 11:03:06.580   07 Jun 2027 11:03:08.162             1.582           193.969
       194   07 Jun 2027 11:03:22.615   07 Jun 2027 11:03:24.502             1.887            14.906
       195   08 Jun 2027 03:09:47.964   08 Jun 2027 03:09:51.370             3.406          1703.000
       196   08 Jun 2027 03:10:15.561   08 Jun 2027 03:10:38.213            22.652         11326.000
       197   08 Jun 2027 04:45:48.784   08 Jun 2027 04:49:02.386           193.602         96801.000
       198   08 Jun 2027 04:49:19.054   08 Jun 2027 04:49:21.104             2.050          1025.000
       199   08 Jun 2027 04:49:40.555   08 Jun 2027 04:49:41.401             0.846           423.000
       200   08 Jun 2027 06:19:36.143   08 Jun 2027 06:20:58.869            82.726         40784.125
       201   08 Jun 2027 06:21:35.836   08 Jun 2027 06:21:36.768             0.932            72.938
       202   08 Jun 2027 06:22:08.865   08 Jun 2027 06:22:10.401             1.536           768.000
       203   08 Jun 2027 06:23:06.965   08 Jun 2027 06:23:11.572             4.607          1878.187
       204   08 Jun 2027 06:23:50.381   08 Jun 2027 06:23:51.983             1.602           717.219
       205   08 Jun 2027 06:24:49.460   08 Jun 2027 06:24:52.540             3.080          1460.437
       206   08 Jun 2027 06:25:15.610   08 Jun 2027 06:25:19.326             3.716           611.500
       207   08 Jun 2027 06:25:49.973   08 Jun 2027 06:25:49.973             0.000             0.000
       208   08 Jun 2027 06:26:20.267   08 Jun 2027 06:26:26.665             6.398          1157.750
       209   08 Jun 2027 06:26:55.174   08 Jun 2027 06:26:55.309             0.135            67.500
       210   08 Jun 2027 06:27:17.809   08 Jun 2027 06:27:22.798             4.989          1526.531
       211   08 Jun 2027 06:28:03.145   08 Jun 2027 06:28:06.656             3.511           472.719
       212   08 Jun 2027 07:56:44.924   08 Jun 2027 07:56:48.471             3.547          1351.219
       213   08 Jun 2027 07:58:12.912   08 Jun 2027 07:58:15.999             3.087           517.687
       214   08 Jun 2027 07:59:12.963   08 Jun 2027 07:59:14.918             1.955           958.875
       215   08 Jun 2027 08:00:11.450   08 Jun 2027 08:00:12.270             0.820           274.625
       216   08 Jun 2027 08:00:31.365   08 Jun 2027 08:00:33.778             2.413           150.687
       217   08 Jun 2027 08:00:50.375   08 Jun 2027 08:00:50.946             0.571           110.375
       218   08 Jun 2027 08:01:45.733   08 Jun 2027 08:01:47.672             1.939           790.125
       219   08 Jun 2027 08:02:41.885   08 Jun 2027 08:02:44.850             2.965           104.375
       220   08 Jun 2027 08:03:09.333   08 Jun 2027 08:03:10.464             1.131           210.406
       221   08 Jun 2027 09:33:59.283   08 Jun 2027 09:34:12.792            13.509          5768.781
       222   08 Jun 2027 09:36:22.748   08 Jun 2027 09:36:25.971             3.223           716.656
       223   08 Jun 2027 09:37:36.796   08 Jun 2027 09:37:45.576             8.780          1085.094
       224   08 Jun 2027 09:38:07.960   08 Jun 2027 09:38:13.049             5.089           163.500
       225   08 Jun 2027 09:38:20.982   08 Jun 2027 09:38:21.358             0.376            98.375
       226   08 Jun 2027 09:38:41.009   08 Jun 2027 09:38:42.627             1.618           300.187
       227   08 Jun 2027 11:10:41.779   08 Jun 2027 11:10:52.789            11.010          4997.969
       228   08 Jun 2027 11:12:10.310   08 Jun 2027 11:12:11.980             1.670            34.813
       229   08 Jun 2027 11:13:36.965   08 Jun 2027 11:13:38.615             1.650           149.250
       230   08 Jun 2027 11:14:15.041   08 Jun 2027 11:14:22.335             7.294           235.688
       231   08 Jun 2027 11:15:14.112   08 Jun 2027 11:15:16.821             2.709           365.062
       232   08 Jun 2027 11:15:29.036   08 Jun 2027 11:15:31.257             2.221           197.187
       233   09 Jun 2027 03:21:40.926   09 Jun 2027 03:21:52.816            11.890          5945.000
       234   09 Jun 2027 04:58:02.211   09 Jun 2027 05:00:06.920           124.709         62354.500
       235   09 Jun 2027 05:00:17.751   09 Jun 2027 05:01:31.541            73.790         36895.000
       236   09 Jun 2027 06:31:59.606   09 Jun 2027 06:33:18.454            78.848         38689.437
       237   09 Jun 2027 06:33:48.582   09 Jun 2027 06:33:48.582             0.000             0.000
       238   09 Jun 2027 06:34:15.232   09 Jun 2027 06:34:19.481             4.249           911.906
       239   09 Jun 2027 06:34:37.967   09 Jun 2027 06:34:37.967             0.000             0.000
       240   09 Jun 2027 06:34:57.515   09 Jun 2027 06:35:07.098             9.583           957.937
       241   09 Jun 2027 06:35:38.061   09 Jun 2027 06:35:41.479             3.418           967.594
       242   09 Jun 2027 06:36:50.488   09 Jun 2027 06:36:54.382             3.894          1820.031
       243   09 Jun 2027 06:37:39.148   09 Jun 2027 06:37:42.643             3.495          1298.719
       244   09 Jun 2027 06:38:13.760   09 Jun 2027 06:38:16.082             2.322           944.063
       245   09 Jun 2027 06:38:43.529   09 Jun 2027 06:38:48.051             4.522           828.000
       246   09 Jun 2027 06:39:49.522   09 Jun 2027 06:39:52.686             3.164          1360.813
       247   09 Jun 2027 08:09:10.385   09 Jun 2027 08:09:14.000             3.615           994.937
       248   09 Jun 2027 08:10:58.585   09 Jun 2027 08:11:02.757             4.172           722.125
       249   09 Jun 2027 08:12:06.354   09 Jun 2027 08:12:13.717             7.363          1967.969
       250   09 Jun 2027 08:12:37.409   09 Jun 2027 08:12:39.289             1.880           733.469
       251   09 Jun 2027 08:13:34.819   09 Jun 2027 08:13:39.917             5.098          1380.000
       252   09 Jun 2027 08:14:34.572   09 Jun 2027 08:14:38.680             4.108          1591.625
       253   09 Jun 2027 08:15:16.105   09 Jun 2027 08:15:17.489             1.384           454.063
       254   09 Jun 2027 09:46:10.529   09 Jun 2027 09:46:22.232            11.703          5617.000
       255   09 Jun 2027 09:46:49.176   09 Jun 2027 09:46:52.756             3.580           263.156
       256   09 Jun 2027 09:48:05.720   09 Jun 2027 09:48:08.062             2.342           512.250
       257   09 Jun 2027 09:49:12.998   09 Jun 2027 09:49:17.004             4.006           755.562
       258   09 Jun 2027 09:49:38.146   09 Jun 2027 09:49:39.029             0.883           216.063
       259   09 Jun 2027 09:49:53.330   09 Jun 2027 09:49:55.841             2.511           168.281
       260   09 Jun 2027 09:50:51.590   09 Jun 2027 09:50:55.458             3.868          1742.156
       261   09 Jun 2027 11:22:56.655   09 Jun 2027 11:23:12.791            16.136          7390.844
       262   09 Jun 2027 11:25:06.449   09 Jun 2027 11:25:08.045             1.596           444.063
       263   09 Jun 2027 11:26:11.628   09 Jun 2027 11:26:15.755             4.127           758.094
       264   09 Jun 2027 11:27:04.538   09 Jun 2027 11:27:06.562             2.024           684.406
       265   09 Jun 2027 11:27:22.581   09 Jun 2027 11:27:26.934             4.353           500.594
       266   10 Jun 2027 03:33:34.057   10 Jun 2027 03:33:53.944            19.887          9943.500
       267   10 Jun 2027 03:35:54.799   10 Jun 2027 03:35:54.799             0.000             0.000
       268   10 Jun 2027 05:10:07.364   10 Jun 2027 05:10:27.457            20.093         10046.500
       269   10 Jun 2027 05:12:48.953   10 Jun 2027 05:13:37.658            48.705         24352.500
       270   10 Jun 2027 06:45:16.223   10 Jun 2027 06:48:52.142           215.919        107619.844
       271   10 Jun 2027 06:49:17.632   10 Jun 2027 06:49:17.632             0.000             0.000
       272   10 Jun 2027 06:50:14.418   10 Jun 2027 06:50:25.568            11.150          2285.063
       273   10 Jun 2027 06:51:13.675   10 Jun 2027 06:51:19.704             6.029          1268.563
       274   10 Jun 2027 06:51:38.014   10 Jun 2027 06:51:40.447             2.433           572.187
       275   10 Jun 2027 06:51:57.364   10 Jun 2027 06:52:01.986             4.622           273.531
       276   10 Jun 2027 08:21:36.241   10 Jun 2027 08:21:44.153             7.912           948.625
       277   10 Jun 2027 08:23:52.379   10 Jun 2027 08:24:00.069             7.690          1525.094
       278   10 Jun 2027 08:24:39.215   10 Jun 2027 08:24:43.987             4.772           899.500
       279   10 Jun 2027 08:24:54.183   10 Jun 2027 08:24:55.945             1.762            32.938
       280   10 Jun 2027 08:25:28.108   10 Jun 2027 08:25:30.256             2.148           744.219
       281   10 Jun 2027 08:26:28.968   10 Jun 2027 08:26:32.292             3.324          1219.625
       282   10 Jun 2027 08:27:14.679   10 Jun 2027 08:27:18.608             3.929           733.406
       283   10 Jun 2027 09:59:10.737   10 Jun 2027 09:59:20.156             9.419          4667.000
       284   10 Jun 2027 09:59:46.416   10 Jun 2027 09:59:53.255             6.839           820.625
       285   10 Jun 2027 10:02:30.597   10 Jun 2027 10:02:36.353             5.756          1589.656
       286   10 Jun 2027 10:02:54.606   10 Jun 2027 10:03:00.600             5.994           570.406
       287   10 Jun 2027 10:03:07.868   10 Jun 2027 10:03:09.729             1.861           165.156
       288   10 Jun 2027 10:03:26.233   10 Jun 2027 10:03:28.219             1.986             0.375
       289   10 Jun 2027 11:35:13.572   10 Jun 2027 11:35:29.073            15.501          6890.719
       290   10 Jun 2027 11:38:20.907   10 Jun 2027 11:38:22.304             1.397           308.375
       291   10 Jun 2027 11:39:21.611   10 Jun 2027 11:39:24.513             2.902          1451.000
       292   11 Jun 2027 03:45:42.497   11 Jun 2027 03:45:54.703            12.206          6103.000
       293   11 Jun 2027 05:22:38.210   11 Jun 2027 05:23:04.615            26.405         13202.500
       294   11 Jun 2027 05:24:32.310   11 Jun 2027 05:25:36.383            64.073         32036.500
       295   11 Jun 2027 05:25:42.312   11 Jun 2027 05:25:45.550             3.238          1619.000
       296   11 Jun 2027 06:57:27.923   11 Jun 2027 07:00:45.374           197.451         98363.907
       297   11 Jun 2027 07:02:14.598   11 Jun 2027 07:02:22.885             8.287          2309.031
       298   11 Jun 2027 07:03:26.381   11 Jun 2027 07:03:31.181             4.800          1568.719
       299   11 Jun 2027 07:03:48.087   11 Jun 2027 07:03:50.203             2.116           360.969
       300   11 Jun 2027 08:33:48.777   11 Jun 2027 08:33:57.974             9.197          4568.750
       301   11 Jun 2027 08:35:31.104   11 Jun 2027 08:35:32.869             1.765           321.281
       302   11 Jun 2027 08:35:56.695   11 Jun 2027 08:36:00.088             3.393           725.594
       303   11 Jun 2027 08:36:43.949   11 Jun 2027 08:36:48.956             5.007           989.625
       304   11 Jun 2027 08:37:06.655   11 Jun 2027 08:37:09.377             2.722           174.625
       305   11 Jun 2027 08:38:21.367   11 Jun 2027 08:38:24.500             3.133           812.031
       306   11 Jun 2027 08:38:46.986   11 Jun 2027 08:38:49.958             2.972            96.125
       307   11 Jun 2027 10:11:05.546   11 Jun 2027 10:11:19.609            14.063          6472.906
       308   11 Jun 2027 10:11:48.382   11 Jun 2027 10:11:49.300             0.918           357.625
       309   11 Jun 2027 10:12:36.883   11 Jun 2027 10:12:38.224             1.341           270.906
       310   11 Jun 2027 10:13:27.786   11 Jun 2027 10:13:30.865             3.079           536.688
       311   11 Jun 2027 10:14:06.463   11 Jun 2027 10:14:09.455             2.992           653.562
       312   11 Jun 2027 10:15:06.480   11 Jun 2027 10:15:08.037             1.557           772.906
       313   11 Jun 2027 10:15:28.212   11 Jun 2027 10:15:29.601             1.389           630.469
       314   11 Jun 2027 10:15:44.696   11 Jun 2027 10:15:46.069             1.373           471.719
       315   11 Jun 2027 11:47:17.994   11 Jun 2027 11:47:32.425            14.431          7028.750
       316   12 Jun 2027 03:58:15.530   12 Jun 2027 03:58:24.420             8.890          4445.000
       317   12 Jun 2027 03:59:51.783   12 Jun 2027 03:59:55.258             3.475          1737.500
       318   12 Jun 2027 04:00:27.106   12 Jun 2027 04:00:53.746            26.640         13320.000
       319   12 Jun 2027 05:34:05.458   12 Jun 2027 05:37:00.265           174.807         87403.500
       320   12 Jun 2027 05:37:30.779   12 Jun 2027 05:37:33.949             3.170          1585.000
       321   12 Jun 2027 05:38:06.349   12 Jun 2027 05:38:14.279             7.930          3965.000
       322   12 Jun 2027 07:08:58.698   12 Jun 2027 07:10:30.561            91.863         44203.220
       323   12 Jun 2027 07:10:47.840   12 Jun 2027 07:10:49.756             1.916           538.594
       324   12 Jun 2027 07:11:59.953   12 Jun 2027 07:12:03.489             3.536          1055.031
       325   12 Jun 2027 07:12:30.042   12 Jun 2027 07:12:32.454             2.412           754.562
       326   12 Jun 2027 07:13:02.578   12 Jun 2027 07:13:06.161             3.583           791.344
       327   12 Jun 2027 07:14:57.592   12 Jun 2027 07:15:01.548             3.956          1619.531
       328   12 Jun 2027 07:15:21.542   12 Jun 2027 07:15:26.044             4.502           485.563
       329   12 Jun 2027 07:16:12.197   12 Jun 2027 07:16:12.638             0.441           220.500
       330   12 Jun 2027 08:45:27.307   12 Jun 2027 08:45:37.551            10.244          4943.125
       331   12 Jun 2027 08:47:43.159   12 Jun 2027 08:47:56.114            12.955          1066.250
       332   12 Jun 2027 08:49:11.467   12 Jun 2027 08:49:14.412             2.945           706.281
       333   12 Jun 2027 08:50:00.027   12 Jun 2027 08:50:01.733             1.706           629.344
       334   12 Jun 2027 08:50:22.727   12 Jun 2027 08:50:31.724             8.997           358.937
       335   12 Jun 2027 08:51:45.580   12 Jun 2027 08:51:51.308             5.728          2059.188
       336   12 Jun 2027 10:23:45.135   12 Jun 2027 10:23:57.751            12.616          5626.063
       337   12 Jun 2027 10:24:26.854   12 Jun 2027 10:24:27.813             0.959           152.781
       338   12 Jun 2027 10:25:41.000   12 Jun 2027 10:25:45.554             4.554           215.781
       339   12 Jun 2027 10:26:56.331   12 Jun 2027 10:27:00.480             4.149          1938.000
       340   12 Jun 2027 10:27:16.594   12 Jun 2027 10:27:20.060             3.466           161.656
       341   12 Jun 2027 10:27:33.976   12 Jun 2027 10:27:34.285             0.309            46.875
       342   12 Jun 2027 11:59:12.218   12 Jun 2027 11:59:27.051            14.833          7349.438
       343   13 Jun 2027 04:08:49.952   13 Jun 2027 04:09:22.613            32.661         16330.500
       344   13 Jun 2027 04:09:47.220   13 Jun 2027 04:09:54.087             6.867          3433.500
       345   13 Jun 2027 04:11:51.957   13 Jun 2027 04:11:59.192             7.235          3617.500
       346   13 Jun 2027 04:12:12.029   13 Jun 2027 04:12:28.944            16.915          8457.500
       347   13 Jun 2027 05:44:21.691   13 Jun 2027 05:45:12.424            50.733         25366.500
       348   13 Jun 2027 05:45:50.553   13 Jun 2027 05:46:30.959            40.406         20203.000
       349   13 Jun 2027 05:46:53.340   13 Jun 2027 05:47:35.844            42.504         21252.000
       350   13 Jun 2027 05:48:56.413   13 Jun 2027 05:49:38.852            42.439         21219.500
       351   13 Jun 2027 05:50:22.211   13 Jun 2027 05:50:22.211             0.000             0.000
       352   13 Jun 2027 07:20:40.794   13 Jun 2027 07:22:18.239            97.445         48087.594
       353   13 Jun 2027 07:22:51.035   13 Jun 2027 07:22:55.358             4.323           624.969
       354   13 Jun 2027 07:24:03.622   13 Jun 2027 07:24:07.269             3.647          1639.469
       355   13 Jun 2027 07:24:39.219   13 Jun 2027 07:24:40.234             1.015           180.969
       356   13 Jun 2027 07:25:56.599   13 Jun 2027 07:26:00.014             3.415          1550.844
       357   13 Jun 2027 07:26:42.056   13 Jun 2027 07:26:42.056             0.000             0.000
       358   13 Jun 2027 07:26:47.544   13 Jun 2027 07:26:51.294             3.750          1073.656
       359   13 Jun 2027 07:27:27.813   13 Jun 2027 07:27:28.942             1.129           347.719
       360   13 Jun 2027 07:27:37.583   13 Jun 2027 07:27:37.738             0.155            51.031
       361   13 Jun 2027 08:57:47.589   13 Jun 2027 08:57:58.956            11.367          4990.219
       362   13 Jun 2027 08:59:14.849   13 Jun 2027 08:59:16.637             1.788           454.063
       363   13 Jun 2027 08:59:37.521   13 Jun 2027 08:59:39.440             1.919           638.937
       364   13 Jun 2027 09:00:14.058   13 Jun 2027 09:00:15.746             1.688           644.344
       365   13 Jun 2027 09:01:57.801   13 Jun 2027 09:02:00.093             2.292          1005.750
       366   13 Jun 2027 09:02:03.909   13 Jun 2027 09:02:04.319             0.410            66.938
       367   13 Jun 2027 09:02:20.176   13 Jun 2027 09:02:27.500             7.324           437.250
       368   13 Jun 2027 09:03:41.132   13 Jun 2027 09:03:46.353             5.221          1954.469
       369   13 Jun 2027 09:04:05.140   13 Jun 2027 09:04:06.790             1.650           382.187
       370   13 Jun 2027 10:35:43.074   13 Jun 2027 10:35:57.006            13.932          6281.875
       371   13 Jun 2027 10:37:40.543   13 Jun 2027 10:37:41.198             0.655            23.063
       372   13 Jun 2027 10:39:14.597   13 Jun 2027 10:39:15.768             1.171           540.688
       373   13 Jun 2027 10:39:25.422   13 Jun 2027 10:39:26.544             1.122           179.375
       374   13 Jun 2027 10:39:39.299   13 Jun 2027 10:39:41.013             1.714           139.469
