uniorb/output/strategy_4/Camera/Camera_KinoSat_111209.txt

KinoSat_111209
-------------------------
    Access    *     Start Time (UTCG)     *     Stop Time (UTCG)  *   Duration (s) *   Data (Mbytes)
         1   01 Jun 2027 04:17:02.863   01 Jun 2027 04:18:32.801            89.938         44969.000
         2   01 Jun 2027 04:29:16.485   01 Jun 2027 04:29:48.557            32.072         16036.000
         3   01 Jun 2027 05:51:12.727   01 Jun 2027 05:52:27.695            74.968         37484.000
         4   01 Jun 2027 05:53:51.061   01 Jun 2027 05:53:58.125             7.064          3532.000
         5   01 Jun 2027 05:54:34.444   01 Jun 2027 05:54:55.793            21.349         10674.500
         6   01 Jun 2027 05:55:15.658   01 Jun 2027 05:55:46.350            30.692         15346.000
         7   01 Jun 2027 07:26:01.017   01 Jun 2027 07:28:29.929           148.912         74456.000
         8   01 Jun 2027 07:34:20.641   01 Jun 2027 07:34:26.488             5.847          2923.500
         9   01 Jun 2027 09:03:49.786   01 Jun 2027 09:06:39.508           169.722         84861.000
        10   01 Jun 2027 09:09:49.242   01 Jun 2027 09:09:52.551             3.309          1654.500
        11   01 Jun 2027 09:10:32.004   01 Jun 2027 09:10:51.149            19.145          9572.500
        12   01 Jun 2027 09:10:58.705   01 Jun 2027 09:11:08.315             9.610          4805.000
        13   01 Jun 2027 10:40:34.211   01 Jun 2027 10:43:20.527           166.316         83158.000
        14   01 Jun 2027 10:45:42.172   01 Jun 2027 10:45:58.685            16.513          8256.500
        15   01 Jun 2027 10:47:17.666   01 Jun 2027 10:47:17.666             0.000             0.000
        16   02 Jun 2027 03:05:00.120   02 Jun 2027 03:05:31.699            31.579         15789.500
        17   02 Jun 2027 03:05:46.391   02 Jun 2027 03:06:16.259            29.868         14934.000
        18   02 Jun 2027 03:06:51.704   02 Jun 2027 03:06:53.933             2.229          1114.500
        19   02 Jun 2027 03:07:51.752   02 Jun 2027 03:08:11.003            19.251          9625.500
        20   02 Jun 2027 03:08:34.801   02 Jun 2027 03:08:47.694            12.893          6446.500
        21   02 Jun 2027 03:09:01.509   02 Jun 2027 03:09:35.242            33.733         16866.500
        22   02 Jun 2027 04:29:01.883   02 Jun 2027 04:29:40.609            38.726         19363.000
        23   02 Jun 2027 04:30:53.624   02 Jun 2027 04:30:58.492             4.868          2434.000
        24   02 Jun 2027 06:04:58.714   02 Jun 2027 06:07:48.734           170.020         85010.000
        25   02 Jun 2027 07:38:49.587   02 Jun 2027 07:42:06.419           196.832         98416.000
        26   02 Jun 2027 07:44:20.905   02 Jun 2027 07:44:20.905             0.000             0.000
        27   02 Jun 2027 07:44:56.366   02 Jun 2027 07:45:05.852             9.486          4743.000
        28   02 Jun 2027 07:46:36.319   02 Jun 2027 07:47:19.570            43.251         21625.500
        29   02 Jun 2027 09:15:56.326   02 Jun 2027 09:17:52.822           116.496         58248.000
        30   02 Jun 2027 09:18:36.183   02 Jun 2027 09:19:07.048            30.865         15171.781
        31   02 Jun 2027 09:19:43.212   02 Jun 2027 09:19:46.600             3.388           468.438
        32   02 Jun 2027 09:21:10.769   02 Jun 2027 09:21:15.598             4.829          2114.188
        33   02 Jun 2027 09:21:23.943   02 Jun 2027 09:21:24.424             0.481           207.500
        34   02 Jun 2027 09:22:03.044   02 Jun 2027 09:22:05.929             2.885          1036.094
        35   02 Jun 2027 09:22:50.823   02 Jun 2027 09:22:53.321             2.498          1041.625
        36   02 Jun 2027 09:22:59.590   02 Jun 2027 09:23:04.015             4.425           195.906
        37   02 Jun 2027 10:52:58.800   02 Jun 2027 10:53:08.182             9.382          4691.000
        38   02 Jun 2027 10:53:23.838   02 Jun 2027 10:53:31.893             8.055          2141.625
        39   02 Jun 2027 10:55:30.458   02 Jun 2027 10:55:34.209             3.751            90.594
        40   02 Jun 2027 10:55:40.877   02 Jun 2027 10:55:44.883             4.006            85.125
        41   02 Jun 2027 10:56:34.609   02 Jun 2027 10:56:37.259             2.650           646.625
        42   02 Jun 2027 10:56:56.215   02 Jun 2027 10:56:58.054             1.839           592.375
        43   02 Jun 2027 10:57:25.622   02 Jun 2027 10:57:29.996             4.374           861.500
        44   02 Jun 2027 10:57:39.792   02 Jun 2027 10:57:40.450             0.658           306.125
        45   02 Jun 2027 10:58:31.048   02 Jun 2027 10:58:34.485             3.437          1071.688
        46   03 Jun 2027 03:17:34.650   03 Jun 2027 03:19:50.153           135.503         67751.500
        47   03 Jun 2027 03:20:25.982   03 Jun 2027 03:21:01.949            35.967         17983.500
        48   03 Jun 2027 04:40:56.223   03 Jun 2027 04:41:34.160            37.937         18968.500
        49   03 Jun 2027 04:41:53.896   03 Jun 2027 04:42:15.845            21.949         10974.500
        50   03 Jun 2027 04:43:12.584   03 Jun 2027 04:43:22.130             9.546          4773.000
        51   03 Jun 2027 06:17:20.536   03 Jun 2027 06:18:53.548            93.012         45293.407
        52   03 Jun 2027 06:19:01.221   03 Jun 2027 06:19:01.618             0.397           152.750
        53   03 Jun 2027 06:19:43.621   03 Jun 2027 06:19:46.398             2.777          1304.281
        54   03 Jun 2027 06:19:59.389   03 Jun 2027 06:20:00.211             0.822           264.656
        55   03 Jun 2027 07:51:00.492   03 Jun 2027 07:51:06.162             5.670          2678.281
        56   03 Jun 2027 07:53:14.339   03 Jun 2027 07:53:18.353             4.014            78.406
        57   03 Jun 2027 07:54:08.343   03 Jun 2027 07:54:12.808             4.465          1517.875
        58   03 Jun 2027 07:54:58.384   03 Jun 2027 07:55:03.032             4.648          1219.750
        59   03 Jun 2027 07:55:39.721   03 Jun 2027 07:55:42.899             3.178          1146.531
        60   03 Jun 2027 07:56:07.115   03 Jun 2027 07:56:08.339             1.224           139.844
        61   03 Jun 2027 07:57:36.590   03 Jun 2027 07:57:46.421             9.831          2162.625
        62   03 Jun 2027 07:58:17.722   03 Jun 2027 07:58:20.931             3.209           973.844
        63   03 Jun 2027 07:58:42.454   03 Jun 2027 07:58:43.200             0.746           209.969
        64   03 Jun 2027 07:59:16.760   03 Jun 2027 07:59:18.934             2.174            23.094
        65   03 Jun 2027 09:28:22.381   03 Jun 2027 09:28:33.403            11.022          4596.750
        66   03 Jun 2027 09:32:03.179   03 Jun 2027 09:32:07.265             4.086           977.125
        67   03 Jun 2027 09:32:48.555   03 Jun 2027 09:32:53.133             4.578           597.844
        68   03 Jun 2027 09:33:18.436   03 Jun 2027 09:33:21.320             2.884           790.719
        69   03 Jun 2027 09:33:24.331   03 Jun 2027 09:33:25.625             1.294            94.094
        70   03 Jun 2027 09:34:27.974   03 Jun 2027 09:34:33.230             5.256          1819.062
        71   03 Jun 2027 09:34:44.330   03 Jun 2027 09:34:46.584             2.254           346.875
        72   03 Jun 2027 11:05:19.522   03 Jun 2027 11:05:38.777            19.255          7381.094
        73   03 Jun 2027 11:09:08.584   03 Jun 2027 11:09:12.343             3.759          1278.719
        74   03 Jun 2027 11:09:34.385   03 Jun 2027 11:09:37.189             2.804           228.594
        75   03 Jun 2027 11:10:33.058   03 Jun 2027 11:10:38.424             5.366          1327.406
        76   04 Jun 2027 03:29:12.480   04 Jun 2027 03:33:27.802           255.322        127661.000
        77   04 Jun 2027 04:52:55.684   04 Jun 2027 04:53:15.792            20.108         10054.000
        78   04 Jun 2027 04:53:56.468   04 Jun 2027 04:54:08.762            12.294          6147.000
        79   04 Jun 2027 06:29:22.224   04 Jun 2027 06:30:12.261            50.037         24027.250
        80   04 Jun 2027 06:30:17.939   04 Jun 2027 06:30:21.365             3.426           165.531
        81   04 Jun 2027 06:31:22.767   04 Jun 2027 06:31:29.349             6.582          1569.562
        82   04 Jun 2027 06:32:05.290   04 Jun 2027 06:32:08.975             3.685          1123.156
        83   04 Jun 2027 08:04:17.441   04 Jun 2027 08:04:23.294             5.853          2492.125
        84   04 Jun 2027 08:05:32.797   04 Jun 2027 08:05:34.414             1.617           662.281
        85   04 Jun 2027 08:07:37.665   04 Jun 2027 08:07:41.714             4.049          1599.250
        86   04 Jun 2027 08:08:09.835   04 Jun 2027 08:08:11.316             1.481           733.313
        87   04 Jun 2027 08:09:24.684   04 Jun 2027 08:09:29.956             5.272          2034.031
        88   04 Jun 2027 08:09:44.339   04 Jun 2027 08:09:45.828             1.489           141.875
        89   04 Jun 2027 08:10:20.795   04 Jun 2027 08:10:26.860             6.065           867.500
        90   04 Jun 2027 08:10:49.236   04 Jun 2027 08:10:55.810             6.574           699.250
        91   04 Jun 2027 08:11:05.123   04 Jun 2027 08:11:08.166             3.043           246.062
        92   04 Jun 2027 09:40:29.971   04 Jun 2027 09:40:40.708            10.737          4520.687
        93   04 Jun 2027 09:43:34.829   04 Jun 2027 09:43:36.942             2.113           870.312
        94   04 Jun 2027 09:44:43.446   04 Jun 2027 09:44:48.901             5.455          1676.125
        95   04 Jun 2027 09:45:28.841   04 Jun 2027 09:45:31.457             2.616          1138.438
        96   04 Jun 2027 09:46:37.052   04 Jun 2027 09:46:38.734             1.682           583.906
        97   04 Jun 2027 11:18:13.511   04 Jun 2027 11:18:26.142            12.631          5825.313
        98   04 Jun 2027 11:19:48.857   04 Jun 2027 11:19:55.955             7.098          1303.437
        99   04 Jun 2027 11:20:28.128   04 Jun 2027 11:20:35.461             7.333           530.281
       100   04 Jun 2027 11:20:59.473   04 Jun 2027 11:21:04.097             4.624           134.844
       101   04 Jun 2027 11:21:41.843   04 Jun 2027 11:21:44.569             2.726          1179.563
       102   04 Jun 2027 11:22:20.580   04 Jun 2027 11:22:24.748             4.168           201.188
       103   05 Jun 2027 03:41:35.459   05 Jun 2027 03:42:06.126            30.667         15333.500
       104   05 Jun 2027 03:42:24.653   05 Jun 2027 03:44:54.798           150.145         75072.500
       105   05 Jun 2027 05:04:57.987   05 Jun 2027 05:05:31.260            33.273         16636.500
       106   05 Jun 2027 05:06:17.293   05 Jun 2027 05:06:17.293             0.000             0.000
       107   05 Jun 2027 06:41:29.773   05 Jun 2027 06:43:12.558           102.785         49834.562
       108   05 Jun 2027 06:43:36.343   05 Jun 2027 06:43:37.798             1.455           440.406
       109   05 Jun 2027 06:44:13.525   05 Jun 2027 06:44:15.398             1.873           593.281
       110   05 Jun 2027 08:16:39.894   05 Jun 2027 08:16:48.865             8.971          2410.375
       111   05 Jun 2027 08:17:57.480   05 Jun 2027 08:18:02.310             4.830          1775.969
       112   05 Jun 2027 08:18:16.341   05 Jun 2027 08:18:22.874             6.533           160.719
       113   05 Jun 2027 08:19:32.163   05 Jun 2027 08:19:34.606             2.443          1086.344
       114   05 Jun 2027 08:19:58.256   05 Jun 2027 08:20:01.540             3.284           739.062
       115   05 Jun 2027 08:21:53.150   05 Jun 2027 08:22:01.303             8.153          3149.844
       116   05 Jun 2027 08:22:20.160   05 Jun 2027 08:22:21.531             1.371           589.281
       117   05 Jun 2027 08:23:15.182   05 Jun 2027 08:23:16.461             1.279           639.500
       118   05 Jun 2027 09:53:04.532   05 Jun 2027 09:53:14.808            10.276          4311.313
       119   05 Jun 2027 09:55:32.974   05 Jun 2027 09:55:36.329             3.355           255.813
       120   05 Jun 2027 09:55:38.848   05 Jun 2027 09:55:39.302             0.454            59.187
       121   05 Jun 2027 09:55:42.669   05 Jun 2027 09:55:43.184             0.515           105.219
       122   05 Jun 2027 09:55:47.423   05 Jun 2027 09:55:49.832             2.409            83.094
       123   05 Jun 2027 09:56:06.982   05 Jun 2027 09:56:10.184             3.202           324.313
       124   05 Jun 2027 09:57:05.216   05 Jun 2027 09:57:11.492             6.276          1644.813
       125   05 Jun 2027 09:58:06.127   05 Jun 2027 09:58:08.618             2.491          1222.625
       126   05 Jun 2027 09:58:15.128   05 Jun 2027 09:58:16.978             1.850            16.250
       127   05 Jun 2027 09:58:43.590   05 Jun 2027 09:58:45.065             1.475           261.750
       128   05 Jun 2027 09:59:06.316   05 Jun 2027 09:59:09.592             3.276           664.094
       129   05 Jun 2027 11:30:20.093   05 Jun 2027 11:30:30.466            10.373          4950.687
       130   05 Jun 2027 11:32:03.494   05 Jun 2027 11:32:07.164             3.670           614.031
       131   05 Jun 2027 11:33:25.663   05 Jun 2027 11:33:30.559             4.896          1875.750
       132   05 Jun 2027 11:34:08.925   05 Jun 2027 11:34:25.637            16.712          1154.719
       133   05 Jun 2027 11:34:35.441   05 Jun 2027 11:34:36.866             1.425           286.687
       134   05 Jun 2027 11:34:50.898   05 Jun 2027 11:34:56.425             5.527           438.500
       135   06 Jun 2027 03:53:32.205   06 Jun 2027 03:54:11.128            38.923         19461.500
       136   06 Jun 2027 03:54:35.325   06 Jun 2027 03:57:08.243           152.918         76459.000
       137   06 Jun 2027 05:17:00.515   06 Jun 2027 05:17:06.765             6.250          3125.000
       138   06 Jun 2027 05:17:55.181   06 Jun 2027 05:18:05.875            10.694          5347.000
       139   06 Jun 2027 05:18:11.656   06 Jun 2027 05:18:17.584             5.928          2964.000
       140   06 Jun 2027 05:20:10.321   06 Jun 2027 05:20:10.321             0.000             0.000
       141   06 Jun 2027 06:53:22.727   06 Jun 2027 06:55:03.830           101.103         50258.719
       142   06 Jun 2027 06:56:37.582   06 Jun 2027 06:56:46.680             9.098          2775.469
       143   06 Jun 2027 08:28:18.697   06 Jun 2027 08:28:24.418             5.721          2828.813
       144   06 Jun 2027 08:30:12.029   06 Jun 2027 08:30:16.822             4.793          2341.562
       145   06 Jun 2027 08:31:08.290   06 Jun 2027 08:31:11.115             2.825          1359.781
       146   06 Jun 2027 08:31:20.070   06 Jun 2027 08:31:21.805             1.735           279.844
       147   06 Jun 2027 08:32:14.638   06 Jun 2027 08:32:19.800             5.162          1385.531
       148   06 Jun 2027 08:32:50.456   06 Jun 2027 08:32:53.961             3.505           277.750
       149   06 Jun 2027 08:33:25.692   06 Jun 2027 08:33:32.286             6.594           991.594
       150   06 Jun 2027 08:33:50.683   06 Jun 2027 08:33:52.658             1.975           365.562
       151   06 Jun 2027 08:33:59.521   06 Jun 2027 08:33:59.521             0.000             0.000
       152   06 Jun 2027 08:34:49.961   06 Jun 2027 08:34:53.779             3.818          1790.719
       153   06 Jun 2027 08:35:17.087   06 Jun 2027 08:35:19.136             2.049           727.844
       154   06 Jun 2027 10:04:38.041   06 Jun 2027 10:04:49.859            11.818          4734.812
       155   06 Jun 2027 10:07:04.257   06 Jun 2027 10:07:04.977             0.720           350.656
       156   06 Jun 2027 10:07:38.257   06 Jun 2027 10:07:39.999             1.742           459.062
       157   06 Jun 2027 10:08:05.494   06 Jun 2027 10:08:08.743             3.249           777.969
       158   06 Jun 2027 10:08:22.462   06 Jun 2027 10:08:27.143             4.681           423.031
       159   06 Jun 2027 10:09:02.340   06 Jun 2027 10:09:03.860             1.520           608.031
       160   06 Jun 2027 10:09:40.214   06 Jun 2027 10:09:43.149             2.935          1136.063
       161   06 Jun 2027 10:10:11.971   06 Jun 2027 10:10:21.462             9.491           622.438
       162   06 Jun 2027 11:42:53.109   06 Jun 2027 11:43:06.665            13.556          6743.250
       163   06 Jun 2027 11:43:41.644   06 Jun 2027 11:43:45.899             4.255           559.750
       164   06 Jun 2027 11:45:05.538   06 Jun 2027 11:45:10.240             4.702          2092.844
       165   06 Jun 2027 11:45:45.512   06 Jun 2027 11:45:46.657             1.145           402.719
       166   06 Jun 2027 11:46:38.588   06 Jun 2027 11:46:42.241             3.653          1535.625
       167   07 Jun 2027 03:54:24.273   07 Jun 2027 03:54:26.172             1.899           949.500
       168   07 Jun 2027 03:54:48.767   07 Jun 2027 03:55:06.988            18.221          9110.500
       169   07 Jun 2027 04:05:28.573   07 Jun 2027 04:06:25.468            56.895         28447.500
       170   07 Jun 2027 04:06:27.742   07 Jun 2027 04:06:31.160             3.418          1709.000
       171   07 Jun 2027 04:06:40.546   07 Jun 2027 04:06:44.539             3.993          1996.500
       172   07 Jun 2027 04:07:06.351   07 Jun 2027 04:07:09.635             3.284          1642.000
       173   07 Jun 2027 04:07:35.392   07 Jun 2027 04:07:45.140             9.748          4874.000
       174   07 Jun 2027 04:08:08.136   07 Jun 2027 04:08:26.937            18.801          9400.500
       175   07 Jun 2027 05:28:05.343   07 Jun 2027 05:29:23.801            78.458         39229.000
       176   07 Jun 2027 05:30:43.419   07 Jun 2027 05:30:46.572             3.153          1576.500
       177   07 Jun 2027 07:03:41.293   07 Jun 2027 07:04:20.444            39.151         19575.500
       178   07 Jun 2027 07:05:06.886   07 Jun 2027 07:06:36.144            89.258         44260.375
       179   07 Jun 2027 07:07:59.634   07 Jun 2027 07:08:07.172             7.538          2609.062
       180   07 Jun 2027 07:08:39.349   07 Jun 2027 07:08:41.547             2.198           900.250
       181   07 Jun 2027 07:09:10.201   07 Jun 2027 07:09:13.527             3.326           884.188
       182   07 Jun 2027 08:39:52.136   07 Jun 2027 08:39:54.147             2.011          1005.500
       183   07 Jun 2027 08:40:24.115   07 Jun 2027 08:40:29.207             5.092          1603.531
       184   07 Jun 2027 08:42:12.372   07 Jun 2027 08:42:18.704             6.332          2358.219
       185   07 Jun 2027 08:43:10.143   07 Jun 2027 08:43:17.838             7.695           426.563
       186   07 Jun 2027 08:43:28.221   07 Jun 2027 08:43:28.748             0.527           118.031
       187   07 Jun 2027 08:43:55.493   07 Jun 2027 08:43:58.530             3.037           835.781
       188   07 Jun 2027 08:44:16.657   07 Jun 2027 08:44:20.891             4.234           108.781
       189   07 Jun 2027 08:45:06.526   07 Jun 2027 08:45:09.064             2.538           891.813
       190   07 Jun 2027 08:45:40.402   07 Jun 2027 08:45:42.462             2.060           727.656
       191   07 Jun 2027 08:46:02.538   07 Jun 2027 08:46:03.435             0.897           346.313
       192   07 Jun 2027 08:46:35.947   07 Jun 2027 08:46:38.339             2.392           892.813
       193   07 Jun 2027 08:46:47.148   07 Jun 2027 08:46:47.788             0.640           101.594
       194   07 Jun 2027 08:47:25.638   07 Jun 2027 08:47:27.687             2.049           814.125
       195   07 Jun 2027 10:16:57.701   07 Jun 2027 10:17:11.257            13.556          6488.719
       196   07 Jun 2027 10:19:25.703   07 Jun 2027 10:19:29.488             3.785           345.813
       197   07 Jun 2027 10:19:38.658   07 Jun 2027 10:19:39.096             0.438           162.250
       198   07 Jun 2027 10:20:26.843   07 Jun 2027 10:20:32.557             5.714          1001.500
       199   07 Jun 2027 10:20:53.535   07 Jun 2027 10:21:00.416             6.881           546.125
       200   07 Jun 2027 10:21:15.131   07 Jun 2027 10:21:16.930             1.799           445.344
       201   07 Jun 2027 10:21:40.200   07 Jun 2027 10:21:41.712             1.512           634.625
       202   07 Jun 2027 10:22:11.977   07 Jun 2027 10:22:18.109             6.132           876.375
       203   07 Jun 2027 10:23:07.878   07 Jun 2027 10:23:08.902             1.024           286.750
       204   07 Jun 2027 11:54:56.250   07 Jun 2027 11:55:14.028            17.778          7547.719
       205   07 Jun 2027 11:57:05.892   07 Jun 2027 11:57:10.843             4.951           365.094
       206   07 Jun 2027 11:58:16.267   07 Jun 2027 11:58:20.499             4.232          1810.531
       207   07 Jun 2027 11:58:31.576   07 Jun 2027 11:58:33.136             1.560           226.719
       208   07 Jun 2027 11:58:45.615   07 Jun 2027 11:58:46.741             1.126           389.969
       209   08 Jun 2027 04:05:48.086   08 Jun 2027 04:06:18.770            30.684         15342.000
       210   08 Jun 2027 04:17:31.573   08 Jun 2027 04:18:44.514            72.941         36470.500
       211   08 Jun 2027 05:39:44.302   08 Jun 2027 05:40:54.564            70.262         35131.000
       212   08 Jun 2027 05:41:44.802   08 Jun 2027 05:42:02.015            17.213          8606.500
       213   08 Jun 2027 05:42:05.014   08 Jun 2027 05:42:05.014             0.000             0.000
       214   08 Jun 2027 05:42:12.075   08 Jun 2027 05:42:16.799             4.724          2362.000
       215   08 Jun 2027 05:43:48.658   08 Jun 2027 05:43:59.903            11.245          5622.500
       216   08 Jun 2027 07:14:47.518   08 Jun 2027 07:16:31.311           103.793         51896.500
       217   08 Jun 2027 07:16:51.312   08 Jun 2027 07:17:08.803            17.491          6341.219
       218   08 Jun 2027 07:17:27.792   08 Jun 2027 07:17:30.683             2.891           563.469
       219   08 Jun 2027 07:18:18.870   08 Jun 2027 07:18:21.241             2.371           933.250
       220   08 Jun 2027 07:19:55.664   08 Jun 2027 07:19:57.399             1.735           867.500
       221   08 Jun 2027 07:20:15.776   08 Jun 2027 07:20:24.789             9.013          2171.219
       222   08 Jun 2027 07:20:41.002   08 Jun 2027 07:20:45.310             4.308           269.094
       223   08 Jun 2027 07:21:04.460   08 Jun 2027 07:21:07.730             3.270           502.562
       224   08 Jun 2027 07:21:18.923   08 Jun 2027 07:21:20.686             1.763            33.375
       225   08 Jun 2027 08:52:11.051   08 Jun 2027 08:52:17.252             6.201          2649.437
       226   08 Jun 2027 08:54:12.142   08 Jun 2027 08:54:19.913             7.771          2279.406
       227   08 Jun 2027 08:55:48.528   08 Jun 2027 08:55:50.216             1.688           474.656
       228   08 Jun 2027 08:56:27.984   08 Jun 2027 08:56:33.206             5.222          1180.250
       229   08 Jun 2027 08:57:49.404   08 Jun 2027 08:57:52.638             3.234          1569.469
       230   08 Jun 2027 08:58:16.362   08 Jun 2027 08:58:23.489             7.127           467.469
       231   08 Jun 2027 08:58:49.278   08 Jun 2027 08:58:53.082             3.804           512.281
       232   08 Jun 2027 08:59:29.688   08 Jun 2027 08:59:30.038             0.350            49.219
       233   08 Jun 2027 10:28:59.193   08 Jun 2027 10:29:10.929            11.736          5763.500
       234   08 Jun 2027 10:32:40.414   08 Jun 2027 10:32:50.466            10.052          1167.156
       235   08 Jun 2027 10:32:53.642   08 Jun 2027 10:32:54.487             0.845            99.250
       236   08 Jun 2027 10:33:16.654   08 Jun 2027 10:33:17.708             1.054           268.813
       237   08 Jun 2027 10:33:45.586   08 Jun 2027 10:33:51.123             5.537           669.437
       238   08 Jun 2027 10:34:19.421   08 Jun 2027 10:34:26.078             6.657           130.656
       239   08 Jun 2027 10:35:01.533   08 Jun 2027 10:35:04.544             3.011           595.594
       240   08 Jun 2027 10:35:07.594   08 Jun 2027 10:35:09.674             2.080            95.281
       241   09 Jun 2027 03:00:00.000   09 Jun 2027 03:00:03.426             3.426          1713.000
       242   09 Jun 2027 04:17:19.099   09 Jun 2027 04:17:49.654            30.555         15277.500
       243   09 Jun 2027 04:19:07.267   09 Jun 2027 04:19:21.573            14.306          7153.000
       244   09 Jun 2027 04:29:32.210   09 Jun 2027 04:30:03.994            31.784         15892.000
       245   09 Jun 2027 05:51:27.807   09 Jun 2027 05:52:41.816            74.009         37004.500
       246   09 Jun 2027 05:53:30.654   09 Jun 2027 05:54:06.547            35.893         17946.500
       247   09 Jun 2027 07:26:15.910   09 Jun 2027 07:28:23.914           128.004         63411.969
       248   09 Jun 2027 07:29:00.981   09 Jun 2027 07:29:04.192             3.211          1158.344
       249   09 Jun 2027 07:30:37.084   09 Jun 2027 07:30:42.796             5.712          1900.281
       250   09 Jun 2027 07:31:57.437   09 Jun 2027 07:32:08.348            10.911          2209.531
       251   09 Jun 2027 07:32:57.031   09 Jun 2027 07:33:01.023             3.992          1191.563
       252   09 Jun 2027 07:33:21.026   09 Jun 2027 07:33:21.026             0.000             0.000
       253   09 Jun 2027 07:33:22.326   09 Jun 2027 07:33:23.355             1.029           402.531
       254   09 Jun 2027 07:34:06.585   09 Jun 2027 07:34:11.846             5.261          1350.938
       255   09 Jun 2027 07:35:09.489   09 Jun 2027 07:35:14.111             4.622          1663.313
       256   09 Jun 2027 09:04:05.475   09 Jun 2027 09:04:16.967            11.492          4367.875
       257   09 Jun 2027 09:06:11.245   09 Jun 2027 09:06:16.838             5.593          2099.938
       258   09 Jun 2027 09:08:22.254   09 Jun 2027 09:08:23.704             1.450            31.031
       259   09 Jun 2027 09:10:09.069   09 Jun 2027 09:10:13.527             4.458           891.406
       260   09 Jun 2027 09:10:51.736   09 Jun 2027 09:10:54.478             2.742           221.250
       261   09 Jun 2027 09:11:11.161   09 Jun 2027 09:11:11.615             0.454           143.594
       262   09 Jun 2027 09:11:25.905   09 Jun 2027 09:11:31.291             5.386           445.813
       263   09 Jun 2027 10:40:49.889   09 Jun 2027 10:41:01.797            11.908          5185.937
       264   09 Jun 2027 10:41:20.352   09 Jun 2027 10:41:21.786             1.434           303.000
       265   09 Jun 2027 10:43:36.397   09 Jun 2027 10:43:41.943             5.546          1420.688
       266   09 Jun 2027 10:44:21.222   09 Jun 2027 10:44:31.663            10.441           989.406
       267   09 Jun 2027 10:45:04.419   09 Jun 2027 10:45:05.901             1.482           308.031
       268   09 Jun 2027 10:45:06.452   09 Jun 2027 10:45:09.564             3.112            17.219
       269   09 Jun 2027 10:45:24.109   09 Jun 2027 10:45:24.842             0.733            73.656
       270   09 Jun 2027 10:45:44.264   09 Jun 2027 10:45:47.154             2.890           403.281
       271   09 Jun 2027 10:46:21.861   09 Jun 2027 10:46:24.094             2.233          1026.344
       272   09 Jun 2027 10:47:10.317   09 Jun 2027 10:47:23.445            13.128          1444.469
       273   10 Jun 2027 03:05:15.967   10 Jun 2027 03:06:01.300            45.333         22666.500
       274   10 Jun 2027 03:06:10.422   10 Jun 2027 03:06:11.716             1.294           647.000
       275   10 Jun 2027 03:06:41.748   10 Jun 2027 03:06:55.148            13.400          6700.000
       276   10 Jun 2027 03:07:28.134   10 Jun 2027 03:07:35.413             7.279          3639.500
       277   10 Jun 2027 03:07:38.286   10 Jun 2027 03:07:41.701             3.415          1707.500
       278   10 Jun 2027 03:08:52.750   10 Jun 2027 03:08:52.750             0.000             0.000
       279   10 Jun 2027 03:08:59.156   10 Jun 2027 03:09:13.805            14.649          7324.500
       280   10 Jun 2027 03:09:15.761   10 Jun 2027 03:09:50.650            34.889         17444.500
       281   10 Jun 2027 04:29:17.537   10 Jun 2027 04:29:55.278            37.741         18870.500
       282   10 Jun 2027 04:31:08.595   10 Jun 2027 04:31:14.657             6.062          3031.000
       283   10 Jun 2027 06:05:14.268   10 Jun 2027 06:08:04.827           170.559         83910.344
       284   10 Jun 2027 07:39:04.624   10 Jun 2027 07:39:19.503            14.879          3541.219
       285   10 Jun 2027 07:41:47.000   10 Jun 2027 07:41:50.450             3.450          1126.375
       286   10 Jun 2027 07:42:23.437   10 Jun 2027 07:42:30.870             7.433           583.125
       287   10 Jun 2027 07:43:12.899   10 Jun 2027 07:43:15.530             2.631          1125.219
       288   10 Jun 2027 07:44:21.915   10 Jun 2027 07:44:25.965             4.050           782.500
       289   10 Jun 2027 07:45:03.281   10 Jun 2027 07:45:10.516             7.235           820.875
       290   10 Jun 2027 07:45:43.602   10 Jun 2027 07:45:53.385             9.783          1011.281
       291   10 Jun 2027 07:46:08.001   10 Jun 2027 07:46:11.411             3.410           120.437
       292   10 Jun 2027 07:46:51.075   10 Jun 2027 07:46:55.098             4.023          1144.344
       293   10 Jun 2027 09:16:12.192   10 Jun 2027 09:16:25.815            13.623          6461.344
       294   10 Jun 2027 09:18:09.536   10 Jun 2027 09:18:19.986            10.450          1811.781
       295   10 Jun 2027 09:20:20.604   10 Jun 2027 09:20:26.432             5.828          2782.219
       296   10 Jun 2027 09:21:39.085   10 Jun 2027 09:21:39.848             0.763           147.813
       297   10 Jun 2027 09:22:47.809   10 Jun 2027 09:22:51.738             3.929          1732.500
       298   10 Jun 2027 09:23:06.759   10 Jun 2027 09:23:08.266             1.507           251.438
       299   10 Jun 2027 09:23:27.180   10 Jun 2027 09:23:28.200             1.020           384.406
       300   10 Jun 2027 10:53:15.245   10 Jun 2027 10:53:23.524             8.279          4139.500
       301   10 Jun 2027 10:53:40.215   10 Jun 2027 10:53:49.848             9.633          1542.844
       302   10 Jun 2027 10:56:02.766   10 Jun 2027 10:56:04.186             1.420           487.219
       303   10 Jun 2027 10:56:56.255   10 Jun 2027 10:56:58.896             2.641           185.594
       304   10 Jun 2027 10:57:16.275   10 Jun 2027 10:57:18.315             2.040           465.125
       305   10 Jun 2027 10:57:27.329   10 Jun 2027 10:57:28.675             1.346           134.250
       306   10 Jun 2027 10:57:45.809   10 Jun 2027 10:57:46.838             1.029           159.281
       307   10 Jun 2027 10:58:32.012   10 Jun 2027 10:58:35.993             3.981          1302.625
       308   10 Jun 2027 10:59:03.384   10 Jun 2027 10:59:04.637             1.253           526.406
       309   11 Jun 2027 03:17:50.741   11 Jun 2027 03:21:16.964           206.223        103111.500
       310   11 Jun 2027 04:41:11.356   11 Jun 2027 04:41:48.610            37.254         18627.000
       311   11 Jun 2027 06:17:35.987   11 Jun 2027 06:19:00.873            84.886         41501.313
       312   11 Jun 2027 06:19:16.609   11 Jun 2027 06:19:17.886             1.277           146.937
       313   11 Jun 2027 06:19:55.052   11 Jun 2027 06:19:55.820             0.768           384.000
       314   11 Jun 2027 06:20:17.127   11 Jun 2027 06:20:19.899             2.772          1103.969
       315   11 Jun 2027 07:51:18.914   11 Jun 2027 07:51:26.025             7.111          3149.625
       316   11 Jun 2027 07:53:31.151   11 Jun 2027 07:53:33.482             2.331            80.031
       317   11 Jun 2027 07:54:25.339   11 Jun 2027 07:54:28.656             3.317          1574.562
       318   11 Jun 2027 07:55:16.739   11 Jun 2027 07:55:20.031             3.292          1269.031
       319   11 Jun 2027 07:55:55.612   11 Jun 2027 07:56:04.901             9.289          1111.906
       320   11 Jun 2027 07:56:24.792   11 Jun 2027 07:56:27.612             2.820           183.281
       321   11 Jun 2027 07:57:55.159   11 Jun 2027 07:58:01.160             6.001          2196.063
       322   11 Jun 2027 07:58:08.595   11 Jun 2027 07:58:09.033             0.438            18.344
       323   11 Jun 2027 07:58:52.356   11 Jun 2027 07:58:56.848             4.492          1353.844
       324   11 Jun 2027 07:59:32.273   11 Jun 2027 07:59:34.637             2.364          1025.906
       325   11 Jun 2027 09:28:38.631   11 Jun 2027 09:28:54.080            15.449          5001.875
       326   11 Jun 2027 09:31:32.818   11 Jun 2027 09:31:33.868             1.050           208.437
       327   11 Jun 2027 09:31:48.047   11 Jun 2027 09:31:49.430             1.383           283.000
       328   11 Jun 2027 09:32:06.664   11 Jun 2027 09:32:12.727             6.063           490.063
       329   11 Jun 2027 09:33:02.914   11 Jun 2027 09:33:06.578             3.664          1568.344
       330   11 Jun 2027 09:33:41.320   11 Jun 2027 09:33:42.365             1.045           153.000
       331   11 Jun 2027 09:34:45.181   11 Jun 2027 09:34:53.537             8.356          1893.531
       332   11 Jun 2027 11:05:35.395   11 Jun 2027 11:05:54.973            19.578          6407.156
       333   11 Jun 2027 11:07:29.007   11 Jun 2027 11:07:31.834             2.827           423.563
       334   11 Jun 2027 11:07:54.753   11 Jun 2027 11:07:56.507             1.754           288.625
       335   11 Jun 2027 11:09:09.922   11 Jun 2027 11:09:12.341             2.419           676.750
       336   11 Jun 2027 11:10:07.553   11 Jun 2027 11:10:13.678             6.125          1033.219
       337   11 Jun 2027 11:10:53.678   11 Jun 2027 11:10:56.463             2.785          1208.500
       338   12 Jun 2027 03:29:28.459   12 Jun 2027 03:32:18.524           170.065         85032.500
       339   12 Jun 2027 03:32:45.940   12 Jun 2027 03:32:59.133            13.193          6596.500
       340   12 Jun 2027 03:33:23.200   12 Jun 2027 03:33:32.495             9.295          4647.500
       341   12 Jun 2027 03:33:34.342   12 Jun 2027 03:33:34.342             0.000             0.000
       342   12 Jun 2027 04:52:59.044   12 Jun 2027 04:53:09.978            10.934          5467.000
       343   12 Jun 2027 04:53:11.828   12 Jun 2027 04:53:24.573            12.745          6372.500
       344   12 Jun 2027 04:54:11.991   12 Jun 2027 04:54:11.991             0.000             0.000
       345   12 Jun 2027 04:54:55.797   12 Jun 2027 04:55:15.234            19.437          9718.500
       346   12 Jun 2027 06:29:39.273   12 Jun 2027 06:31:02.725            83.452         39548.406
       347   12 Jun 2027 06:31:27.377   12 Jun 2027 06:31:29.683             2.306           120.625
       348   12 Jun 2027 06:31:50.105   12 Jun 2027 06:31:52.188             2.083           543.594
       349   12 Jun 2027 08:04:38.334   12 Jun 2027 08:04:49.420            11.086          3687.219
       350   12 Jun 2027 08:05:49.549   12 Jun 2027 08:05:51.093             1.544           713.937
       351   12 Jun 2027 08:06:26.922   12 Jun 2027 08:06:32.853             5.931          1119.656
       352   12 Jun 2027 08:07:53.510   12 Jun 2027 08:07:57.861             4.351          1558.250
       353   12 Jun 2027 08:08:27.489   12 Jun 2027 08:08:29.750             2.261           769.938
       354   12 Jun 2027 08:09:39.592   12 Jun 2027 08:09:47.611             8.019          1939.000
       355   12 Jun 2027 08:09:55.972   12 Jun 2027 08:09:57.112             1.140            36.656
       356   12 Jun 2027 08:10:37.715   12 Jun 2027 08:10:43.684             5.969           877.812
       357   12 Jun 2027 08:11:27.270   12 Jun 2027 08:11:30.908             3.638           402.219
       358   12 Jun 2027 09:40:46.604   12 Jun 2027 09:41:01.103            14.499          4716.250
       359   12 Jun 2027 09:44:22.092   12 Jun 2027 09:44:28.306             6.214            46.625
       360   12 Jun 2027 09:45:08.662   12 Jun 2027 09:45:09.828             1.166           342.281
       361   12 Jun 2027 09:45:32.352   12 Jun 2027 09:45:38.103             5.751           638.438
       362   12 Jun 2027 09:46:33.536   12 Jun 2027 09:46:37.256             3.720          1559.000
       363   12 Jun 2027 09:46:55.639   12 Jun 2027 09:46:58.624             2.985           574.469
       364   12 Jun 2027 09:47:19.863   12 Jun 2027 09:47:21.892             2.029            21.469
       365   12 Jun 2027 09:47:24.601   12 Jun 2027 09:47:25.843             1.242            25.656
       366   12 Jun 2027 11:18:30.723   12 Jun 2027 11:18:42.986            12.263          5497.406
       367   12 Jun 2027 11:20:18.407   12 Jun 2027 11:20:19.867             1.460           366.563
       368   12 Jun 2027 11:20:27.191   12 Jun 2027 11:20:31.095             3.904            91.125
       369   12 Jun 2027 11:21:22.192   12 Jun 2027 11:21:24.132             1.940           431.281
       370   12 Jun 2027 11:21:43.295   12 Jun 2027 11:21:50.122             6.827           218.625
       371   12 Jun 2027 11:22:40.948   12 Jun 2027 11:22:49.942             8.994          1588.313
       372   13 Jun 2027 03:41:51.238   13 Jun 2027 03:42:22.310            31.072         15536.000
       373   13 Jun 2027 03:42:40.837   13 Jun 2027 03:45:35.124           174.287         87143.500
       374   13 Jun 2027 05:05:13.479   13 Jun 2027 05:05:33.345            19.866          9933.000
       375   13 Jun 2027 05:06:05.223   13 Jun 2027 05:06:14.419             9.196          4598.000
       376   13 Jun 2027 05:08:07.645   13 Jun 2027 05:08:18.763            11.118          5559.000
       377   13 Jun 2027 06:41:45.551   13 Jun 2027 06:43:10.916            85.365         42319.906
       378   13 Jun 2027 06:43:14.915   13 Jun 2027 06:43:18.048             3.133           109.562
       379   13 Jun 2027 06:43:53.818   13 Jun 2027 06:43:53.818             0.000             0.000
       380   13 Jun 2027 06:44:20.110   13 Jun 2027 06:44:23.706             3.596          1266.812
       381   13 Jun 2027 06:44:45.135   13 Jun 2027 06:44:48.705             3.570           669.656
       382   13 Jun 2027 08:16:55.936   13 Jun 2027 08:17:03.537             7.601          2212.437
       383   13 Jun 2027 08:18:14.625   13 Jun 2027 08:18:21.467             6.842          1806.312
       384   13 Jun 2027 08:18:33.329   13 Jun 2027 08:18:37.591             4.262           162.250
       385   13 Jun 2027 08:19:48.841   13 Jun 2027 08:19:51.453             2.612          1065.969
       386   13 Jun 2027 08:20:58.856   13 Jun 2027 08:21:01.702             2.846           902.000
       387   13 Jun 2027 08:21:42.401   13 Jun 2027 08:21:49.288             6.887           667.563
       388   13 Jun 2027 08:22:16.370   13 Jun 2027 08:22:18.766             2.396           760.500
       389   13 Jun 2027 08:22:42.698   13 Jun 2027 08:22:46.156             3.458           232.656
       390   13 Jun 2027 08:23:20.532   13 Jun 2027 08:23:21.191             0.659           281.219
       391   13 Jun 2027 09:53:18.883   13 Jun 2027 09:53:31.994            13.111          6151.969
       392   13 Jun 2027 09:55:30.536   13 Jun 2027 09:55:33.862             3.326           659.812
       393   13 Jun 2027 09:55:53.011   13 Jun 2027 09:55:54.027             1.016           385.688
       394   13 Jun 2027 09:56:04.838   13 Jun 2027 09:56:05.809             0.971            68.594
       395   13 Jun 2027 09:56:21.479   13 Jun 2027 09:56:25.381             3.902           302.875
       396   13 Jun 2027 09:57:26.605   13 Jun 2027 09:57:28.292             1.687           166.063
       397   13 Jun 2027 09:58:21.400   13 Jun 2027 09:58:27.767             6.367          1237.813
       398   13 Jun 2027 09:58:31.155   13 Jun 2027 09:58:34.597             3.442            37.531
       399   13 Jun 2027 09:58:57.688   13 Jun 2027 09:58:58.772             1.084           237.344
       400   13 Jun 2027 09:59:21.553   13 Jun 2027 09:59:25.003             3.450           607.000
       401   13 Jun 2027 11:30:36.153   13 Jun 2027 11:30:54.046            17.893          5809.000
       402   13 Jun 2027 11:32:19.039   13 Jun 2027 11:32:22.224             3.185           654.719
       403   13 Jun 2027 11:33:53.785   13 Jun 2027 11:33:58.558             4.773           982.438
       404   13 Jun 2027 11:34:18.457   13 Jun 2027 11:34:20.194             1.737           621.844
       405   13 Jun 2027 11:34:50.432   13 Jun 2027 11:34:52.341             1.909           161.937
       406   13 Jun 2027 11:35:07.891   13 Jun 2027 11:35:12.546             4.655           485.937
