uniorb/output/strategy_4/Camera/Camera_KinoSat_110106.txt

KinoSat_110106
-------------------------
    Access    *     Start Time (UTCG)     *     Stop Time (UTCG)  *   Duration (s) *   Data (Mbytes)
         1   01 Jun 2027 03:57:03.768   01 Jun 2027 03:59:23.560           139.792         69896.000
         2   01 Jun 2027 03:59:48.571   01 Jun 2027 03:59:52.612             4.041          2020.500
         3   01 Jun 2027 04:00:30.734   01 Jun 2027 04:00:48.752            18.018          9009.000
         4   01 Jun 2027 04:01:16.044   01 Jun 2027 04:01:18.655             2.611          1305.500
         5   01 Jun 2027 04:01:34.439   01 Jun 2027 04:01:44.472            10.033          5016.500
         6   01 Jun 2027 04:02:29.136   01 Jun 2027 04:02:40.091            10.955          5477.500
         7   01 Jun 2027 04:03:20.289   01 Jun 2027 04:03:24.154             3.865          1932.500
         8   01 Jun 2027 05:35:20.218   01 Jun 2027 05:38:43.675           203.457        101728.500
         9   01 Jun 2027 05:38:59.162   01 Jun 2027 05:39:11.740            12.578          6289.000
        10   01 Jun 2027 07:10:43.462   01 Jun 2027 07:13:43.001           179.539         89769.500
        11   01 Jun 2027 07:14:00.887   01 Jun 2027 07:14:00.887             0.000             0.000
        12   01 Jun 2027 07:14:08.278   01 Jun 2027 07:14:21.725            13.447          6723.500
        13   01 Jun 2027 07:14:47.150   01 Jun 2027 07:14:49.003             1.853           926.500
        14   01 Jun 2027 07:15:46.345   01 Jun 2027 07:16:03.513            17.168          8584.000
        15   02 Jun 2027 04:09:23.281   02 Jun 2027 04:15:45.365           382.084        191042.000
        16   02 Jun 2027 05:47:21.192   02 Jun 2027 05:51:18.426           237.234        118617.000
        17   02 Jun 2027 07:20:28.411   02 Jun 2027 07:26:22.957           354.546        177273.000
        18   02 Jun 2027 07:26:41.916   02 Jun 2027 07:26:45.639             3.723          1861.500
        19   02 Jun 2027 07:27:32.228   02 Jun 2027 07:28:05.375            33.147         16573.500
        20   03 Jun 2027 04:21:23.610   03 Jun 2027 04:27:54.126           390.516        195258.000
        21   03 Jun 2027 05:59:21.696   03 Jun 2027 06:03:31.593           249.897        124948.500
        22   03 Jun 2027 07:32:59.246   03 Jun 2027 07:40:22.713           443.467        221733.500
        23   04 Jun 2027 03:00:00.000   04 Jun 2027 03:03:55.632           235.632        117816.000
        24   04 Jun 2027 04:33:15.295   04 Jun 2027 04:39:07.073           351.778        175889.000
        25   04 Jun 2027 04:39:31.761   04 Jun 2027 04:39:59.107            27.346         13673.000
        26   04 Jun 2027 06:11:24.601   04 Jun 2027 06:15:29.691           245.090        122545.000
        27   04 Jun 2027 07:45:24.255   04 Jun 2027 07:51:30.804           366.549        183274.500
        28   05 Jun 2027 03:08:37.886   05 Jun 2027 03:15:56.716           438.830        219415.000
        29   05 Jun 2027 04:45:41.923   05 Jun 2027 04:50:25.299           283.376        141688.000
        30   05 Jun 2027 04:50:44.785   05 Jun 2027 04:51:45.970            61.185         30592.500
        31   05 Jun 2027 06:22:40.123   05 Jun 2027 06:27:30.143           290.020        145010.000
        32   05 Jun 2027 07:59:47.385   05 Jun 2027 08:02:31.225           163.840         81920.000
        33   06 Jun 2027 03:21:04.163   06 Jun 2027 03:27:44.375           400.212        200106.000
        34   06 Jun 2027 04:58:06.169   06 Jun 2027 05:02:22.648           256.479        128239.500
        35   06 Jun 2027 05:02:41.242   06 Jun 2027 05:03:29.479            48.237         24118.500
        36   06 Jun 2027 06:34:55.558   06 Jun 2027 06:39:20.008           264.450        132225.000
        37   06 Jun 2027 08:13:11.444   06 Jun 2027 08:14:07.741            56.297         28148.500
        38   07 Jun 2027 03:33:28.055   07 Jun 2027 03:39:51.357           383.302        191651.000
        39   07 Jun 2027 05:10:58.508   07 Jun 2027 05:15:22.396           263.888        131944.000
        40   07 Jun 2027 06:47:03.890   07 Jun 2027 06:51:19.225           255.335        127667.500
        41   08 Jun 2027 03:45:42.168   08 Jun 2027 03:51:52.395           370.227        185113.500
        42   08 Jun 2027 05:22:59.923   08 Jun 2027 05:27:38.847           278.924        139462.000
        43   08 Jun 2027 06:59:22.955   08 Jun 2027 07:04:01.019           278.064        139032.000
        44   09 Jun 2027 03:57:18.855   09 Jun 2027 04:03:44.253           385.398        192699.000
        45   09 Jun 2027 05:35:35.575   09 Jun 2027 05:39:26.630           231.055        115527.500
        46   09 Jun 2027 07:11:20.096   09 Jun 2027 07:15:04.357           224.261        112130.500
        47   09 Jun 2027 07:15:39.891   09 Jun 2027 07:16:24.942            45.051         22525.500
        48   10 Jun 2027 04:09:38.385   10 Jun 2027 04:16:00.304           381.919        190959.500
        49   10 Jun 2027 05:47:36.207   10 Jun 2027 05:51:33.792           237.585        118792.500
        50   10 Jun 2027 07:20:51.267   10 Jun 2027 07:27:00.842           369.575        184787.500
        51   10 Jun 2027 07:27:52.342   10 Jun 2027 07:28:42.358            50.016         25008.000
        52   11 Jun 2027 04:21:38.491   11 Jun 2027 04:27:49.854           371.363        185681.500
        53   11 Jun 2027 04:27:54.707   11 Jun 2027 04:28:09.384            14.677          7338.500
        54   11 Jun 2027 05:59:36.736   11 Jun 2027 06:03:46.599           249.863        124931.500
        55   11 Jun 2027 07:33:20.163   11 Jun 2027 07:40:37.621           437.458        218729.000
        56   12 Jun 2027 03:00:00.000   12 Jun 2027 03:04:10.444           250.444        125222.000
        57   12 Jun 2027 04:33:30.212   12 Jun 2027 04:39:21.761           351.549        175774.500
        58   12 Jun 2027 04:39:49.402   12 Jun 2027 04:40:14.033            24.631         12315.500
        59   12 Jun 2027 06:11:40.099   12 Jun 2027 06:15:44.722           244.623        122311.500
        60   12 Jun 2027 07:47:18.340   12 Jun 2027 07:51:45.267           266.927        133463.500
        61   13 Jun 2027 03:08:52.947   13 Jun 2027 03:16:11.677           438.730        219365.000
        62   13 Jun 2027 04:46:03.683   13 Jun 2027 04:50:39.843           276.160        138080.000
        63   13 Jun 2027 04:51:41.963   13 Jun 2027 04:52:00.806            18.843          9421.500
        64   13 Jun 2027 06:22:56.282   13 Jun 2027 06:27:45.073           288.791        144395.500
        65   13 Jun 2027 08:00:01.475   13 Jun 2027 08:02:45.904           164.429         82214.500
