uniorb/output/strategy_4/Camera/Camera_KinoSat_111907.txt

KinoSat_111907
-------------------------
    Access    *     Start Time (UTCG)     *     Stop Time (UTCG)  *   Duration (s) *   Data (Mbytes)
         1   01 Jun 2027 04:19:10.645   01 Jun 2027 04:19:34.828            24.183         12091.500
         2   01 Jun 2027 04:19:37.778   01 Jun 2027 04:20:54.608            76.830         38415.000
         3   01 Jun 2027 04:20:58.772   01 Jun 2027 04:21:42.107            43.335         21667.500
         4   01 Jun 2027 05:57:33.640   01 Jun 2027 05:59:57.335           143.695         71847.500
         5   01 Jun 2027 06:01:00.087   01 Jun 2027 06:01:02.462             2.375          1187.500
         6   01 Jun 2027 06:02:23.899   01 Jun 2027 06:02:41.693            17.794          8897.000
         7   01 Jun 2027 07:21:37.122   01 Jun 2027 07:23:25.167           108.045         54022.500
         8   01 Jun 2027 07:23:37.553   01 Jun 2027 07:23:37.680             0.127            63.500
         9   01 Jun 2027 08:55:23.499   01 Jun 2027 08:57:24.745           121.246         60623.000
        10   01 Jun 2027 08:59:09.069   01 Jun 2027 08:59:58.120            49.051         24525.500
        11   01 Jun 2027 10:31:23.852   01 Jun 2027 10:32:53.153            89.301         44650.500
        12   02 Jun 2027 03:00:00.000   02 Jun 2027 03:00:39.145            39.145         19572.500
        13   02 Jun 2027 04:31:45.289   02 Jun 2027 04:32:33.750            48.461         24230.500
        14   02 Jun 2027 04:32:43.334   02 Jun 2027 04:33:26.385            43.051         21525.500
        15   02 Jun 2027 04:33:27.194   02 Jun 2027 04:33:30.093             2.899          1449.500
        16   02 Jun 2027 04:34:04.934   02 Jun 2027 04:34:12.361             7.427          3713.500
        17   02 Jun 2027 04:34:23.336   02 Jun 2027 04:34:28.651             5.315          2657.500
        18   02 Jun 2027 04:36:07.036   02 Jun 2027 04:36:09.514             2.478          1239.000
        19   02 Jun 2027 06:10:07.676   02 Jun 2027 06:13:56.798           229.122        114561.000
        20   02 Jun 2027 07:33:32.201   02 Jun 2027 07:34:51.004            78.803         39401.500
        21   02 Jun 2027 09:09:51.049   02 Jun 2027 09:12:04.870           133.821         66910.500
        22   02 Jun 2027 10:43:21.102   02 Jun 2027 10:45:44.179           143.077         70435.063
        23   02 Jun 2027 10:46:26.606   02 Jun 2027 10:46:26.606             0.000             0.000
        24   02 Jun 2027 10:46:46.389   02 Jun 2027 10:46:52.841             6.452          1536.375
        25   02 Jun 2027 10:47:58.341   02 Jun 2027 10:47:59.392             1.051           346.469
        26   02 Jun 2027 10:49:18.763   02 Jun 2027 10:49:18.763             0.000             0.000
        27   02 Jun 2027 10:50:21.237   02 Jun 2027 10:50:30.716             9.479          4186.781
        28   02 Jun 2027 10:50:50.363   02 Jun 2027 10:50:51.588             1.225           590.156
        29   02 Jun 2027 10:51:17.506   02 Jun 2027 10:51:19.860             2.354           474.406
        30   02 Jun 2027 10:51:32.767   02 Jun 2027 10:51:34.860             2.093           403.344
        31   03 Jun 2027 03:05:40.606   03 Jun 2027 03:05:45.930             5.324          2662.000
        32   03 Jun 2027 03:05:56.025   03 Jun 2027 03:05:58.826             2.801          1400.500
        33   03 Jun 2027 03:07:18.248   03 Jun 2027 03:08:00.145            41.897         20948.500
        34   03 Jun 2027 03:08:39.447   03 Jun 2027 03:08:48.595             9.148          4574.000
        35   03 Jun 2027 03:09:33.361   03 Jun 2027 03:09:39.149             5.788          2894.000
        36   03 Jun 2027 03:09:52.295   03 Jun 2027 03:09:59.725             7.430          3715.000
        37   03 Jun 2027 03:11:08.757   03 Jun 2027 03:11:19.133            10.376          5188.000
        38   03 Jun 2027 03:11:41.824   03 Jun 2027 03:11:49.848             8.024          4012.000
        39   03 Jun 2027 03:12:19.470   03 Jun 2027 03:12:27.134             7.664          3832.000
        40   03 Jun 2027 03:12:36.755   03 Jun 2027 03:12:51.975            15.220          7610.000
        41   03 Jun 2027 04:43:42.456   03 Jun 2027 04:43:48.604             6.148          3074.000
        42   03 Jun 2027 04:43:59.380   03 Jun 2027 04:45:50.309           110.929         55464.500
        43   03 Jun 2027 04:45:57.189   03 Jun 2027 04:46:04.804             7.615          3807.500
        44   03 Jun 2027 04:47:04.883   03 Jun 2027 04:47:07.143             2.260          1130.000
        45   03 Jun 2027 04:47:21.978   03 Jun 2027 04:47:38.291            16.313          8156.500
        46   03 Jun 2027 04:48:30.081   03 Jun 2027 04:48:37.790             7.709          3854.500
        47   03 Jun 2027 04:49:42.558   03 Jun 2027 04:49:58.461            15.903          7951.500
        48   03 Jun 2027 06:21:46.334   03 Jun 2027 06:23:09.910            83.576         41604.501
        49   03 Jun 2027 06:25:20.994   03 Jun 2027 06:25:24.163             3.169          1143.031
        50   03 Jun 2027 07:45:24.124   03 Jun 2027 07:45:40.463            16.339          7420.781
        51   03 Jun 2027 07:46:52.290   03 Jun 2027 07:46:58.895             6.605          1926.938
        52   03 Jun 2027 07:47:19.541   03 Jun 2027 07:47:21.112             1.571           260.969
        53   03 Jun 2027 07:47:52.990   03 Jun 2027 07:47:56.505             3.515           482.469
        54   03 Jun 2027 09:21:52.795   03 Jun 2027 09:22:00.195             7.400          3361.219
        55   03 Jun 2027 09:22:53.879   03 Jun 2027 09:22:55.496             1.617           777.500
        56   03 Jun 2027 09:23:26.381   03 Jun 2027 09:23:26.381             0.000             0.000
        57   03 Jun 2027 09:23:35.558   03 Jun 2027 09:23:38.102             2.544           341.312
        58   03 Jun 2027 09:24:18.639   03 Jun 2027 09:24:22.920             4.281           885.438
        59   03 Jun 2027 09:24:41.522   03 Jun 2027 09:24:45.456             3.934           263.469
        60   03 Jun 2027 10:56:01.074   03 Jun 2027 10:56:12.233            11.159          4266.906
        61   03 Jun 2027 10:58:01.420   03 Jun 2027 10:58:02.407             0.987           361.500
        62   03 Jun 2027 10:59:15.718   03 Jun 2027 10:59:16.747             1.029           451.656
        63   03 Jun 2027 11:02:50.042   03 Jun 2027 11:03:02.418            12.376          5556.937
        64   03 Jun 2027 11:03:42.345   03 Jun 2027 11:03:42.345             0.000             0.000
        65   04 Jun 2027 03:17:42.328   04 Jun 2027 03:17:49.869             7.541          3770.500
        66   04 Jun 2027 03:18:47.903   04 Jun 2027 03:21:14.836           146.933         73466.500
        67   04 Jun 2027 03:21:57.757   04 Jun 2027 03:23:10.594            72.837         36418.500
        68   04 Jun 2027 04:55:51.242   04 Jun 2027 04:56:50.997            59.755         29877.500
        69   04 Jun 2027 04:57:00.442   04 Jun 2027 04:57:40.178            39.736         19630.344
        70   04 Jun 2027 04:57:53.669   04 Jun 2027 04:57:56.755             3.086           340.437
        71   04 Jun 2027 04:58:03.480   04 Jun 2027 04:58:05.172             1.692           210.156
        72   04 Jun 2027 04:59:21.697   04 Jun 2027 04:59:25.172             3.475          1468.437
        73   04 Jun 2027 05:01:27.354   04 Jun 2027 05:01:32.689             5.335          2539.219
        74   04 Jun 2027 06:34:09.800   04 Jun 2027 06:34:22.425            12.625          6227.062
        75   04 Jun 2027 06:37:56.074   04 Jun 2027 06:37:58.425             2.351           463.250
        76   04 Jun 2027 07:57:33.016   04 Jun 2027 07:57:44.715            11.699          5091.500
        77   04 Jun 2027 07:58:04.970   04 Jun 2027 07:58:08.870             3.900           538.719
        78   04 Jun 2027 07:58:33.441   04 Jun 2027 07:58:34.351             0.910           268.375
        79   04 Jun 2027 08:00:09.043   04 Jun 2027 08:00:14.847             5.804          2366.469
        80   04 Jun 2027 08:00:22.973   04 Jun 2027 08:00:23.080             0.107            53.500
        81   04 Jun 2027 08:00:36.553   04 Jun 2027 08:00:37.702             1.149           515.625
        82   04 Jun 2027 09:34:03.467   04 Jun 2027 09:34:16.182            12.715          3562.156
        83   04 Jun 2027 09:35:27.023   04 Jun 2027 09:35:32.154             5.131          1802.062
        84   04 Jun 2027 09:35:53.472   04 Jun 2027 09:35:55.129             1.657           293.469
        85   04 Jun 2027 11:09:13.632   04 Jun 2027 11:09:25.556            11.924          5537.937
        86   04 Jun 2027 11:12:03.561   04 Jun 2027 11:12:15.171            11.610          4490.938
        87   04 Jun 2027 11:12:57.711   04 Jun 2027 11:12:59.947             2.236           839.000
        88   04 Jun 2027 11:13:43.308   04 Jun 2027 11:13:46.317             3.009          1299.844
        89   04 Jun 2027 11:14:54.395   04 Jun 2027 11:15:00.233             5.838          1919.937
        90   04 Jun 2027 11:15:17.796   04 Jun 2027 11:15:18.650             0.854           361.250
        91   04 Jun 2027 11:15:28.784   04 Jun 2027 11:15:30.315             1.531           248.344
        92   04 Jun 2027 11:15:47.906   04 Jun 2027 11:15:49.313             1.407           341.000
        93   05 Jun 2027 03:29:40.347   05 Jun 2027 03:29:52.613            12.266          6133.000
        94   05 Jun 2027 03:30:17.725   05 Jun 2027 03:33:17.732           180.007         90003.500
        95   05 Jun 2027 03:33:37.671   05 Jun 2027 03:33:51.779            14.108          7054.000
        96   05 Jun 2027 03:35:15.378   05 Jun 2027 03:35:28.100            12.722          6361.000
        97   05 Jun 2027 05:07:56.571   05 Jun 2027 05:08:05.710             9.139          4569.500
        98   05 Jun 2027 05:08:58.098   05 Jun 2027 05:10:30.262            92.164         46028.625
        99   05 Jun 2027 05:11:38.346   05 Jun 2027 05:11:39.681             1.335           391.844
       100   05 Jun 2027 05:16:02.034   05 Jun 2027 05:16:19.867            17.833          7067.094
       101   05 Jun 2027 06:46:06.732   05 Jun 2027 06:46:18.037            11.305          5248.281
       102   05 Jun 2027 06:48:00.363   05 Jun 2027 06:48:05.882             5.519           179.750
       103   05 Jun 2027 08:10:13.238   05 Jun 2027 08:10:28.068            14.830          6867.844
       104   05 Jun 2027 08:10:46.072   05 Jun 2027 08:10:47.946             1.874           311.063
       105   05 Jun 2027 08:12:16.081   05 Jun 2027 08:12:21.296             5.215          2564.281
       106   05 Jun 2027 09:45:58.765   05 Jun 2027 09:46:03.587             4.822          1984.469
       107   05 Jun 2027 09:47:35.687   05 Jun 2027 09:47:40.875             5.188          2080.188
       108   05 Jun 2027 09:48:14.805   05 Jun 2027 09:48:22.615             7.810           289.281
       109   05 Jun 2027 09:49:11.263   05 Jun 2027 09:49:14.853             3.590          1520.250
       110   05 Jun 2027 11:20:55.907   05 Jun 2027 11:21:01.145             5.238          2395.281
       111   05 Jun 2027 11:23:35.002   05 Jun 2027 11:23:45.250            10.248          4027.219
       112   05 Jun 2027 11:26:07.773   05 Jun 2027 11:26:07.773             0.000             0.000
       113   05 Jun 2027 11:27:21.415   05 Jun 2027 11:27:34.328            12.913          6291.375
       114   05 Jun 2027 11:27:54.125   05 Jun 2027 11:27:56.660             2.535           571.531
       115   06 Jun 2027 03:42:09.654   06 Jun 2027 03:45:58.805           229.151        114575.500
       116   06 Jun 2027 03:47:17.302   06 Jun 2027 03:47:20.730             3.428          1714.000
       117   06 Jun 2027 03:47:59.608   06 Jun 2027 03:48:01.799             2.191          1095.500
       118   06 Jun 2027 05:21:01.917   06 Jun 2027 05:22:42.489           100.572         50286.000
       119   06 Jun 2027 05:23:21.344   06 Jun 2027 05:23:26.687             5.343          1223.843
       120   06 Jun 2027 05:24:44.853   06 Jun 2027 05:24:48.802             3.949          1974.500
       121   06 Jun 2027 05:27:16.417   06 Jun 2027 05:27:27.786            11.369          5081.156
       122   06 Jun 2027 06:47:01.089   06 Jun 2027 06:47:14.074            12.985          5282.000
       123   06 Jun 2027 06:58:03.334   06 Jun 2027 06:58:09.455             6.121          2838.312
       124   06 Jun 2027 06:59:03.541   06 Jun 2027 06:59:08.904             5.363          1587.875
       125   06 Jun 2027 08:21:02.333   06 Jun 2027 08:21:13.637            11.304          3487.031
       126   06 Jun 2027 08:21:55.245   06 Jun 2027 08:21:58.440             3.195           924.312
       127   06 Jun 2027 08:22:38.596   06 Jun 2027 08:22:52.672            14.076           687.906
       128   06 Jun 2027 08:24:10.170   06 Jun 2027 08:24:16.339             6.169          2369.750
       129   06 Jun 2027 09:56:34.423   06 Jun 2027 09:56:44.271             9.848          2452.312
       130   06 Jun 2027 09:59:24.333   06 Jun 2027 09:59:28.525             4.192          1754.344
       131   06 Jun 2027 10:00:39.863   06 Jun 2027 10:00:49.236             9.373           493.063
       132   06 Jun 2027 10:01:22.871   06 Jun 2027 10:01:26.689             3.818          1004.625
       133   06 Jun 2027 11:32:29.605   06 Jun 2027 11:32:40.151            10.546          4078.375
       134   06 Jun 2027 11:35:12.785   06 Jun 2027 11:35:21.394             8.609          3940.406
       135   06 Jun 2027 11:36:37.600   06 Jun 2027 11:36:45.250             7.650          1325.563
       136   06 Jun 2027 11:37:39.309   06 Jun 2027 11:37:40.926             1.617           771.187
       137   06 Jun 2027 11:38:26.100   06 Jun 2027 11:38:28.912             2.812          1303.656
       138   06 Jun 2027 11:38:46.401   06 Jun 2027 11:38:47.104             0.703            10.937
       139   06 Jun 2027 11:39:23.332   06 Jun 2027 11:39:27.812             4.480          1032.625
       140   06 Jun 2027 11:39:59.503   06 Jun 2027 11:40:04.052             4.549           990.344
       141   07 Jun 2027 03:54:25.206   07 Jun 2027 03:57:24.801           179.595         89797.500
       142   07 Jun 2027 03:59:06.871   07 Jun 2027 03:59:07.542             0.671           335.500
       143   07 Jun 2027 05:33:31.836   07 Jun 2027 05:35:27.772           115.936         57968.000
       144   07 Jun 2027 05:35:56.185   07 Jun 2027 05:36:20.321            24.136         11908.156
       145   07 Jun 2027 05:39:03.720   07 Jun 2027 05:39:19.188            15.468          4230.625
       146   07 Jun 2027 05:39:31.790   07 Jun 2027 05:39:32.705             0.915           157.438
       147   07 Jun 2027 06:58:23.578   07 Jun 2027 06:58:37.222            13.644          6724.875
       148   07 Jun 2027 07:10:06.667   07 Jun 2027 07:10:13.531             6.864          3114.031
       149   07 Jun 2027 08:32:18.731   07 Jun 2027 08:32:37.003            18.272          9136.000
       150   07 Jun 2027 08:32:51.622   07 Jun 2027 08:32:55.214             3.592          1501.625
       151   07 Jun 2027 08:34:20.208   07 Jun 2027 08:34:23.129             2.921          1393.781
       152   07 Jun 2027 08:36:18.127   07 Jun 2027 08:36:25.958             7.831          3040.656
       153   07 Jun 2027 08:37:14.671   07 Jun 2027 08:37:18.024             3.353          1522.281
       154   07 Jun 2027 10:07:58.047   07 Jun 2027 10:08:07.093             9.046          4398.687
       155   07 Jun 2027 10:09:28.193   07 Jun 2027 10:09:31.767             3.574          1662.750
       156   07 Jun 2027 10:10:26.433   07 Jun 2027 10:10:29.106             2.673          1204.656
       157   07 Jun 2027 10:10:50.494   07 Jun 2027 10:10:52.880             2.386           317.219
       158   07 Jun 2027 10:12:25.142   07 Jun 2027 10:12:30.880             5.738          2388.719
       159   07 Jun 2027 10:13:31.999   07 Jun 2027 10:13:35.364             3.365           717.656
       160   07 Jun 2027 10:13:44.879   07 Jun 2027 10:13:46.475             1.596           231.531
       161   07 Jun 2027 11:47:48.240   07 Jun 2027 11:47:48.437             0.197            98.500
       162   07 Jun 2027 11:50:04.608   07 Jun 2027 11:50:38.378            33.770         16658.437
       163   07 Jun 2027 11:51:05.972   07 Jun 2027 11:51:08.122             2.150           257.312
       164   07 Jun 2027 11:51:36.111   07 Jun 2027 11:51:38.482             2.371           756.719
       165   08 Jun 2027 04:06:44.233   08 Jun 2027 04:08:41.134           116.901         58450.500
       166   08 Jun 2027 04:09:28.463   08 Jun 2027 04:09:34.804             6.341          3170.500
       167   08 Jun 2027 04:09:57.380   08 Jun 2027 04:10:31.763            34.383         17191.500
       168   08 Jun 2027 04:10:53.665   08 Jun 2027 04:10:53.665             0.000             0.000
       169   08 Jun 2027 04:11:44.649   08 Jun 2027 04:11:57.295            12.646          6323.000
       170   08 Jun 2027 04:12:42.446   08 Jun 2027 04:12:43.893             1.447           723.500
       171   08 Jun 2027 05:45:32.184   08 Jun 2027 05:47:19.974           107.790         53895.000
       172   08 Jun 2027 05:48:54.822   08 Jun 2027 05:49:14.244            19.422          9711.000
       173   08 Jun 2027 05:50:29.971   08 Jun 2027 05:51:23.171            53.200         26062.656
       174   08 Jun 2027 07:09:51.061   08 Jun 2027 07:10:11.441            20.380         10190.000
       175   08 Jun 2027 07:10:23.940   08 Jun 2027 07:10:36.158            12.218          1416.594
       176   08 Jun 2027 07:10:49.534   08 Jun 2027 07:10:53.779             4.245           329.938
       177   08 Jun 2027 07:22:07.546   08 Jun 2027 07:22:13.744             6.198          3058.875
       178   08 Jun 2027 08:44:04.442   08 Jun 2027 08:44:28.553            24.111         10970.719
       179   08 Jun 2027 08:46:07.773   08 Jun 2027 08:46:15.494             7.721          1584.406
       180   08 Jun 2027 08:46:54.420   08 Jun 2027 08:46:56.639             2.219           363.687
       181   08 Jun 2027 08:48:16.764   08 Jun 2027 08:48:20.678             3.914          1839.312
       182   08 Jun 2027 08:49:06.876   08 Jun 2027 08:49:09.602             2.726          1185.500
       183   08 Jun 2027 10:18:55.540   08 Jun 2027 10:19:01.097             5.557          2466.125
       184   08 Jun 2027 10:20:54.436   08 Jun 2027 10:20:58.157             3.721           279.969
       185   08 Jun 2027 10:22:23.669   08 Jun 2027 10:22:27.799             4.130          1829.625
       186   08 Jun 2027 10:24:25.715   08 Jun 2027 10:24:34.010             8.295          3110.938
       187   08 Jun 2027 10:25:55.122   08 Jun 2027 10:25:55.122             0.000             0.000
       188   08 Jun 2027 10:25:55.239   08 Jun 2027 10:25:58.020             2.781           385.656
       189   09 Jun 2027 04:19:28.934   09 Jun 2027 04:19:51.968            23.034         11517.000
       190   09 Jun 2027 04:19:55.487   09 Jun 2027 04:21:09.696            74.209         37104.500
       191   09 Jun 2027 04:23:22.729   09 Jun 2027 04:23:24.683             1.954           977.000
       192   09 Jun 2027 04:23:39.635   09 Jun 2027 04:24:14.323            34.688         17344.000
       193   09 Jun 2027 05:57:51.616   09 Jun 2027 06:00:30.153           158.537         79268.500
       194   09 Jun 2027 06:01:52.884   09 Jun 2027 06:02:45.291            52.407         24591.281
       195   09 Jun 2027 07:21:54.535   09 Jun 2027 07:22:14.981            20.446          9222.781
       196   09 Jun 2027 08:57:51.674   09 Jun 2027 08:58:14.413            22.739         11352.750
       197   09 Jun 2027 08:58:51.878   09 Jun 2027 08:58:56.174             4.296          1048.281
       198   09 Jun 2027 09:00:14.514   09 Jun 2027 09:00:20.111             5.597          1484.219
       199   09 Jun 2027 09:00:45.760   09 Jun 2027 09:00:46.977             1.217           437.437
       200   09 Jun 2027 09:01:09.710   09 Jun 2027 09:01:11.378             1.668           642.781
       201   09 Jun 2027 10:31:41.484   09 Jun 2027 10:31:50.570             9.086          2058.531
       202   09 Jun 2027 10:33:45.380   09 Jun 2027 10:33:46.412             1.032           228.719
       203   09 Jun 2027 10:34:19.666   09 Jun 2027 10:34:20.417             0.751           304.094
       204   09 Jun 2027 10:37:46.541   09 Jun 2027 10:37:46.541             0.000             0.000
       205   09 Jun 2027 10:38:16.408   09 Jun 2027 10:38:29.666            13.258          3458.969
       206   09 Jun 2027 10:39:10.512   09 Jun 2027 10:39:16.511             5.999          1089.937
       207   09 Jun 2027 10:39:40.711   09 Jun 2027 10:39:41.875             1.164           168.219
       208   10 Jun 2027 03:00:00.000   10 Jun 2027 03:00:11.085            11.085          5542.500
       209   10 Jun 2027 03:00:36.750   10 Jun 2027 03:00:38.738             1.988           994.000
       210   10 Jun 2027 03:01:01.019   10 Jun 2027 03:01:06.612             5.593          2796.500
       211   10 Jun 2027 03:01:25.760   10 Jun 2027 03:01:30.742             4.982          2491.000
       212   10 Jun 2027 04:32:06.545   10 Jun 2027 04:33:42.763            96.218         48109.000
       213   10 Jun 2027 04:33:44.598   10 Jun 2027 04:34:11.530            26.932         13466.000
       214   10 Jun 2027 04:35:31.753   10 Jun 2027 04:35:31.753             0.000             0.000
       215   10 Jun 2027 04:35:48.228   10 Jun 2027 04:36:31.441            43.213         21606.500
       216   10 Jun 2027 04:36:52.682   10 Jun 2027 04:36:57.279             4.597          2298.500
       217   10 Jun 2027 06:10:26.470   10 Jun 2027 06:12:58.315           151.845         74838.969
       218   10 Jun 2027 06:14:25.218   10 Jun 2027 06:14:27.501             2.283           416.875
       219   10 Jun 2027 06:14:42.575   10 Jun 2027 06:14:43.625             1.050           147.969
       220   10 Jun 2027 07:33:48.926   10 Jun 2027 07:34:04.370            15.444          4744.062
       221   10 Jun 2027 07:35:08.548   10 Jun 2027 07:35:08.548             0.000             0.000
       222   10 Jun 2027 07:35:26.100   10 Jun 2027 07:35:30.872             4.772          2242.344
       223   10 Jun 2027 07:35:44.780   10 Jun 2027 07:35:49.802             5.022           346.375
       224   10 Jun 2027 07:35:56.634   10 Jun 2027 07:35:57.904             1.270           146.344
       225   10 Jun 2027 09:10:10.383   10 Jun 2027 09:10:32.169            21.786         10475.000
       226   10 Jun 2027 09:10:45.660   10 Jun 2027 09:10:46.245             0.585            66.500
       227   10 Jun 2027 09:11:05.251   10 Jun 2027 09:11:13.497             8.246            32.094
       228   10 Jun 2027 09:12:11.191   10 Jun 2027 09:12:15.589             4.398          1006.406
       229   10 Jun 2027 09:13:04.458   10 Jun 2027 09:13:07.749             3.291          1327.719
       230   10 Jun 2027 10:43:39.858   10 Jun 2027 10:43:47.215             7.357          3607.687
       231   10 Jun 2027 10:45:54.059   10 Jun 2027 10:45:55.035             0.976           283.031
       232   10 Jun 2027 10:46:48.339   10 Jun 2027 10:46:54.653             6.314          1069.625
       233   10 Jun 2027 10:48:25.061   10 Jun 2027 10:48:32.415             7.354          2537.406
       234   10 Jun 2027 10:50:14.479   10 Jun 2027 10:50:17.236             2.757          1246.031
       235   10 Jun 2027 10:50:52.095   10 Jun 2027 10:50:52.997             0.902           366.781
       236   10 Jun 2027 10:51:19.261   10 Jun 2027 10:51:21.170             1.909           401.000
       237   10 Jun 2027 10:51:34.941   10 Jun 2027 10:51:38.721             3.780             7.656
       238   11 Jun 2027 03:05:59.098   11 Jun 2027 03:06:26.437            27.339         13669.500
       239   11 Jun 2027 03:06:49.116   11 Jun 2027 03:07:25.659            36.543         18271.500
       240   11 Jun 2027 03:08:17.404   11 Jun 2027 03:08:24.471             7.067          3533.500
       241   11 Jun 2027 03:08:34.591   11 Jun 2027 03:08:41.030             6.439          3219.500
       242   11 Jun 2027 03:09:08.227   11 Jun 2027 03:09:29.784            21.557         10778.500
       243   11 Jun 2027 03:11:12.561   11 Jun 2027 03:11:23.785            11.224          5612.000
       244   11 Jun 2027 03:13:08.234   11 Jun 2027 03:13:09.886             1.652           826.000
       245   11 Jun 2027 04:44:00.109   11 Jun 2027 04:44:05.325             5.216          2608.000
       246   11 Jun 2027 04:44:30.040   11 Jun 2027 04:47:18.891           168.851         84425.500
       247   11 Jun 2027 04:47:32.870   11 Jun 2027 04:47:39.447             6.577          3288.500
       248   11 Jun 2027 04:48:45.227   11 Jun 2027 04:48:52.797             7.570          3785.000
       249   11 Jun 2027 06:22:41.305   11 Jun 2027 06:23:38.689            57.384         28250.062
       250   11 Jun 2027 06:26:16.912   11 Jun 2027 06:26:20.386             3.474            49.500
       251   11 Jun 2027 06:26:20.799   11 Jun 2027 06:26:25.109             4.310            12.906
       252   11 Jun 2027 07:45:40.173   11 Jun 2027 07:45:53.445            13.272          6183.781
       253   11 Jun 2027 07:47:09.812   11 Jun 2027 07:47:15.179             5.367          1990.281
       254   11 Jun 2027 07:47:34.395   11 Jun 2027 07:47:36.011             1.616           199.719
       255   11 Jun 2027 09:22:12.496   11 Jun 2027 09:22:19.875             7.379          3559.437
       256   11 Jun 2027 09:23:12.333   11 Jun 2027 09:23:18.788             6.455           807.969
       257   11 Jun 2027 09:23:45.076   11 Jun 2027 09:23:46.289             1.213           229.250
       258   11 Jun 2027 09:24:04.371   11 Jun 2027 09:24:06.530             2.159           465.156
       259   11 Jun 2027 09:24:36.760   11 Jun 2027 09:24:41.297             4.537           944.688
       260   11 Jun 2027 10:56:42.681   11 Jun 2027 10:56:49.473             6.792          3148.969
       261   11 Jun 2027 11:00:23.599   11 Jun 2027 11:00:23.599             0.000             0.000
       262   11 Jun 2027 11:01:18.712   11 Jun 2027 11:01:33.944            15.232          6005.187
       263   11 Jun 2027 11:02:18.276   11 Jun 2027 11:02:21.540             3.264           997.406
       264   11 Jun 2027 11:03:55.533   11 Jun 2027 11:04:00.485             4.952          2043.531
       265   11 Jun 2027 11:04:05.541   11 Jun 2027 11:04:05.901             0.360            43.625
       266   12 Jun 2027 03:18:00.906   12 Jun 2027 03:18:27.544            26.638         13319.000
       267   12 Jun 2027 03:19:02.967   12 Jun 2027 03:21:25.338           142.371         71185.500
       268   12 Jun 2027 03:22:12.618   12 Jun 2027 03:22:25.182            12.564          6282.000
       269   12 Jun 2027 04:56:08.994   12 Jun 2027 04:56:42.409            33.415         16707.500
       270   12 Jun 2027 04:57:37.448   12 Jun 2027 04:59:29.019           111.571         55447.875
       271   12 Jun 2027 05:00:21.383   12 Jun 2027 05:00:29.719             8.336          1290.688
       272   12 Jun 2027 05:02:16.295   12 Jun 2027 05:02:23.671             7.376          3023.688
       273   12 Jun 2027 06:34:27.671   12 Jun 2027 06:34:36.694             9.023          4458.719
       274   12 Jun 2027 06:38:12.795   12 Jun 2027 06:38:14.687             1.892           515.563
       275   12 Jun 2027 07:57:50.644   12 Jun 2027 07:58:02.926            12.282          5459.313
       276   12 Jun 2027 07:58:41.183   12 Jun 2027 07:58:43.285             2.102           635.344
       277   12 Jun 2027 07:59:20.325   12 Jun 2027 07:59:22.822             2.497           912.844
       278   12 Jun 2027 08:00:34.500   12 Jun 2027 08:00:39.755             5.255          2183.437
       279   12 Jun 2027 09:34:22.145   12 Jun 2027 09:34:31.269             9.124          3651.438
       280   12 Jun 2027 09:35:45.779   12 Jun 2027 09:35:50.258             4.479          1843.469
       281   12 Jun 2027 09:36:12.124   12 Jun 2027 09:36:12.124             0.000             0.000
       282   12 Jun 2027 09:36:38.874   12 Jun 2027 09:36:43.141             4.267          1209.031
       283   12 Jun 2027 09:37:20.844   12 Jun 2027 09:37:23.550             2.706           892.281
       284   12 Jun 2027 11:09:31.381   12 Jun 2027 11:09:38.091             6.710          3078.750
       285   12 Jun 2027 11:10:36.139   12 Jun 2027 11:10:36.139             0.000             0.000
       286   12 Jun 2027 11:11:05.509   12 Jun 2027 11:11:11.015             5.506          2163.312
       287   12 Jun 2027 11:12:48.002   12 Jun 2027 11:12:54.105             6.103           989.406
       288   12 Jun 2027 11:15:43.885   12 Jun 2027 11:15:54.749            10.864          5272.656
       289   13 Jun 2027 03:29:58.592   13 Jun 2027 03:30:30.975            32.383         16191.500
       290   13 Jun 2027 03:30:32.979   13 Jun 2027 03:33:06.128           153.149         76574.500
       291   13 Jun 2027 05:09:15.829   13 Jun 2027 05:11:29.725           133.896         66689.625
       292   13 Jun 2027 05:12:56.256   13 Jun 2027 05:13:01.767             5.511          2368.750
       293   13 Jun 2027 05:15:49.353   13 Jun 2027 05:15:59.146             9.793          4462.281
       294   13 Jun 2027 05:16:07.323   13 Jun 2027 05:16:08.111             0.788           175.344
       295   13 Jun 2027 06:46:24.653   13 Jun 2027 06:46:33.747             9.094          3954.719
       296   13 Jun 2027 06:47:47.497   13 Jun 2027 06:47:49.009             1.512           316.375
       297   13 Jun 2027 06:48:15.021   13 Jun 2027 06:48:15.416             0.395           155.437
       298   13 Jun 2027 06:49:48.751   13 Jun 2027 06:49:50.627             1.876           133.281
       299   13 Jun 2027 08:10:28.633   13 Jun 2027 08:10:42.675            14.042          6976.781
       300   13 Jun 2027 08:11:00.599   13 Jun 2027 08:11:02.903             2.304           213.375
       301   13 Jun 2027 08:12:32.316   13 Jun 2027 08:12:37.820             5.504          2525.937
       302   13 Jun 2027 09:46:15.634   13 Jun 2027 09:46:20.802             5.168          2532.594
       303   13 Jun 2027 09:47:51.633   13 Jun 2027 09:47:56.767             5.134          2035.531
       304   13 Jun 2027 09:48:33.722   13 Jun 2027 09:48:37.889             4.167           282.969
       305   13 Jun 2027 09:49:29.858   13 Jun 2027 09:49:33.864             4.006          1537.000
       306   13 Jun 2027 11:21:12.862   13 Jun 2027 11:21:19.625             6.763          2736.031
       307   13 Jun 2027 11:24:16.318   13 Jun 2027 11:24:17.582             1.264           632.000
       308   13 Jun 2027 11:24:41.029   13 Jun 2027 11:24:52.284            11.255          4917.531
       309   13 Jun 2027 11:25:29.002   13 Jun 2027 11:25:32.218             3.216           799.125
       310   13 Jun 2027 11:25:43.831   13 Jun 2027 11:25:44.895             1.064           318.188
       311   13 Jun 2027 11:27:51.141   13 Jun 2027 11:27:56.953             5.812          2731.344
