uniorb/output/strategy_4/Camera/Camera_KinoSat_111803.txt

KinoSat_111803
-------------------------
    Access    *     Start Time (UTCG)     *     Stop Time (UTCG)  *   Duration (s) *   Data (Mbytes)
         1   01 Jun 2027 03:24:26.552   01 Jun 2027 03:26:57.135           150.583         75291.500
         2   01 Jun 2027 03:30:25.765   01 Jun 2027 03:30:28.821             3.056          1528.000
         3   01 Jun 2027 03:30:32.299   01 Jun 2027 03:30:34.774             2.475          1237.500
         4   01 Jun 2027 03:30:36.608   01 Jun 2027 03:30:45.359             8.751          4375.500
         5   01 Jun 2027 05:03:25.045   01 Jun 2027 05:04:26.894            61.849         30924.500
         6   01 Jun 2027 05:04:43.594   01 Jun 2027 05:04:58.899            15.305          7652.500
         7   01 Jun 2027 05:05:19.188   01 Jun 2027 05:05:19.188             0.000             0.000
         8   01 Jun 2027 05:06:53.263   01 Jun 2027 05:06:56.192             2.929          1464.500
         9   01 Jun 2027 05:07:20.972   01 Jun 2027 05:07:37.112            16.140          8070.000
        10   01 Jun 2027 05:08:31.653   01 Jun 2027 05:08:51.497            19.844          9922.000
        11   01 Jun 2027 05:10:15.030   01 Jun 2027 05:10:43.715            28.685         14342.500
        12   01 Jun 2027 06:28:35.116   01 Jun 2027 06:29:23.636            48.520         24260.000
        13   01 Jun 2027 06:29:37.673   01 Jun 2027 06:29:54.301            16.628          8314.000
        14   01 Jun 2027 06:40:09.281   01 Jun 2027 06:40:50.456            41.175         20587.500
        15   01 Jun 2027 08:02:45.189   01 Jun 2027 08:03:43.721            58.532         29266.000
        16   01 Jun 2027 08:04:22.144   01 Jun 2027 08:04:55.360            33.216         16608.000
        17   01 Jun 2027 08:06:55.769   01 Jun 2027 08:07:20.660            24.891         12445.500
        18   01 Jun 2027 09:37:53.933   01 Jun 2027 09:38:37.476            43.543         21771.500
        19   01 Jun 2027 09:41:09.120   01 Jun 2027 09:41:15.136             6.016          3008.000
        20   01 Jun 2027 09:42:32.701   01 Jun 2027 09:42:34.992             2.291          1145.500
        21   01 Jun 2027 11:14:41.278   01 Jun 2027 11:14:52.412            11.134          5567.000
        22   01 Jun 2027 11:17:45.204   01 Jun 2027 11:17:58.175            12.971          6485.500
        23   01 Jun 2027 11:21:18.093   01 Jun 2027 11:22:06.704            48.611         24305.500
        24   02 Jun 2027 03:36:42.476   02 Jun 2027 03:38:06.004            83.528         41764.000
        25   02 Jun 2027 03:38:08.325   02 Jun 2027 03:39:07.362            59.037         29518.500
        26   02 Jun 2027 03:39:37.826   02 Jun 2027 03:39:45.422             7.596          3798.000
        27   02 Jun 2027 03:39:56.062   02 Jun 2027 03:40:02.626             6.564          3282.000
        28   02 Jun 2027 03:41:43.257   02 Jun 2027 03:41:43.257             0.000             0.000
        29   02 Jun 2027 05:15:41.596   02 Jun 2027 05:18:14.690           153.094         76547.000
        30   02 Jun 2027 05:19:42.225   02 Jun 2027 05:21:23.644           101.419         50709.500
        31   02 Jun 2027 06:39:53.430   02 Jun 2027 06:40:23.772            30.342         15171.000
        32   02 Jun 2027 06:40:59.572   02 Jun 2027 06:40:59.572             0.000             0.000
        33   02 Jun 2027 06:41:56.612   02 Jun 2027 06:42:04.754             8.142          4071.000
        34   02 Jun 2027 06:52:06.771   02 Jun 2027 06:53:02.196            55.425         27712.500
        35   02 Jun 2027 08:14:20.893   02 Jun 2027 08:15:28.737            67.844         33922.000
        36   02 Jun 2027 08:16:17.395   02 Jun 2027 08:17:54.487            97.092         48546.000
        37   02 Jun 2027 09:49:13.985   02 Jun 2027 09:50:15.578            61.593         29983.843
        38   02 Jun 2027 09:51:11.171   02 Jun 2027 09:51:14.124             2.953          1333.344
        39   02 Jun 2027 09:52:26.027   02 Jun 2027 09:52:34.373             8.346          1754.000
        40   02 Jun 2027 09:53:02.738   02 Jun 2027 09:53:03.638             0.900           197.437
        41   02 Jun 2027 09:55:25.209   02 Jun 2027 09:55:29.687             4.478          1619.844
        42   02 Jun 2027 09:56:36.005   02 Jun 2027 09:56:38.328             2.323          1161.500
        43   02 Jun 2027 11:26:48.841   02 Jun 2027 11:27:01.515            12.674          3880.219
        44   02 Jun 2027 11:30:25.423   02 Jun 2027 11:30:36.012            10.589          3467.375
        45   02 Jun 2027 11:32:10.495   02 Jun 2027 11:32:15.263             4.768          2061.844
        46   02 Jun 2027 11:33:02.999   02 Jun 2027 11:33:08.216             5.217          1218.687
        47   02 Jun 2027 11:33:22.549   02 Jun 2027 11:33:24.792             2.243           382.906
        48   02 Jun 2027 11:33:46.709   02 Jun 2027 11:33:48.451             1.742           253.344
        49   02 Jun 2027 11:34:07.717   02 Jun 2027 11:34:09.768             2.051           407.031
        50   03 Jun 2027 03:49:01.762   03 Jun 2027 03:49:14.909            13.147          6573.500
        51   03 Jun 2027 03:49:29.138   03 Jun 2027 03:50:59.897            90.759         45379.500
        52   03 Jun 2027 03:52:43.111   03 Jun 2027 03:52:57.988            14.877          7438.500
        53   03 Jun 2027 03:53:29.685   03 Jun 2027 03:53:34.476             4.791          2395.500
        54   03 Jun 2027 03:54:19.396   03 Jun 2027 03:54:35.895            16.499          8249.500
        55   03 Jun 2027 03:54:51.739   03 Jun 2027 03:54:58.460             6.721          3360.500
        56   03 Jun 2027 05:27:48.343   03 Jun 2027 05:29:31.452           103.109         51554.500
        57   03 Jun 2027 05:30:19.166   03 Jun 2027 05:30:50.579            31.413         15706.500
        58   03 Jun 2027 05:31:14.527   03 Jun 2027 05:31:46.826            32.299         16149.500
        59   03 Jun 2027 05:32:11.250   03 Jun 2027 05:32:22.371            11.121          5072.625
        60   03 Jun 2027 05:33:45.708   03 Jun 2027 05:33:50.031             4.323          2161.500
        61   03 Jun 2027 06:51:59.501   03 Jun 2027 06:52:15.138            15.637          7406.438
        62   03 Jun 2027 06:52:49.765   03 Jun 2027 06:52:52.390             2.625           821.844
        63   03 Jun 2027 07:04:31.787   03 Jun 2027 07:04:33.549             1.762           881.000
        64   03 Jun 2027 08:25:49.802   03 Jun 2027 08:26:06.127            16.325          7752.844
        65   03 Jun 2027 08:26:40.173   03 Jun 2027 08:26:43.403             3.230           128.250
        66   03 Jun 2027 08:27:53.054   03 Jun 2027 08:27:59.326             6.272          1304.469
        67   03 Jun 2027 08:28:44.850   03 Jun 2027 08:28:44.850             0.000             0.000
        68   03 Jun 2027 08:29:21.439   03 Jun 2027 08:29:28.806             7.367          2353.406
        69   03 Jun 2027 08:30:18.024   03 Jun 2027 08:30:18.638             0.614           129.563
        70   03 Jun 2027 08:31:00.179   03 Jun 2027 08:31:04.714             4.535           667.281
        71   03 Jun 2027 10:00:44.370   03 Jun 2027 10:00:52.728             8.358          2960.031
        72   03 Jun 2027 10:02:41.124   03 Jun 2027 10:02:45.384             4.260          1930.906
        73   03 Jun 2027 10:03:16.857   03 Jun 2027 10:03:18.624             1.767           475.437
        74   03 Jun 2027 10:04:22.546   03 Jun 2027 10:04:26.175             3.629          1267.406
        75   03 Jun 2027 10:06:33.507   03 Jun 2027 10:06:43.386             9.879          3912.531
        76   03 Jun 2027 10:07:25.284   03 Jun 2027 10:07:26.949             1.665           273.906
        77   03 Jun 2027 10:08:00.116   03 Jun 2027 10:08:01.750             1.634           436.812
        78   03 Jun 2027 10:08:12.275   03 Jun 2027 10:08:15.349             3.074           328.906
        79   03 Jun 2027 10:09:36.969   03 Jun 2027 10:09:40.431             3.462          1176.000
        80   03 Jun 2027 10:09:58.938   03 Jun 2027 10:10:08.285             9.347           500.000
        81   03 Jun 2027 11:38:44.616   03 Jun 2027 11:38:59.624            15.008          5337.562
        82   03 Jun 2027 11:41:21.615   03 Jun 2027 11:41:31.243             9.628          4213.156
        83   03 Jun 2027 11:44:29.785   03 Jun 2027 11:44:40.951            11.166          5364.875
        84   03 Jun 2027 11:45:02.881   03 Jun 2027 11:45:05.152             2.271            42.250
        85   03 Jun 2027 11:45:24.069   03 Jun 2027 11:45:26.295             2.226           582.281
        86   03 Jun 2027 11:45:49.273   03 Jun 2027 11:45:51.833             2.560           506.844
        87   04 Jun 2027 04:01:39.584   04 Jun 2027 04:01:46.803             7.219          3609.500
        88   04 Jun 2027 04:02:01.027   04 Jun 2027 04:02:42.418            41.391         20695.500
        89   04 Jun 2027 04:02:58.949   04 Jun 2027 04:03:02.336             3.387          1693.500
        90   04 Jun 2027 04:03:07.183   04 Jun 2027 04:05:09.714           122.531         61265.500
        91   04 Jun 2027 04:06:35.362   04 Jun 2027 04:06:46.290            10.928          5464.000
        92   04 Jun 2027 05:40:25.849   04 Jun 2027 05:41:15.283            49.434         24717.000
        93   04 Jun 2027 05:42:09.996   04 Jun 2027 05:43:14.188            64.192         32096.000
        94   04 Jun 2027 05:43:19.341   04 Jun 2027 05:43:45.036            25.695         12729.750
        95   04 Jun 2027 07:03:55.904   04 Jun 2027 07:04:08.954            13.050          6283.594
        96   04 Jun 2027 07:05:08.960   04 Jun 2027 07:05:08.960             0.000             0.000
        97   04 Jun 2027 07:06:10.522   04 Jun 2027 07:06:13.194             2.672          1336.000
        98   04 Jun 2027 08:40:08.383   04 Jun 2027 08:40:28.257            19.874          9781.687
        99   04 Jun 2027 08:40:33.772   04 Jun 2027 08:40:36.198             2.426           152.125
       100   04 Jun 2027 08:41:31.965   04 Jun 2027 08:41:34.842             2.877          1429.563
       101   04 Jun 2027 08:42:37.417   04 Jun 2027 08:42:40.822             3.405           823.531
       102   04 Jun 2027 08:43:14.140   04 Jun 2027 08:43:19.827             5.687          1021.344
       103   04 Jun 2027 10:13:41.269   04 Jun 2027 10:13:47.228             5.959          2870.156
       104   04 Jun 2027 10:15:31.568   04 Jun 2027 10:15:35.730             4.162          1545.562
       105   04 Jun 2027 10:15:57.097   04 Jun 2027 10:15:57.097             0.000             0.000
       106   04 Jun 2027 10:16:12.994   04 Jun 2027 10:16:17.660             4.666          1134.656
       107   04 Jun 2027 10:18:32.994   04 Jun 2027 10:18:42.175             9.181          4229.187
       108   04 Jun 2027 10:19:41.163   04 Jun 2027 10:19:45.292             4.129          1764.563
       109   04 Jun 2027 10:20:44.413   04 Jun 2027 10:20:45.447             1.034           271.969
       110   04 Jun 2027 10:21:52.000   04 Jun 2027 10:21:56.238             4.238          1835.656
       111   04 Jun 2027 10:22:15.581   04 Jun 2027 10:22:15.742             0.161            80.500
       112   04 Jun 2027 11:51:07.061   04 Jun 2027 11:51:20.339            13.278          6317.562
       113   04 Jun 2027 11:51:36.430   04 Jun 2027 11:51:51.187            14.757           432.563
       114   04 Jun 2027 11:53:17.331   04 Jun 2027 11:53:20.560             3.229          1463.594
       115   04 Jun 2027 11:53:51.025   04 Jun 2027 11:53:53.999             2.974           906.500
       116   04 Jun 2027 11:55:34.072   04 Jun 2027 11:55:38.385             4.313          1663.031
       117   04 Jun 2027 11:55:40.746   04 Jun 2027 11:55:41.152             0.406            73.781
       118   04 Jun 2027 11:56:11.064   04 Jun 2027 11:56:12.997             1.933           934.750
       119   04 Jun 2027 11:57:22.197   04 Jun 2027 11:57:24.468             2.271          1096.437
       120   04 Jun 2027 11:57:25.774   04 Jun 2027 11:57:27.111             1.337            40.813
       121   04 Jun 2027 11:57:45.097   04 Jun 2027 11:57:46.481             1.384           266.125
       122   05 Jun 2027 04:14:06.263   05 Jun 2027 04:14:33.855            27.592         13796.000
       123   05 Jun 2027 04:14:37.651   05 Jun 2027 04:16:03.885            86.234         43117.000
       124   05 Jun 2027 04:18:04.940   05 Jun 2027 04:18:54.887            49.947         24973.500
       125   05 Jun 2027 05:52:07.110   05 Jun 2027 05:52:41.000            33.890         16945.000
       126   05 Jun 2027 05:53:02.150   05 Jun 2027 05:53:34.216            32.066         16033.000
       127   05 Jun 2027 05:54:20.289   05 Jun 2027 05:54:31.834            11.545          5772.500
       128   05 Jun 2027 05:55:08.403   05 Jun 2027 05:56:48.839           100.436         49842.875
       129   05 Jun 2027 07:15:47.554   05 Jun 2027 07:16:03.863            16.309          8044.375
       130   05 Jun 2027 07:17:10.271   05 Jun 2027 07:17:10.271             0.000             0.000
       131   05 Jun 2027 07:17:39.627   05 Jun 2027 07:17:45.422             5.795          2769.625
       132   05 Jun 2027 08:52:14.625   05 Jun 2027 08:52:38.771            24.146          9363.094
       133   05 Jun 2027 08:52:55.554   05 Jun 2027 08:52:56.846             1.292           261.563
       134   05 Jun 2027 08:53:30.851   05 Jun 2027 08:53:33.648             2.797          1009.344
       135   05 Jun 2027 08:54:00.945   05 Jun 2027 08:54:02.271             1.326           485.281
       136   05 Jun 2027 08:54:43.868   05 Jun 2027 08:54:47.579             3.711          1150.562
       137   05 Jun 2027 10:24:25.747   05 Jun 2027 10:24:32.350             6.603          2427.719
       138   05 Jun 2027 10:26:20.095   05 Jun 2027 10:26:26.571             6.476           574.719
       139   05 Jun 2027 10:28:06.296   05 Jun 2027 10:28:11.692             5.396          2615.594
       140   05 Jun 2027 10:29:25.382   05 Jun 2027 10:29:31.867             6.485          2186.719
       141   05 Jun 2027 10:31:25.985   05 Jun 2027 10:31:29.933             3.948          1695.406
       142   05 Jun 2027 10:31:49.759   05 Jun 2027 10:31:53.631             3.872           482.812
       143   05 Jun 2027 10:32:29.946   05 Jun 2027 10:32:31.245             1.299           437.281
       144   05 Jun 2027 10:33:55.470   05 Jun 2027 10:34:00.399             4.929          2082.219
       145   05 Jun 2027 10:34:10.602   05 Jun 2027 10:34:12.462             1.860           315.125
       146   06 Jun 2027 04:26:12.378   06 Jun 2027 04:26:46.258            33.880         16940.000
       147   06 Jun 2027 04:27:42.476   06 Jun 2027 04:29:04.170            81.694         40847.000
       148   06 Jun 2027 04:29:33.199   06 Jun 2027 04:30:12.119            38.920         19460.000
       149   06 Jun 2027 04:31:31.687   06 Jun 2027 04:31:32.858             1.171           585.500
       150   06 Jun 2027 06:05:20.729   06 Jun 2027 06:08:13.722           172.993         86363.344
       151   06 Jun 2027 07:27:53.925   06 Jun 2027 07:28:06.529            12.604          5264.844
       152   06 Jun 2027 07:29:25.014   06 Jun 2027 07:29:33.346             8.332          1943.219
       153   06 Jun 2027 07:30:32.527   06 Jun 2027 07:30:33.143             0.616           308.000
       154   06 Jun 2027 09:04:22.537   06 Jun 2027 09:04:30.090             7.553          3588.937
       155   06 Jun 2027 09:05:26.530   06 Jun 2027 09:05:29.745             3.215          1214.219
       156   06 Jun 2027 09:06:23.392   06 Jun 2027 09:06:27.146             3.754           682.750
       157   06 Jun 2027 09:06:58.231   06 Jun 2027 09:07:06.400             8.169           616.969
       158   06 Jun 2027 10:40:01.954   06 Jun 2027 10:40:13.066            11.112          4549.313
       159   06 Jun 2027 10:40:46.720   06 Jun 2027 10:40:46.720             0.000             0.000
       160   06 Jun 2027 10:42:29.551   06 Jun 2027 10:42:40.205            10.654          3512.063
       161   06 Jun 2027 10:43:50.504   06 Jun 2027 10:43:54.579             4.075          1376.844
       162   06 Jun 2027 10:45:34.872   06 Jun 2027 10:45:44.283             9.411          2407.750
       163   06 Jun 2027 10:46:05.670   06 Jun 2027 10:46:07.734             2.064           668.344
       164   06 Jun 2027 10:46:14.261   06 Jun 2027 10:46:14.845             0.584           118.656
       165   07 Jun 2027 03:00:06.337   07 Jun 2027 03:00:16.189             9.852          4926.000
       166   07 Jun 2027 03:00:48.450   07 Jun 2027 03:01:21.090            32.640         16320.000
       167   07 Jun 2027 03:03:42.191   07 Jun 2027 03:03:42.191             0.000             0.000
       168   07 Jun 2027 03:03:49.004   07 Jun 2027 03:03:49.076             0.072            36.000
       169   07 Jun 2027 03:05:14.007   07 Jun 2027 03:05:34.294            20.287         10143.500
       170   07 Jun 2027 03:06:28.536   07 Jun 2027 03:06:31.480             2.944          1472.000
       171   07 Jun 2027 04:38:16.994   07 Jun 2027 04:38:58.407            41.413         20706.500
       172   07 Jun 2027 04:39:20.545   07 Jun 2027 04:41:33.942           133.397         66698.500
       173   07 Jun 2027 04:42:21.631   07 Jun 2027 04:42:21.631             0.000             0.000
       174   07 Jun 2027 04:42:51.747   07 Jun 2027 04:43:01.102             9.355          4677.500
       175   07 Jun 2027 04:43:11.475   07 Jun 2027 04:43:25.181            13.706          6853.000
       176   07 Jun 2027 06:16:29.778   07 Jun 2027 06:17:06.227            36.449         18224.500
       177   07 Jun 2027 06:17:34.858   07 Jun 2027 06:18:17.589            42.731         20743.375
       178   07 Jun 2027 06:18:28.369   07 Jun 2027 06:18:30.857             2.488           336.875
       179   07 Jun 2027 07:39:56.811   07 Jun 2027 07:40:09.776            12.965          3561.031
       180   07 Jun 2027 07:40:53.662   07 Jun 2027 07:40:55.071             1.409           510.750
       181   07 Jun 2027 07:42:32.512   07 Jun 2027 07:42:39.468             6.956          2512.281
       182   07 Jun 2027 09:16:25.403   07 Jun 2027 09:16:33.548             8.145          2202.813
       183   07 Jun 2027 09:17:46.766   07 Jun 2027 09:17:54.118             7.352          2165.313
       184   07 Jun 2027 09:18:02.503   07 Jun 2027 09:18:04.071             1.568           262.031
       185   07 Jun 2027 09:18:57.168   07 Jun 2027 09:19:00.605             3.437          1600.594
       186   07 Jun 2027 09:19:45.377   07 Jun 2027 09:19:47.549             2.172           477.219
       187   07 Jun 2027 10:51:37.830   07 Jun 2027 10:51:45.633             7.803          2199.625
       188   07 Jun 2027 10:53:02.686   07 Jun 2027 10:53:08.782             6.096          2282.281
       189   07 Jun 2027 10:54:09.424   07 Jun 2027 10:54:14.113             4.689          1895.062
       190   07 Jun 2027 10:54:46.427   07 Jun 2027 10:54:50.415             3.988           630.094
       191   07 Jun 2027 10:55:53.124   07 Jun 2027 10:56:01.004             7.880           928.750
       192   07 Jun 2027 10:56:51.245   07 Jun 2027 10:56:53.271             2.026           883.562
       193   07 Jun 2027 10:57:12.956   07 Jun 2027 10:57:13.753             0.797           368.375
       194   07 Jun 2027 10:58:07.003   07 Jun 2027 10:58:09.708             2.705           519.719
       195   08 Jun 2027 03:12:04.111   08 Jun 2027 03:12:18.940            14.829          7414.500
       196   08 Jun 2027 03:12:20.036   08 Jun 2027 03:13:11.751            51.715         25857.500
       197   08 Jun 2027 03:13:25.097   08 Jun 2027 03:13:25.956             0.859           429.500
       198   08 Jun 2027 03:13:37.430   08 Jun 2027 03:13:51.719            14.289          7144.500
       199   08 Jun 2027 03:14:05.139   08 Jun 2027 03:14:17.167            12.028          6014.000
       200   08 Jun 2027 03:15:01.207   08 Jun 2027 03:15:10.189             8.982          4491.000
       201   08 Jun 2027 03:15:21.221   08 Jun 2027 03:15:35.900            14.679          7339.500
       202   08 Jun 2027 03:18:08.489   08 Jun 2027 03:18:20.453            11.964          5982.000
       203   08 Jun 2027 04:51:21.600   08 Jun 2027 04:54:21.080           179.480         89036.438
       204   08 Jun 2027 04:54:58.419   08 Jun 2027 04:55:04.270             5.851           790.312
       205   08 Jun 2027 04:55:29.613   08 Jun 2027 04:55:31.319             1.706           791.969
       206   08 Jun 2027 04:55:35.944   08 Jun 2027 04:55:38.178             2.234           108.656
       207   08 Jun 2027 04:57:31.232   08 Jun 2027 04:57:38.289             7.057          3402.531
       208   08 Jun 2027 04:58:01.587   08 Jun 2027 04:58:04.334             2.747           359.250
       209   08 Jun 2027 06:17:33.733   08 Jun 2027 06:17:47.782            14.049          6877.344
       210   08 Jun 2027 06:28:25.558   08 Jun 2027 06:28:30.384             4.826          2323.594
       211   08 Jun 2027 06:28:35.828   08 Jun 2027 06:28:36.330             0.502            55.594
       212   08 Jun 2027 06:29:25.629   08 Jun 2027 06:29:29.238             3.609          1540.594
       213   08 Jun 2027 06:31:12.815   08 Jun 2027 06:31:14.779             1.964           982.000
       214   08 Jun 2027 07:52:23.756   08 Jun 2027 07:52:38.192            14.436          4193.563
       215   08 Jun 2027 07:53:23.035   08 Jun 2027 07:53:27.555             4.520           839.875
       216   08 Jun 2027 09:28:08.809   08 Jun 2027 09:28:13.694             4.885          1889.938
       217   08 Jun 2027 09:30:15.664   08 Jun 2027 09:30:28.422            12.758          3348.156
       218   08 Jun 2027 09:30:49.368   08 Jun 2027 09:30:52.939             3.571           152.594
       219   08 Jun 2027 09:31:28.534   08 Jun 2027 09:31:30.975             2.441          1039.375
       220   08 Jun 2027 09:32:23.546   08 Jun 2027 09:32:24.815             1.269           634.500
       221   08 Jun 2027 11:02:55.689   08 Jun 2027 11:03:02.309             6.620          3310.000
       222   08 Jun 2027 11:03:32.500   08 Jun 2027 11:03:35.534             3.034           976.156
       223   08 Jun 2027 11:06:18.549   08 Jun 2027 11:06:21.601             3.052          1442.688
       224   08 Jun 2027 11:06:31.995   08 Jun 2027 11:06:36.015             4.020           324.812
       225   08 Jun 2027 11:07:44.439   08 Jun 2027 11:07:44.957             0.518           155.719
       226   08 Jun 2027 11:08:25.293   08 Jun 2027 11:08:35.954            10.661           624.031
       227   08 Jun 2027 11:09:23.032   08 Jun 2027 11:09:27.157             4.125           800.375
       228   08 Jun 2027 11:10:19.691   08 Jun 2027 11:10:24.177             4.486          1064.281
       229   09 Jun 2027 03:24:44.347   09 Jun 2027 03:27:44.370           180.023         90011.500
       230   09 Jun 2027 03:27:59.725   09 Jun 2027 03:28:14.146            14.421          7210.500
       231   09 Jun 2027 05:03:43.940   09 Jun 2027 05:05:34.223           110.283         54133.844
       232   09 Jun 2027 05:06:29.647   09 Jun 2027 05:06:30.613             0.966           483.000
       233   09 Jun 2027 05:09:34.528   09 Jun 2027 05:09:48.401            13.873          6471.906
       234   09 Jun 2027 05:09:51.743   09 Jun 2027 05:09:54.622             2.879           104.437
       235   09 Jun 2027 06:28:48.198   09 Jun 2027 06:28:56.960             8.762          4187.313
       236   09 Jun 2027 06:29:37.983   09 Jun 2027 06:29:37.983             0.000             0.000
       237   09 Jun 2027 06:29:55.072   09 Jun 2027 06:29:57.284             2.212          1052.531
       238   09 Jun 2027 06:40:26.820   09 Jun 2027 06:40:32.192             5.372          2269.156
       239   09 Jun 2027 08:02:59.862   09 Jun 2027 08:03:08.451             8.589          3727.813
       240   09 Jun 2027 08:04:40.096   09 Jun 2027 08:04:43.998             3.902          1798.063
       241   09 Jun 2027 08:05:25.739   09 Jun 2027 08:05:31.221             5.482           853.469
       242   09 Jun 2027 08:07:13.565   09 Jun 2027 08:07:19.376             5.811          1669.531
       243   09 Jun 2027 08:07:42.715   09 Jun 2027 08:07:44.666             1.951           158.656
       244   09 Jun 2027 09:38:03.230   09 Jun 2027 09:38:15.004            11.774          3231.531
       245   09 Jun 2027 09:39:24.525   09 Jun 2027 09:39:24.628             0.103            51.500
       246   09 Jun 2027 09:39:53.257   09 Jun 2027 09:39:56.270             3.013           839.062
       247   09 Jun 2027 09:41:30.531   09 Jun 2027 09:41:34.398             3.867          1410.688
       248   09 Jun 2027 09:43:49.433   09 Jun 2027 09:43:54.555             5.122          1914.437
       249   09 Jun 2027 09:44:09.562   09 Jun 2027 09:44:14.789             5.227           468.969
       250   09 Jun 2027 11:16:01.789   09 Jun 2027 11:16:11.328             9.539          4760.187
       251   09 Jun 2027 11:18:10.015   09 Jun 2027 11:18:15.184             5.169          1900.875
       252   09 Jun 2027 11:19:47.343   09 Jun 2027 11:19:53.784             6.441          2879.969
       253   09 Jun 2027 11:20:28.491   09 Jun 2027 11:20:34.016             5.525           822.500
       254   09 Jun 2027 11:21:17.117   09 Jun 2027 11:21:21.053             3.936           980.906
       255   09 Jun 2027 11:21:56.823   09 Jun 2027 11:21:59.155             2.332           572.156
       256   10 Jun 2027 03:37:00.794   10 Jun 2027 03:40:21.178           200.384        100192.000
       257   10 Jun 2027 03:41:50.694   10 Jun 2027 03:42:00.255             9.561          4780.500
       258   10 Jun 2027 03:42:40.600   10 Jun 2027 03:42:56.381            15.781          7890.500
       259   10 Jun 2027 05:16:03.580   10 Jun 2027 05:17:35.668            92.088         45891.875
       260   10 Jun 2027 05:18:11.339   10 Jun 2027 05:18:14.267             2.928           264.719
       261   10 Jun 2027 05:18:23.393   10 Jun 2027 05:18:25.296             1.903           263.313
       262   10 Jun 2027 05:19:56.925   10 Jun 2027 05:20:02.470             5.545          2715.313
       263   10 Jun 2027 05:21:01.711   10 Jun 2027 05:21:06.551             4.840          1807.344
       264   10 Jun 2027 05:21:28.277   10 Jun 2027 05:21:30.127             1.850           518.156
       265   10 Jun 2027 05:22:07.136   10 Jun 2027 05:22:10.381             3.245           872.906
       266   10 Jun 2027 05:22:47.597   10 Jun 2027 05:22:50.403             2.806           313.437
       267   10 Jun 2027 06:40:09.178   10 Jun 2027 06:40:19.862            10.684          5252.500
       268   10 Jun 2027 06:40:56.283   10 Jun 2027 06:40:57.942             1.659           524.531
       269   10 Jun 2027 06:41:16.113   10 Jun 2027 06:41:23.115             7.002           562.031
       270   10 Jun 2027 06:42:03.893   10 Jun 2027 06:42:06.575             2.682          1274.313
       271   10 Jun 2027 06:52:24.196   10 Jun 2027 06:52:31.945             7.749          2081.344
       272   10 Jun 2027 08:14:29.605   10 Jun 2027 08:14:45.008            15.403          6835.250
       273   10 Jun 2027 08:14:55.184   10 Jun 2027 08:14:55.184             0.000             0.000
       274   10 Jun 2027 08:15:33.540   10 Jun 2027 08:15:38.991             5.451          1274.688
       275   10 Jun 2027 08:16:38.278   10 Jun 2027 08:16:45.095             6.817          1852.719
       276   10 Jun 2027 08:17:31.002   10 Jun 2027 08:17:35.238             4.236           955.375
       277   10 Jun 2027 08:19:14.756   10 Jun 2027 08:19:21.108             6.352          2021.062
       278   10 Jun 2027 08:19:33.285   10 Jun 2027 08:19:35.549             2.264            71.063
       279   10 Jun 2027 09:49:27.924   10 Jun 2027 09:49:39.352            11.428          3001.062
       280   10 Jun 2027 09:50:54.890   10 Jun 2027 09:50:56.862             1.972           168.031
       281   10 Jun 2027 09:51:48.539   10 Jun 2027 09:51:54.719             6.180          1586.438
       282   10 Jun 2027 09:53:11.440   10 Jun 2027 09:53:11.440             0.000             0.000
       283   10 Jun 2027 09:53:30.671   10 Jun 2027 09:53:36.153             5.482          1491.187
       284   10 Jun 2027 09:54:51.089   10 Jun 2027 09:54:52.021             0.932           261.031
       285   10 Jun 2027 09:56:11.362   10 Jun 2027 09:56:13.810             2.448           842.250
       286   10 Jun 2027 09:56:35.309   10 Jun 2027 09:56:38.442             3.133           671.844
       287   10 Jun 2027 11:27:04.468   10 Jun 2027 11:27:18.213            13.745          6540.188
       288   10 Jun 2027 11:27:55.227   10 Jun 2027 11:27:58.486             3.259             8.250
       289   10 Jun 2027 11:30:06.454   10 Jun 2027 11:30:13.591             7.137          2376.625
       290   10 Jun 2027 11:30:46.919   10 Jun 2027 11:30:52.093             5.174           870.969
       291   10 Jun 2027 11:32:27.377   10 Jun 2027 11:32:31.858             4.481          2059.875
       292   10 Jun 2027 11:33:19.182   10 Jun 2027 11:33:21.774             2.592          1244.063
       293   10 Jun 2027 11:33:39.827   10 Jun 2027 11:33:44.795             4.968           439.250
       294   10 Jun 2027 11:34:03.714   10 Jun 2027 11:34:09.755             6.041           327.687
       295   11 Jun 2027 03:49:26.439   11 Jun 2027 03:49:32.268             5.829          2914.500
       296   11 Jun 2027 03:49:47.262   11 Jun 2027 03:52:57.465           190.203         95101.500
       297   11 Jun 2027 05:28:08.197   11 Jun 2027 05:29:45.893            97.696         48848.000
       298   11 Jun 2027 05:30:33.252   11 Jun 2027 05:31:04.267            31.015         14507.719
       299   11 Jun 2027 05:31:27.940   11 Jun 2027 05:31:29.999             2.059           351.312
       300   11 Jun 2027 05:32:25.664   11 Jun 2027 05:32:27.437             1.773           754.500
       301   11 Jun 2027 05:33:14.566   11 Jun 2027 05:33:18.718             4.152          1161.719
       302   11 Jun 2027 05:33:59.287   11 Jun 2027 05:34:03.949             4.662          1102.781
       303   11 Jun 2027 06:52:16.319   11 Jun 2027 06:52:31.840            15.521          6929.875
       304   11 Jun 2027 06:52:50.045   11 Jun 2027 06:52:50.045             0.000             0.000
       305   11 Jun 2027 06:53:07.216   11 Jun 2027 06:53:09.668             2.452           883.000
       306   11 Jun 2027 08:26:05.863   11 Jun 2027 08:26:19.572            13.709          5911.562
       307   11 Jun 2027 08:27:22.049   11 Jun 2027 08:27:26.298             4.249          1239.750
       308   11 Jun 2027 08:28:00.639   11 Jun 2027 08:28:04.529             3.890           222.031
       309   11 Jun 2027 08:28:40.777   11 Jun 2027 08:28:43.812             3.035          1118.250
       310   11 Jun 2027 08:29:38.942   11 Jun 2027 08:29:43.382             4.440          1150.406
       311   11 Jun 2027 08:30:22.007   11 Jun 2027 08:30:24.721             2.714           824.250
       312   11 Jun 2027 08:30:36.786   11 Jun 2027 08:30:38.571             1.785           211.563
       313   11 Jun 2027 08:31:14.968   11 Jun 2027 08:31:15.654             0.686           343.000
       314   11 Jun 2027 08:32:02.158   11 Jun 2027 08:32:06.627             4.469          1679.187
       315   11 Jun 2027 10:00:58.377   11 Jun 2027 10:01:03.401             5.024          2475.438
       316   11 Jun 2027 10:03:20.914   11 Jun 2027 10:03:22.304             1.390           680.437
       317   11 Jun 2027 10:04:00.889   11 Jun 2027 10:04:04.848             3.959           760.781
       318   11 Jun 2027 10:04:42.598   11 Jun 2027 10:04:46.335             3.737           100.781
       319   11 Jun 2027 10:07:13.856   11 Jun 2027 10:07:16.850             2.994          1214.781
       320   11 Jun 2027 10:08:07.898   11 Jun 2027 10:08:11.842             3.944           812.313
       321   11 Jun 2027 10:08:31.499   11 Jun 2027 10:08:34.323             2.824           317.812
       322   11 Jun 2027 10:09:11.638   11 Jun 2027 10:09:12.925             1.287           184.375
       323   11 Jun 2027 10:09:35.113   11 Jun 2027 10:09:36.424             1.311           622.531
       324   11 Jun 2027 10:09:57.155   11 Jun 2027 10:09:57.833             0.678            99.906
       325   11 Jun 2027 10:10:13.659   11 Jun 2027 10:10:23.601             9.942           470.781
       326   11 Jun 2027 11:39:03.795   11 Jun 2027 11:39:19.887            16.092          6340.656
       327   11 Jun 2027 11:40:19.114   11 Jun 2027 11:40:27.079             7.965          1018.875
       328   11 Jun 2027 11:40:47.909   11 Jun 2027 11:40:48.421             0.512           104.219
       329   11 Jun 2027 11:42:00.035   11 Jun 2027 11:42:06.864             6.829          1159.875
       330   11 Jun 2027 11:43:17.139   11 Jun 2027 11:43:21.400             4.261          1305.812
       331   11 Jun 2027 11:43:29.177   11 Jun 2027 11:43:30.286             1.109           243.031
       332   11 Jun 2027 11:44:44.017   11 Jun 2027 11:44:49.565             5.548          2186.844
       333   11 Jun 2027 11:45:37.878   11 Jun 2027 11:45:41.106             3.228           614.594
       334   11 Jun 2027 11:45:47.639   11 Jun 2027 11:45:48.985             1.346           196.281
       335   12 Jun 2027 04:01:57.738   12 Jun 2027 04:02:00.555             2.817          1408.500
       336   12 Jun 2027 04:02:19.380   12 Jun 2027 04:03:19.082            59.702         29851.000
       337   12 Jun 2027 04:03:24.191   12 Jun 2027 04:05:24.068           119.877         59938.500
       338   12 Jun 2027 04:06:27.064   12 Jun 2027 04:06:31.994             4.930          2465.000
       339   12 Jun 2027 04:06:54.388   12 Jun 2027 04:07:00.644             6.256          3128.000
       340   12 Jun 2027 05:40:44.862   12 Jun 2027 05:41:30.119            45.257         22628.500
       341   12 Jun 2027 05:42:28.484   12 Jun 2027 05:43:59.869            91.385         45573.282
       342   12 Jun 2027 05:44:49.200   12 Jun 2027 05:44:50.898             1.698           145.250
       343   12 Jun 2027 05:45:06.126   12 Jun 2027 05:45:14.729             8.603           431.125
       344   12 Jun 2027 07:04:14.305   12 Jun 2027 07:04:31.948            17.643          7467.375
       345   12 Jun 2027 07:05:26.222   12 Jun 2027 07:05:27.804             1.582           791.000
       346   12 Jun 2027 07:05:30.761   12 Jun 2027 07:05:32.931             2.170           944.031
       347   12 Jun 2027 07:06:05.899   12 Jun 2027 07:06:07.234             1.335           567.563
       348   12 Jun 2027 07:06:21.200   12 Jun 2027 07:06:23.094             1.894           225.562
       349   12 Jun 2027 08:40:14.926   12 Jun 2027 08:40:23.700             8.774          4256.469
       350   12 Jun 2027 08:41:03.466   12 Jun 2027 08:41:05.192             1.726           382.062
       351   12 Jun 2027 08:41:33.444   12 Jun 2027 08:41:35.326             1.882           780.844
       352   12 Jun 2027 08:42:27.133   12 Jun 2027 08:42:33.800             6.667          1171.000
       353   12 Jun 2027 08:42:59.375   12 Jun 2027 08:43:00.334             0.959           233.969
       354   12 Jun 2027 10:13:58.599   12 Jun 2027 10:14:09.313            10.714          2618.062
       355   12 Jun 2027 10:15:48.413   12 Jun 2027 10:15:52.664             4.251          1510.438
       356   12 Jun 2027 10:16:33.413   12 Jun 2027 10:16:36.290             2.877           535.750
       357   12 Jun 2027 10:18:33.663   12 Jun 2027 10:18:36.406             2.743           154.594
       358   12 Jun 2027 10:19:55.839   12 Jun 2027 10:19:59.959             4.120          2038.937
       359   12 Jun 2027 10:21:08.611   12 Jun 2027 10:21:11.984             3.373          1569.562
       360   12 Jun 2027 10:21:22.813   12 Jun 2027 10:21:24.141             1.328           338.406
       361   12 Jun 2027 10:21:46.569   12 Jun 2027 10:21:48.189             1.620           479.031
       362   12 Jun 2027 10:22:14.619   12 Jun 2027 10:22:16.532             1.913           264.375
       363   12 Jun 2027 11:51:26.923   12 Jun 2027 11:51:41.496            14.573          6827.000
       364   12 Jun 2027 11:53:35.157   12 Jun 2027 11:53:37.934             2.777          1388.500
       365   12 Jun 2027 11:54:06.704   12 Jun 2027 11:54:11.513             4.809           969.281
       366   12 Jun 2027 11:55:16.576   12 Jun 2027 11:55:21.924             5.348           641.781
       367   12 Jun 2027 11:55:57.065   12 Jun 2027 11:56:01.385             4.320            73.094
       368   12 Jun 2027 11:57:02.212   12 Jun 2027 11:57:12.793            10.581          1147.625
       369   12 Jun 2027 11:57:20.424   12 Jun 2027 11:57:23.130             2.706            94.875
       370   12 Jun 2027 11:57:38.986   12 Jun 2027 11:57:41.472             2.486           495.500
       371   12 Jun 2027 11:58:10.520   12 Jun 2027 11:58:12.820             2.300           857.688
       372   13 Jun 2027 04:14:22.211   13 Jun 2027 04:14:50.241            28.030         14015.000
       373   13 Jun 2027 04:14:54.254   13 Jun 2027 04:16:42.961           108.707         54353.500
       374   13 Jun 2027 04:18:16.771   13 Jun 2027 04:18:31.342            14.571          7285.500
       375   13 Jun 2027 04:19:31.825   13 Jun 2027 04:19:39.721             7.896          3948.000
       376   13 Jun 2027 05:52:24.641   13 Jun 2027 05:52:55.558            30.917         15458.500
       377   13 Jun 2027 05:54:38.904   13 Jun 2027 05:57:15.125           156.221         76473.063
       378   13 Jun 2027 07:16:04.107   13 Jun 2027 07:16:25.505            21.398          7976.219
       379   13 Jun 2027 07:18:10.639   13 Jun 2027 07:18:18.510             7.871          3259.969
       380   13 Jun 2027 08:52:30.981   13 Jun 2027 08:52:52.156            21.175          8464.250
       381   13 Jun 2027 08:53:13.366   13 Jun 2027 08:53:15.067             1.701           280.344
       382   13 Jun 2027 08:53:51.112   13 Jun 2027 08:53:53.791             2.679          1030.969
       383   13 Jun 2027 08:54:14.697   13 Jun 2027 08:54:17.244             2.547           355.656
       384   13 Jun 2027 08:55:01.757   13 Jun 2027 08:55:05.554             3.797          1209.656
       385   13 Jun 2027 10:24:39.615   13 Jun 2027 10:24:44.445             4.830          2383.469
       386   13 Jun 2027 10:27:00.512   13 Jun 2027 10:27:12.386            11.874          3852.094
       387   13 Jun 2027 10:28:34.874   13 Jun 2027 10:28:36.295             1.421           268.062
       388   13 Jun 2027 10:31:41.695   13 Jun 2027 10:31:48.868             7.173          3575.437
       389   13 Jun 2027 10:32:33.128   13 Jun 2027 10:32:35.966             2.838           832.187
       390   13 Jun 2027 10:33:05.297   13 Jun 2027 10:33:07.231             1.934           615.094
       391   13 Jun 2027 10:33:47.690   13 Jun 2027 10:33:49.598             1.908           772.844
       392   13 Jun 2027 10:33:59.103   13 Jun 2027 10:34:01.349             2.246           184.812
       393   13 Jun 2027 10:34:18.495   13 Jun 2027 10:34:18.947             0.452           222.344
