uniorb/output/strategy_4/Camera/Camera_KinoSat_111706.txt

KinoSat_111706
-------------------------
    Access    *     Start Time (UTCG)     *     Stop Time (UTCG)  *   Duration (s) *   Data (Mbytes)
         1   01 Jun 2027 03:00:00.000   01 Jun 2027 03:00:38.579            38.579         19289.500
         2   01 Jun 2027 03:01:48.909   01 Jun 2027 03:01:52.018             3.109          1554.500
         3   01 Jun 2027 03:03:23.219   01 Jun 2027 03:03:48.677            25.458         12729.000
         4   01 Jun 2027 03:05:47.471   01 Jun 2027 03:05:51.891             4.420          2210.000
         5   01 Jun 2027 04:38:26.544   01 Jun 2027 04:40:37.606           131.062         65531.000
         6   01 Jun 2027 04:43:21.241   01 Jun 2027 04:43:21.241             0.000             0.000
         7   01 Jun 2027 04:45:16.659   01 Jun 2027 04:45:44.390            27.731         13865.500
         8   01 Jun 2027 06:03:34.736   01 Jun 2027 06:04:55.525            80.789         40394.500
         9   01 Jun 2027 06:15:10.725   01 Jun 2027 06:15:36.845            26.120         13060.000
        10   01 Jun 2027 06:16:09.030   01 Jun 2027 06:16:11.793             2.763          1381.500
        11   01 Jun 2027 07:37:45.514   01 Jun 2027 07:38:44.445            58.931         29465.500
        12   01 Jun 2027 07:39:23.674   01 Jun 2027 07:40:28.436            64.762         32381.000
        13   01 Jun 2027 07:42:00.297   01 Jun 2027 07:42:21.908            21.611         10805.500
        14   01 Jun 2027 09:12:51.146   01 Jun 2027 09:14:09.327            78.181         39090.500
        15   01 Jun 2027 09:14:37.729   01 Jun 2027 09:15:27.548            49.819         24909.500
        16   01 Jun 2027 09:16:10.896   01 Jun 2027 09:16:14.105             3.209          1604.500
        17   01 Jun 2027 09:18:12.308   01 Jun 2027 09:18:25.423            13.115          6557.500
        18   01 Jun 2027 10:49:43.189   01 Jun 2027 10:49:51.985             8.796          4398.000
        19   01 Jun 2027 10:52:53.540   01 Jun 2027 10:53:01.719             8.179          4089.500
        20   01 Jun 2027 10:54:20.651   01 Jun 2027 10:55:14.983            54.332         27166.000
        21   01 Jun 2027 10:56:18.785   01 Jun 2027 10:57:08.609            49.824         24912.000
        22   02 Jun 2027 03:11:43.854   02 Jun 2027 03:13:07.424            83.570         41785.000
        23   02 Jun 2027 03:13:09.720   02 Jun 2027 03:13:36.726            27.006         13503.000
        24   02 Jun 2027 03:14:35.440   02 Jun 2027 03:14:36.663             1.223           611.500
        25   02 Jun 2027 03:15:56.897   02 Jun 2027 03:16:00.169             3.272          1636.000
        26   02 Jun 2027 03:16:34.440   02 Jun 2027 03:17:14.438            39.998         19999.000
        27   02 Jun 2027 04:50:43.094   02 Jun 2027 04:53:16.768           153.674         76837.000
        28   02 Jun 2027 04:54:27.956   02 Jun 2027 04:55:47.346            79.390         39695.000
        29   02 Jun 2027 04:55:47.995   02 Jun 2027 04:56:30.992            42.997         21498.500
        30   02 Jun 2027 06:14:54.680   02 Jun 2027 06:15:06.117            11.437          5718.500
        31   02 Jun 2027 06:16:04.962   02 Jun 2027 06:16:28.071            23.109         11554.500
        32   02 Jun 2027 06:27:08.166   02 Jun 2027 06:28:03.538            55.372         27686.000
        33   02 Jun 2027 07:49:20.998   02 Jun 2027 07:50:30.223            69.225         34612.500
        34   02 Jun 2027 07:51:18.333   02 Jun 2027 07:51:42.278            23.945         11972.500
        35   02 Jun 2027 07:52:11.374   02 Jun 2027 07:52:31.660            20.286         10143.000
        36   02 Jun 2027 09:24:14.385   02 Jun 2027 09:25:31.129            76.744         38372.000
        37   02 Jun 2027 09:25:55.901   02 Jun 2027 09:26:20.954            25.053         11953.907
        38   02 Jun 2027 09:27:25.162   02 Jun 2027 09:27:29.043             3.881          1555.844
        39   02 Jun 2027 09:28:08.834   02 Jun 2027 09:28:11.866             3.032           416.375
        40   02 Jun 2027 09:29:01.649   02 Jun 2027 09:29:03.281             1.632           569.219
        41   02 Jun 2027 09:30:54.204   02 Jun 2027 09:30:55.565             1.361           680.500
        42   02 Jun 2027 09:31:12.177   02 Jun 2027 09:31:17.070             4.893          2390.125
        43   02 Jun 2027 09:32:20.019   02 Jun 2027 09:32:25.282             5.263          1242.500
        44   02 Jun 2027 11:01:49.877   02 Jun 2027 11:02:05.140            15.263          3696.531
        45   02 Jun 2027 11:03:24.537   02 Jun 2027 11:03:28.927             4.390          1219.844
        46   02 Jun 2027 11:04:45.784   02 Jun 2027 11:04:52.915             7.131          1597.656
        47   02 Jun 2027 11:05:14.495   02 Jun 2027 11:05:16.713             2.218           674.375
        48   02 Jun 2027 11:07:13.085   02 Jun 2027 11:07:19.296             6.211          3093.969
        49   02 Jun 2027 11:08:00.039   02 Jun 2027 11:08:02.736             2.697          1086.938
        50   02 Jun 2027 11:08:21.736   02 Jun 2027 11:08:30.672             8.936           457.031
        51   02 Jun 2027 11:08:56.109   02 Jun 2027 11:08:59.356             3.247           642.344
        52   02 Jun 2027 11:09:12.146   02 Jun 2027 11:09:12.355             0.209           104.500
        53   03 Jun 2027 03:24:03.099   03 Jun 2027 03:24:16.280            13.181          6590.500
        54   03 Jun 2027 03:24:30.472   03 Jun 2027 03:27:29.495           179.023         89511.500
        55   03 Jun 2027 03:29:18.529   03 Jun 2027 03:29:52.649            34.120         17060.000
        56   03 Jun 2027 05:02:49.794   03 Jun 2027 05:04:16.556            86.762         43277.094
        57   03 Jun 2027 05:04:35.976   03 Jun 2027 05:04:38.029             2.053           545.375
        58   03 Jun 2027 05:04:56.978   03 Jun 2027 05:04:58.468             1.490           592.156
        59   03 Jun 2027 05:05:19.567   03 Jun 2027 05:05:23.052             3.485           425.844
        60   03 Jun 2027 05:05:56.322   03 Jun 2027 05:05:58.618             2.296            42.156
        61   03 Jun 2027 05:07:07.491   03 Jun 2027 05:07:12.206             4.715          1649.125
        62   03 Jun 2027 05:07:55.259   03 Jun 2027 05:07:57.208             1.949           867.094
        63   03 Jun 2027 06:27:00.460   03 Jun 2027 06:27:14.515            14.055          6033.531
        64   03 Jun 2027 06:27:39.754   03 Jun 2027 06:27:39.754             0.000             0.000
        65   03 Jun 2027 06:27:47.826   03 Jun 2027 06:27:54.606             6.780           668.750
        66   03 Jun 2027 06:39:33.212   03 Jun 2027 06:39:34.842             1.630           815.000
        67   03 Jun 2027 08:00:50.594   03 Jun 2027 08:01:00.361             9.767          4639.781
        68   03 Jun 2027 08:02:40.191   03 Jun 2027 08:02:43.444             3.253          1594.281
        69   03 Jun 2027 08:02:44.987   03 Jun 2027 08:02:46.596             1.609            25.094
        70   03 Jun 2027 08:02:59.220   03 Jun 2027 08:03:00.710             1.490           353.219
        71   03 Jun 2027 08:03:43.961   03 Jun 2027 08:03:47.451             3.490          1242.625
        72   03 Jun 2027 08:04:36.928   03 Jun 2027 08:04:41.068             4.140          1385.156
        73   03 Jun 2027 08:05:23.816   03 Jun 2027 08:05:23.816             0.000             0.000
        74   03 Jun 2027 08:05:43.539   03 Jun 2027 08:05:45.824             2.285           967.844
        75   03 Jun 2027 09:35:45.053   03 Jun 2027 09:35:53.220             8.167          3776.688
        76   03 Jun 2027 09:37:02.007   03 Jun 2027 09:37:08.683             6.676          1821.656
        77   03 Jun 2027 09:38:00.032   03 Jun 2027 09:38:02.565             2.533           324.969
        78   03 Jun 2027 09:38:47.710   03 Jun 2027 09:38:54.302             6.592          1117.469
        79   03 Jun 2027 09:39:27.689   03 Jun 2027 09:39:27.689             0.000             0.000
        80   03 Jun 2027 09:40:10.462   03 Jun 2027 09:40:16.138             5.676          1525.125
        81   03 Jun 2027 09:42:48.140   03 Jun 2027 09:42:52.713             4.573          2197.719
        82   03 Jun 2027 09:43:41.830   03 Jun 2027 09:43:45.473             3.643          1518.062
        83   03 Jun 2027 09:44:32.825   03 Jun 2027 09:44:33.983             1.158           534.313
        84   03 Jun 2027 09:44:38.877   03 Jun 2027 09:44:40.609             1.732            46.438
        85   03 Jun 2027 09:44:56.579   03 Jun 2027 09:45:01.862             5.283           355.469
        86   03 Jun 2027 11:13:46.339   03 Jun 2027 11:14:10.016            23.677          5649.219
        87   03 Jun 2027 11:16:40.915   03 Jun 2027 11:16:40.915             0.000             0.000
        88   03 Jun 2027 11:17:39.137   03 Jun 2027 11:17:54.004            14.867          6535.031
        89   03 Jun 2027 11:18:27.701   03 Jun 2027 11:18:30.544             2.843           311.937
        90   03 Jun 2027 11:18:38.204   03 Jun 2027 11:18:38.747             0.543           187.969
        91   03 Jun 2027 11:18:47.487   03 Jun 2027 11:18:48.875             1.388           273.125
        92   03 Jun 2027 11:19:08.160   03 Jun 2027 11:19:10.126             1.966           564.281
        93   03 Jun 2027 11:19:29.765   03 Jun 2027 11:19:31.545             1.780           613.719
        94   03 Jun 2027 11:19:45.505   03 Jun 2027 11:19:47.889             2.384           170.531
        95   03 Jun 2027 11:20:16.876   03 Jun 2027 11:20:17.118             0.242           121.000
        96   03 Jun 2027 11:20:39.485   03 Jun 2027 11:20:42.122             2.637          1007.063
        97   04 Jun 2027 03:36:40.894   04 Jun 2027 03:36:48.182             7.288          3644.000
        98   04 Jun 2027 03:37:02.356   04 Jun 2027 03:38:03.659            61.303         30651.500
        99   04 Jun 2027 03:38:08.501   04 Jun 2027 03:40:30.446           141.945         70972.500
       100   04 Jun 2027 03:40:41.673   04 Jun 2027 03:41:11.078            29.405         14702.500
       101   04 Jun 2027 05:15:27.214   04 Jun 2027 05:16:41.912            74.698         37349.000
       102   04 Jun 2027 05:16:53.417   04 Jun 2027 05:17:03.778            10.361          4090.156
       103   04 Jun 2027 05:18:32.869   04 Jun 2027 05:18:39.129             6.260          2434.812
       104   04 Jun 2027 05:19:26.790   04 Jun 2027 05:19:30.428             3.638            62.719
       105   04 Jun 2027 06:38:57.326   04 Jun 2027 06:39:11.692            14.366          6070.813
       106   04 Jun 2027 06:40:07.991   04 Jun 2027 06:40:11.064             3.073          1469.094
       107   04 Jun 2027 06:40:17.695   04 Jun 2027 06:40:19.175             1.480           207.219
       108   04 Jun 2027 06:40:34.762   04 Jun 2027 06:40:37.737             2.975            16.656
       109   04 Jun 2027 06:41:07.690   04 Jun 2027 06:41:07.690             0.000             0.000
       110   04 Jun 2027 08:15:09.151   04 Jun 2027 08:15:27.865            18.714          9244.719
       111   04 Jun 2027 08:15:50.495   04 Jun 2027 08:15:51.972             1.477           598.844
       112   04 Jun 2027 08:18:02.779   04 Jun 2027 08:18:09.549             6.770          3283.250
       113   04 Jun 2027 09:48:42.512   04 Jun 2027 09:48:48.022             5.510          2251.750
       114   04 Jun 2027 09:50:37.171   04 Jun 2027 09:50:39.841             2.670           231.156
       115   04 Jun 2027 09:51:07.401   04 Jun 2027 09:51:10.944             3.543           135.281
       116   04 Jun 2027 09:52:13.996   04 Jun 2027 09:52:18.184             4.188          1788.688
       117   04 Jun 2027 09:53:21.811   04 Jun 2027 09:53:22.839             1.028           189.063
       118   04 Jun 2027 09:53:48.562   04 Jun 2027 09:53:57.089             8.527           803.844
       119   04 Jun 2027 09:54:48.790   04 Jun 2027 09:54:51.379             2.589           551.469
       120   04 Jun 2027 09:55:50.534   04 Jun 2027 09:55:53.993             3.459          1296.500
       121   04 Jun 2027 09:56:53.652   04 Jun 2027 09:56:58.877             5.225          1864.344
       122   04 Jun 2027 09:57:06.029   04 Jun 2027 09:57:08.519             2.490           206.906
       123   04 Jun 2027 11:26:08.704   04 Jun 2027 11:26:24.270            15.566          6852.188
       124   04 Jun 2027 11:28:14.499   04 Jun 2027 11:28:19.324             4.825          1471.187
       125   04 Jun 2027 11:30:32.084   04 Jun 2027 11:30:42.195            10.111          3996.344
       126   04 Jun 2027 11:31:24.497   04 Jun 2027 11:31:28.792             4.295          1049.969
       127   04 Jun 2027 11:32:10.956   04 Jun 2027 11:32:17.103             6.147          1317.625
       128   04 Jun 2027 11:32:44.971   04 Jun 2027 11:32:47.987             3.016           628.875
       129   05 Jun 2027 03:49:07.578   05 Jun 2027 03:49:15.247             7.669          3834.500
       130   05 Jun 2027 03:51:13.506   05 Jun 2027 03:53:53.232           159.726         79863.000
       131   05 Jun 2027 03:54:30.622   05 Jun 2027 03:54:36.095             5.473          2736.500
       132   05 Jun 2027 03:54:50.841   05 Jun 2027 03:55:17.891            27.050         13525.000
       133   05 Jun 2027 05:27:08.405   05 Jun 2027 05:28:53.431           105.026         52047.750
       134   05 Jun 2027 05:29:49.333   05 Jun 2027 05:29:54.140             4.807          1706.906
       135   05 Jun 2027 05:30:35.663   05 Jun 2027 05:30:40.011             4.348          1297.594
       136   05 Jun 2027 06:50:48.358   05 Jun 2027 06:50:59.171            10.813          5287.312
       137   05 Jun 2027 06:52:09.253   05 Jun 2027 06:52:14.255             5.002          1743.219
       138   05 Jun 2027 06:53:01.232   05 Jun 2027 06:53:03.422             2.190          1045.000
       139   05 Jun 2027 08:27:15.963   05 Jun 2027 08:27:29.505            13.542          6232.594
       140   05 Jun 2027 08:28:04.927   05 Jun 2027 08:28:07.060             2.133           811.750
       141   05 Jun 2027 08:28:42.491   05 Jun 2027 08:28:47.361             4.870           348.156
       142   05 Jun 2027 09:59:26.067   05 Jun 2027 09:59:33.997             7.930          3965.000
       143   05 Jun 2027 10:01:21.492   05 Jun 2027 10:01:24.387             2.895           936.125
       144   05 Jun 2027 10:03:04.293   05 Jun 2027 10:03:09.609             5.316          2295.656
       145   05 Jun 2027 10:03:21.655   05 Jun 2027 10:03:23.889             2.234           361.531
       146   05 Jun 2027 10:04:20.137   05 Jun 2027 10:04:21.318             1.181            50.687
       147   05 Jun 2027 10:07:23.039   05 Jun 2027 10:07:32.725             9.686          4243.594
       148   05 Jun 2027 10:08:04.962   05 Jun 2027 10:08:11.093             6.131           993.406
       149   05 Jun 2027 10:08:35.198   05 Jun 2027 10:08:39.179             3.981           313.437
       150   05 Jun 2027 10:09:08.756   05 Jun 2027 10:09:12.135             3.379           924.281
       151   05 Jun 2027 11:38:19.304   05 Jun 2027 11:38:31.495            12.191          5653.063
       152   05 Jun 2027 11:39:35.985   05 Jun 2027 11:39:42.911             6.926           676.563
       153   05 Jun 2027 11:40:24.616   05 Jun 2027 11:40:28.975             4.359           676.344
       154   05 Jun 2027 11:41:00.488   05 Jun 2027 11:41:02.607             2.119           950.469
       155   05 Jun 2027 11:41:07.740   05 Jun 2027 11:41:11.565             3.825            79.531
       156   05 Jun 2027 11:42:39.921   05 Jun 2027 11:42:45.654             5.733          2069.375
       157   05 Jun 2027 11:43:04.101   05 Jun 2027 11:43:05.451             1.350           529.656
       158   05 Jun 2027 11:44:17.093   05 Jun 2027 11:44:23.480             6.387          2238.812
       159   05 Jun 2027 11:44:26.671   05 Jun 2027 11:44:28.791             2.120            99.719
       160   06 Jun 2027 04:01:13.653   06 Jun 2027 04:02:16.772            63.119         31559.500
       161   06 Jun 2027 04:02:23.795   06 Jun 2027 04:04:48.293           144.498         72249.000
       162   06 Jun 2027 04:05:44.481   06 Jun 2027 04:05:50.038             5.557          2778.500
       163   06 Jun 2027 04:06:29.930   06 Jun 2027 04:06:48.450            18.520          9260.000
       164   06 Jun 2027 04:07:03.210   06 Jun 2027 04:07:05.915             2.705          1352.500
       165   06 Jun 2027 05:40:39.081   06 Jun 2027 05:42:19.168           100.087         49896.749
       166   06 Jun 2027 07:02:55.670   06 Jun 2027 07:03:17.294            21.624          7902.719
       167   06 Jun 2027 07:03:50.020   06 Jun 2027 07:03:51.568             1.548           747.781
       168   06 Jun 2027 07:04:23.095   06 Jun 2027 07:04:27.155             4.060           840.156
       169   06 Jun 2027 07:05:10.814   06 Jun 2027 07:05:17.932             7.118           786.406
       170   06 Jun 2027 07:05:46.135   06 Jun 2027 07:05:47.181             1.046           470.062
       171   06 Jun 2027 08:39:23.876   06 Jun 2027 08:39:30.887             7.011          1964.375
       172   06 Jun 2027 08:39:51.357   06 Jun 2027 08:39:56.419             5.062           268.000
       173   06 Jun 2027 08:41:05.771   06 Jun 2027 08:41:09.083             3.312          1359.844
       174   06 Jun 2027 08:41:50.514   06 Jun 2027 08:41:51.700             1.186           548.156
       175   06 Jun 2027 10:14:34.015   06 Jun 2027 10:14:40.166             6.151          2941.438
       176   06 Jun 2027 10:15:43.706   06 Jun 2027 10:15:50.809             7.103          1332.375
       177   06 Jun 2027 10:18:05.257   06 Jun 2027 10:18:12.147             6.890          3008.219
       178   06 Jun 2027 10:19:33.959   06 Jun 2027 10:19:41.880             7.921          2130.125
       179   06 Jun 2027 10:20:55.876   06 Jun 2027 10:20:58.161             2.285           596.344
       180   06 Jun 2027 11:50:53.758   06 Jun 2027 11:51:08.253            14.495          6352.188
       181   06 Jun 2027 11:52:10.560   06 Jun 2027 11:52:13.891             3.331          1377.000
       182   06 Jun 2027 11:52:42.258   06 Jun 2027 11:52:44.654             2.396           591.219
       183   06 Jun 2027 11:52:45.287   06 Jun 2027 11:52:49.833             4.546            19.781
       184   06 Jun 2027 11:54:06.820   06 Jun 2027 11:54:10.819             3.999          1063.469
       185   06 Jun 2027 11:54:28.813   06 Jun 2027 11:54:31.436             2.623           148.219
       186   06 Jun 2027 11:54:51.451   06 Jun 2027 11:54:52.556             1.105           367.313
       187   06 Jun 2027 11:54:59.984   06 Jun 2027 11:55:01.734             1.750           196.406
       188   06 Jun 2027 11:55:34.811   06 Jun 2027 11:55:43.086             8.275           731.469
       189   06 Jun 2027 11:55:59.250   06 Jun 2027 11:55:59.616             0.366           138.375
       190   06 Jun 2027 11:56:18.022   06 Jun 2027 11:56:18.893             0.871           304.750
       191   06 Jun 2027 11:57:03.484   06 Jun 2027 11:57:10.553             7.069          1089.094
       192   07 Jun 2027 04:13:18.180   07 Jun 2027 04:13:59.622            41.442         20721.000
       193   07 Jun 2027 04:14:21.774   07 Jun 2027 04:15:35.547            73.773         36886.500
       194   07 Jun 2027 04:16:15.251   07 Jun 2027 04:16:37.494            22.243         11121.500
       195   07 Jun 2027 04:16:59.435   07 Jun 2027 04:17:39.477            40.042         20021.000
       196   07 Jun 2027 04:18:48.907   07 Jun 2027 04:18:54.186             5.279          2639.500
       197   07 Jun 2027 05:51:31.009   07 Jun 2027 05:52:07.445            36.436         18218.000
       198   07 Jun 2027 05:52:36.069   07 Jun 2027 05:54:01.891            85.822         42383.437
       199   07 Jun 2027 07:14:57.891   07 Jun 2027 07:15:08.287            10.396          5194.094
       200   07 Jun 2027 07:15:52.659   07 Jun 2027 07:15:55.059             2.400           390.406
       201   07 Jun 2027 07:17:30.997   07 Jun 2027 07:17:31.730             0.733           366.500
       202   07 Jun 2027 07:17:49.367   07 Jun 2027 07:17:54.843             5.476          2684.219
       203   07 Jun 2027 08:51:26.249   07 Jun 2027 08:51:36.401            10.152          1850.500
       204   07 Jun 2027 08:52:53.625   07 Jun 2027 08:52:59.738             6.113          2413.250
       205   07 Jun 2027 08:53:18.399   07 Jun 2027 08:53:20.038             1.639           583.156
       206   07 Jun 2027 08:54:01.131   07 Jun 2027 08:54:04.683             3.552          1284.156
       207   07 Jun 2027 10:26:38.685   07 Jun 2027 10:26:48.819            10.134          3349.438
       208   07 Jun 2027 10:28:09.551   07 Jun 2027 10:28:15.796             6.245          2522.875
       209   07 Jun 2027 10:28:40.695   07 Jun 2027 10:28:41.782             1.087           278.750
       210   07 Jun 2027 10:31:34.213   07 Jun 2027 10:31:44.722            10.509          3881.000
       211   07 Jun 2027 10:32:50.756   07 Jun 2027 10:32:57.743             6.987          1530.187
       212   08 Jun 2027 04:26:22.774   08 Jun 2027 04:28:48.090           145.316         72658.000
       213   08 Jun 2027 04:30:32.584   08 Jun 2027 04:30:35.254             2.670          1335.000
       214   08 Jun 2027 04:30:45.905   08 Jun 2027 04:31:29.377            43.472         21736.000
       215   08 Jun 2027 04:32:52.985   08 Jun 2027 04:32:57.975             4.990          2495.000
       216   08 Jun 2027 04:33:19.085   08 Jun 2027 04:33:55.586            36.501         18250.500
       217   08 Jun 2027 05:52:33.693   08 Jun 2027 05:52:58.175            24.482         12241.000
       218   08 Jun 2027 06:03:26.759   08 Jun 2027 06:05:02.622            95.863         46716.094
       219   08 Jun 2027 06:06:09.920   08 Jun 2027 06:06:12.847             2.927          1463.500
       220   08 Jun 2027 06:06:29.788   08 Jun 2027 06:06:32.063             2.275          1084.219
       221   08 Jun 2027 07:27:24.802   08 Jun 2027 07:27:40.486            15.684          7637.969
       222   08 Jun 2027 07:28:20.762   08 Jun 2027 07:28:20.762             0.000             0.000
       223   08 Jun 2027 07:29:31.874   08 Jun 2027 07:29:39.497             7.623          3024.000
       224   08 Jun 2027 09:03:09.509   08 Jun 2027 09:03:21.180            11.671          3771.000
       225   08 Jun 2027 09:05:22.799   08 Jun 2027 09:05:30.653             7.854          3604.094
       226   08 Jun 2027 09:05:59.097   08 Jun 2027 09:06:00.584             1.487           696.281
       227   08 Jun 2027 10:37:53.218   08 Jun 2027 10:38:08.816            15.598          5797.000
       228   08 Jun 2027 10:39:36.991   08 Jun 2027 10:39:43.271             6.280          2037.875
       229   08 Jun 2027 10:41:12.221   08 Jun 2027 10:41:17.080             4.859          1018.938
       230   08 Jun 2027 10:41:59.952   08 Jun 2027 10:42:05.875             5.923          1175.531
       231   08 Jun 2027 10:42:42.701   08 Jun 2027 10:42:45.178             2.477           592.594
       232   08 Jun 2027 10:43:56.521   08 Jun 2027 10:44:00.993             4.472          1809.344
       233   08 Jun 2027 10:44:45.946   08 Jun 2027 10:44:48.737             2.791           952.469
       234   09 Jun 2027 03:00:49.330   09 Jun 2027 03:01:01.654            12.324          6162.000
       235   09 Jun 2027 03:01:05.152   09 Jun 2027 03:01:14.279             9.127          4563.500
       236   09 Jun 2027 03:01:30.134   09 Jun 2027 03:01:40.569            10.435          5217.500
       237   09 Jun 2027 03:02:03.535   09 Jun 2027 03:02:05.373             1.838           919.000
       238   09 Jun 2027 03:02:36.925   09 Jun 2027 03:02:42.066             5.141          2570.500
       239   09 Jun 2027 03:03:38.133   09 Jun 2027 03:04:05.862            27.729         13864.500
       240   09 Jun 2027 03:04:56.851   09 Jun 2027 03:05:00.825             3.974          1987.000
       241   09 Jun 2027 03:05:22.694   09 Jun 2027 03:05:32.308             9.614          4807.000
       242   09 Jun 2027 03:05:43.535   09 Jun 2027 03:05:58.598            15.063          7531.500
       243   09 Jun 2027 04:38:45.039   09 Jun 2027 04:40:52.515           127.476         63738.000
       244   09 Jun 2027 04:42:33.381   09 Jun 2027 04:42:41.473             8.092          4046.000
       245   09 Jun 2027 04:44:35.461   09 Jun 2027 04:46:00.259            84.798         42399.000
       246   09 Jun 2027 06:03:48.479   09 Jun 2027 06:04:16.992            28.513         14256.500
       247   09 Jun 2027 06:15:28.007   09 Jun 2027 06:15:50.581            22.574         10128.843
       248   09 Jun 2027 07:38:00.392   09 Jun 2027 07:38:14.286            13.894          5571.094
       249   09 Jun 2027 07:38:27.200   09 Jun 2027 07:38:29.674             2.474           403.562
       250   09 Jun 2027 07:39:41.372   09 Jun 2027 07:39:44.799             3.427          1430.437
       251   09 Jun 2027 07:40:23.274   09 Jun 2027 07:40:25.638             2.364           811.000
       252   09 Jun 2027 07:41:18.629   09 Jun 2027 07:41:20.871             2.242          1002.031
       253   09 Jun 2027 07:41:55.558   09 Jun 2027 07:41:55.558             0.000             0.000
       254   09 Jun 2027 07:42:15.256   09 Jun 2027 07:42:17.829             2.573          1286.500
       255   09 Jun 2027 09:13:03.540   09 Jun 2027 09:13:10.638             7.098          2302.375
       256   09 Jun 2027 09:13:30.940   09 Jun 2027 09:13:33.604             2.664           526.063
       257   09 Jun 2027 09:14:54.103   09 Jun 2027 09:14:56.190             2.087           676.094
       258   09 Jun 2027 09:16:28.567   09 Jun 2027 09:16:31.816             3.249          1384.000
       259   09 Jun 2027 09:18:08.623   09 Jun 2027 09:18:12.135             3.512           434.812
       260   09 Jun 2027 09:18:55.933   09 Jun 2027 09:19:02.838             6.905           785.938
       261   09 Jun 2027 09:19:17.322   09 Jun 2027 09:19:17.322             0.000             0.000
       262   09 Jun 2027 09:19:44.213   09 Jun 2027 09:19:46.182             1.969           984.500
       263   09 Jun 2027 10:50:01.701   09 Jun 2027 10:50:06.717             5.016          2508.000
       264   09 Jun 2027 10:53:13.271   09 Jun 2027 10:53:28.330            15.059          6143.750
       265   09 Jun 2027 10:54:29.868   09 Jun 2027 10:54:33.730             3.862          1690.219
       266   09 Jun 2027 10:55:09.473   09 Jun 2027 10:55:19.520            10.047           809.688
       267   09 Jun 2027 10:55:21.609   09 Jun 2027 10:55:24.474             2.865            59.937
       268   09 Jun 2027 10:56:04.007   09 Jun 2027 10:56:07.238             3.231          1235.406
       269   09 Jun 2027 10:56:37.457   09 Jun 2027 10:56:39.277             1.820           527.250
       270   09 Jun 2027 10:57:25.684   09 Jun 2027 10:57:26.244             0.560           280.000
       271   10 Jun 2027 03:12:01.684   10 Jun 2027 03:13:52.878           111.194         55597.000
       272   10 Jun 2027 03:15:16.556   10 Jun 2027 03:16:02.759            46.203         23101.500
       273   10 Jun 2027 03:16:03.833   10 Jun 2027 03:16:08.806             4.973          2486.500
       274   10 Jun 2027 03:16:24.555   10 Jun 2027 03:16:30.045             5.490          2745.000
       275   10 Jun 2027 03:16:43.029   10 Jun 2027 03:16:52.129             9.100          4550.000
       276   10 Jun 2027 03:17:07.683   10 Jun 2027 03:17:10.670             2.987          1493.500
       277   10 Jun 2027 04:51:04.702   10 Jun 2027 04:51:10.386             5.684          2842.000
       278   10 Jun 2027 04:51:45.387   10 Jun 2027 04:53:32.016           106.629         53314.500
       279   10 Jun 2027 04:54:46.319   10 Jun 2027 04:55:03.044            16.725          8216.781
       280   10 Jun 2027 04:55:55.101   10 Jun 2027 04:56:00.584             5.483           395.656
       281   10 Jun 2027 04:56:09.242   10 Jun 2027 04:56:09.817             0.575           246.375
       282   10 Jun 2027 04:56:50.905   10 Jun 2027 04:56:52.516             1.611           147.375
       283   10 Jun 2027 04:57:29.167   10 Jun 2027 04:57:30.422             1.255           513.625
       284   10 Jun 2027 06:15:09.747   10 Jun 2027 06:15:22.595            12.848          6259.313
       285   10 Jun 2027 06:17:01.029   10 Jun 2027 06:17:11.125            10.096          3076.062
       286   10 Jun 2027 06:27:25.351   10 Jun 2027 06:27:32.740             7.389          3448.562
       287   10 Jun 2027 07:49:24.640   10 Jun 2027 07:49:38.332            13.692          6025.031
       288   10 Jun 2027 07:50:04.005   10 Jun 2027 07:50:05.055             1.050           429.594
       289   10 Jun 2027 07:50:28.860   10 Jun 2027 07:50:28.860             0.000             0.000
       290   10 Jun 2027 07:50:37.086   10 Jun 2027 07:50:39.682             2.596           448.813
       291   10 Jun 2027 07:52:10.658   10 Jun 2027 07:52:18.578             7.920          1920.594
       292   10 Jun 2027 07:53:30.341   10 Jun 2027 07:53:36.857             6.516          1937.719
       293   10 Jun 2027 07:53:58.463   10 Jun 2027 07:53:58.463             0.000             0.000
       294   10 Jun 2027 07:54:34.314   10 Jun 2027 07:54:37.414             3.100          1173.594
       295   10 Jun 2027 09:24:28.109   10 Jun 2027 09:24:35.623             7.514          3320.594
       296   10 Jun 2027 09:26:13.389   10 Jun 2027 09:26:16.412             3.023           670.344
       297   10 Jun 2027 09:30:18.447   10 Jun 2027 09:30:32.558            14.111          6338.594
       298   10 Jun 2027 09:31:22.196   10 Jun 2027 09:31:22.196             0.000             0.000
       299   10 Jun 2027 09:31:55.868   10 Jun 2027 09:31:59.159             3.291          1645.500
       300   10 Jun 2027 09:32:01.593   10 Jun 2027 09:32:05.608             4.015          1034.000
       301   10 Jun 2027 11:02:04.151   10 Jun 2027 11:02:11.265             7.114          2978.781
       302   10 Jun 2027 11:04:11.629   10 Jun 2027 11:04:17.664             6.035           939.406
       303   10 Jun 2027 11:05:34.937   10 Jun 2027 11:05:38.920             3.983           952.656
       304   10 Jun 2027 11:08:14.714   10 Jun 2027 11:08:24.028             9.314          4362.875
       305   10 Jun 2027 11:09:15.392   10 Jun 2027 11:09:19.252             3.860          1409.656
       306   11 Jun 2027 03:24:20.817   11 Jun 2027 03:24:33.433            12.616          6308.000
       307   11 Jun 2027 03:24:48.250   11 Jun 2027 03:28:11.475           203.225        101612.500
       308   11 Jun 2027 03:28:37.134   11 Jun 2027 03:28:49.991            12.857          6428.500
       309   11 Jun 2027 03:29:19.814   11 Jun 2027 03:29:20.299             0.485           242.500
       310   11 Jun 2027 03:30:08.654   11 Jun 2027 03:30:11.114             2.460          1230.000
       311   11 Jun 2027 05:03:09.199   11 Jun 2027 05:04:34.160            84.961         41998.812
       312   11 Jun 2027 05:05:24.032   11 Jun 2027 05:05:27.306             3.274          1064.656
       313   11 Jun 2027 05:06:10.688   11 Jun 2027 05:06:10.851             0.163            38.500
       314   11 Jun 2027 05:07:02.087   11 Jun 2027 05:07:05.692             3.605          1422.687
       315   11 Jun 2027 05:07:44.431   11 Jun 2027 05:07:46.873             2.442           707.063
       316   11 Jun 2027 06:27:17.354   11 Jun 2027 06:27:25.069             7.715          3530.469
       317   11 Jun 2027 06:28:04.814   11 Jun 2027 06:28:10.758             5.944           722.875
       318   11 Jun 2027 08:01:06.830   11 Jun 2027 08:01:19.090            12.260          5298.688
       319   11 Jun 2027 08:02:30.360   11 Jun 2027 08:02:34.195             3.835          1572.000
       320   11 Jun 2027 08:03:03.036   11 Jun 2027 08:03:03.591             0.555           185.563
       321   11 Jun 2027 08:04:00.936   11 Jun 2027 08:04:06.437             5.501          1243.688
       322   11 Jun 2027 08:04:55.439   11 Jun 2027 08:04:59.660             4.221          1440.687
       323   11 Jun 2027 08:06:01.202   11 Jun 2027 08:06:05.442             4.240          1024.406
       324   11 Jun 2027 09:35:59.081   11 Jun 2027 09:36:03.200             4.119          2059.500
       325   11 Jun 2027 09:36:53.143   11 Jun 2027 09:36:57.930             4.787          2171.438
       326   11 Jun 2027 09:38:18.800   11 Jun 2027 09:38:21.967             3.167           355.969
       327   11 Jun 2027 09:39:06.293   11 Jun 2027 09:39:08.649             2.356          1105.281
       328   11 Jun 2027 09:39:41.969   11 Jun 2027 09:39:43.209             1.240           117.031
       329   11 Jun 2027 09:41:55.212   11 Jun 2027 09:42:10.340            15.128          2706.812
       330   11 Jun 2027 09:43:14.346   11 Jun 2027 09:43:16.592             2.246           958.969
       331   11 Jun 2027 09:43:32.889   11 Jun 2027 09:43:32.889             0.000             0.000
       332   11 Jun 2027 09:43:48.382   11 Jun 2027 09:43:51.453             3.071           993.437
       333   11 Jun 2027 09:44:35.694   11 Jun 2027 09:44:39.864             4.170           700.906
       334   11 Jun 2027 11:14:04.725   11 Jun 2027 11:14:32.975            28.250          6109.688
       335   11 Jun 2027 11:17:59.565   11 Jun 2027 11:18:13.261            13.696          6455.937
       336   11 Jun 2027 11:18:40.542   11 Jun 2027 11:18:42.702             2.160           544.500
       337   11 Jun 2027 11:19:27.674   11 Jun 2027 11:19:30.524             2.850          1398.281
       338   11 Jun 2027 11:20:24.562   11 Jun 2027 11:20:28.993             4.431          1463.750
       339   11 Jun 2027 11:20:56.294   11 Jun 2027 11:20:58.439             2.145           753.781
       340   12 Jun 2027 03:36:58.677   12 Jun 2027 03:37:01.876             3.199          1599.500
       341   12 Jun 2027 03:37:20.316   12 Jun 2027 03:38:20.206            59.890         29945.000
       342   12 Jun 2027 03:38:25.265   12 Jun 2027 03:41:27.491           182.226         91113.000
       343   12 Jun 2027 05:15:45.826   12 Jun 2027 05:16:31.635            45.809         22904.500
       344   12 Jun 2027 05:16:56.086   12 Jun 2027 05:17:27.582            31.496         15566.688
       345   12 Jun 2027 05:18:46.990   12 Jun 2027 05:18:51.719             4.729          2308.000
       346   12 Jun 2027 06:39:14.128   12 Jun 2027 06:39:26.492            12.364          6075.250
       347   12 Jun 2027 06:40:24.950   12 Jun 2027 06:40:28.189             3.239          1524.281
       348   12 Jun 2027 06:40:34.458   12 Jun 2027 06:40:35.236             0.778           195.906
       349   12 Jun 2027 06:41:16.492   12 Jun 2027 06:41:18.165             1.673           829.562
       350   12 Jun 2027 08:15:26.258   12 Jun 2027 08:15:39.255            12.997          5270.750
       351   12 Jun 2027 08:16:03.920   12 Jun 2027 08:16:03.920             0.000             0.000
       352   12 Jun 2027 08:16:07.160   12 Jun 2027 08:16:09.593             2.433           527.125
       353   12 Jun 2027 08:17:03.023   12 Jun 2027 08:17:05.123             2.100           958.500
       354   12 Jun 2027 08:17:53.543   12 Jun 2027 08:17:55.760             2.217           875.469
       355   12 Jun 2027 08:18:32.742   12 Jun 2027 08:18:37.898             5.156           906.094
       356   12 Jun 2027 09:48:59.635   12 Jun 2027 09:49:07.270             7.635          3531.344
       357   12 Jun 2027 09:51:21.906   12 Jun 2027 09:51:24.529             2.623          1033.219
       358   12 Jun 2027 09:52:32.368   12 Jun 2027 09:52:46.193            13.825          2042.750
       359   12 Jun 2027 09:54:53.957   12 Jun 2027 09:55:00.686             6.729          1857.125
       360   12 Jun 2027 09:55:53.182   12 Jun 2027 09:55:55.792             2.610          1283.406
       361   12 Jun 2027 09:55:59.243   12 Jun 2027 09:56:02.144             2.901            81.250
       362   12 Jun 2027 09:57:33.051   12 Jun 2027 09:57:34.040             0.989           494.500
       363   12 Jun 2027 11:26:30.279   12 Jun 2027 11:26:45.348            15.069          6102.812
       364   12 Jun 2027 11:28:31.906   12 Jun 2027 11:28:35.089             3.183          1448.656
       365   12 Jun 2027 11:30:28.682   12 Jun 2027 11:30:36.152             7.470          3398.531
       366   12 Jun 2027 11:30:56.519   12 Jun 2027 11:30:57.426             0.907           406.313
       367   12 Jun 2027 11:31:23.198   12 Jun 2027 11:31:23.638             0.440           195.875
       368   12 Jun 2027 11:31:44.162   12 Jun 2027 11:31:50.622             6.460           331.906
       369   12 Jun 2027 11:32:44.640   12 Jun 2027 11:32:47.495             2.855          1326.563
       370   12 Jun 2027 11:32:59.697   12 Jun 2027 11:33:00.378             0.681           198.219
       371   13 Jun 2027 03:49:23.358   13 Jun 2027 03:49:30.113             6.755          3377.500
       372   13 Jun 2027 03:49:55.353   13 Jun 2027 03:53:16.058           200.705        100352.500
       373   13 Jun 2027 03:54:43.253   13 Jun 2027 03:54:43.980             0.727           363.500
       374   13 Jun 2027 03:55:05.463   13 Jun 2027 03:55:08.465             3.002          1501.000
       375   13 Jun 2027 03:55:22.462   13 Jun 2027 03:55:33.473            11.011          5505.500
       376   13 Jun 2027 05:27:25.653   13 Jun 2027 05:28:59.508            93.855         46927.500
       377   13 Jun 2027 05:29:09.971   13 Jun 2027 05:29:14.880             4.909          2169.500
       378   13 Jun 2027 05:30:05.363   13 Jun 2027 05:30:07.628             2.265           972.094
       379   13 Jun 2027 06:51:04.914   13 Jun 2027 06:51:16.007            11.093          5416.844
       380   13 Jun 2027 06:51:42.750   13 Jun 2027 06:51:45.409             2.659           543.688
       381   13 Jun 2027 06:52:30.132   13 Jun 2027 06:52:30.132             0.000             0.000
       382   13 Jun 2027 06:52:44.015   13 Jun 2027 06:52:50.737             6.722          1241.062
       383   13 Jun 2027 06:53:40.810   13 Jun 2027 06:53:43.920             3.110          1442.406
       384   13 Jun 2027 08:27:31.774   13 Jun 2027 08:27:47.683            15.909          7042.188
       385   13 Jun 2027 08:28:03.907   13 Jun 2027 08:28:03.907             0.000             0.000
       386   13 Jun 2027 08:28:24.131   13 Jun 2027 08:28:26.160             2.029          1002.187
       387   13 Jun 2027 08:28:59.966   13 Jun 2027 08:29:04.540             4.574           355.438
       388   13 Jun 2027 08:29:13.472   13 Jun 2027 08:29:21.438             7.966            49.156
       389   13 Jun 2027 08:30:06.061   13 Jun 2027 08:30:10.888             4.827          1394.469
       390   13 Jun 2027 09:59:40.098   13 Jun 2027 09:59:50.993            10.895          5447.500
       391   13 Jun 2027 10:01:38.759   13 Jun 2027 10:01:39.999             1.240           571.094
       392   13 Jun 2027 10:03:23.716   13 Jun 2027 10:03:37.904            14.188          2350.188
       393   13 Jun 2027 10:04:38.759   13 Jun 2027 10:04:43.006             4.247          1812.219
       394   13 Jun 2027 10:05:28.487   13 Jun 2027 10:05:29.605             1.118           454.750
       395   13 Jun 2027 10:06:40.027   13 Jun 2027 10:06:46.478             6.451          1467.750
       396   13 Jun 2027 10:07:46.291   13 Jun 2027 10:07:48.081             1.790           492.500
       397   13 Jun 2027 10:08:24.363   13 Jun 2027 10:08:24.363             0.000             0.000
       398   13 Jun 2027 10:08:49.870   13 Jun 2027 10:08:54.354             4.484          1834.438
       399   13 Jun 2027 10:09:24.308   13 Jun 2027 10:09:26.643             2.335           936.062
       400   13 Jun 2027 11:38:37.750   13 Jun 2027 11:38:52.918            15.168          5624.438
       401   13 Jun 2027 11:40:20.718   13 Jun 2027 11:40:24.348             3.630          1137.563
       402   13 Jun 2027 11:41:16.772   13 Jun 2027 11:41:20.173             3.401           907.812
       403   13 Jun 2027 11:41:23.383   13 Jun 2027 11:41:25.904             2.521            35.156
       404   13 Jun 2027 11:42:55.902   13 Jun 2027 11:43:01.949             6.047          2058.469
       405   13 Jun 2027 11:43:23.996   13 Jun 2027 11:43:26.214             2.218           110.625
       406   13 Jun 2027 11:44:28.178   13 Jun 2027 11:44:33.402             5.224          1574.875
       407   13 Jun 2027 11:45:03.491   13 Jun 2027 11:45:08.173             4.682           922.812
