uniorb/output/strategy_4/Camera/Camera_KinoSat_111608.txt

KinoSat_111608
-------------------------
    Access    *     Start Time (UTCG)     *     Stop Time (UTCG)  *   Duration (s) *   Data (Mbytes)
         1   01 Jun 2027 04:23:12.039   01 Jun 2027 04:25:31.957           139.918         69959.000
         2   01 Jun 2027 04:27:10.351   01 Jun 2027 04:27:14.744             4.393          2196.500
         3   01 Jun 2027 04:27:40.358   01 Jun 2027 04:27:56.639            16.281          8140.500
         4   01 Jun 2027 05:48:01.693   01 Jun 2027 05:49:13.715            72.022         36011.000
         5   01 Jun 2027 05:59:41.574   01 Jun 2027 06:00:38.983            57.409         28704.500
         6   01 Jun 2027 07:21:59.387   01 Jun 2027 07:23:05.724            66.337         33168.500
         7   01 Jun 2027 07:23:53.309   01 Jun 2027 07:24:37.802            44.493         22246.500
         8   01 Jun 2027 07:25:14.175   01 Jun 2027 07:25:31.864            17.689          8844.500
         9   01 Jun 2027 08:56:53.815   01 Jun 2027 08:58:54.297           120.482         60241.000
        10   01 Jun 2027 08:59:01.380   01 Jun 2027 08:59:17.875            16.495          8247.500
        11   01 Jun 2027 09:02:40.535   01 Jun 2027 09:02:40.535             0.000             0.000
        12   01 Jun 2027 10:34:25.515   01 Jun 2027 10:36:07.849           102.334         51167.000
        13   01 Jun 2027 10:39:55.596   01 Jun 2027 10:39:55.596             0.000             0.000
        14   01 Jun 2027 10:40:15.979   01 Jun 2027 10:41:30.812            74.833         37416.500
        15   02 Jun 2027 03:00:00.000   02 Jun 2027 03:00:37.789            37.789         18894.500
        16   02 Jun 2027 03:01:10.606   02 Jun 2027 03:01:11.758             1.152           576.000
        17   02 Jun 2027 03:01:24.153   02 Jun 2027 03:01:24.153             0.000             0.000
        18   02 Jun 2027 03:01:39.095   02 Jun 2027 03:01:46.473             7.378          3689.000
        19   02 Jun 2027 04:35:16.108   02 Jun 2027 04:37:12.300           116.192         58096.000
        20   02 Jun 2027 04:37:45.145   02 Jun 2027 04:37:49.767             4.622          2311.000
        21   02 Jun 2027 04:38:18.624   02 Jun 2027 04:38:30.177            11.553          5776.500
        22   02 Jun 2027 04:39:00.543   02 Jun 2027 04:39:01.374             0.831           415.500
        23   02 Jun 2027 04:39:07.205   02 Jun 2027 04:39:15.601             8.396          4198.000
        24   02 Jun 2027 04:39:54.889   02 Jun 2027 04:39:59.578             4.689          2344.500
        25   02 Jun 2027 04:41:41.929   02 Jun 2027 04:41:59.673            17.744          8872.000
        26   02 Jun 2027 05:59:35.246   02 Jun 2027 06:00:18.927            43.681         21840.500
        27   02 Jun 2027 06:11:55.818   02 Jun 2027 06:12:15.840            20.022         10011.000
        28   02 Jun 2027 07:33:31.242   02 Jun 2027 07:34:51.410            80.168         40084.000
        29   02 Jun 2027 07:35:39.700   02 Jun 2027 07:37:16.873            97.173         48586.500
        30   02 Jun 2027 07:38:37.671   02 Jun 2027 07:38:48.299            10.628          5314.000
        31   02 Jun 2027 09:08:24.465   02 Jun 2027 09:11:50.689           206.224        103112.000
        32   02 Jun 2027 09:12:45.867   02 Jun 2027 09:12:52.975             7.108          3554.000
        33   02 Jun 2027 09:15:19.898   02 Jun 2027 09:15:19.898             0.000             0.000
        34   02 Jun 2027 09:16:12.822   02 Jun 2027 09:16:12.822             0.000             0.000
        35   02 Jun 2027 09:16:50.380   02 Jun 2027 09:17:47.466            57.086         27663.500
        36   02 Jun 2027 10:46:20.528   02 Jun 2027 10:46:39.198            18.670          5296.719
        37   02 Jun 2027 10:48:07.260   02 Jun 2027 10:48:12.640             5.380          2527.219
        38   02 Jun 2027 10:48:19.461   02 Jun 2027 10:48:21.379             1.918           133.312
        39   02 Jun 2027 10:49:34.955   02 Jun 2027 10:49:41.962             7.007           740.312
        40   02 Jun 2027 10:50:47.561   02 Jun 2027 10:50:47.561             0.000             0.000
        41   02 Jun 2027 10:51:52.616   02 Jun 2027 10:52:00.031             7.415          2855.594
        42   02 Jun 2027 10:52:50.852   02 Jun 2027 10:52:53.274             2.422          1177.156
        43   02 Jun 2027 10:53:03.422   02 Jun 2027 10:53:07.942             4.520             7.156
        44   02 Jun 2027 10:53:34.375   02 Jun 2027 10:53:39.282             4.907           736.469
        45   03 Jun 2027 03:09:10.954   03 Jun 2027 03:09:24.244            13.290          6645.000
        46   03 Jun 2027 03:09:34.099   03 Jun 2027 03:10:16.165            42.066         21033.000
        47   03 Jun 2027 03:10:44.093   03 Jun 2027 03:10:50.655             6.562          3281.000
        48   03 Jun 2027 03:11:05.185   03 Jun 2027 03:11:05.714             0.529           264.500
        49   03 Jun 2027 03:11:23.322   03 Jun 2027 03:11:34.504            11.182          5591.000
        50   03 Jun 2027 03:11:49.848   03 Jun 2027 03:12:19.470            29.622         14811.000
        51   03 Jun 2027 03:13:37.174   03 Jun 2027 03:13:47.480            10.306          5153.000
        52   03 Jun 2027 04:47:42.370   03 Jun 2027 04:48:26.160            43.790         21895.000
        53   03 Jun 2027 04:48:27.055   03 Jun 2027 04:49:42.558            75.503         37751.500
        54   03 Jun 2027 04:50:14.913   03 Jun 2027 04:51:14.510            59.597         29798.500
        55   03 Jun 2027 06:11:31.044   03 Jun 2027 06:12:02.778            31.734         15867.000
        56   03 Jun 2027 06:12:39.878   03 Jun 2027 06:12:50.440            10.562          5147.125
        57   03 Jun 2027 07:47:30.752   03 Jun 2027 07:47:37.551             6.799          3313.563
        58   03 Jun 2027 07:48:17.124   03 Jun 2027 07:48:19.635             2.511           754.187
        59   03 Jun 2027 07:48:58.465   03 Jun 2027 07:49:00.897             2.432          1128.875
        60   03 Jun 2027 07:50:38.179   03 Jun 2027 07:50:48.633            10.454          2234.125
        61   03 Jun 2027 09:21:18.272   03 Jun 2027 09:21:25.641             7.369          3485.375
        62   03 Jun 2027 09:22:53.879   03 Jun 2027 09:22:55.496             1.617           777.500
        63   03 Jun 2027 09:23:35.558   03 Jun 2027 09:23:35.558             0.000             0.000
        64   03 Jun 2027 09:23:50.305   03 Jun 2027 09:23:54.692             4.387           747.625
        65   03 Jun 2027 09:24:56.434   03 Jun 2027 09:24:56.434             0.000             0.000
        66   03 Jun 2027 09:26:12.839   03 Jun 2027 09:26:22.614             9.775          3568.750
        67   03 Jun 2027 09:28:00.366   03 Jun 2027 09:28:04.100             3.734          1480.969
        68   03 Jun 2027 09:28:14.417   03 Jun 2027 09:28:21.246             6.829           290.281
        69   03 Jun 2027 09:29:01.068   03 Jun 2027 09:29:06.068             5.000          1244.437
        70   03 Jun 2027 10:58:32.848   03 Jun 2027 10:58:44.463            11.615          5785.281
        71   03 Jun 2027 11:01:03.020   03 Jun 2027 11:01:09.773             6.753          2219.000
        72   03 Jun 2027 11:01:28.932   03 Jun 2027 11:01:30.659             1.727           538.094
        73   03 Jun 2027 11:02:02.408   03 Jun 2027 11:02:06.255             3.847            32.812
        74   03 Jun 2027 11:03:39.355   03 Jun 2027 11:03:43.848             4.493          2064.313
        75   03 Jun 2027 11:05:05.668   03 Jun 2027 11:05:08.106             2.438          1203.188
        76   03 Jun 2027 11:05:20.906   03 Jun 2027 11:05:22.027             1.121           400.000
        77   04 Jun 2027 03:21:45.205   04 Jun 2027 03:22:12.340            27.135         13567.500
        78   04 Jun 2027 03:22:23.197   04 Jun 2027 03:25:20.619           177.422         88711.000
        79   04 Jun 2027 03:25:36.190   04 Jun 2027 03:25:49.199            13.009          6504.500
        80   04 Jun 2027 03:27:24.520   04 Jun 2027 03:27:27.299             2.779          1389.500
        81   04 Jun 2027 03:27:52.119   04 Jun 2027 03:27:53.932             1.813           906.500
        82   04 Jun 2027 05:00:01.340   04 Jun 2027 05:01:26.602            85.262         42185.500
        83   04 Jun 2027 05:01:58.379   04 Jun 2027 05:02:00.618             2.239           969.531
        84   04 Jun 2027 05:02:34.327   04 Jun 2027 05:02:42.641             8.314           862.313
        85   04 Jun 2027 05:03:25.856   04 Jun 2027 05:03:30.035             4.179          1340.625
        86   04 Jun 2027 05:04:09.386   04 Jun 2027 05:04:11.750             2.364           394.156
        87   04 Jun 2027 05:04:33.273   04 Jun 2027 05:04:35.594             2.321           634.875
        88   04 Jun 2027 06:23:23.166   04 Jun 2027 06:23:31.952             8.786          3327.875
        89   04 Jun 2027 06:24:41.141   04 Jun 2027 06:24:44.627             3.486          1433.781
        90   04 Jun 2027 06:25:07.225   04 Jun 2027 06:25:07.225             0.000             0.000
        91   04 Jun 2027 06:25:34.592   04 Jun 2027 06:25:38.481             3.889          1486.719
        92   04 Jun 2027 06:25:51.046   04 Jun 2027 06:25:52.554             1.508           290.500
        93   04 Jun 2027 06:25:54.013   04 Jun 2027 06:25:57.871             3.858            45.594
        94   04 Jun 2027 07:59:44.795   04 Jun 2027 07:59:56.350            11.555          5675.031
        95   04 Jun 2027 08:00:20.299   04 Jun 2027 08:00:22.973             2.674           351.750
        96   04 Jun 2027 08:01:10.869   04 Jun 2027 08:01:18.586             7.717          1496.750
        97   04 Jun 2027 08:02:38.255   04 Jun 2027 08:02:43.990             5.735          1939.250
        98   04 Jun 2027 09:32:03.312   04 Jun 2027 09:32:11.933             8.621          3999.500
        99   04 Jun 2027 09:32:36.793   04 Jun 2027 09:32:37.520             0.727           363.500
       100   04 Jun 2027 09:34:29.357   04 Jun 2027 09:34:47.966            18.609          3066.375
       101   04 Jun 2027 09:35:44.081   04 Jun 2027 09:35:46.144             2.063           533.063
       102   04 Jun 2027 09:36:20.780   04 Jun 2027 09:36:28.090             7.310           853.375
       103   04 Jun 2027 09:37:02.493   04 Jun 2027 09:37:08.748             6.255           930.094
       104   04 Jun 2027 09:37:47.275   04 Jun 2027 09:37:50.716             3.441           559.656
       105   04 Jun 2027 09:39:00.343   04 Jun 2027 09:39:04.322             3.979          1524.844
       106   04 Jun 2027 09:40:31.514   04 Jun 2027 09:40:32.674             1.160           496.750
       107   04 Jun 2027 09:41:16.394   04 Jun 2027 09:41:19.429             3.035           884.875
       108   04 Jun 2027 09:41:46.454   04 Jun 2027 09:41:46.977             0.523            24.469
       109   04 Jun 2027 11:10:54.029   04 Jun 2027 11:11:03.573             9.544          4755.594
       110   04 Jun 2027 11:14:34.325   04 Jun 2027 11:14:36.467             2.142           916.500
       111   04 Jun 2027 11:15:06.236   04 Jun 2027 11:15:09.143             2.907           370.031
       112   04 Jun 2027 11:15:20.837   04 Jun 2027 11:15:21.265             0.428            95.031
       113   04 Jun 2027 11:15:36.994   04 Jun 2027 11:15:38.606             1.612           375.781
       114   04 Jun 2027 11:16:06.114   04 Jun 2027 11:16:11.864             5.750           569.000
       115   04 Jun 2027 11:16:14.099   04 Jun 2027 11:16:14.559             0.460            69.844
       116   04 Jun 2027 11:16:51.303   04 Jun 2027 11:16:51.992             0.689            66.531
       117   04 Jun 2027 11:16:58.433   04 Jun 2027 11:16:58.836             0.403           126.000
       118   04 Jun 2027 11:17:14.906   04 Jun 2027 11:17:17.319             2.413           369.187
       119   05 Jun 2027 03:33:52.246   05 Jun 2027 03:34:53.349            61.103         30551.500
       120   05 Jun 2027 03:34:58.950   05 Jun 2027 03:36:30.037            91.087         45543.500
       121   05 Jun 2027 03:36:35.802   05 Jun 2027 03:36:49.529            13.727          6863.500
       122   05 Jun 2027 03:37:20.005   05 Jun 2027 03:37:40.112            20.107         10053.500
       123   05 Jun 2027 03:37:46.093   05 Jun 2027 03:37:50.446             4.353          2176.500
       124   05 Jun 2027 05:12:53.796   05 Jun 2027 05:14:38.236           104.440         52220.000
       125   05 Jun 2027 05:15:46.920   05 Jun 2027 05:15:51.167             4.247          2123.500
       126   05 Jun 2027 06:35:26.617   05 Jun 2027 06:35:38.321            11.704          5810.844
       127   05 Jun 2027 06:36:48.557   05 Jun 2027 06:36:53.226             4.669          1991.406
       128   05 Jun 2027 06:37:23.088   05 Jun 2027 06:37:23.088             0.000             0.000
       129   05 Jun 2027 08:11:52.029   05 Jun 2027 08:11:58.902             6.873          3397.156
       130   05 Jun 2027 08:12:44.493   05 Jun 2027 08:12:48.003             3.510           887.875
       131   05 Jun 2027 08:13:26.296   05 Jun 2027 08:13:28.891             2.595          1046.125
       132   05 Jun 2027 08:13:36.184   05 Jun 2027 08:13:37.439             1.255           227.906
       133   05 Jun 2027 09:47:00.175   05 Jun 2027 09:47:08.033             7.858          3468.750
       134   05 Jun 2027 09:48:05.548   05 Jun 2027 09:48:14.805             9.257           933.156
       135   05 Jun 2027 09:48:22.615   05 Jun 2027 09:48:23.187             0.572           244.063
       136   05 Jun 2027 09:50:09.360   05 Jun 2027 09:50:14.637             5.277          1815.531
       137   05 Jun 2027 09:52:16.371   05 Jun 2027 09:52:25.376             9.005          2924.719
       138   05 Jun 2027 09:53:02.186   05 Jun 2027 09:53:03.737             1.551           560.375
       139   05 Jun 2027 09:53:41.081   05 Jun 2027 09:53:46.012             4.931           277.125
       140   05 Jun 2027 11:23:21.831   05 Jun 2027 11:23:30.264             8.433          4140.687
       141   05 Jun 2027 11:25:00.936   05 Jun 2027 11:25:06.018             5.082          1583.875
       142   05 Jun 2027 11:25:27.399   05 Jun 2027 11:25:28.778             1.379           347.844
       143   05 Jun 2027 11:25:43.831   05 Jun 2027 11:25:44.516             0.685           124.812
       144   05 Jun 2027 11:26:38.650   05 Jun 2027 11:26:41.213             2.563           962.344
       145   05 Jun 2027 11:27:18.449   05 Jun 2027 11:27:19.994             1.545           685.781
       146   05 Jun 2027 11:27:27.650   05 Jun 2027 11:27:28.311             0.661           222.219
       147   05 Jun 2027 11:27:35.836   05 Jun 2027 11:27:41.940             6.104            81.375
       148   05 Jun 2027 11:28:48.563   05 Jun 2027 11:28:55.942             7.379          1701.187
       149   05 Jun 2027 11:29:00.303   05 Jun 2027 11:29:00.677             0.374           136.281
       150   05 Jun 2027 11:29:33.589   05 Jun 2027 11:29:35.569             1.980           611.250
       151   06 Jun 2027 03:45:49.290   06 Jun 2027 03:46:38.981            49.691         24845.500
       152   06 Jun 2027 03:46:55.992   06 Jun 2027 03:49:10.214           134.222         67111.000
       153   06 Jun 2027 05:24:03.617   06 Jun 2027 05:24:40.804            37.187         18593.500
       154   06 Jun 2027 05:24:53.404   06 Jun 2027 05:26:08.837            75.433         37255.625
       155   06 Jun 2027 05:26:52.137   06 Jun 2027 05:26:55.527             3.390          1079.156
       156   06 Jun 2027 05:27:04.709   06 Jun 2027 05:27:07.132             2.423           286.937
       157   06 Jun 2027 05:27:42.833   06 Jun 2027 05:27:43.484             0.651           325.500
       158   06 Jun 2027 06:47:24.287   06 Jun 2027 06:47:36.991            12.704          5945.969
       159   06 Jun 2027 06:48:14.413   06 Jun 2027 06:48:15.698             1.285           270.063
       160   06 Jun 2027 06:48:24.239   06 Jun 2027 06:48:24.239             0.000             0.000
       161   06 Jun 2027 06:48:53.207   06 Jun 2027 06:48:54.960             1.753           876.500
       162   06 Jun 2027 06:50:06.564   06 Jun 2027 06:50:17.849            11.285          2446.063
       163   06 Jun 2027 08:24:01.542   06 Jun 2027 08:24:09.566             8.024          2583.813
       164   06 Jun 2027 08:24:46.923   06 Jun 2027 08:24:50.805             3.882          1148.531
       165   06 Jun 2027 08:25:27.483   06 Jun 2027 08:25:29.121             1.638           213.500
       166   06 Jun 2027 08:26:27.447   06 Jun 2027 08:26:33.685             6.238          1822.688
       167   06 Jun 2027 08:26:52.345   06 Jun 2027 08:26:54.173             1.828           488.656
       168   06 Jun 2027 09:59:11.460   06 Jun 2027 09:59:19.511             8.051          3625.031
       169   06 Jun 2027 10:00:24.085   06 Jun 2027 10:00:28.157             4.072          1867.250
       170   06 Jun 2027 10:00:50.723   06 Jun 2027 10:00:53.834             3.111           339.375
       171   06 Jun 2027 10:02:06.087   06 Jun 2027 10:02:09.111             3.024          1350.500
       172   06 Jun 2027 10:04:16.595   06 Jun 2027 10:04:25.715             9.120          3742.156
       173   06 Jun 2027 10:04:58.223   06 Jun 2027 10:05:01.815             3.592           517.563
       174   06 Jun 2027 10:05:34.690   06 Jun 2027 10:05:37.790             3.100           839.125
       175   06 Jun 2027 11:35:28.979   06 Jun 2027 11:35:40.825            11.846          5594.344
       176   06 Jun 2027 11:36:54.352   06 Jun 2027 11:36:59.475             5.123          1052.563
       177   06 Jun 2027 11:38:01.624   06 Jun 2027 11:38:08.724             7.100           697.344
       178   06 Jun 2027 11:38:22.583   06 Jun 2027 11:38:26.020             3.437           309.250
       179   06 Jun 2027 11:38:58.643   06 Jun 2027 11:39:01.929             3.286          1016.969
       180   06 Jun 2027 11:39:31.339   06 Jun 2027 11:39:35.186             3.847           548.250
       181   06 Jun 2027 11:39:51.216   06 Jun 2027 11:39:52.626             1.410           154.031
       182   06 Jun 2027 11:40:43.460   06 Jun 2027 11:40:46.716             3.256          1373.656
       183   06 Jun 2027 11:40:53.620   06 Jun 2027 11:40:54.133             0.513            84.906
       184   06 Jun 2027 11:41:02.304   06 Jun 2027 11:41:05.289             2.985           157.656
       185   06 Jun 2027 11:41:21.744   06 Jun 2027 11:41:28.529             6.785           407.781
       186   07 Jun 2027 03:58:54.833   07 Jun 2027 04:01:19.781           144.948         72474.000
       187   07 Jun 2027 04:01:28.228   07 Jun 2027 04:01:43.471            15.243          7621.500
       188   07 Jun 2027 04:02:19.028   07 Jun 2027 04:02:29.685            10.657          5328.500
       189   07 Jun 2027 04:02:45.997   07 Jun 2027 04:03:00.695            14.698          7349.000
       190   07 Jun 2027 04:03:17.705   07 Jun 2027 04:03:17.991             0.286           143.000
       191   07 Jun 2027 04:03:51.522   07 Jun 2027 04:03:53.294             1.772           886.000
       192   07 Jun 2027 04:05:48.134   07 Jun 2027 04:06:32.841            44.707         22353.500
       193   07 Jun 2027 05:25:15.733   07 Jun 2027 05:25:24.153             8.420          4210.000
       194   07 Jun 2027 05:36:00.860   07 Jun 2027 05:36:42.998            42.138         21069.000
       195   07 Jun 2027 05:36:48.743   07 Jun 2027 05:38:02.500            73.757         36563.157
       196   07 Jun 2027 05:39:26.752   07 Jun 2027 05:39:30.767             4.015          2006.031
       197   07 Jun 2027 07:00:00.586   07 Jun 2027 07:00:17.609            17.023          8357.719
       198   07 Jun 2027 07:00:28.322   07 Jun 2027 07:00:28.322             0.000             0.000
       199   07 Jun 2027 07:00:52.557   07 Jun 2027 07:00:54.530             1.973           814.031
       200   07 Jun 2027 07:02:01.601   07 Jun 2027 07:02:01.601             0.000             0.000
       201   07 Jun 2027 08:35:45.440   07 Jun 2027 08:35:55.928            10.488          4477.437
       202   07 Jun 2027 08:37:52.501   07 Jun 2027 08:37:59.706             7.205          3455.750
       203   07 Jun 2027 08:38:07.875   07 Jun 2027 08:38:10.132             2.257            25.094
       204   07 Jun 2027 08:38:34.791   07 Jun 2027 08:38:36.287             1.496           497.594
       205   07 Jun 2027 10:10:37.308   07 Jun 2027 10:10:45.135             7.827          2987.656
       206   07 Jun 2027 10:13:09.034   07 Jun 2027 10:13:12.044             3.010          1371.625
       207   07 Jun 2027 10:13:37.470   07 Jun 2027 10:13:37.955             0.485           170.969
       208   07 Jun 2027 10:14:01.459   07 Jun 2027 10:14:01.459             0.000             0.000
       209   07 Jun 2027 10:16:16.199   07 Jun 2027 10:16:25.806             9.607          4728.750
       210   07 Jun 2027 10:16:48.385   07 Jun 2027 10:16:50.963             2.578           705.594
       211   07 Jun 2027 10:17:08.442   07 Jun 2027 10:17:11.257             2.815           257.125
       212   07 Jun 2027 10:17:53.154   07 Jun 2027 10:17:56.924             3.770           898.719
       213   07 Jun 2027 11:47:12.223   07 Jun 2027 11:47:30.983            18.760          8418.594
       214   07 Jun 2027 11:48:50.750   07 Jun 2027 11:48:59.407             8.657           477.500
       215   07 Jun 2027 11:49:04.459   07 Jun 2027 11:49:04.982             0.523           157.875
       216   07 Jun 2027 11:50:07.397   07 Jun 2027 11:50:11.092             3.695          1847.500
       217   07 Jun 2027 11:50:57.738   07 Jun 2027 11:51:03.789             6.051          1560.656
       218   07 Jun 2027 11:51:20.361   07 Jun 2027 11:51:22.060             1.699           449.656
       219   07 Jun 2027 11:52:41.510   07 Jun 2027 11:52:45.202             3.692          1169.531
       220   07 Jun 2027 11:53:04.397   07 Jun 2027 11:53:06.661             2.264           190.938
       221   07 Jun 2027 11:53:15.249   07 Jun 2027 11:53:15.411             0.162            53.187
       222   07 Jun 2027 11:53:16.025   07 Jun 2027 11:53:17.308             1.283            17.719
       223   08 Jun 2027 04:11:15.446   08 Jun 2027 04:14:01.670           166.224         83112.000
       224   08 Jun 2027 05:36:32.880   08 Jun 2027 05:37:19.203            46.323         23161.500
       225   08 Jun 2027 05:47:59.222   08 Jun 2027 05:48:54.822            55.600         27800.000
       226   08 Jun 2027 07:10:38.625   08 Jun 2027 07:11:37.571            58.946         29473.000
       227   08 Jun 2027 07:12:43.332   08 Jun 2027 07:12:50.059             6.727          3219.406
       228   08 Jun 2027 07:13:28.900   08 Jun 2027 07:13:28.900             0.000             0.000
       229   08 Jun 2027 07:13:54.779   08 Jun 2027 07:14:02.516             7.737          1900.500
       230   08 Jun 2027 07:14:58.022   08 Jun 2027 07:15:13.312            15.290          1613.437
       231   08 Jun 2027 08:45:59.734   08 Jun 2027 08:46:03.035             3.301          1650.500
       232   08 Jun 2027 08:46:53.396   08 Jun 2027 08:46:56.639             3.243          1621.500
       233   08 Jun 2027 08:47:30.837   08 Jun 2027 08:47:32.384             1.547           768.594
       234   08 Jun 2027 08:49:32.093   08 Jun 2027 08:49:40.487             8.394          3182.156
       235   08 Jun 2027 08:50:33.001   08 Jun 2027 08:50:33.001             0.000             0.000
       236   08 Jun 2027 08:50:55.522   08 Jun 2027 08:51:01.972             6.450           800.187
       237   08 Jun 2027 10:22:27.799   08 Jun 2027 10:22:40.009            12.210          3079.281
       238   08 Jun 2027 10:24:25.715   08 Jun 2027 10:24:34.010             8.295          3110.938
       239   08 Jun 2027 10:25:55.122   08 Jun 2027 10:25:55.239             0.117            58.500
       240   08 Jun 2027 10:26:53.488   08 Jun 2027 10:27:02.787             9.299          2143.781
       241   08 Jun 2027 10:27:31.200   08 Jun 2027 10:27:34.229             3.029           806.594
       242   08 Jun 2027 10:27:45.462   08 Jun 2027 10:27:50.019             4.557           330.812
       243   08 Jun 2027 10:28:34.312   08 Jun 2027 10:28:38.229             3.917          1192.688
       244   08 Jun 2027 10:29:17.923   08 Jun 2027 10:29:18.843             0.920            24.031
       245   08 Jun 2027 10:29:25.598   08 Jun 2027 10:29:28.600             3.002           209.875
       246   08 Jun 2027 11:59:33.759   08 Jun 2027 11:59:48.900            15.141          7380.062
       247   09 Jun 2027 04:23:29.648   09 Jun 2027 04:24:49.421            79.773         39886.500
       248   09 Jun 2027 04:25:20.712   09 Jun 2027 04:26:12.828            52.116         26058.000
       249   09 Jun 2027 04:28:44.496   09 Jun 2027 04:28:48.747             4.251          2125.500
       250   09 Jun 2027 04:29:13.775   09 Jun 2027 04:29:13.775             0.000             0.000
       251   09 Jun 2027 04:30:18.736   09 Jun 2027 04:30:35.329            16.593          8296.500
       252   09 Jun 2027 05:47:46.878   09 Jun 2027 05:48:15.545            28.667         14333.500
       253   09 Jun 2027 05:59:58.522   09 Jun 2027 06:00:56.938            58.416         29208.000
       254   09 Jun 2027 07:22:14.981   09 Jun 2027 07:23:21.751            66.770         33385.000
       255   09 Jun 2027 07:24:10.460   09 Jun 2027 07:24:23.668            13.208          6012.532
       256   09 Jun 2027 07:24:30.877   09 Jun 2027 07:24:32.963             2.086           205.437
       257   09 Jun 2027 07:25:32.240   09 Jun 2027 07:25:36.433             4.193          1545.188
       258   09 Jun 2027 08:57:08.785   09 Jun 2027 08:57:16.945             8.160          3783.312
       259   09 Jun 2027 08:58:18.333   09 Jun 2027 08:58:18.809             0.476           131.719
       260   09 Jun 2027 08:58:44.412   09 Jun 2027 08:58:46.574             2.162           800.094
       261   09 Jun 2027 08:59:33.117   09 Jun 2027 08:59:33.117             0.000             0.000
       262   09 Jun 2027 09:00:50.414   09 Jun 2027 09:00:59.397             8.983          3704.250
       263   09 Jun 2027 09:02:30.491   09 Jun 2027 09:02:37.719             7.228          2524.406
       264   09 Jun 2027 09:03:03.162   09 Jun 2027 09:03:06.252             3.090           753.281
       265   09 Jun 2027 09:03:45.155   09 Jun 2027 09:03:46.709             1.554           110.281
       266   09 Jun 2027 09:05:12.599   09 Jun 2027 09:05:15.821             3.222          1104.250
       267   09 Jun 2027 10:34:42.271   09 Jun 2027 10:34:54.595            12.324          4348.656
       268   09 Jun 2027 10:36:41.945   09 Jun 2027 10:36:45.066             3.121           903.219
       269   09 Jun 2027 10:38:09.336   09 Jun 2027 10:38:12.711             3.375           861.219
       270   09 Jun 2027 10:38:22.272   09 Jun 2027 10:38:29.666             7.394           183.250
       271   09 Jun 2027 10:39:41.875   09 Jun 2027 10:39:45.892             4.017          1126.469
       272   09 Jun 2027 10:40:15.994   09 Jun 2027 10:40:18.873             2.879           595.688
       273   09 Jun 2027 10:40:31.921   09 Jun 2027 10:40:43.019            11.098           268.656
       274   09 Jun 2027 10:41:10.460   09 Jun 2027 10:41:11.680             1.220           196.437
       275   09 Jun 2027 10:41:44.534   09 Jun 2027 10:41:50.749             6.215           662.687
       276   09 Jun 2027 10:42:01.986   09 Jun 2027 10:42:02.283             0.297           148.500
       277   10 Jun 2027 03:00:00.000   10 Jun 2027 03:00:16.515            16.515          8257.500
       278   10 Jun 2027 03:01:26.243   10 Jun 2027 03:01:39.182            12.939          6469.500
       279   10 Jun 2027 03:02:05.481   10 Jun 2027 03:02:17.445            11.964          5982.000
       280   10 Jun 2027 04:35:34.697   10 Jun 2027 04:38:16.785           162.088         81044.000
       281   10 Jun 2027 04:39:15.997   10 Jun 2027 04:39:34.857            18.860          9430.000
       282   10 Jun 2027 04:40:48.650   10 Jun 2027 04:41:01.401            12.751          6375.500
       283   10 Jun 2027 05:59:52.294   10 Jun 2027 06:00:22.426            30.132         15066.000
       284   10 Jun 2027 06:01:34.632   10 Jun 2027 06:01:45.890            11.258          5629.000
       285   10 Jun 2027 06:12:14.357   10 Jun 2027 06:12:31.350            16.993          8496.500
       286   10 Jun 2027 07:33:44.556   10 Jun 2027 07:34:45.284            60.728         29840.594
       287   10 Jun 2027 07:35:43.868   10 Jun 2027 07:35:49.802             5.934          1037.219
       288   10 Jun 2027 07:35:56.634   10 Jun 2027 07:35:57.904             1.270           146.344
       289   10 Jun 2027 07:36:41.616   10 Jun 2027 07:36:43.157             1.541           716.969
       290   10 Jun 2027 07:37:31.893   10 Jun 2027 07:37:31.893             0.000             0.000
       291   10 Jun 2027 07:37:37.625   10 Jun 2027 07:37:42.103             4.478          1243.187
       292   10 Jun 2027 07:38:54.873   10 Jun 2027 07:38:59.574             4.701          2184.313
       293   10 Jun 2027 07:39:05.781   10 Jun 2027 07:39:08.140             2.359            92.906
       294   10 Jun 2027 09:08:39.510   10 Jun 2027 09:08:45.244             5.734          2206.156
       295   10 Jun 2027 09:09:29.002   10 Jun 2027 09:09:33.185             4.183           220.344
       296   10 Jun 2027 09:10:51.754   10 Jun 2027 09:11:01.388             9.634           190.437
       297   10 Jun 2027 09:12:21.971   10 Jun 2027 09:12:28.312             6.341          2397.500
       298   10 Jun 2027 09:13:10.866   10 Jun 2027 09:13:13.734             2.868          1140.187
       299   10 Jun 2027 09:15:38.112   10 Jun 2027 09:15:48.349            10.237          2112.000
       300   10 Jun 2027 09:17:07.204   10 Jun 2027 09:17:11.559             4.355          1703.063
       301   10 Jun 2027 10:46:36.423   10 Jun 2027 10:46:48.339            11.916          4550.969
       302   10 Jun 2027 10:47:03.864   10 Jun 2027 10:47:11.544             7.680           485.156
       303   10 Jun 2027 10:49:34.880   10 Jun 2027 10:49:34.880             0.000             0.000
       304   10 Jun 2027 10:50:41.286   10 Jun 2027 10:50:50.166             8.880          4257.031
       305   10 Jun 2027 10:51:03.514   10 Jun 2027 10:51:05.584             2.070           328.656
       306   10 Jun 2027 10:52:09.960   10 Jun 2027 10:52:13.968             4.008          1920.406
       307   10 Jun 2027 10:52:28.365   10 Jun 2027 10:52:35.487             7.122           449.906
       308   10 Jun 2027 10:53:18.068   10 Jun 2027 10:53:22.651             4.583           967.375
       309   10 Jun 2027 10:53:49.848   10 Jun 2027 10:53:54.048             4.200           704.813
       310   11 Jun 2027 03:09:28.488   11 Jun 2027 03:10:58.211            89.723         44861.500
       311   11 Jun 2027 03:11:23.785   11 Jun 2027 03:11:29.113             5.328          2664.000
       312   11 Jun 2027 03:12:34.753   11 Jun 2027 03:12:42.212             7.459          3729.500
       313   11 Jun 2027 03:12:52.451   11 Jun 2027 03:13:03.933            11.482          5741.000
       314   11 Jun 2027 03:14:59.425   11 Jun 2027 03:15:04.994             5.569          2784.500
       315   11 Jun 2027 04:47:59.407   11 Jun 2027 04:48:34.165            34.758         17379.000
       316   11 Jun 2027 04:48:44.757   11 Jun 2027 04:50:29.625           104.868         52434.000
       317   11 Jun 2027 04:51:30.719   11 Jun 2027 04:52:15.822            45.103         22084.063
       318   11 Jun 2027 06:11:48.798   11 Jun 2027 06:12:11.949            23.151         11038.781
       319   11 Jun 2027 06:13:53.237   11 Jun 2027 06:13:57.548             4.311          2155.500
       320   11 Jun 2027 07:47:47.849   11 Jun 2027 07:48:01.320            13.471          6364.250
       321   11 Jun 2027 07:48:31.122   11 Jun 2027 07:48:33.904             2.782           536.500
       322   11 Jun 2027 07:48:38.769   11 Jun 2027 07:48:39.625             0.856           152.031
       323   11 Jun 2027 07:48:59.761   11 Jun 2027 07:48:59.761             0.000             0.000
       324   11 Jun 2027 07:49:45.127   11 Jun 2027 07:49:50.378             5.251          2046.938
       325   11 Jun 2027 07:50:08.417   11 Jun 2027 07:50:10.116             1.699           237.156
       326   11 Jun 2027 07:50:38.614   11 Jun 2027 07:50:41.040             2.426            54.125
       327   11 Jun 2027 09:21:33.521   11 Jun 2027 09:21:41.225             7.704          2360.594
       328   11 Jun 2027 09:23:37.740   11 Jun 2027 09:23:40.462             2.722           793.969
       329   11 Jun 2027 09:23:53.959   11 Jun 2027 09:23:55.757             1.798           277.594
       330   11 Jun 2027 09:24:50.962   11 Jun 2027 09:24:54.249             3.287          1455.969
       331   11 Jun 2027 09:26:29.921   11 Jun 2027 09:26:38.277             8.356          2355.344
       332   11 Jun 2027 09:27:48.172   11 Jun 2027 09:27:53.744             5.572          2184.219
       333   11 Jun 2027 09:28:40.720   11 Jun 2027 09:28:42.968             2.248          1100.281
       334   11 Jun 2027 09:29:42.675   11 Jun 2027 09:29:50.270             7.595          1692.031
       335   11 Jun 2027 10:58:57.035   11 Jun 2027 10:59:10.049            13.014          5682.625
       336   11 Jun 2027 11:01:00.177   11 Jun 2027 11:01:04.503             4.326          1376.031
       337   11 Jun 2027 11:03:10.259   11 Jun 2027 11:03:10.259             0.000             0.000
       338   11 Jun 2027 11:03:35.735   11 Jun 2027 11:03:44.808             9.073          4281.969
       339   11 Jun 2027 11:03:59.158   11 Jun 2027 11:04:00.485             1.327           113.281
       340   11 Jun 2027 11:04:59.438   11 Jun 2027 11:05:07.330             7.892          1326.750
       341   11 Jun 2027 11:05:30.734   11 Jun 2027 11:05:34.028             3.294           584.531
       342   12 Jun 2027 03:22:01.552   12 Jun 2027 03:22:28.172            26.620         13310.000
       343   12 Jun 2027 03:22:39.207   12 Jun 2027 03:25:02.691           143.484         71742.000
       344   12 Jun 2027 03:27:02.654   12 Jun 2027 03:27:02.654             0.000             0.000
       345   12 Jun 2027 03:27:23.928   12 Jun 2027 03:27:27.446             3.518          1759.000
       346   12 Jun 2027 03:28:08.308   12 Jun 2027 03:28:11.062             2.754          1377.000
       347   12 Jun 2027 05:00:18.064   12 Jun 2027 05:02:16.295           118.231         59115.500
       348   12 Jun 2027 05:02:24.305   12 Jun 2027 05:02:31.197             6.892          2989.687
       349   12 Jun 2027 05:02:58.851   12 Jun 2027 05:03:01.978             3.127           324.656
       350   12 Jun 2027 05:03:40.082   12 Jun 2027 05:03:43.571             3.489          1031.063
       351   12 Jun 2027 05:04:24.280   12 Jun 2027 05:04:25.667             1.387           349.625
       352   12 Jun 2027 05:04:49.738   12 Jun 2027 05:04:51.312             1.574           718.844
       353   12 Jun 2027 06:23:40.247   12 Jun 2027 06:23:52.833            12.586          5949.719
       354   12 Jun 2027 06:24:57.776   12 Jun 2027 06:25:00.904             3.128          1487.125
       355   12 Jun 2027 06:25:51.845   12 Jun 2027 06:25:56.268             4.423          1461.750
       356   12 Jun 2027 08:00:02.397   12 Jun 2027 08:00:19.286            16.889          6210.875
       357   12 Jun 2027 08:00:36.626   12 Jun 2027 08:00:36.754             0.128            64.000
       358   12 Jun 2027 08:00:55.295   12 Jun 2027 08:00:57.860             2.565           795.562
       359   12 Jun 2027 08:01:03.581   12 Jun 2027 08:01:04.994             1.413            61.344
       360   12 Jun 2027 08:01:28.789   12 Jun 2027 08:01:33.672             4.883            28.187
       361   12 Jun 2027 08:02:55.384   12 Jun 2027 08:03:02.266             6.882          1892.062
       362   12 Jun 2027 09:34:06.426   12 Jun 2027 09:34:13.596             7.170          3164.094
       363   12 Jun 2027 09:36:12.124   12 Jun 2027 09:36:13.877             1.753           373.094
       364   12 Jun 2027 09:36:52.291   12 Jun 2027 09:37:02.030             9.739           419.281
       365   12 Jun 2027 09:38:28.567   12 Jun 2027 09:38:34.597             6.030          2116.344
       366   12 Jun 2027 09:40:33.384   12 Jun 2027 09:40:42.159             8.775          2425.000
       367   12 Jun 2027 09:41:07.158   12 Jun 2027 09:41:09.621             2.463           525.625
       368   12 Jun 2027 09:41:59.744   12 Jun 2027 09:42:02.552             2.808           772.375
       369   12 Jun 2027 11:11:11.015   12 Jun 2027 11:11:23.325            12.310          4767.938
       370   12 Jun 2027 11:13:16.938   12 Jun 2027 11:13:18.924             1.986           904.250
       371   12 Jun 2027 11:13:53.512   12 Jun 2027 11:13:55.116             1.604           713.812
       372   12 Jun 2027 11:14:22.408   12 Jun 2027 11:14:30.565             8.157           717.094
       373   12 Jun 2027 11:15:45.738   12 Jun 2027 11:15:50.946             5.208          1698.438
       374   12 Jun 2027 11:16:06.195   12 Jun 2027 11:16:08.443             2.248           409.406
       375   12 Jun 2027 11:17:09.627   12 Jun 2027 11:17:13.425             3.798          1861.063
       376   12 Jun 2027 11:17:47.575   12 Jun 2027 11:17:53.507             5.932          1067.188
       377   13 Jun 2027 03:34:07.818   13 Jun 2027 03:35:09.256            61.438         30719.000
       378   13 Jun 2027 03:35:15.404   13 Jun 2027 03:36:53.864            98.460         49230.000
       379   13 Jun 2027 03:37:27.240   13 Jun 2027 03:37:35.423             8.183          4091.500
       380   13 Jun 2027 03:37:38.201   13 Jun 2027 03:38:05.525            27.324         13662.000
       381   13 Jun 2027 03:39:08.699   13 Jun 2027 03:39:30.258            21.559         10779.500
       382   13 Jun 2027 03:40:12.049   13 Jun 2027 03:40:20.708             8.659          4329.500
       383   13 Jun 2027 05:13:25.547   13 Jun 2027 05:15:07.929           102.382         51191.000
       384   13 Jun 2027 05:16:01.712   13 Jun 2027 05:16:06.547             4.835          2215.031
       385   13 Jun 2027 06:35:44.008   13 Jun 2027 06:35:56.970            12.962          5498.625
       386   13 Jun 2027 06:37:06.627   13 Jun 2027 06:37:12.282             5.655          2092.812
       387   13 Jun 2027 06:37:38.274   13 Jun 2027 06:37:40.085             1.811           812.250
       388   13 Jun 2027 08:12:13.190   13 Jun 2027 08:12:21.229             8.039          4012.312
       389   13 Jun 2027 08:13:03.361   13 Jun 2027 08:13:03.361             0.000             0.000
       390   13 Jun 2027 08:13:03.372   13 Jun 2027 08:13:06.973             3.601           970.500
       391   13 Jun 2027 08:13:43.480   13 Jun 2027 08:13:45.758             2.278          1053.250
       392   13 Jun 2027 08:13:51.618   13 Jun 2027 08:13:51.997             0.379           183.125
       393   13 Jun 2027 08:14:54.891   13 Jun 2027 08:15:04.573             9.682          1501.656
       394   13 Jun 2027 09:47:18.189   13 Jun 2027 09:47:24.457             6.268          2687.031
       395   13 Jun 2027 09:48:24.667   13 Jun 2027 09:48:33.722             9.055          1032.312
       396   13 Jun 2027 09:48:40.674   13 Jun 2027 09:48:46.128             5.454           217.250
       397   13 Jun 2027 09:50:26.297   13 Jun 2027 09:50:30.241             3.944          1763.719
       398   13 Jun 2027 09:50:57.878   13 Jun 2027 09:50:59.539             1.661           686.469
       399   13 Jun 2027 09:51:04.384   13 Jun 2027 09:51:11.858             7.474           150.500
       400   13 Jun 2027 09:52:04.193   13 Jun 2027 09:52:09.833             5.640          1053.281
       401   13 Jun 2027 09:52:34.979   13 Jun 2027 09:52:36.435             1.456           627.844
       402   13 Jun 2027 09:53:21.323   13 Jun 2027 09:53:24.137             2.814           825.969
       403   13 Jun 2027 09:53:47.557   13 Jun 2027 09:53:50.742             3.185           209.562
       404   13 Jun 2027 09:53:57.650   13 Jun 2027 09:53:58.441             0.791           198.406
       405   13 Jun 2027 11:23:40.254   13 Jun 2027 11:23:49.544             9.290          4400.219
       406   13 Jun 2027 11:26:55.940   13 Jun 2027 11:27:02.936             6.996           960.563
       407   13 Jun 2027 11:27:35.338   13 Jun 2027 11:27:36.825             1.487           711.375
       408   13 Jun 2027 11:28:04.210   13 Jun 2027 11:28:06.803             2.593           648.500
       409   13 Jun 2027 11:29:05.463   13 Jun 2027 11:29:11.159             5.696          1660.500
       410   13 Jun 2027 11:29:16.992   13 Jun 2027 11:29:18.913             1.921           182.281
       411   13 Jun 2027 11:29:36.197   13 Jun 2027 11:29:37.424             1.227           537.219
