uniorb/output/strategy_4/Camera/Camera_KinoSat_110602.txt

KinoSat_110602
-------------------------
    Access    *     Start Time (UTCG)     *     Stop Time (UTCG)  *   Duration (s) *   Data (Mbytes)
         1   01 Jun 2027 04:10:56.361   01 Jun 2027 04:11:51.458            55.097         27548.500
         2   01 Jun 2027 04:12:26.956   01 Jun 2027 04:13:05.682            38.726         19363.000
         3   01 Jun 2027 04:13:07.901   01 Jun 2027 04:13:21.893            13.992          6996.000
         4   01 Jun 2027 05:47:21.691   01 Jun 2027 05:49:39.095           137.404         68702.000
         5   01 Jun 2027 05:50:08.280   01 Jun 2027 05:50:22.707            14.427          7213.500
         6   01 Jun 2027 05:51:06.835   01 Jun 2027 05:51:26.787            19.952          9976.000
         7   01 Jun 2027 07:24:27.800   01 Jun 2027 07:25:31.438            63.638         31819.000
         8   01 Jun 2027 07:25:43.799   01 Jun 2027 07:27:15.790            91.991         45995.500
         9   01 Jun 2027 07:28:02.235   01 Jun 2027 07:28:11.523             9.288          4644.000
        10   01 Jun 2027 07:30:42.007   01 Jun 2027 07:30:44.787             2.780          1390.000
        11   01 Jun 2027 09:02:23.002   01 Jun 2027 09:05:23.246           180.244         90122.000
        12   01 Jun 2027 09:05:56.136   01 Jun 2027 09:05:58.930             2.794          1397.000
        13   01 Jun 2027 10:35:28.805   01 Jun 2027 10:37:45.640           136.835         68417.500
        14   01 Jun 2027 10:37:48.771   01 Jun 2027 10:38:33.909            45.138         22569.000
        15   01 Jun 2027 10:41:30.812   01 Jun 2027 10:41:38.915             8.103          4051.500
        16   01 Jun 2027 10:42:41.609   01 Jun 2027 10:42:50.894             9.285          4642.500
        17   02 Jun 2027 04:22:05.932   02 Jun 2027 04:23:43.475            97.543         48771.500
        18   02 Jun 2027 04:23:55.130   02 Jun 2027 04:23:55.130             0.000             0.000
        19   02 Jun 2027 04:24:06.044   02 Jun 2027 04:24:06.290             0.246           123.000
        20   02 Jun 2027 04:24:13.167   02 Jun 2027 04:24:19.275             6.108          3054.000
        21   02 Jun 2027 04:25:12.063   02 Jun 2027 04:25:15.364             3.301          1650.500
        22   02 Jun 2027 04:25:26.035   02 Jun 2027 04:25:27.485             1.450           725.000
        23   02 Jun 2027 04:30:10.643   02 Jun 2027 04:30:16.275             5.632          2816.000
        24   02 Jun 2027 04:30:17.692   02 Jun 2027 04:30:32.673            14.981          7490.500
        25   02 Jun 2027 05:59:37.426   02 Jun 2027 06:02:11.465           154.039         77019.500
        26   02 Jun 2027 06:02:13.329   02 Jun 2027 06:02:16.344             3.015          1507.500
        27   02 Jun 2027 06:02:34.000   02 Jun 2027 06:02:54.803            20.803         10401.500
        28   02 Jun 2027 06:05:26.619   02 Jun 2027 06:05:52.557            25.938         12969.000
        29   02 Jun 2027 07:36:23.218   02 Jun 2027 07:39:31.402           188.184         94092.000
        30   02 Jun 2027 07:40:34.657   02 Jun 2027 07:40:43.926             9.269          4634.500
        31   02 Jun 2027 07:41:19.019   02 Jun 2027 07:41:26.116             7.097          3548.500
        32   02 Jun 2027 07:41:51.402   02 Jun 2027 07:42:34.500            43.098         21549.000
        33   02 Jun 2027 07:42:38.460   02 Jun 2027 07:42:57.036            18.576          9288.000
        34   02 Jun 2027 09:14:22.734   02 Jun 2027 09:17:00.026           157.292         77976.063
        35   02 Jun 2027 09:18:18.742   02 Jun 2027 09:18:19.238             0.496           114.406
        36   02 Jun 2027 10:47:59.392   02 Jun 2027 10:48:03.920             4.528          1830.812
        37   03 Jun 2027 03:00:00.000   03 Jun 2027 03:00:02.969             2.969          1484.500
        38   03 Jun 2027 03:01:06.312   03 Jun 2027 03:01:18.210            11.898          5949.000
        39   03 Jun 2027 03:03:13.333   03 Jun 2027 03:03:16.340             3.007          1503.500
        40   03 Jun 2027 03:04:36.506   03 Jun 2027 03:04:38.707             2.201          1100.500
        41   03 Jun 2027 04:33:36.579   03 Jun 2027 04:34:11.848            35.269         17634.500
        42   03 Jun 2027 04:35:12.195   03 Jun 2027 04:36:51.084            98.889         49444.500
        43   03 Jun 2027 04:36:59.255   03 Jun 2027 04:37:01.961             2.706          1353.000
        44   03 Jun 2027 04:37:35.074   03 Jun 2027 04:37:59.981            24.907         12453.500
        45   03 Jun 2027 04:38:10.921   03 Jun 2027 04:38:23.033            12.112          6056.000
        46   03 Jun 2027 04:39:02.207   03 Jun 2027 04:39:08.249             6.042          3021.000
        47   03 Jun 2027 04:42:20.713   03 Jun 2027 04:42:44.390            23.677         11838.500
        48   03 Jun 2027 06:11:32.215   03 Jun 2027 06:13:20.477           108.262         53795.281
        49   03 Jun 2027 06:14:03.395   03 Jun 2027 06:14:06.813             3.418           442.906
        50   03 Jun 2027 06:14:39.321   03 Jun 2027 06:14:42.281             2.960          1015.875
        51   03 Jun 2027 06:16:02.018   03 Jun 2027 06:16:07.270             5.252          2149.719
        52   03 Jun 2027 06:16:36.758   03 Jun 2027 06:16:38.711             1.953           806.375
        53   03 Jun 2027 06:17:20.035   03 Jun 2027 06:17:21.923             1.888           691.531
        54   03 Jun 2027 07:48:19.635   03 Jun 2027 07:48:21.101             1.466             8.313
        55   03 Jun 2027 07:52:30.514   03 Jun 2027 07:52:37.137             6.623          1878.031
        56   03 Jun 2027 07:53:38.912   03 Jun 2027 07:53:42.764             3.852          1362.750
        57   03 Jun 2027 09:26:10.050   03 Jun 2027 09:26:16.303             6.253          2773.656
        58   03 Jun 2027 11:02:08.619   03 Jun 2027 11:02:10.827             2.208           895.625
        59   04 Jun 2027 03:12:42.173   04 Jun 2027 03:12:55.798            13.625          6812.500
        60   04 Jun 2027 04:46:29.931   04 Jun 2027 04:49:30.820           180.889         90444.500
        61   04 Jun 2027 04:53:45.591   04 Jun 2027 04:55:01.454            75.863         37931.500
        62   04 Jun 2027 06:23:43.862   04 Jun 2027 06:24:23.059            39.197         18724.125
        63   04 Jun 2027 06:26:04.824   04 Jun 2027 06:26:10.858             6.034           337.844
        64   04 Jun 2027 06:26:17.952   04 Jun 2027 06:26:21.249             3.297           221.688
        65   04 Jun 2027 06:27:40.278   04 Jun 2027 06:27:43.636             3.358          1655.469
        66   04 Jun 2027 06:27:59.217   04 Jun 2027 06:28:02.419             3.202           125.281
        67   04 Jun 2027 06:28:07.330   04 Jun 2027 06:28:08.793             1.463            43.156
        68   04 Jun 2027 06:28:31.910   04 Jun 2027 06:28:34.528             2.618            40.563
        69   04 Jun 2027 08:00:56.348   04 Jun 2027 08:01:01.802             5.454          1763.313
        70   04 Jun 2027 08:04:43.496   04 Jun 2027 08:04:46.959             3.463           515.312
        71   04 Jun 2027 09:37:39.073   04 Jun 2027 09:37:44.815             5.742          2677.875
        72   04 Jun 2027 09:39:10.094   04 Jun 2027 09:39:18.056             7.962          1831.312
        73   04 Jun 2027 11:12:50.844   04 Jun 2027 11:12:55.020             4.176           526.094
        74   05 Jun 2027 03:24:56.030   05 Jun 2027 03:25:01.734             5.704          2852.000
        75   05 Jun 2027 03:25:55.979   05 Jun 2027 03:26:04.469             8.490          4245.000
        76   05 Jun 2027 03:26:30.784   05 Jun 2027 03:26:32.804             2.020          1010.000
        77   05 Jun 2027 03:27:05.755   05 Jun 2027 03:27:10.494             4.739          2369.500
        78   05 Jun 2027 04:59:01.132   05 Jun 2027 04:59:21.761            20.629         10314.500
        79   05 Jun 2027 05:00:02.419   05 Jun 2027 05:02:02.628           120.209         60104.500
        80   05 Jun 2027 05:03:28.357   05 Jun 2027 05:03:37.387             9.030          4515.000
        81   05 Jun 2027 05:05:21.384   05 Jun 2027 05:05:55.392            34.008         17004.000
        82   05 Jun 2027 05:05:58.119   05 Jun 2027 05:06:37.665            39.546         19773.000
        83   05 Jun 2027 05:06:56.483   05 Jun 2027 05:06:59.169             2.686          1343.000
        84   05 Jun 2027 06:36:05.349   05 Jun 2027 06:37:16.425            71.076         34510.343
        85   05 Jun 2027 08:13:03.020   05 Jun 2027 08:13:08.410             5.390           841.625
        86   05 Jun 2027 09:49:48.982   05 Jun 2027 09:49:59.517            10.535          3712.219
        87   05 Jun 2027 11:28:00.523   05 Jun 2027 11:28:01.306             0.783           103.125
        88   06 Jun 2027 03:37:02.796   06 Jun 2027 03:37:12.365             9.569          4784.500
        89   06 Jun 2027 03:38:07.715   06 Jun 2027 03:38:07.715             0.000             0.000
        90   06 Jun 2027 03:38:39.461   06 Jun 2027 03:39:04.473            25.012         12506.000
        91   06 Jun 2027 03:39:47.011   06 Jun 2027 03:39:47.011             0.000             0.000
        92   06 Jun 2027 05:12:10.497   06 Jun 2027 05:12:41.602            31.105         15552.500
        93   06 Jun 2027 05:13:30.309   06 Jun 2027 05:14:07.387            37.078         18539.000
        94   06 Jun 2027 05:14:13.661   06 Jun 2027 05:15:12.312            58.651         29325.500
        95   06 Jun 2027 05:16:13.324   06 Jun 2027 05:17:19.352            66.028         33014.000
        96   06 Jun 2027 05:17:29.869   06 Jun 2027 05:17:37.003             7.134          3567.000
        97   06 Jun 2027 05:18:05.875   06 Jun 2027 05:18:11.656             5.781          2890.500
        98   06 Jun 2027 05:18:36.978   06 Jun 2027 05:18:51.842            14.864          7432.000
        99   06 Jun 2027 05:18:52.632   06 Jun 2027 05:18:59.856             7.224          3612.000
       100   06 Jun 2027 06:48:31.496   06 Jun 2027 06:49:39.862            68.366         31853.094
       101   06 Jun 2027 06:51:14.106   06 Jun 2027 06:51:15.894             1.788           718.531
       102   06 Jun 2027 08:26:04.644   06 Jun 2027 08:26:15.476            10.832          4180.687
       103   06 Jun 2027 08:28:17.936   06 Jun 2027 08:28:20.486             2.550           455.875
       104   06 Jun 2027 08:28:24.829   06 Jun 2027 08:28:30.709             5.880            97.125
       105   06 Jun 2027 10:02:08.447   06 Jun 2027 10:02:21.408            12.961          5909.031
       106   07 Jun 2027 03:49:12.081   07 Jun 2027 03:49:34.136            22.055         11027.500
       107   07 Jun 2027 05:24:22.074   07 Jun 2027 05:27:12.703           170.629         85314.500
       108   07 Jun 2027 05:30:30.823   07 Jun 2027 05:30:48.611            17.788          8894.000
       109   07 Jun 2027 07:00:39.339   07 Jun 2027 07:02:31.659           112.320         55726.750
       110   07 Jun 2027 08:38:11.049   07 Jun 2027 08:38:24.913            13.864          5085.594
       111   07 Jun 2027 08:39:50.287   07 Jun 2027 08:39:51.780             1.493           631.656
       112   07 Jun 2027 08:40:05.142   07 Jun 2027 08:40:11.944             6.802           401.219
       113   07 Jun 2027 08:40:29.207   07 Jun 2027 08:40:30.795             1.588           291.938
       114   07 Jun 2027 10:14:11.843   07 Jun 2027 10:14:25.250            13.407          6034.188
       115   07 Jun 2027 10:15:37.414   07 Jun 2027 10:15:38.808             1.394           491.438
       116   07 Jun 2027 10:19:03.693   07 Jun 2027 10:19:04.651             0.958             4.656
       117   08 Jun 2027 04:00:55.893   08 Jun 2027 04:01:22.793            26.900         13450.000
       118   08 Jun 2027 04:04:04.672   08 Jun 2027 04:04:22.319            17.647          8823.500
       119   08 Jun 2027 05:35:49.925   08 Jun 2027 05:38:43.527           173.602         86801.000
       120   08 Jun 2027 05:38:46.333   08 Jun 2027 05:38:59.555            13.222          6611.000
       121   08 Jun 2027 05:43:03.796   08 Jun 2027 05:43:08.184             4.388          2194.000
       122   08 Jun 2027 07:12:22.698   08 Jun 2027 07:13:58.527            95.829         47914.500
       123   08 Jun 2027 07:14:50.502   08 Jun 2027 07:15:00.728            10.226          4467.531
       124   08 Jun 2027 08:50:39.938   08 Jun 2027 08:50:52.003            12.065          5957.187
       125   08 Jun 2027 10:26:01.101   08 Jun 2027 10:26:12.230            11.129          5443.250
       126   09 Jun 2027 04:11:10.343   09 Jun 2027 04:11:44.640            34.297         17148.500
       127   09 Jun 2027 04:12:04.587   09 Jun 2027 04:12:06.106             1.519           759.500
       128   09 Jun 2027 04:12:41.357   09 Jun 2027 04:12:47.209             5.852          2926.000
       129   09 Jun 2027 05:47:36.608   09 Jun 2027 05:50:01.516           144.908         72454.000
       130   09 Jun 2027 05:50:38.283   09 Jun 2027 05:50:42.334             4.051          2025.500
       131   09 Jun 2027 05:54:30.861   09 Jun 2027 05:55:07.016            36.155         18077.500
       132   09 Jun 2027 05:55:08.178   09 Jun 2027 05:55:08.422             0.244           122.000
       133   09 Jun 2027 07:24:43.022   09 Jun 2027 07:26:38.339           115.317         56216.437
       134   09 Jun 2027 07:30:46.139   09 Jun 2027 07:30:46.732             0.593           104.469
       135   09 Jun 2027 09:02:37.719   09 Jun 2027 09:02:47.618             9.899          4560.500
       136   09 Jun 2027 09:06:32.670   09 Jun 2027 09:06:33.478             0.808           217.000
       137   09 Jun 2027 10:35:43.754   09 Jun 2027 10:36:02.963            19.209          5551.438
       138   10 Jun 2027 04:22:19.767   10 Jun 2027 04:23:06.296            46.529         23264.500
       139   10 Jun 2027 04:24:33.600   10 Jun 2027 04:25:25.112            51.512         25756.000
       140   10 Jun 2027 04:25:42.612   10 Jun 2027 04:25:46.547             3.935          1967.500
       141   10 Jun 2027 04:26:45.966   10 Jun 2027 04:27:06.938            20.972         10486.000
       142   10 Jun 2027 04:27:19.450   10 Jun 2027 04:27:29.324             9.874          4937.000
       143   10 Jun 2027 05:59:51.911   10 Jun 2027 06:02:28.592           156.681         78340.500
       144   10 Jun 2027 06:04:17.199   10 Jun 2027 06:04:18.858             1.659           829.500
       145   10 Jun 2027 06:04:57.041   10 Jun 2027 06:05:15.175            18.134          9067.000
       146   10 Jun 2027 06:06:17.932   10 Jun 2027 06:06:29.365            11.433          5716.500
       147   10 Jun 2027 07:36:37.970   10 Jun 2027 07:37:14.155            36.185         17562.406
       148   10 Jun 2027 07:41:41.109   10 Jun 2027 07:41:45.245             4.136          1671.219
       149   10 Jun 2027 07:42:54.808   10 Jun 2027 07:43:03.657             8.849          1905.375
       150   10 Jun 2027 09:14:37.735   10 Jun 2027 09:14:48.841            11.106          4880.844
       151   10 Jun 2027 09:18:19.986   10 Jun 2027 09:18:23.356             3.370           498.563
       152   10 Jun 2027 09:18:33.703   10 Jun 2027 09:18:34.302             0.599           114.938
       153   10 Jun 2027 10:48:14.042   10 Jun 2027 10:48:22.406             8.364          1812.406
       154   11 Jun 2027 03:00:53.620   11 Jun 2027 03:01:13.152            19.532          9766.000
       155   11 Jun 2027 03:02:56.919   11 Jun 2027 03:03:02.731             5.812          2906.000
       156   11 Jun 2027 03:03:49.892   11 Jun 2027 03:04:01.310            11.418          5709.000
       157   11 Jun 2027 04:33:50.811   11 Jun 2027 04:36:11.006           140.195         70097.500
       158   11 Jun 2027 04:38:40.675   11 Jun 2027 04:38:51.849            11.174          5587.000
       159   11 Jun 2027 04:38:56.051   11 Jun 2027 04:39:01.735             5.684          2842.000
       160   11 Jun 2027 04:42:35.403   11 Jun 2027 04:43:14.766            39.363         19681.500
       161   11 Jun 2027 06:11:46.796   11 Jun 2027 06:13:23.753            96.957         46974.844
       162   11 Jun 2027 06:13:29.236   11 Jun 2027 06:13:31.339             2.103           133.531
       163   11 Jun 2027 06:14:19.154   11 Jun 2027 06:14:21.354             2.200           453.063
       164   11 Jun 2027 06:14:38.154   11 Jun 2027 06:14:40.482             2.328           525.000
       165   11 Jun 2027 06:15:08.584   11 Jun 2027 06:15:08.584             0.000             0.000
       166   11 Jun 2027 06:16:16.959   11 Jun 2027 06:16:22.254             5.295          2561.969
       167   11 Jun 2027 06:16:26.687   11 Jun 2027 06:16:26.687             0.000             0.000
       168   11 Jun 2027 06:16:52.588   11 Jun 2027 06:16:54.607             2.019           947.937
       169   11 Jun 2027 06:17:34.220   11 Jun 2027 06:17:35.987             1.767           659.875
       170   11 Jun 2027 07:48:34.562   11 Jun 2027 07:48:35.662             1.100            45.000
       171   11 Jun 2027 07:52:05.487   11 Jun 2027 07:52:07.968             2.481           638.781
       172   11 Jun 2027 07:52:45.115   11 Jun 2027 07:52:48.560             3.445           704.250
       173   11 Jun 2027 07:53:55.527   11 Jun 2027 07:53:58.377             2.850          1420.312
       174   11 Jun 2027 09:26:24.838   11 Jun 2027 09:26:31.529             6.691          2919.719
       175   11 Jun 2027 11:02:23.558   11 Jun 2027 11:02:25.018             1.460           561.844
       176   12 Jun 2027 03:12:56.852   12 Jun 2027 03:12:59.736             2.884          1442.000
       177   12 Jun 2027 03:13:36.838   12 Jun 2027 03:13:39.116             2.278          1139.000
       178   12 Jun 2027 03:14:36.355   12 Jun 2027 03:14:37.511             1.156           578.000
       179   12 Jun 2027 03:15:15.391   12 Jun 2027 03:15:20.050             4.659          2329.500
       180   12 Jun 2027 03:16:14.714   12 Jun 2027 03:16:29.548            14.834          7417.000
       181   12 Jun 2027 04:46:44.360   12 Jun 2027 04:49:18.149           153.789         76894.500
       182   12 Jun 2027 04:49:34.391   12 Jun 2027 04:49:40.929             6.538          3269.000
       183   12 Jun 2027 04:53:59.901   12 Jun 2027 04:54:55.797            55.896         27948.000
       184   12 Jun 2027 04:55:15.234   12 Jun 2027 04:55:16.101             0.867           433.500
       185   12 Jun 2027 06:23:58.881   12 Jun 2027 06:25:12.455            73.574         35967.656
       186   12 Jun 2027 06:26:07.616   12 Jun 2027 06:26:15.161             7.545          1511.000
       187   12 Jun 2027 06:26:26.370   12 Jun 2027 06:26:28.063             1.693           181.281
       188   12 Jun 2027 06:27:03.044   12 Jun 2027 06:27:05.133             2.089           864.500
       189   12 Jun 2027 06:28:22.360   12 Jun 2027 06:28:24.471             2.111           257.062
       190   12 Jun 2027 08:01:11.137   12 Jun 2027 08:01:15.206             4.069          1133.063
       191   12 Jun 2027 08:04:59.124   12 Jun 2027 08:05:03.741             4.617           547.156
       192   12 Jun 2027 09:37:54.014   12 Jun 2027 09:37:58.106             4.092          1847.437
       193   12 Jun 2027 11:13:07.446   12 Jun 2027 11:13:09.861             2.415           832.406
       194   13 Jun 2027 03:25:11.135   13 Jun 2027 03:25:12.062             0.927           463.500
       195   13 Jun 2027 03:25:42.434   13 Jun 2027 03:26:07.157            24.723         12361.500
       196   13 Jun 2027 04:57:30.187   13 Jun 2027 04:58:03.557            33.370         16685.000
       197   13 Jun 2027 04:59:15.759   13 Jun 2027 04:59:34.657            18.898          9449.000
       198   13 Jun 2027 05:00:11.657   13 Jun 2027 05:01:12.329            60.672         30336.000
       199   13 Jun 2027 05:03:49.260   13 Jun 2027 05:05:15.135            85.875         42937.500
       200   13 Jun 2027 05:05:45.148   13 Jun 2027 05:06:05.223            20.075         10037.500
       201   13 Jun 2027 05:06:14.419   13 Jun 2027 05:06:14.419             0.000             0.000
       202   13 Jun 2027 05:07:11.055   13 Jun 2027 05:07:13.736             2.681          1340.500
       203   13 Jun 2027 06:36:19.838   13 Jun 2027 06:37:38.010            78.172         37987.468
       204   13 Jun 2027 08:13:17.727   13 Jun 2027 08:13:23.849             6.122           325.438
       205   13 Jun 2027 09:50:03.413   13 Jun 2027 09:50:11.273             7.860          3113.719
       206   13 Jun 2027 11:28:14.988   13 Jun 2027 11:28:15.446             0.458            24.875
