uniorb/output/strategy_4/Camera/Camera_KinoSat_111410.txt

KinoSat_111410
-------------------------
    Access    *     Start Time (UTCG)     *     Stop Time (UTCG)  *   Duration (s) *   Data (Mbytes)
         1   01 Jun 2027 04:12:14.647   01 Jun 2027 04:14:27.528           132.881         66440.500
         2   01 Jun 2027 04:14:58.743   01 Jun 2027 04:15:35.489            36.746         18373.000
         3   01 Jun 2027 05:35:36.721   01 Jun 2027 05:36:55.582            78.861         39430.500
         4   01 Jun 2027 05:37:17.567   01 Jun 2027 05:37:17.567             0.000             0.000
         5   01 Jun 2027 05:38:08.425   01 Jun 2027 05:38:08.425             0.000             0.000
         6   01 Jun 2027 07:11:58.768   01 Jun 2027 07:14:24.998           146.230         73115.000
         7   01 Jun 2027 07:15:14.136   01 Jun 2027 07:15:32.255            18.119          9059.500
         8   01 Jun 2027 08:46:02.805   01 Jun 2027 08:47:41.067            98.262         49131.000
         9   01 Jun 2027 08:48:51.312   01 Jun 2027 08:49:18.662            27.350         13675.000
        10   01 Jun 2027 08:49:27.502   01 Jun 2027 08:49:57.296            29.794         14897.000
        11   01 Jun 2027 08:50:32.661   01 Jun 2027 08:50:37.152             4.491          2245.500
        12   01 Jun 2027 08:51:14.257   01 Jun 2027 08:51:14.257             0.000             0.000
        13   01 Jun 2027 08:53:14.107   01 Jun 2027 08:53:14.323             0.216           108.000
        14   01 Jun 2027 10:23:07.402   01 Jun 2027 10:25:05.697           118.295         59147.500
        15   01 Jun 2027 10:25:43.176   01 Jun 2027 10:26:01.202            18.026          9013.000
        16   01 Jun 2027 10:28:12.751   01 Jun 2027 10:28:24.366            11.615          5807.500
        17   01 Jun 2027 10:29:12.877   01 Jun 2027 10:29:26.869            13.992          6996.000
        18   02 Jun 2027 04:25:07.173   02 Jun 2027 04:27:00.882           113.709         56854.500
        19   02 Jun 2027 04:27:52.013   02 Jun 2027 04:28:04.736            12.723          6361.500
        20   02 Jun 2027 05:47:40.366   02 Jun 2027 05:48:53.480            73.114         36557.000
        21   02 Jun 2027 05:49:12.550   02 Jun 2027 05:49:19.035             6.485          3242.500
        22   02 Jun 2027 07:24:09.494   02 Jun 2027 07:27:38.214           208.720        104360.000
        23   02 Jun 2027 08:59:14.505   02 Jun 2027 09:02:16.750           182.245         91122.500
        24   02 Jun 2027 09:03:14.064   02 Jun 2027 09:03:17.800             3.736          1868.000
        25   02 Jun 2027 09:05:53.587   02 Jun 2027 09:06:02.293             8.706          4353.000
        26   02 Jun 2027 10:35:36.578   02 Jun 2027 10:37:06.990            90.412         42168.812
        27   02 Jun 2027 10:37:47.569   02 Jun 2027 10:37:49.786             2.217            26.000
        28   02 Jun 2027 10:38:20.210   02 Jun 2027 10:38:22.396             2.186           875.937
        29   02 Jun 2027 10:38:40.224   02 Jun 2027 10:38:40.867             0.643           277.344
        30   02 Jun 2027 10:38:52.189   02 Jun 2027 10:38:56.049             3.860           353.813
        31   02 Jun 2027 10:39:18.889   02 Jun 2027 10:39:21.325             2.436           592.844
        32   02 Jun 2027 10:40:01.384   02 Jun 2027 10:40:06.580             5.196           784.781
        33   02 Jun 2027 10:40:56.923   02 Jun 2027 10:41:00.653             3.730          1306.063
        34   02 Jun 2027 10:41:10.659   02 Jun 2027 10:41:13.898             3.239           173.406
        35   02 Jun 2027 10:41:43.549   02 Jun 2027 10:41:45.842             2.293           909.219
        36   03 Jun 2027 03:00:00.000   03 Jun 2027 03:00:13.972            13.972          6986.000
        37   03 Jun 2027 03:00:36.664   03 Jun 2027 03:00:46.375             9.711          4855.500
        38   03 Jun 2027 03:00:53.862   03 Jun 2027 03:01:05.833            11.971          5985.500
        39   03 Jun 2027 03:03:32.323   03 Jun 2027 03:03:33.614             1.291           645.500
        40   03 Jun 2027 03:04:03.788   03 Jun 2027 03:04:10.302             6.514          3257.000
        41   03 Jun 2027 04:36:16.593   03 Jun 2027 04:36:54.077            37.484         18742.000
        42   03 Jun 2027 04:37:06.576   03 Jun 2027 04:39:06.600           120.024         60012.000
        43   03 Jun 2027 05:59:36.533   03 Jun 2027 06:00:31.421            54.888         27444.000
        44   03 Jun 2027 07:36:14.301   03 Jun 2027 07:37:36.185            81.884         39708.219
        45   03 Jun 2027 07:37:42.462   03 Jun 2027 07:37:43.873             1.411            54.094
        46   03 Jun 2027 07:38:14.232   03 Jun 2027 07:38:16.272             2.040           875.313
        47   03 Jun 2027 07:39:05.953   03 Jun 2027 07:39:05.953             0.000             0.000
        48   03 Jun 2027 07:39:39.067   03 Jun 2027 07:39:40.451             1.384           692.000
        49   03 Jun 2027 09:11:24.696   03 Jun 2027 09:11:36.533            11.837          3894.656
        50   03 Jun 2027 09:12:54.099   03 Jun 2027 09:13:05.376            11.277          2423.937
        51   03 Jun 2027 09:14:19.704   03 Jun 2027 09:14:21.888             2.184           948.781
        52   03 Jun 2027 09:14:42.546   03 Jun 2027 09:14:44.318             1.772           476.219
        53   03 Jun 2027 09:15:22.023   03 Jun 2027 09:15:24.457             2.434           705.750
        54   03 Jun 2027 09:16:43.707   03 Jun 2027 09:16:47.490             3.783          1071.156
        55   03 Jun 2027 09:17:23.320   03 Jun 2027 09:17:25.695             2.375           840.625
        56   03 Jun 2027 10:47:38.725   03 Jun 2027 10:47:52.373            13.648          6208.750
        57   03 Jun 2027 10:49:38.995   03 Jun 2027 10:49:41.046             2.051           129.125
        58   03 Jun 2027 10:50:00.352   03 Jun 2027 10:50:04.509             4.157           550.469
        59   03 Jun 2027 10:50:06.722   03 Jun 2027 10:50:07.329             0.607            18.906
        60   03 Jun 2027 10:50:19.936   03 Jun 2027 10:50:21.913             1.977           122.844
        61   03 Jun 2027 10:50:57.389   03 Jun 2027 10:51:00.057             2.668          1033.500
        62   03 Jun 2027 10:52:00.553   03 Jun 2027 10:52:03.380             2.827           731.156
        63   03 Jun 2027 10:52:45.604   03 Jun 2027 10:52:48.951             3.347           686.469
        64   03 Jun 2027 10:53:02.304   03 Jun 2027 10:53:03.719             1.415           121.906
        65   03 Jun 2027 10:53:37.653   03 Jun 2027 10:53:40.365             2.712           792.219
        66   03 Jun 2027 10:53:45.517   03 Jun 2027 10:53:47.228             1.711            71.969
        67   04 Jun 2027 03:11:07.995   04 Jun 2027 03:12:40.543            92.548         46274.000
        68   04 Jun 2027 03:13:44.310   04 Jun 2027 03:13:57.750            13.440          6720.000
        69   04 Jun 2027 03:15:08.175   04 Jun 2027 03:15:30.161            21.986         10993.000
        70   04 Jun 2027 03:17:33.519   04 Jun 2027 03:17:46.723            13.204          6602.000
        71   04 Jun 2027 03:17:57.630   04 Jun 2027 03:18:27.757            30.127         15063.500
        72   04 Jun 2027 04:37:25.518   04 Jun 2027 04:37:40.904            15.386          7693.000
        73   04 Jun 2027 04:48:13.941   04 Jun 2027 04:50:33.203           139.262         68239.532
        74   04 Jun 2027 04:51:34.646   04 Jun 2027 04:51:39.791             5.145          1277.031
        75   04 Jun 2027 04:51:44.876   04 Jun 2027 04:51:46.602             1.726            70.344
        76   04 Jun 2027 06:12:12.481   04 Jun 2027 06:12:28.260            15.779          7746.469
        77   04 Jun 2027 06:14:26.959   04 Jun 2027 06:14:35.233             8.274          3488.031
        78   04 Jun 2027 06:14:42.198   04 Jun 2027 06:14:42.198             0.000             0.000
        79   04 Jun 2027 07:47:58.192   04 Jun 2027 07:48:05.758             7.566          1806.375
        80   04 Jun 2027 07:49:18.270   04 Jun 2027 07:49:26.144             7.874          2001.937
        81   04 Jun 2027 07:49:42.572   04 Jun 2027 07:49:46.744             4.172           206.094
        82   04 Jun 2027 07:50:46.653   04 Jun 2027 07:50:48.365             1.712           856.000
        83   04 Jun 2027 07:51:07.864   04 Jun 2027 07:51:10.243             2.379           917.469
        84   04 Jun 2027 09:22:48.915   04 Jun 2027 09:22:55.740             6.825          3331.781
        85   04 Jun 2027 09:23:27.084   04 Jun 2027 09:23:28.723             1.639           212.906
        86   04 Jun 2027 09:26:10.764   04 Jun 2027 09:26:15.602             4.838          2397.000
        87   04 Jun 2027 09:27:23.246   04 Jun 2027 09:27:28.954             5.708          1198.344
        88   04 Jun 2027 09:28:11.653   04 Jun 2027 09:28:13.731             2.078           818.000
        89   04 Jun 2027 09:28:15.174   04 Jun 2027 09:28:16.134             0.960            45.094
        90   04 Jun 2027 09:28:49.641   04 Jun 2027 09:28:53.440             3.799           908.750
        91   04 Jun 2027 10:59:24.922   04 Jun 2027 10:59:36.749            11.827          5533.344
        92   04 Jun 2027 11:01:38.378   04 Jun 2027 11:01:42.529             4.151           335.813
        93   04 Jun 2027 11:02:04.386   04 Jun 2027 11:02:07.685             3.299           375.938
        94   04 Jun 2027 11:02:40.350   04 Jun 2027 11:02:42.189             1.839           555.906
        95   04 Jun 2027 11:03:35.472   04 Jun 2027 11:03:38.303             2.831           748.625
        96   04 Jun 2027 11:04:01.059   04 Jun 2027 11:04:08.329             7.270           711.125
        97   04 Jun 2027 11:04:23.921   04 Jun 2027 11:04:27.311             3.390           375.281
        98   04 Jun 2027 11:04:58.933   04 Jun 2027 11:05:01.332             2.399           969.969
        99   04 Jun 2027 11:05:16.163   04 Jun 2027 11:05:16.601             0.438             3.688
       100   04 Jun 2027 11:05:30.215   04 Jun 2027 11:05:32.733             2.518           370.719
       101   04 Jun 2027 11:05:40.875   04 Jun 2027 11:05:42.943             2.068            26.781
       102   05 Jun 2027 03:23:28.498   05 Jun 2027 03:26:11.888           163.390         81695.000
       103   05 Jun 2027 03:27:35.926   05 Jun 2027 03:27:47.270            11.344          5672.000
       104   05 Jun 2027 03:28:30.327   05 Jun 2027 03:28:56.945            26.618         13309.000
       105   05 Jun 2027 03:29:28.449   05 Jun 2027 03:29:34.320             5.871          2935.500
       106   05 Jun 2027 03:30:17.995   05 Jun 2027 03:30:24.029             6.034          3017.000
       107   05 Jun 2027 04:48:41.937   05 Jun 2027 04:48:51.190             9.253          4626.500
       108   05 Jun 2027 05:00:12.307   05 Jun 2027 05:01:49.952            97.645         48822.500
       109   05 Jun 2027 06:22:51.449   05 Jun 2027 06:22:56.431             4.982          2491.000
       110   05 Jun 2027 06:23:23.016   05 Jun 2027 06:23:28.525             5.509          2082.218
       111   05 Jun 2027 06:24:26.933   05 Jun 2027 06:24:30.476             3.543           948.062
       112   05 Jun 2027 06:24:42.944   05 Jun 2027 06:24:42.944             0.000             0.000
       113   05 Jun 2027 06:24:52.244   05 Jun 2027 06:24:55.110             2.866           369.406
       114   05 Jun 2027 06:25:52.154   05 Jun 2027 06:25:52.154             0.000             0.000
       115   05 Jun 2027 06:26:18.936   05 Jun 2027 06:26:24.928             5.992          2565.906
       116   05 Jun 2027 07:58:08.584   05 Jun 2027 07:58:13.215             4.631          2315.500
       117   05 Jun 2027 07:59:00.425   05 Jun 2027 07:59:04.430             4.005          1611.781
       118   05 Jun 2027 07:59:52.099   05 Jun 2027 07:59:52.099             0.000             0.000
       119   05 Jun 2027 08:00:01.999   05 Jun 2027 08:00:06.225             4.226          1617.938
       120   05 Jun 2027 08:00:35.113   05 Jun 2027 08:00:39.410             4.297           153.969
       121   05 Jun 2027 08:00:59.760   05 Jun 2027 08:01:01.140             1.380           393.687
       122   05 Jun 2027 08:02:37.732   05 Jun 2027 08:02:41.669             3.937          1968.500
       123   05 Jun 2027 08:03:06.648   05 Jun 2027 08:03:09.713             3.065          1265.125
       124   05 Jun 2027 08:03:22.349   05 Jun 2027 08:03:26.277             3.928           394.875
       125   05 Jun 2027 08:03:48.936   05 Jun 2027 08:03:49.811             0.875           297.656
       126   05 Jun 2027 08:04:02.744   05 Jun 2027 08:04:04.239             1.495           385.938
       127   05 Jun 2027 09:34:42.725   05 Jun 2027 09:34:51.595             8.870          3297.219
       128   05 Jun 2027 09:36:55.104   05 Jun 2027 09:37:12.311            17.207          2747.906
       129   05 Jun 2027 09:38:23.331   05 Jun 2027 09:38:25.131             1.800           472.750
       130   05 Jun 2027 09:39:17.788   05 Jun 2027 09:39:20.925             3.137          1462.219
       131   05 Jun 2027 09:40:36.890   05 Jun 2027 09:40:41.794             4.904          2094.437
       132   05 Jun 2027 09:40:51.249   05 Jun 2027 09:40:56.284             5.035           280.812
       133   05 Jun 2027 09:41:49.489   05 Jun 2027 09:41:57.678             8.189          1576.000
       134   05 Jun 2027 11:11:46.239   05 Jun 2027 11:11:59.717            13.478          6320.438
       135   05 Jun 2027 11:14:04.145   05 Jun 2027 11:14:10.676             6.531          1389.250
       136   05 Jun 2027 11:15:24.943   05 Jun 2027 11:15:31.178             6.235          2257.156
       137   05 Jun 2027 11:15:36.894   05 Jun 2027 11:15:37.055             0.161            43.563
       138   05 Jun 2027 11:16:21.024   05 Jun 2027 11:16:25.510             4.486           812.719
       139   05 Jun 2027 11:17:00.633   05 Jun 2027 11:17:06.733             6.100           914.531
       140   05 Jun 2027 11:17:35.927   05 Jun 2027 11:17:36.460             0.533           266.500
       141   05 Jun 2027 11:17:37.983   05 Jun 2027 11:17:38.625             0.642           218.063
       142   05 Jun 2027 11:17:47.189   05 Jun 2027 11:17:51.341             4.152           209.656
       143   06 Jun 2027 03:35:42.937   06 Jun 2027 03:37:11.945            89.008         44504.000
       144   06 Jun 2027 03:37:19.616   06 Jun 2027 03:38:09.611            49.995         24997.500
       145   06 Jun 2027 03:39:01.847   06 Jun 2027 03:39:12.978            11.131          5565.500
       146   06 Jun 2027 03:39:36.060   06 Jun 2027 03:40:50.005            73.945         36972.500
       147   06 Jun 2027 03:40:56.344   06 Jun 2027 03:41:00.739             4.395          2197.500
       148   06 Jun 2027 03:42:32.120   06 Jun 2027 03:42:33.333             1.213           606.500
       149   06 Jun 2027 04:59:58.839   06 Jun 2027 05:00:40.975            42.136         21068.000
       150   06 Jun 2027 05:12:11.507   06 Jun 2027 05:13:09.595            58.088         29044.000
       151   06 Jun 2027 06:34:27.345   06 Jun 2027 06:34:44.627            17.282          8317.250
       152   06 Jun 2027 06:35:00.213   06 Jun 2027 06:35:04.816             4.603           487.062
       153   06 Jun 2027 06:35:24.519   06 Jun 2027 06:35:24.519             0.000             0.000
       154   06 Jun 2027 06:36:22.675   06 Jun 2027 06:36:26.758             4.083          1850.844
       155   06 Jun 2027 06:36:40.570   06 Jun 2027 06:36:41.141             0.571           243.375
       156   06 Jun 2027 06:36:55.532   06 Jun 2027 06:36:56.128             0.596           298.000
       157   06 Jun 2027 06:37:26.160   06 Jun 2027 06:37:30.597             4.437           976.406
       158   06 Jun 2027 06:39:08.015   06 Jun 2027 06:39:12.588             4.573          2250.812
       159   06 Jun 2027 08:09:20.142   06 Jun 2027 08:09:25.962             5.820          1668.937
       160   06 Jun 2027 08:10:34.425   06 Jun 2027 08:10:36.956             2.531          1118.813
       161   06 Jun 2027 08:11:41.955   06 Jun 2027 08:11:43.980             2.025          1012.500
       162   06 Jun 2027 08:11:58.684   06 Jun 2027 08:12:10.545            11.861           698.969
       163   06 Jun 2027 08:12:31.747   06 Jun 2027 08:12:32.944             1.197           125.281
       164   06 Jun 2027 08:13:06.643   06 Jun 2027 08:13:08.348             1.705           132.719
       165   06 Jun 2027 08:14:40.671   06 Jun 2027 08:14:44.462             3.791          1895.500
       166   06 Jun 2027 08:14:46.069   06 Jun 2027 08:14:48.427             2.358           679.875
       167   06 Jun 2027 08:15:18.000   06 Jun 2027 08:15:18.000             0.000             0.000
       168   06 Jun 2027 08:16:16.531   06 Jun 2027 08:16:23.896             7.365          2033.969
       169   06 Jun 2027 08:17:40.272   06 Jun 2027 08:17:46.270             5.998          1604.813
       170   06 Jun 2027 09:46:54.564   06 Jun 2027 09:47:11.020            16.456          5910.219
       171   06 Jun 2027 09:48:54.732   06 Jun 2027 09:49:08.599            13.867          2655.437
       172   06 Jun 2027 09:50:45.404   06 Jun 2027 09:50:48.746             3.342           171.406
       173   06 Jun 2027 09:51:39.217   06 Jun 2027 09:51:43.379             4.162          1577.219
       174   06 Jun 2027 09:51:54.288   06 Jun 2027 09:51:56.187             1.899            48.219
       175   06 Jun 2027 09:52:13.591   06 Jun 2027 09:52:14.271             0.680           194.563
       176   06 Jun 2027 09:52:36.289   06 Jun 2027 09:52:36.789             0.500           102.375
       177   06 Jun 2027 09:53:14.896   06 Jun 2027 09:53:16.342             1.446            85.625
       178   06 Jun 2027 09:53:38.856   06 Jun 2027 09:53:40.838             1.982           689.406
       179   06 Jun 2027 09:54:14.059   06 Jun 2027 09:54:14.954             0.895           113.844
       180   06 Jun 2027 11:23:37.441   06 Jun 2027 11:23:48.389            10.948          5256.125
       181   06 Jun 2027 11:25:55.805   06 Jun 2027 11:25:56.047             0.242            58.469
       182   06 Jun 2027 11:26:22.124   06 Jun 2027 11:26:24.398             2.274           814.906
       183   06 Jun 2027 11:27:46.464   06 Jun 2027 11:27:50.243             3.779          1117.719
       184   06 Jun 2027 11:28:34.061   06 Jun 2027 11:28:42.436             8.375          1369.312
       185   06 Jun 2027 11:29:55.434   06 Jun 2027 11:30:03.539             8.105          1493.500
       186   07 Jun 2027 03:47:48.021   07 Jun 2027 03:50:37.980           169.959         84979.500
       187   07 Jun 2027 03:52:21.130   07 Jun 2027 03:52:52.924            31.794         15897.000
       188   07 Jun 2027 03:54:28.771   07 Jun 2027 03:54:28.771             0.000             0.000
       189   07 Jun 2027 05:12:04.614   07 Jun 2027 05:12:43.906            39.292         19646.000
       190   07 Jun 2027 05:24:27.378   07 Jun 2027 05:24:43.983            16.605          8302.500
       191   07 Jun 2027 06:45:55.956   07 Jun 2027 06:47:10.696            74.740         36019.750
       192   07 Jun 2027 06:47:59.906   07 Jun 2027 06:48:03.122             3.216          1063.969
       193   07 Jun 2027 06:48:33.961   07 Jun 2027 06:48:33.961             0.000             0.000
       194   07 Jun 2027 06:48:54.766   07 Jun 2027 06:48:58.847             4.081          1356.906
       195   07 Jun 2027 06:49:22.017   07 Jun 2027 06:49:22.017             0.000             0.000
       196   07 Jun 2027 06:50:30.748   07 Jun 2027 06:50:36.998             6.250          2871.906
       197   07 Jun 2027 06:50:41.048   07 Jun 2027 06:50:41.048             0.000             0.000
       198   07 Jun 2027 06:50:50.417   07 Jun 2027 06:50:51.386             0.969           298.500
       199   07 Jun 2027 06:51:53.571   07 Jun 2027 06:51:53.571             0.000             0.000
       200   07 Jun 2027 08:20:50.506   07 Jun 2027 08:20:56.519             6.013          2578.344
       201   07 Jun 2027 08:21:46.236   07 Jun 2027 08:21:48.759             2.523          1090.156
       202   07 Jun 2027 08:23:27.365   07 Jun 2027 08:23:29.598             2.233           762.312
       203   07 Jun 2027 08:25:20.087   07 Jun 2027 08:25:28.998             8.911          2270.188
       204   07 Jun 2027 08:26:44.340   07 Jun 2027 08:26:49.284             4.944          2197.750
       205   07 Jun 2027 08:27:44.983   07 Jun 2027 08:27:52.341             7.358          1740.594
       206   07 Jun 2027 08:28:00.787   07 Jun 2027 08:28:02.436             1.649           244.125
       207   07 Jun 2027 08:28:13.051   07 Jun 2027 08:28:14.829             1.778           121.719
       208   07 Jun 2027 08:29:30.190   07 Jun 2027 08:29:36.096             5.906          2355.031
       209   07 Jun 2027 09:58:48.862   07 Jun 2027 09:58:58.640             9.778          4837.437
       210   07 Jun 2027 10:01:59.776   07 Jun 2027 10:02:05.136             5.360          2429.219
       211   07 Jun 2027 10:02:56.276   07 Jun 2027 10:03:04.708             8.432           852.875
       212   07 Jun 2027 10:04:13.153   07 Jun 2027 10:04:21.500             8.347          2138.906
       213   07 Jun 2027 10:04:39.990   07 Jun 2027 10:04:42.582             2.592           389.125
       214   07 Jun 2027 10:05:25.629   07 Jun 2027 10:05:29.198             3.569          1209.469
       215   07 Jun 2027 10:05:32.794   07 Jun 2027 10:05:34.650             1.856           112.375
       216   07 Jun 2027 10:06:01.502   07 Jun 2027 10:06:04.498             2.996           527.906
       217   07 Jun 2027 11:35:44.455   07 Jun 2027 11:35:59.927            15.472          6841.594
       218   07 Jun 2027 11:38:22.242   07 Jun 2027 11:38:23.122             0.880            61.469
       219   07 Jun 2027 11:38:48.975   07 Jun 2027 11:38:51.477             2.502           724.469
       220   07 Jun 2027 11:39:38.130   07 Jun 2027 11:39:43.020             4.890          1457.906
       221   07 Jun 2027 11:40:11.168   07 Jun 2027 11:40:13.423             2.255           656.906
       222   07 Jun 2027 11:40:41.090   07 Jun 2027 11:40:42.282             1.192           386.344
       223   07 Jun 2027 11:41:24.743   07 Jun 2027 11:41:27.225             2.482          1073.469
       224   07 Jun 2027 11:41:58.090   07 Jun 2027 11:41:59.945             1.855           594.750
       225   08 Jun 2027 04:00:12.128   08 Jun 2027 04:02:45.156           153.028         76514.000
       226   08 Jun 2027 04:03:42.491   08 Jun 2027 04:04:03.901            21.410         10705.000
       227   08 Jun 2027 04:04:42.301   08 Jun 2027 04:05:09.486            27.185         13592.500
       228   08 Jun 2027 05:24:00.470   08 Jun 2027 05:24:24.732            24.262         12131.000
       229   08 Jun 2027 07:00:00.766   08 Jun 2027 07:01:45.034           104.268         52104.719
       230   08 Jun 2027 07:02:27.083   08 Jun 2027 07:02:28.703             1.620           498.656
       231   08 Jun 2027 07:02:44.088   08 Jun 2027 07:02:46.624             2.536           195.656
       232   08 Jun 2027 07:02:52.817   08 Jun 2027 07:02:53.858             1.041           127.594
       233   08 Jun 2027 08:33:44.644   08 Jun 2027 08:34:00.288            15.644          3840.781
       234   08 Jun 2027 08:35:23.416   08 Jun 2027 08:35:24.901             1.485           619.000
       235   08 Jun 2027 08:36:19.307   08 Jun 2027 08:36:21.329             2.022           377.469
       236   08 Jun 2027 08:37:19.800   08 Jun 2027 08:37:19.800             0.000             0.000
       237   08 Jun 2027 08:38:25.499   08 Jun 2027 08:38:35.737            10.238          3880.313
       238   08 Jun 2027 08:38:52.384   08 Jun 2027 08:38:54.667             2.283           275.375
       239   08 Jun 2027 08:40:16.916   08 Jun 2027 08:40:21.382             4.466          1953.406
       240   08 Jun 2027 08:40:48.450   08 Jun 2027 08:40:52.666             4.216           746.625
       241   08 Jun 2027 08:41:40.813   08 Jun 2027 08:41:50.325             9.512          1436.531
       242   08 Jun 2027 10:11:10.407   08 Jun 2027 10:11:25.595            15.188          5357.250
       243   08 Jun 2027 10:12:51.688   08 Jun 2027 10:12:54.188             2.500           469.906
       244   08 Jun 2027 10:14:51.096   08 Jun 2027 10:14:57.013             5.917          2521.781
       245   08 Jun 2027 10:15:42.594   08 Jun 2027 10:15:42.874             0.280            38.250
       246   08 Jun 2027 10:16:07.467   08 Jun 2027 10:16:11.646             4.179           474.656
       247   08 Jun 2027 10:16:15.544   08 Jun 2027 10:16:18.486             2.942           121.812
       248   08 Jun 2027 10:16:23.743   08 Jun 2027 10:16:26.014             2.271           164.281
       249   08 Jun 2027 10:17:39.781   08 Jun 2027 10:17:42.096             2.315          1069.438
       250   08 Jun 2027 10:17:47.891   08 Jun 2027 10:17:50.564             2.673           168.250
       251   08 Jun 2027 11:48:13.966   08 Jun 2027 11:48:31.033            17.067          6300.406
       252   08 Jun 2027 11:50:26.854   08 Jun 2027 11:50:28.246             1.392            79.219
       253   08 Jun 2027 11:51:13.916   08 Jun 2027 11:51:16.568             2.652           867.906
       254   08 Jun 2027 11:52:36.941   08 Jun 2027 11:52:41.613             4.672          2119.312
       255   08 Jun 2027 11:53:26.805   08 Jun 2027 11:53:29.985             3.180          1356.094
       256   08 Jun 2027 11:54:02.760   08 Jun 2027 11:54:04.328             1.568           784.000
       257   09 Jun 2027 04:12:30.752   09 Jun 2027 04:14:20.164           109.412         54706.000
       258   09 Jun 2027 04:14:59.963   09 Jun 2027 04:15:28.061            28.098         14049.000
       259   09 Jun 2027 04:16:09.213   09 Jun 2027 04:16:26.381            17.168          8584.000
       260   09 Jun 2027 05:35:52.093   09 Jun 2027 05:36:47.692            55.599         27799.500
       261   09 Jun 2027 07:12:15.556   09 Jun 2027 07:14:20.157           124.601         61984.000
       262   09 Jun 2027 07:15:08.923   09 Jun 2027 07:15:11.401             2.478          1239.000
       263   09 Jun 2027 07:15:20.668   09 Jun 2027 07:15:20.668             0.000             0.000
       264   09 Jun 2027 08:46:21.154   09 Jun 2027 08:46:31.862            10.708          4258.062
       265   09 Jun 2027 08:48:02.099   09 Jun 2027 08:48:03.753             1.654           121.094
       266   09 Jun 2027 08:48:27.490   09 Jun 2027 08:48:29.751             2.261           462.500
       267   09 Jun 2027 08:49:36.961   09 Jun 2027 08:49:39.440             2.479           877.094
       268   09 Jun 2027 08:50:12.931   09 Jun 2027 08:50:14.809             1.878           927.781
       269   09 Jun 2027 08:50:55.341   09 Jun 2027 08:50:57.340             1.999           415.875
       270   09 Jun 2027 08:52:45.759   09 Jun 2027 08:52:54.467             8.708          2819.500
       271   09 Jun 2027 08:53:04.460   09 Jun 2027 08:53:05.040             0.580           270.906
       272   09 Jun 2027 08:53:54.366   09 Jun 2027 08:53:56.340             1.974           701.250
       273   09 Jun 2027 08:54:15.051   09 Jun 2027 08:54:15.556             0.505           225.750
       274   09 Jun 2027 10:23:23.012   09 Jun 2027 10:23:32.896             9.884          4582.719
       275   09 Jun 2027 10:26:58.825   09 Jun 2027 10:27:04.171             5.346           624.844
       276   09 Jun 2027 10:27:34.180   09 Jun 2027 10:27:36.843             2.663           937.781
       277   09 Jun 2027 10:27:58.893   09 Jun 2027 10:27:59.718             0.825           199.719
       278   09 Jun 2027 10:29:17.532   09 Jun 2027 10:29:22.518             4.986          2280.375
       279   09 Jun 2027 10:29:35.296   09 Jun 2027 10:29:36.313             1.017           284.594
       280   09 Jun 2027 10:29:58.116   09 Jun 2027 10:29:59.336             1.220           408.875
       281   10 Jun 2027 04:25:24.277   10 Jun 2027 04:27:10.931           106.654         53327.000
       282   10 Jun 2027 04:28:09.806   10 Jun 2027 04:28:19.199             9.393          4696.500
       283   10 Jun 2027 04:28:29.719   10 Jun 2027 04:28:49.933            20.214         10107.000
       284   10 Jun 2027 05:47:57.097   10 Jun 2027 05:48:33.030            35.933         17966.500
       285   10 Jun 2027 05:50:35.574   10 Jun 2027 05:50:36.412             0.838           419.000
       286   10 Jun 2027 07:24:26.056   10 Jun 2027 07:26:38.284           132.228         65790.156
       287   10 Jun 2027 07:26:56.906   10 Jun 2027 07:26:58.763             1.857           190.531
       288   10 Jun 2027 07:27:22.096   10 Jun 2027 07:27:22.096             0.000             0.000
       289   10 Jun 2027 08:59:32.285   10 Jun 2027 08:59:40.007             7.722          3412.469
       290   10 Jun 2027 09:00:03.816   10 Jun 2027 09:00:04.679             0.863           386.031
       291   10 Jun 2027 09:00:49.247   10 Jun 2027 09:00:50.653             1.406           247.313
       292   10 Jun 2027 09:02:39.579   10 Jun 2027 09:02:48.865             9.286          2785.344
       293   10 Jun 2027 09:03:10.230   10 Jun 2027 09:03:12.483             2.253           378.594
       294   10 Jun 2027 09:04:56.261   10 Jun 2027 09:05:03.172             6.911          2523.250
       295   10 Jun 2027 09:06:09.498   10 Jun 2027 09:06:14.177             4.679          1060.594
       296   10 Jun 2027 10:35:54.350   10 Jun 2027 10:36:03.220             8.870          4331.000
       297   10 Jun 2027 10:38:07.627   10 Jun 2027 10:38:08.726             1.099           148.438
       298   10 Jun 2027 10:40:17.869   10 Jun 2027 10:40:22.439             4.570           770.719
       299   10 Jun 2027 10:41:21.570   10 Jun 2027 10:41:24.569             2.999          1418.125
       300   10 Jun 2027 10:42:09.682   10 Jun 2027 10:42:12.933             3.251          1365.406
       301   11 Jun 2027 03:00:00.000   11 Jun 2027 03:00:04.236             4.236          2118.000
       302   11 Jun 2027 03:00:14.487   11 Jun 2027 03:00:29.545            15.058          7529.000
       303   11 Jun 2027 03:00:35.140   11 Jun 2027 03:00:36.487             1.347           673.500
       304   11 Jun 2027 03:00:57.973   11 Jun 2027 03:01:20.577            22.604         11302.000
       305   11 Jun 2027 03:01:26.444   11 Jun 2027 03:01:30.104             3.660          1830.000
       306   11 Jun 2027 03:04:04.944   11 Jun 2027 03:04:04.944             0.000             0.000
       307   11 Jun 2027 04:36:32.577   11 Jun 2027 04:37:10.462            37.885         18942.500
       308   11 Jun 2027 04:37:22.875   11 Jun 2027 04:39:23.280           120.405         60202.500
       309   11 Jun 2027 04:39:42.407   11 Jun 2027 04:39:53.142            10.735          5367.500
       310   11 Jun 2027 04:40:03.677   11 Jun 2027 04:40:07.431             3.754          1877.000
       311   11 Jun 2027 06:00:01.116   11 Jun 2027 06:00:47.070            45.954         22977.000
       312   11 Jun 2027 07:36:30.176   11 Jun 2027 07:37:32.271            62.095         30571.813
       313   11 Jun 2027 07:38:47.708   11 Jun 2027 07:38:52.303             4.595          2285.500
       314   11 Jun 2027 07:38:58.525   11 Jun 2027 07:38:58.840             0.315           134.406
       315   11 Jun 2027 07:39:54.030   11 Jun 2027 07:39:55.742             1.712           856.000
       316   11 Jun 2027 09:11:40.738   11 Jun 2027 09:11:47.000             6.262          3109.563
       317   11 Jun 2027 09:11:51.840   11 Jun 2027 09:11:54.459             2.619           151.250
       318   11 Jun 2027 09:13:27.446   11 Jun 2027 09:13:28.321             0.875           396.094
       319   11 Jun 2027 09:14:36.004   11 Jun 2027 09:14:37.929             1.925           888.937
       320   11 Jun 2027 09:15:00.686   11 Jun 2027 09:15:03.089             2.403           598.219
       321   11 Jun 2027 09:16:56.171   11 Jun 2027 09:17:02.408             6.237          2468.094
       322   11 Jun 2027 09:17:38.894   11 Jun 2027 09:17:42.521             3.627           880.531
       323   11 Jun 2027 10:47:38.548   11 Jun 2027 10:47:53.110            14.562          4918.844
       324   11 Jun 2027 10:49:27.265   11 Jun 2027 10:49:29.335             2.070           499.906
       325   11 Jun 2027 10:49:50.473   11 Jun 2027 10:49:50.709             0.236            96.469
       326   11 Jun 2027 10:50:15.863   11 Jun 2027 10:50:17.057             1.194           438.219
       327   11 Jun 2027 10:50:20.968   11 Jun 2027 10:50:23.916             2.948           121.719
       328   11 Jun 2027 10:50:36.823   11 Jun 2027 10:50:40.563             3.740            35.687
       329   11 Jun 2027 10:51:14.287   11 Jun 2027 10:51:16.464             2.177          1040.844
       330   11 Jun 2027 10:51:58.813   11 Jun 2027 10:52:02.186             3.373          1311.469
       331   11 Jun 2027 10:53:01.571   11 Jun 2027 10:53:08.766             7.195          1824.406
       332   11 Jun 2027 10:53:23.708   11 Jun 2027 10:53:25.429             1.721           313.531
       333   11 Jun 2027 10:53:42.915   11 Jun 2027 10:53:44.877             1.962           327.844
       334   11 Jun 2027 10:53:54.644   11 Jun 2027 10:53:56.045             1.401            93.875
       335   12 Jun 2027 03:11:24.488   12 Jun 2027 03:12:50.026            85.538         42769.000
       336   12 Jun 2027 03:13:44.966   12 Jun 2027 03:13:50.798             5.832          2916.000
       337   12 Jun 2027 03:13:57.314   12 Jun 2027 03:13:59.129             1.815           907.500
       338   12 Jun 2027 03:14:29.284   12 Jun 2027 03:14:59.408            30.124         15062.000
       339   12 Jun 2027 03:16:20.155   12 Jun 2027 03:16:29.862             9.707          4853.500
       340   12 Jun 2027 04:37:39.694   12 Jun 2027 04:37:58.749            19.055          9527.500
       341   12 Jun 2027 04:48:30.287   12 Jun 2027 04:51:18.506           168.219         83935.063
       342   12 Jun 2027 04:51:50.028   12 Jun 2027 04:51:53.980             3.952           816.250
       343   12 Jun 2027 04:52:00.289   12 Jun 2027 04:52:02.214             1.925            76.500
       344   12 Jun 2027 06:12:28.034   12 Jun 2027 06:12:44.701            16.667          7667.563
       345   12 Jun 2027 06:13:12.965   12 Jun 2027 06:13:12.965             0.000             0.000
       346   12 Jun 2027 06:14:41.946   12 Jun 2027 06:14:49.901             7.955          3426.781
       347   12 Jun 2027 06:14:58.966   12 Jun 2027 06:15:05.305             6.339           267.250
       348   12 Jun 2027 07:48:14.616   12 Jun 2027 07:48:23.930             9.314          1852.250
       349   12 Jun 2027 07:49:35.786   12 Jun 2027 07:49:45.524             9.738          2066.188
       350   12 Jun 2027 07:49:57.403   12 Jun 2027 07:49:57.808             0.405           143.063
       351   12 Jun 2027 07:50:46.845   12 Jun 2027 07:50:48.242             1.397           594.000
       352   12 Jun 2027 07:50:59.787   12 Jun 2027 07:51:04.751             4.964            67.500
       353   12 Jun 2027 07:51:31.866   12 Jun 2027 07:51:33.855             1.989           847.344
       354   12 Jun 2027 07:52:25.703   12 Jun 2027 07:52:28.455             2.752          1325.281
       355   12 Jun 2027 09:22:58.171   12 Jun 2027 09:23:10.129            11.958          2940.281
       356   12 Jun 2027 09:23:23.579   12 Jun 2027 09:23:25.585             2.006           145.969
       357   12 Jun 2027 09:25:12.329   12 Jun 2027 09:25:18.567             6.238          2732.281
       358   12 Jun 2027 09:26:23.025   12 Jun 2027 09:26:26.258             3.233          1087.875
       359   12 Jun 2027 09:26:29.203   12 Jun 2027 09:26:29.919             0.716            16.844
       360   12 Jun 2027 09:27:03.017   12 Jun 2027 09:27:14.075            11.058           999.594
       361   12 Jun 2027 09:28:55.425   12 Jun 2027 09:29:00.655             5.230          2312.969
       362   12 Jun 2027 09:30:12.313   12 Jun 2027 09:30:18.328             6.015          2093.219
       363   12 Jun 2027 10:59:42.509   12 Jun 2027 10:59:56.776            14.267          5381.906
       364   12 Jun 2027 11:02:06.586   12 Jun 2027 11:02:08.442             1.856           313.375
       365   12 Jun 2027 11:02:19.311   12 Jun 2027 11:02:20.761             1.450           339.656
       366   12 Jun 2027 11:03:00.167   12 Jun 2027 11:03:02.475             2.308           679.562
       367   12 Jun 2027 11:04:29.560   12 Jun 2027 11:04:37.867             8.307          1211.500
       368   12 Jun 2027 11:05:31.870   12 Jun 2027 11:05:38.407             6.537          1687.594
       369   12 Jun 2027 11:05:58.563   12 Jun 2027 11:05:58.860             0.297            88.094
       370   13 Jun 2027 03:23:45.092   13 Jun 2027 03:25:21.747            96.655         48327.500
       371   13 Jun 2027 03:25:37.579   13 Jun 2027 03:25:59.165            21.586         10793.000
       372   13 Jun 2027 03:27:22.532   13 Jun 2027 03:27:52.815            30.283         15141.500
       373   13 Jun 2027 03:28:07.023   13 Jun 2027 03:28:38.328            31.305         15652.500
       374   13 Jun 2027 03:29:46.584   13 Jun 2027 03:29:59.090            12.506          6253.000
       375   13 Jun 2027 04:48:55.565   13 Jun 2027 04:49:21.918            26.353         13176.500
       376   13 Jun 2027 05:00:28.849   13 Jun 2027 05:01:56.715            87.866         43933.000
       377   13 Jun 2027 06:23:06.597   13 Jun 2027 06:23:35.870            29.273         14348.874
       378   13 Jun 2027 06:24:43.136   13 Jun 2027 06:24:47.804             4.668          1389.625
       379   13 Jun 2027 06:24:59.016   13 Jun 2027 06:24:59.016             0.000             0.000
       380   13 Jun 2027 06:25:09.980   13 Jun 2027 06:25:10.967             0.987           464.219
       381   13 Jun 2027 06:26:09.532   13 Jun 2027 06:26:15.922             6.390          1773.937
       382   13 Jun 2027 07:58:15.172   13 Jun 2027 07:58:22.711             7.539          3212.063
       383   13 Jun 2027 07:58:30.093   13 Jun 2027 07:58:32.972             2.879           222.656
       384   13 Jun 2027 07:59:57.925   13 Jun 2027 08:00:01.475             3.550          1011.062
       385   13 Jun 2027 08:00:17.243   13 Jun 2027 08:00:17.243             0.000             0.000
       386   13 Jun 2027 08:01:36.722   13 Jun 2027 08:01:42.390             5.668          2693.344
       387   13 Jun 2027 08:01:49.941   13 Jun 2027 08:01:59.392             9.451           235.969
       388   13 Jun 2027 08:03:00.336   13 Jun 2027 08:03:00.996             0.660           294.438
       389   13 Jun 2027 08:03:11.087   13 Jun 2027 08:03:14.923             3.836           315.344
       390   13 Jun 2027 08:03:27.784   13 Jun 2027 08:03:27.784             0.000             0.000
       391   13 Jun 2027 08:03:41.071   13 Jun 2027 08:03:44.099             3.028           488.687
       392   13 Jun 2027 08:04:03.586   13 Jun 2027 08:04:05.680             2.094           222.625
       393   13 Jun 2027 08:04:19.457   13 Jun 2027 08:04:21.218             1.761           430.531
       394   13 Jun 2027 09:35:01.875   13 Jun 2027 09:35:06.504             4.629          2266.219
       395   13 Jun 2027 09:37:42.111   13 Jun 2027 09:37:48.272             6.161           973.281
       396   13 Jun 2027 09:38:44.886   13 Jun 2027 09:38:47.962             3.076           301.375
       397   13 Jun 2027 09:39:34.464   13 Jun 2027 09:39:37.419             2.955           918.594
       398   13 Jun 2027 09:40:53.889   13 Jun 2027 09:41:00.268             6.379          2050.656
       399   13 Jun 2027 09:41:14.857   13 Jun 2027 09:41:17.367             2.510           107.094
       400   13 Jun 2027 11:12:02.996   13 Jun 2027 11:12:17.886            14.890          6148.156
       401   13 Jun 2027 11:14:04.681   13 Jun 2027 11:14:05.580             0.899           445.000
       402   13 Jun 2027 11:14:44.162   13 Jun 2027 11:14:46.320             2.158          1054.063
       403   13 Jun 2027 11:15:16.891   13 Jun 2027 11:15:20.689             3.798           715.094
       404   13 Jun 2027 11:15:40.059   13 Jun 2027 11:15:43.299             3.240           586.531
       405   13 Jun 2027 11:15:50.571   13 Jun 2027 11:15:50.605             0.034             4.125
       406   13 Jun 2027 11:16:36.608   13 Jun 2027 11:16:40.971             4.363           774.187
       407   13 Jun 2027 11:17:56.313   13 Jun 2027 11:18:01.119             4.806          2137.812
       408   13 Jun 2027 11:18:01.146   13 Jun 2027 11:18:04.825             3.679             0.844
