uniorb/output/strategy_4/Camera/Camera_KinoSat_110402.txt

KinoSat_110402
-------------------------
    Access    *     Start Time (UTCG)     *     Stop Time (UTCG)  *   Duration (s) *   Data (Mbytes)
         1   01 Jun 2027 04:20:47.205   01 Jun 2027 04:22:37.746           110.541         55270.500
         2   01 Jun 2027 04:23:08.229   01 Jun 2027 04:23:19.896            11.667          5833.500
         3   01 Jun 2027 04:24:28.411   01 Jun 2027 04:24:32.409             3.998          1999.000
         4   01 Jun 2027 04:25:19.003   01 Jun 2027 04:25:20.262             1.259           629.500
         5   01 Jun 2027 04:26:20.805   01 Jun 2027 04:27:21.644            60.839         30419.500
         6   01 Jun 2027 04:27:23.924   01 Jun 2027 04:27:39.347            15.423          7711.500
         7   01 Jun 2027 05:57:06.403   01 Jun 2027 06:00:02.960           176.557         88278.500
         8   01 Jun 2027 06:02:38.798   01 Jun 2027 06:03:24.584            45.786         22893.000
         9   01 Jun 2027 07:35:21.950   01 Jun 2027 07:38:35.326           193.376         96688.000
        10   01 Jun 2027 07:38:46.299   01 Jun 2027 07:39:02.878            16.579          8289.500
        11   01 Jun 2027 09:10:42.542   01 Jun 2027 09:13:35.991           173.449         86724.500
        12   01 Jun 2027 09:15:31.097   01 Jun 2027 09:16:13.032            41.935         20967.500
        13   02 Jun 2027 03:00:00.000   02 Jun 2027 03:02:09.186           129.186         64593.000
        14   02 Jun 2027 04:32:20.446   02 Jun 2027 04:38:24.308           363.862        181931.000
        15   02 Jun 2027 04:39:11.655   02 Jun 2027 04:39:25.934            14.279          7139.500
        16   02 Jun 2027 04:39:54.417   02 Jun 2027 04:39:54.565             0.148            74.000
        17   02 Jun 2027 06:09:26.207   02 Jun 2027 06:15:15.616           349.409        174704.500
        18   02 Jun 2027 07:47:24.465   02 Jun 2027 07:51:19.843           235.378        117689.000
        19   02 Jun 2027 09:20:33.309   02 Jun 2027 09:26:47.500           374.191        187095.500
        20   02 Jun 2027 09:27:16.472   02 Jun 2027 09:28:29.342            72.870         36435.000
        21   03 Jun 2027 03:07:15.603   03 Jun 2027 03:08:59.478           103.875         51937.500
        22   03 Jun 2027 03:09:19.614   03 Jun 2027 03:14:30.651           311.037        155518.500
        23   03 Jun 2027 03:15:11.599   03 Jun 2027 03:15:33.145            21.546         10773.000
        24   03 Jun 2027 04:44:39.681   03 Jun 2027 04:51:58.718           439.037        219518.500
        25   03 Jun 2027 06:21:27.645   03 Jun 2027 06:27:55.943           388.298        194149.000
        26   03 Jun 2027 07:59:39.360   03 Jun 2027 08:03:23.351           223.991        111995.500
        27   03 Jun 2027 09:33:00.372   03 Jun 2027 09:40:16.278           435.906        217953.000
        28   04 Jun 2027 03:18:44.073   04 Jun 2027 03:26:42.414           478.341        239170.500
        29   04 Jun 2027 03:27:05.538   04 Jun 2027 03:27:47.097            41.559         20779.500
        30   04 Jun 2027 04:56:33.703   04 Jun 2027 05:03:59.166           445.463        222731.500
        31   04 Jun 2027 06:33:18.110   04 Jun 2027 06:39:11.741           353.631        176815.500
        32   04 Jun 2027 06:39:17.873   04 Jun 2027 06:40:03.083            45.210         22605.000
        33   04 Jun 2027 08:11:26.711   04 Jun 2027 08:15:32.828           246.117        123058.500
        34   04 Jun 2027 09:45:17.334   04 Jun 2027 09:51:34.331           376.997        188498.500
        35   05 Jun 2027 03:31:32.540   05 Jun 2027 03:38:50.735           438.195        219097.500
        36   05 Jun 2027 03:39:37.436   05 Jun 2027 03:40:03.445            26.009         13004.500
        37   05 Jun 2027 05:08:40.356   05 Jun 2027 05:15:59.770           439.414        219707.000
        38   05 Jun 2027 06:45:43.374   05 Jun 2027 06:50:31.627           288.253        144126.500
        39   05 Jun 2027 06:50:38.683   05 Jun 2027 06:51:49.651            70.968         35484.000
        40   05 Jun 2027 08:22:53.807   05 Jun 2027 08:27:32.931           279.124        139562.000
        41   05 Jun 2027 09:59:24.098   05 Jun 2027 10:02:35.640           191.542         95771.000
        42   06 Jun 2027 03:43:47.020   06 Jun 2027 03:51:00.360           433.340        216670.000
        43   06 Jun 2027 03:51:01.449   06 Jun 2027 03:52:02.199            60.750         30375.000
        44   06 Jun 2027 05:21:06.639   06 Jun 2027 05:27:47.969           401.330        200665.000
        45   06 Jun 2027 06:58:03.385   06 Jun 2027 07:02:24.935           261.550        130775.000
        46   06 Jun 2027 07:02:26.943   06 Jun 2027 07:03:33.849            66.906         33453.000
        47   06 Jun 2027 08:34:53.779   06 Jun 2027 08:39:21.862           268.083        134041.500
        48   06 Jun 2027 10:12:35.065   06 Jun 2027 10:14:10.557            95.492         47746.000
        49   07 Jun 2027 03:57:06.177   07 Jun 2027 04:02:56.327           350.150        175075.000
        50   07 Jun 2027 04:02:59.763   07 Jun 2027 04:03:34.851            35.088         17544.000
        51   07 Jun 2027 04:03:52.912   07 Jun 2027 04:03:59.094             6.182          3091.000
        52   07 Jun 2027 05:33:14.408   07 Jun 2027 05:39:54.037           399.629        199814.500
        53   07 Jun 2027 07:11:03.949   07 Jun 2027 07:15:22.638           258.689        129344.500
        54   07 Jun 2027 08:47:16.375   07 Jun 2027 08:51:23.327           246.952        123476.000
        55   08 Jun 2027 04:09:23.632   08 Jun 2027 04:15:59.717           396.085        198042.500
        56   08 Jun 2027 05:45:46.650   08 Jun 2027 05:51:55.854           369.204        184602.000
        57   08 Jun 2027 07:23:07.210   08 Jun 2027 07:27:40.486           273.276        136638.000
        58   08 Jun 2027 08:59:16.798   08 Jun 2027 09:04:00.859           284.061        142030.500
        59   09 Jun 2027 04:21:01.360   09 Jun 2027 04:23:28.164           146.804         73402.000
        60   09 Jun 2027 04:24:14.323   09 Jun 2027 04:28:08.669           234.346        117173.000
        61   09 Jun 2027 05:57:20.896   09 Jun 2027 06:03:46.271           385.375        192687.500
        62   09 Jun 2027 07:35:36.883   09 Jun 2027 07:39:29.767           232.884        116442.000
        63   09 Jun 2027 09:11:11.615   09 Jun 2027 09:15:08.214           236.599        118299.500
        64   09 Jun 2027 09:15:29.641   09 Jun 2027 09:16:27.642            58.001         29000.500
        65   10 Jun 2027 03:00:00.000   10 Jun 2027 03:02:23.863           143.863         71931.500
        66   10 Jun 2027 04:32:34.929   10 Jun 2027 04:40:09.226           454.297        227148.500
        67   10 Jun 2027 06:09:40.837   10 Jun 2027 06:16:03.222           382.385        191192.500
        68   10 Jun 2027 07:47:39.074   10 Jun 2027 07:51:34.676           235.602        117801.000
        69   10 Jun 2027 09:20:47.934   10 Jun 2027 09:27:01.914           373.980        186990.000
        70   10 Jun 2027 09:27:26.897   10 Jun 2027 09:28:30.868            63.971         31985.500
        71   11 Jun 2027 03:07:29.986   11 Jun 2027 03:09:21.578           111.592         55796.000
        72   11 Jun 2027 03:09:34.069   11 Jun 2027 03:14:45.979           311.910        155955.000
        73   11 Jun 2027 03:15:26.229   11 Jun 2027 03:15:47.906            21.677         10838.500
        74   11 Jun 2027 04:44:54.525   11 Jun 2027 04:52:13.409           438.884        219442.000
        75   11 Jun 2027 06:21:42.223   11 Jun 2027 06:28:10.758           388.535        194267.500
        76   11 Jun 2027 07:59:54.612   11 Jun 2027 08:03:37.952           223.340        111670.000
        77   11 Jun 2027 09:33:15.075   11 Jun 2027 09:40:30.887           435.812        217906.000
        78   12 Jun 2027 03:18:58.544   12 Jun 2027 03:26:57.171           478.627        239313.500
        79   12 Jun 2027 03:27:20.014   12 Jun 2027 03:28:01.809            41.795         20897.500
        80   12 Jun 2027 04:56:48.341   12 Jun 2027 05:04:13.761           445.420        222710.000
        81   12 Jun 2027 06:33:32.817   12 Jun 2027 06:39:26.127           353.310        176655.000
        82   12 Jun 2027 06:39:32.405   12 Jun 2027 06:40:17.497            45.092         22546.000
        83   12 Jun 2027 08:11:41.408   12 Jun 2027 08:15:47.480           246.072        123036.000
        84   12 Jun 2027 09:45:32.110   12 Jun 2027 09:51:11.919           339.809        169904.500
        85   13 Jun 2027 03:31:46.728   13 Jun 2027 03:39:05.429           438.701        219350.500
        86   13 Jun 2027 03:39:33.460   13 Jun 2027 03:40:18.066            44.606         22303.000
        87   13 Jun 2027 05:08:55.187   13 Jun 2027 05:16:14.455           439.268        219634.000
        88   13 Jun 2027 06:45:58.095   13 Jun 2027 06:50:45.003           286.908        143454.000
        89   13 Jun 2027 06:51:09.970   13 Jun 2027 06:52:04.190            54.220         27110.000
        90   13 Jun 2027 08:23:09.170   13 Jun 2027 08:27:47.683           278.513        139256.500
        91   13 Jun 2027 09:59:38.808   13 Jun 2027 10:02:50.051           191.243         95621.500
