uniorb/output/strategy_4/Camera/Camera_KinoSat_111102.txt

KinoSat_111102
-------------------------
    Access    *     Start Time (UTCG)     *     Stop Time (UTCG)  *   Duration (s) *   Data (Mbytes)
         1   01 Jun 2027 03:52:07.671   01 Jun 2027 03:54:12.440           124.769         62384.500
         2   01 Jun 2027 04:04:20.320   01 Jun 2027 04:04:51.998            31.678         15839.000
         3   01 Jun 2027 05:26:14.612   01 Jun 2027 05:27:28.185            73.573         36786.500
         4   01 Jun 2027 05:28:54.730   01 Jun 2027 05:28:58.808             4.078          2039.000
         5   01 Jun 2027 05:29:26.431   01 Jun 2027 05:29:34.787             8.356          4178.000
         6   01 Jun 2027 05:29:53.416   01 Jun 2027 05:30:23.870            30.454         15227.000
         7   01 Jun 2027 07:01:03.107   01 Jun 2027 07:02:57.300           114.193         57096.500
         8   01 Jun 2027 07:07:45.395   01 Jun 2027 07:07:52.272             6.877          3438.500
         9   01 Jun 2027 07:08:11.282   01 Jun 2027 07:08:30.301            19.019          9509.500
        10   01 Jun 2027 07:09:56.324   01 Jun 2027 07:10:06.720            10.396          5198.000
        11   01 Jun 2027 08:38:53.545   01 Jun 2027 08:40:51.699           118.154         59077.000
        12   01 Jun 2027 08:41:33.013   01 Jun 2027 08:41:44.790            11.777          5888.500
        13   01 Jun 2027 08:42:17.873   01 Jun 2027 08:42:24.675             6.802          3401.000
        14   01 Jun 2027 08:44:37.209   01 Jun 2027 08:44:53.295            16.086          8043.000
        15   01 Jun 2027 08:46:09.581   01 Jun 2027 08:46:16.792             7.211          3605.500
        16   01 Jun 2027 10:15:38.265   01 Jun 2027 10:16:08.878            30.613         15306.500
        17   01 Jun 2027 10:16:09.511   01 Jun 2027 10:16:42.773            33.262         16631.000
        18   01 Jun 2027 10:17:12.184   01 Jun 2027 10:18:21.160            68.976         34488.000
        19   01 Jun 2027 10:19:46.929   01 Jun 2027 10:19:51.564             4.635          2317.500
        20   01 Jun 2027 10:20:02.222   01 Jun 2027 10:20:04.779             2.557          1278.500
        21   01 Jun 2027 10:20:26.584   01 Jun 2027 10:20:30.158             3.574          1787.000
        22   01 Jun 2027 10:21:11.830   01 Jun 2027 10:21:20.604             8.774          4387.000
        23   01 Jun 2027 11:53:46.844   01 Jun 2027 11:55:28.969           102.125         51062.500
        24   01 Jun 2027 11:56:19.879   01 Jun 2027 11:56:21.479             1.600           800.000
        25   01 Jun 2027 11:57:03.246   01 Jun 2027 11:57:21.283            18.037          9018.500
        26   01 Jun 2027 11:57:39.896   01 Jun 2027 11:57:43.359             3.463          1731.500
        27   02 Jun 2027 04:04:05.414   02 Jun 2027 04:04:40.333            34.919         17459.500
        28   02 Jun 2027 04:05:21.155   02 Jun 2027 04:05:21.155             0.000             0.000
        29   02 Jun 2027 04:06:03.306   02 Jun 2027 04:06:07.113             3.807          1903.500
        30   02 Jun 2027 05:40:02.682   02 Jun 2027 05:42:54.456           171.774         85887.000
        31   02 Jun 2027 07:13:51.293   02 Jun 2027 07:17:28.255           216.962        108481.000
        32   02 Jun 2027 07:18:03.627   02 Jun 2027 07:18:27.124            23.497         11748.500
        33   02 Jun 2027 07:21:37.403   02 Jun 2027 07:21:41.881             4.478          2239.000
        34   02 Jun 2027 08:51:00.749   02 Jun 2027 08:53:36.506           155.757         77878.500
        35   02 Jun 2027 08:55:04.439   02 Jun 2027 08:55:50.865            46.426         23213.000
        36   02 Jun 2027 08:56:08.953   02 Jun 2027 08:56:35.412            26.459         13229.500
        37   02 Jun 2027 08:58:10.884   02 Jun 2027 08:58:12.655             1.771           885.500
        38   02 Jun 2027 10:28:03.632   02 Jun 2027 10:28:42.999            39.367         18618.376
        39   02 Jun 2027 10:30:07.837   02 Jun 2027 10:30:09.172             1.335           169.500
        40   02 Jun 2027 10:31:45.016   02 Jun 2027 10:31:48.672             3.656           366.375
        41   02 Jun 2027 10:32:00.951   02 Jun 2027 10:32:02.565             1.614            95.062
        42   02 Jun 2027 10:32:09.024   02 Jun 2027 10:32:09.852             0.828           201.844
        43   02 Jun 2027 10:32:10.745   02 Jun 2027 10:32:11.872             1.127            27.906
        44   02 Jun 2027 10:32:58.286   02 Jun 2027 10:33:07.858             9.572          1439.219
        45   02 Jun 2027 10:33:50.613   02 Jun 2027 10:33:54.870             4.257          1159.844
        46   02 Jun 2027 10:34:00.562   02 Jun 2027 10:34:07.217             6.655           158.437
        47   03 Jun 2027 04:15:58.073   03 Jun 2027 04:16:49.751            51.678         25839.000
        48   03 Jun 2027 05:52:20.455   03 Jun 2027 05:54:41.073           140.618         70309.000
        49   03 Jun 2027 05:54:43.221   03 Jun 2027 05:54:51.657             8.436          4218.000
        50   03 Jun 2027 05:55:01.031   03 Jun 2027 05:55:01.031             0.000             0.000
        51   03 Jun 2027 05:55:11.804   03 Jun 2027 05:55:23.138            11.334          5667.000
        52   03 Jun 2027 07:26:12.211   03 Jun 2027 07:28:04.081           111.870         55639.500
        53   03 Jun 2027 07:28:09.426   03 Jun 2027 07:28:11.507             2.081            92.406
        54   03 Jun 2027 07:28:15.301   03 Jun 2027 07:28:19.016             3.715            73.094
        55   03 Jun 2027 07:29:06.243   03 Jun 2027 07:29:09.139             2.896          1266.187
        56   03 Jun 2027 07:30:07.633   03 Jun 2027 07:30:11.907             4.274          1668.813
        57   03 Jun 2027 07:31:28.638   03 Jun 2027 07:31:28.638             0.000             0.000
        58   03 Jun 2027 07:32:32.675   03 Jun 2027 07:32:43.229            10.554          4258.375
        59   03 Jun 2027 07:32:57.831   03 Jun 2027 07:32:58.842             1.011           239.375
        60   03 Jun 2027 07:33:40.768   03 Jun 2027 07:33:45.379             4.611          1310.188
        61   03 Jun 2027 07:34:14.776   03 Jun 2027 07:34:14.776             0.000             0.000
        62   03 Jun 2027 07:34:19.266   03 Jun 2027 07:34:22.317             3.051           479.250
        63   03 Jun 2027 09:03:27.359   03 Jun 2027 09:03:39.162            11.803          5889.125
        64   03 Jun 2027 09:06:20.448   03 Jun 2027 09:06:21.915             1.467           261.469
        65   03 Jun 2027 09:07:06.654   03 Jun 2027 09:07:09.197             2.543          1061.969
        66   03 Jun 2027 09:08:32.356   03 Jun 2027 09:08:36.613             4.257           325.469
        67   03 Jun 2027 09:09:29.851   03 Jun 2027 09:09:33.024             3.173          1233.500
        68   03 Jun 2027 10:40:28.379   03 Jun 2027 10:40:42.961            14.582          4968.531
        69   03 Jun 2027 10:43:08.656   03 Jun 2027 10:43:13.250             4.594          1882.406
        70   03 Jun 2027 10:43:41.882   03 Jun 2027 10:43:43.398             1.516           682.219
        71   03 Jun 2027 10:43:53.528   03 Jun 2027 10:43:56.172             2.644            82.250
        72   03 Jun 2027 10:44:03.125   03 Jun 2027 10:44:03.569             0.444           217.281
        73   03 Jun 2027 10:44:10.239   03 Jun 2027 10:44:11.342             1.103            32.687
        74   03 Jun 2027 10:44:40.069   03 Jun 2027 10:44:43.292             3.223           660.094
        75   03 Jun 2027 10:45:40.756   03 Jun 2027 10:45:45.260             4.504          1531.375
        76   04 Jun 2027 03:04:16.636   04 Jun 2027 03:05:14.934            58.298         29149.000
        77   04 Jun 2027 03:05:29.983   04 Jun 2027 03:05:36.391             6.408          3204.000
        78   04 Jun 2027 03:06:49.701   04 Jun 2027 03:06:54.151             4.450          2225.000
        79   04 Jun 2027 03:08:34.056   04 Jun 2027 03:08:51.666            17.610          8805.000
        80   04 Jun 2027 04:27:46.799   04 Jun 2027 04:28:32.713            45.914         22957.000
        81   04 Jun 2027 04:29:04.397   04 Jun 2027 04:29:13.881             9.484          4742.000
        82   04 Jun 2027 06:04:23.925   04 Jun 2027 06:07:19.603           175.678         87839.000
        83   04 Jun 2027 07:39:29.844   04 Jun 2027 07:39:48.286            18.442          8676.000
        84   04 Jun 2027 07:40:35.085   04 Jun 2027 07:40:37.148             2.063           563.156
        85   04 Jun 2027 07:41:02.480   04 Jun 2027 07:41:07.815             5.335           463.875
        86   04 Jun 2027 07:41:43.764   04 Jun 2027 07:41:47.286             3.522          1123.406
        87   04 Jun 2027 07:42:51.769   04 Jun 2027 07:42:54.636             2.867           426.156
        88   04 Jun 2027 07:43:30.188   04 Jun 2027 07:43:33.773             3.585           592.406
        89   04 Jun 2027 07:44:50.765   04 Jun 2027 07:44:58.220             7.455          2213.531
        90   04 Jun 2027 07:45:27.112   04 Jun 2027 07:45:32.976             5.864           780.875
        91   04 Jun 2027 07:46:08.557   04 Jun 2027 07:46:10.158             1.601           410.781
        92   04 Jun 2027 09:15:50.629   04 Jun 2027 09:16:03.804            13.175          6582.312
        93   04 Jun 2027 09:18:00.281   04 Jun 2027 09:18:00.958             0.677             6.281
        94   04 Jun 2027 09:18:59.715   04 Jun 2027 09:19:03.123             3.408          1395.219
        95   04 Jun 2027 09:19:19.024   04 Jun 2027 09:19:25.117             6.093           318.125
        96   04 Jun 2027 09:19:47.649   04 Jun 2027 09:19:49.914             2.265           620.094
        97   04 Jun 2027 09:20:16.280   04 Jun 2027 09:20:16.760             0.480            90.250
        98   04 Jun 2027 09:20:28.037   04 Jun 2027 09:20:29.040             1.003             6.469
        99   04 Jun 2027 09:21:40.474   04 Jun 2027 09:21:42.578             2.104           628.313
       100   04 Jun 2027 10:53:20.322   04 Jun 2027 10:53:35.528            15.206          6166.906
       101   04 Jun 2027 10:54:50.302   04 Jun 2027 10:54:54.973             4.671          1336.313
       102   04 Jun 2027 10:56:27.710   04 Jun 2027 10:56:38.898            11.188          1942.156
       103   04 Jun 2027 10:57:25.233   04 Jun 2027 10:57:27.936             2.703          1220.031
       104   05 Jun 2027 03:17:45.575   05 Jun 2027 03:18:28.200            42.625         21312.500
       105   05 Jun 2027 03:18:59.972   05 Jun 2027 03:20:13.214            73.242         36621.000
       106   05 Jun 2027 03:20:15.315   05 Jun 2027 03:20:30.369            15.054          7527.000
       107   05 Jun 2027 04:40:00.629   05 Jun 2027 04:40:48.069            47.440         23720.000
       108   05 Jun 2027 04:40:52.230   05 Jun 2027 04:41:01.041             8.811          4405.500
       109   05 Jun 2027 04:41:06.757   05 Jun 2027 04:41:06.757             0.000             0.000
       110   05 Jun 2027 04:41:39.185   05 Jun 2027 04:41:44.628             5.443          2721.500
       111   05 Jun 2027 04:42:28.284   05 Jun 2027 04:42:28.284             0.000             0.000
       112   05 Jun 2027 04:42:52.301   05 Jun 2027 04:43:09.831            17.530          8765.000
       113   05 Jun 2027 06:16:33.859   05 Jun 2027 06:18:18.455           104.596         50002.000
       114   05 Jun 2027 06:18:33.276   05 Jun 2027 06:18:33.524             0.248           123.094
       115   05 Jun 2027 06:18:53.055   05 Jun 2027 06:18:53.055             0.000             0.000
       116   05 Jun 2027 06:18:55.159   05 Jun 2027 06:19:00.421             5.262           206.875
       117   05 Jun 2027 06:19:07.487   05 Jun 2027 06:19:07.487             0.000             0.000
       118   05 Jun 2027 06:19:33.331   05 Jun 2027 06:19:37.049             3.718           985.063
       119   05 Jun 2027 07:51:44.107   05 Jun 2027 07:51:53.873             9.766          2610.875
       120   05 Jun 2027 07:52:05.444   05 Jun 2027 07:52:10.407             4.963           143.188
       121   05 Jun 2027 07:53:05.882   05 Jun 2027 07:53:09.025             3.143           232.313
       122   05 Jun 2027 07:53:32.471   05 Jun 2027 07:53:34.050             1.579           732.687
       123   05 Jun 2027 07:54:35.002   05 Jun 2027 07:54:37.948             2.946          1266.969
       124   05 Jun 2027 07:54:59.257   05 Jun 2027 07:55:00.645             1.388           665.906
       125   05 Jun 2027 07:55:40.572   05 Jun 2027 07:55:44.357             3.785           839.969
       126   05 Jun 2027 07:57:05.318   05 Jun 2027 07:57:09.187             3.869           451.969
       127   05 Jun 2027 07:58:01.124   05 Jun 2027 07:58:02.019             0.895            33.812
       128   05 Jun 2027 09:28:05.622   05 Jun 2027 09:28:19.280            13.658          6620.250
       129   05 Jun 2027 09:30:13.808   05 Jun 2027 09:30:17.899             4.091           680.313
       130   05 Jun 2027 09:30:44.565   05 Jun 2027 09:30:47.527             2.962           162.406
       131   05 Jun 2027 09:31:16.811   05 Jun 2027 09:31:20.503             3.692           828.094
       132   05 Jun 2027 09:32:33.297   05 Jun 2027 09:32:37.674             4.377           367.156
       133   05 Jun 2027 09:33:08.718   05 Jun 2027 09:33:10.220             1.502           617.156
       134   05 Jun 2027 09:33:13.965   05 Jun 2027 09:33:14.423             0.458            43.813
       135   05 Jun 2027 11:05:23.993   05 Jun 2027 11:05:36.624            12.631          6039.437
       136   05 Jun 2027 11:06:45.575   05 Jun 2027 11:06:54.397             8.822          1451.813
       137   05 Jun 2027 11:08:43.338   05 Jun 2027 11:08:46.249             2.911          1105.562
       138   05 Jun 2027 11:09:36.874   05 Jun 2027 11:09:42.899             6.025          1238.594
       139   05 Jun 2027 11:09:59.259   05 Jun 2027 11:10:01.269             2.010           438.656
       140   06 Jun 2027 03:28:36.038   06 Jun 2027 03:29:14.897            38.859         19429.500
       141   06 Jun 2027 03:29:37.053   06 Jun 2027 03:32:08.680           151.627         75813.500
       142   06 Jun 2027 04:52:30.265   06 Jun 2027 04:52:37.362             7.097          3548.500
       143   06 Jun 2027 04:54:18.934   06 Jun 2027 04:54:21.064             2.130          1065.000
       144   06 Jun 2027 06:28:25.036   06 Jun 2027 06:30:00.636            95.600         47050.406
       145   06 Jun 2027 06:31:38.825   06 Jun 2027 06:31:45.919             7.094          2783.219
       146   06 Jun 2027 06:32:13.688   06 Jun 2027 06:32:15.468             1.780           728.000
       147   06 Jun 2027 08:03:18.803   06 Jun 2027 08:03:26.070             7.267          1737.125
       148   06 Jun 2027 08:03:49.553   06 Jun 2027 08:03:52.896             3.343           704.156
       149   06 Jun 2027 08:05:09.248   06 Jun 2027 08:05:14.460             5.212          2217.406
       150   06 Jun 2027 08:05:57.437   06 Jun 2027 08:05:59.601             2.164           990.219
       151   06 Jun 2027 08:06:26.246   06 Jun 2027 08:06:30.622             4.376           567.594
       152   06 Jun 2027 08:07:15.918   06 Jun 2027 08:07:20.459             4.541          1415.500
       153   06 Jun 2027 08:08:50.344   06 Jun 2027 08:08:57.862             7.518          2082.250
       154   06 Jun 2027 08:09:53.774   06 Jun 2027 08:09:58.623             4.849          1417.750
       155   06 Jun 2027 09:39:41.659   06 Jun 2027 09:39:55.044            13.385          4958.687
       156   06 Jun 2027 09:42:43.068   06 Jun 2027 09:42:45.603             2.535           112.750
       157   06 Jun 2027 09:43:11.757   06 Jun 2027 09:43:13.094             1.337           277.438
       158   06 Jun 2027 09:43:22.638   06 Jun 2027 09:43:25.794             3.156           262.906
       159   06 Jun 2027 09:44:13.079   06 Jun 2027 09:44:17.216             4.137          1441.344
       160   06 Jun 2027 09:44:51.759   06 Jun 2027 09:44:53.283             1.524           437.250
       161   06 Jun 2027 09:45:07.964   06 Jun 2027 09:45:08.672             0.708           268.813
       162   06 Jun 2027 11:17:58.379   06 Jun 2027 11:18:15.878            17.499          6391.562
       163   06 Jun 2027 11:18:40.694   06 Jun 2027 11:18:42.436             1.742           359.625
       164   06 Jun 2027 11:20:05.704   06 Jun 2027 11:20:07.017             1.313           601.750
       165   06 Jun 2027 11:20:11.758   06 Jun 2027 11:20:13.215             1.457            69.875
       166   06 Jun 2027 11:21:11.441   06 Jun 2027 11:21:17.318             5.877          1790.563
       167   06 Jun 2027 11:21:36.230   06 Jun 2027 11:21:43.764             7.534           591.000
       168   06 Jun 2027 11:21:46.850   06 Jun 2027 11:21:48.331             1.481            96.437
       169   07 Jun 2027 03:29:15.339   07 Jun 2027 03:29:33.782            18.443          9221.500
       170   07 Jun 2027 03:40:31.898   07 Jun 2027 03:42:12.606           100.708         50354.000
       171   07 Jun 2027 03:43:10.168   07 Jun 2027 03:43:39.101            28.933         14466.500
       172   07 Jun 2027 05:03:07.751   07 Jun 2027 05:04:38.303            90.552         45276.000
       173   07 Jun 2027 06:38:42.428   07 Jun 2027 06:39:26.577            44.149         22074.500
       174   07 Jun 2027 06:40:08.864   07 Jun 2027 06:40:49.000            40.136         18948.843
       175   07 Jun 2027 06:41:04.224   07 Jun 2027 06:41:04.224             0.000             0.000
       176   07 Jun 2027 06:41:14.034   07 Jun 2027 06:41:17.579             3.545           495.750
       177   07 Jun 2027 06:42:02.714   07 Jun 2027 06:42:09.033             6.319          1356.906
       178   07 Jun 2027 06:42:57.360   07 Jun 2027 06:42:59.892             2.532          1224.562
       179   07 Jun 2027 06:43:44.722   07 Jun 2027 06:43:48.001             3.279          1400.937
       180   07 Jun 2027 06:44:27.842   07 Jun 2027 06:44:36.639             8.797          1046.594
       181   07 Jun 2027 08:14:55.152   07 Jun 2027 08:15:04.440             9.288          1979.562
       182   07 Jun 2027 08:15:58.113   07 Jun 2027 08:16:08.350            10.237           979.500
       183   07 Jun 2027 08:16:22.783   07 Jun 2027 08:16:24.591             1.808           266.031
       184   07 Jun 2027 08:17:08.670   07 Jun 2027 08:17:10.141             1.471           348.344
       185   07 Jun 2027 08:17:57.475   07 Jun 2027 08:18:00.319             2.844          1404.094
       186   07 Jun 2027 08:18:24.684   07 Jun 2027 08:18:24.808             0.124            62.000
       187   07 Jun 2027 08:19:17.878   07 Jun 2027 08:19:25.616             7.738          1845.438
       188   07 Jun 2027 08:19:49.432   07 Jun 2027 08:19:54.984             5.552           467.062
       189   07 Jun 2027 08:21:11.351   07 Jun 2027 08:21:13.999             2.648           694.406
       190   07 Jun 2027 08:21:23.499   07 Jun 2027 08:21:25.483             1.984           210.625
       191   07 Jun 2027 09:52:01.529   07 Jun 2027 09:52:12.148            10.619          4746.688
       192   07 Jun 2027 09:55:03.300   07 Jun 2027 09:55:07.919             4.619          1281.937
       193   07 Jun 2027 09:56:07.217   07 Jun 2027 09:56:13.636             6.419          1200.937
       194   07 Jun 2027 09:56:41.467   07 Jun 2027 09:56:42.383             0.916           284.813
       195   07 Jun 2027 09:56:52.709   07 Jun 2027 09:56:53.791             1.082           268.000
       196   07 Jun 2027 09:58:00.372   07 Jun 2027 09:58:04.834             4.462          1558.094
       197   07 Jun 2027 09:58:23.251   07 Jun 2027 09:58:23.673             0.422           105.562
       198   07 Jun 2027 11:29:59.479   07 Jun 2027 11:30:15.554            16.075          6943.500
       199   07 Jun 2027 11:30:54.185   07 Jun 2027 11:31:00.235             6.050           912.531
       200   07 Jun 2027 11:32:19.746   07 Jun 2027 11:32:21.681             1.935           442.000
       201   07 Jun 2027 11:33:29.446   07 Jun 2027 11:33:30.397             0.951           160.844
       202   07 Jun 2027 11:33:55.596   07 Jun 2027 11:33:56.205             0.609           304.500
       203   08 Jun 2027 03:40:50.863   08 Jun 2027 03:41:35.169            44.306         22153.000
       204   08 Jun 2027 03:52:34.412   08 Jun 2027 03:53:40.948            66.536         33268.000
       205   08 Jun 2027 05:14:49.895   08 Jun 2027 05:15:56.363            66.468         33234.000
       206   08 Jun 2027 05:16:46.922   08 Jun 2027 05:17:37.014            50.092         25046.000
       207   08 Jun 2027 05:19:00.512   08 Jun 2027 05:19:02.347             1.835           917.500
       208   08 Jun 2027 06:49:49.160   08 Jun 2027 06:51:27.684            98.524         49134.500
       209   08 Jun 2027 06:52:55.685   08 Jun 2027 06:53:01.828             6.143          2022.469
       210   08 Jun 2027 06:53:16.586   08 Jun 2027 06:53:16.586             0.000             0.000
       211   08 Jun 2027 06:53:35.195   08 Jun 2027 06:53:42.581             7.386           984.313
       212   08 Jun 2027 06:54:57.842   08 Jun 2027 06:55:04.327             6.485          2310.625
       213   08 Jun 2027 06:55:28.695   08 Jun 2027 06:55:28.695             0.000             0.000
       214   08 Jun 2027 06:55:42.138   08 Jun 2027 06:55:46.663             4.525           867.219
       215   08 Jun 2027 06:56:10.104   08 Jun 2027 06:56:10.104             0.000             0.000
       216   08 Jun 2027 06:56:17.148   08 Jun 2027 06:56:18.667             1.519           246.312
       217   08 Jun 2027 06:56:38.293   08 Jun 2027 06:56:38.293             0.000             0.000
       218   08 Jun 2027 06:57:02.394   08 Jun 2027 06:57:05.436             3.042          1237.531
       219   08 Jun 2027 08:27:15.113   08 Jun 2027 08:27:19.609             4.496          1734.812
       220   08 Jun 2027 08:29:09.891   08 Jun 2027 08:29:15.031             5.140          2171.094
       221   08 Jun 2027 08:30:09.413   08 Jun 2027 08:30:13.283             3.870          1677.344
       222   08 Jun 2027 08:30:34.337   08 Jun 2027 08:30:35.439             1.102           550.406
       223   08 Jun 2027 08:31:19.520   08 Jun 2027 08:31:26.267             6.747          1083.406
       224   08 Jun 2027 08:31:46.742   08 Jun 2027 08:31:49.088             2.346           480.531
       225   08 Jun 2027 08:32:47.074   08 Jun 2027 08:32:50.274             3.200          1538.594
       226   08 Jun 2027 08:33:29.864   08 Jun 2027 08:33:32.698             2.834          1154.719
       227   08 Jun 2027 10:04:01.992   08 Jun 2027 10:04:12.625            10.633          4890.375
       228   08 Jun 2027 10:05:29.695   08 Jun 2027 10:05:31.565             1.870           386.531
       229   08 Jun 2027 10:06:43.500   08 Jun 2027 10:06:49.002             5.502           156.094
       230   08 Jun 2027 10:06:52.203   08 Jun 2027 10:06:53.214             1.011           100.031
       231   08 Jun 2027 10:07:51.509   08 Jun 2027 10:07:54.994             3.485          1221.375
       232   08 Jun 2027 10:08:01.818   08 Jun 2027 10:08:03.495             1.677            96.812
       233   08 Jun 2027 10:08:23.008   08 Jun 2027 10:08:27.699             4.691           378.750
       234   08 Jun 2027 10:08:49.975   08 Jun 2027 10:08:54.541             4.566           628.656
       235   08 Jun 2027 10:09:20.391   08 Jun 2027 10:09:24.945             4.554           211.906
       236   08 Jun 2027 10:09:50.065   08 Jun 2027 10:09:52.610             2.545           640.594
       237   08 Jun 2027 10:10:25.007   08 Jun 2027 10:10:30.340             5.333           801.188
       238   08 Jun 2027 11:42:00.060   08 Jun 2027 11:42:13.652            13.592          6072.219
       239   08 Jun 2027 11:43:50.710   08 Jun 2027 11:43:56.063             5.353          1128.656
       240   08 Jun 2027 11:44:24.818   08 Jun 2027 11:44:28.204             3.386           641.688
       241   08 Jun 2027 11:44:52.441   08 Jun 2027 11:44:54.764             2.323           459.281
       242   08 Jun 2027 11:45:20.842   08 Jun 2027 11:45:25.934             5.092           393.313
       243   08 Jun 2027 11:45:51.433   08 Jun 2027 11:45:54.468             3.035           545.312
       244   08 Jun 2027 11:46:05.110   08 Jun 2027 11:46:07.168             2.058           332.562
       245   09 Jun 2027 03:52:23.246   09 Jun 2027 03:52:37.679            14.433          7216.500
       246   09 Jun 2027 03:53:27.414   09 Jun 2027 03:53:36.461             9.047          4523.500
       247   09 Jun 2027 04:04:35.866   09 Jun 2027 04:05:07.455            31.589         15794.500
       248   09 Jun 2027 05:26:29.731   09 Jun 2027 05:27:42.848            73.117         36558.500
       249   09 Jun 2027 05:28:32.556   09 Jun 2027 05:29:40.791            68.235         34117.500
       250   09 Jun 2027 05:31:00.767   09 Jun 2027 05:31:12.317            11.550          5775.000
       251   09 Jun 2027 07:01:17.670   09 Jun 2027 07:03:13.322           115.652         57826.000
       252   09 Jun 2027 07:03:28.571   09 Jun 2027 07:03:35.986             7.415          1025.625
       253   09 Jun 2027 07:04:37.566   09 Jun 2027 07:04:42.759             5.193          1655.469
       254   09 Jun 2027 07:04:47.697   09 Jun 2027 07:04:48.880             1.183            95.406
       255   09 Jun 2027 07:04:52.132   09 Jun 2027 07:04:52.132             0.000             0.000
       256   09 Jun 2027 07:05:09.218   09 Jun 2027 07:05:10.572             1.354           595.500
       257   09 Jun 2027 07:05:18.942   09 Jun 2027 07:05:22.495             3.553           261.562
       258   09 Jun 2027 07:06:50.213   09 Jun 2027 07:06:57.820             7.607          2359.438
       259   09 Jun 2027 07:08:01.245   09 Jun 2027 07:08:08.639             7.394          1982.031
       260   09 Jun 2027 07:08:27.363   09 Jun 2027 07:08:30.275             2.912           585.125
       261   09 Jun 2027 07:08:46.624   09 Jun 2027 07:08:48.200             1.576           510.906
       262   09 Jun 2027 07:09:13.779   09 Jun 2027 07:09:13.779             0.000             0.000
       263   09 Jun 2027 07:10:11.216   09 Jun 2027 07:10:17.079             5.863          2594.250
       264   09 Jun 2027 08:39:09.252   09 Jun 2027 08:39:20.824            11.572          4523.062
       265   09 Jun 2027 08:41:08.979   09 Jun 2027 08:41:13.359             4.380          1990.938
       266   09 Jun 2027 08:42:04.388   09 Jun 2027 08:42:07.523             3.135          1424.375
       267   09 Jun 2027 08:43:20.388   09 Jun 2027 08:43:22.258             1.870           596.813
       268   09 Jun 2027 08:44:23.649   09 Jun 2027 08:44:30.927             7.278          1824.531
       269   09 Jun 2027 08:45:04.225   09 Jun 2027 08:45:08.020             3.795           632.000
       270   09 Jun 2027 08:45:50.472   09 Jun 2027 08:45:51.824             1.352           186.187
       271   09 Jun 2027 08:46:24.992   09 Jun 2027 08:46:27.502             2.510           367.031
       272   09 Jun 2027 10:15:53.699   09 Jun 2027 10:16:08.032            14.333          5626.562
       273   09 Jun 2027 10:16:25.685   09 Jun 2027 10:16:31.314             5.629            85.813
       274   09 Jun 2027 10:18:34.481   09 Jun 2027 10:18:43.091             8.610          2062.625
       275   09 Jun 2027 10:19:26.378   09 Jun 2027 10:19:28.718             2.340          1108.094
       276   09 Jun 2027 10:20:03.011   09 Jun 2027 10:20:05.754             2.743          1071.656
       277   09 Jun 2027 10:20:14.070   09 Jun 2027 10:20:15.708             1.638           259.875
       278   09 Jun 2027 10:20:21.016   09 Jun 2027 10:20:22.032             1.016           165.875
       279   09 Jun 2027 10:20:46.899   09 Jun 2027 10:20:48.559             1.660           703.000
       280   09 Jun 2027 10:22:07.282   09 Jun 2027 10:22:10.977             3.695          1657.812
       281   09 Jun 2027 11:54:02.888   09 Jun 2027 11:54:17.264            14.376          6328.219
       282   09 Jun 2027 11:54:44.762   09 Jun 2027 11:54:47.295             2.533           242.063
       283   09 Jun 2027 11:56:01.947   09 Jun 2027 11:56:07.356             5.409          1993.844
       284   09 Jun 2027 11:56:12.654   09 Jun 2027 11:56:13.273             0.619           165.562
       285   09 Jun 2027 11:57:19.205   09 Jun 2027 11:57:22.413             3.208          1263.562
       286   09 Jun 2027 11:57:49.644   09 Jun 2027 11:57:52.979             3.335           372.625
       287   09 Jun 2027 11:58:05.223   09 Jun 2027 11:58:07.239             2.016           269.531
       288   10 Jun 2027 04:04:20.617   10 Jun 2027 04:04:40.099            19.482          9741.000
       289   10 Jun 2027 04:05:10.761   10 Jun 2027 04:05:10.761             0.000             0.000
       290   10 Jun 2027 04:05:35.646   10 Jun 2027 04:05:37.628             1.982           991.000
       291   10 Jun 2027 04:06:32.992   10 Jun 2027 04:06:37.111             4.119          2059.500
       292   10 Jun 2027 05:40:18.679   10 Jun 2027 05:43:05.321           166.642         83321.000
       293   10 Jun 2027 07:14:06.800   10 Jun 2027 07:16:19.730           132.930         66313.781
       294   10 Jun 2027 07:16:48.287   10 Jun 2027 07:16:52.001             3.714           892.406
       295   10 Jun 2027 07:17:21.064   10 Jun 2027 07:17:21.839             0.775           223.313
       296   10 Jun 2027 07:18:21.584   10 Jun 2027 07:18:24.789             3.205          1471.656
       297   10 Jun 2027 07:19:44.847   10 Jun 2027 07:19:53.052             8.205          1950.531
       298   10 Jun 2027 07:20:19.572   10 Jun 2027 07:20:19.572             0.000             0.000
       299   10 Jun 2027 07:21:38.549   10 Jun 2027 07:21:42.038             3.489          1744.500
       300   10 Jun 2027 07:21:52.006   10 Jun 2027 07:21:56.265             4.259          1284.750
       301   10 Jun 2027 08:51:16.332   10 Jun 2027 08:51:25.760             9.428          4083.031
       302   10 Jun 2027 08:53:21.730   10 Jun 2027 08:53:26.071             4.341           452.000
       303   10 Jun 2027 08:54:01.709   10 Jun 2027 08:54:02.875             1.166           318.906
       304   10 Jun 2027 08:54:43.498   10 Jun 2027 08:54:44.668             1.170           112.094
       305   10 Jun 2027 08:54:57.414   10 Jun 2027 08:54:59.791             2.377           232.687
       306   10 Jun 2027 08:55:53.383   10 Jun 2027 08:55:57.179             3.796          1034.437
       307   10 Jun 2027 08:57:08.176   10 Jun 2027 08:57:14.695             6.519          2216.469
       308   10 Jun 2027 08:57:54.714   10 Jun 2027 08:57:57.743             3.029            82.406
       309   10 Jun 2027 08:58:05.490   10 Jun 2027 08:58:07.595             2.105           242.094
       310   10 Jun 2027 08:58:18.908   10 Jun 2027 08:58:23.937             5.029           170.875
       311   10 Jun 2027 10:28:20.343   10 Jun 2027 10:28:27.130             6.787          3393.500
       312   10 Jun 2027 10:28:45.011   10 Jun 2027 10:28:55.275            10.264          3445.344
       313   10 Jun 2027 10:31:52.996   10 Jun 2027 10:32:01.952             8.956          1737.656
       314   10 Jun 2027 10:32:12.411   10 Jun 2027 10:32:13.674             1.263           297.219
       315   10 Jun 2027 10:32:27.398   10 Jun 2027 10:32:29.832             2.434           424.062
       316   10 Jun 2027 10:32:46.230   10 Jun 2027 10:32:47.382             1.152           157.438
       317   10 Jun 2027 10:32:48.261   10 Jun 2027 10:32:48.652             0.391            13.313
       318   10 Jun 2027 10:33:13.599   10 Jun 2027 10:33:24.447            10.848           722.625
       319   10 Jun 2027 10:34:05.760   10 Jun 2027 10:34:09.627             3.867          1117.000
       320   10 Jun 2027 10:34:15.490   10 Jun 2027 10:34:23.522             8.032           108.344
       321   11 Jun 2027 04:16:13.256   11 Jun 2027 04:17:04.651            51.395         25697.500
       322   11 Jun 2027 05:52:35.666   11 Jun 2027 05:54:58.436           142.770         71385.000
       323   11 Jun 2027 05:55:07.435   11 Jun 2027 05:55:18.470            11.035          5517.500
       324   11 Jun 2027 05:55:26.407   11 Jun 2027 05:55:38.659            12.252          6126.000
       325   11 Jun 2027 07:26:28.531   11 Jun 2027 07:28:04.041            95.510         47725.844
       326   11 Jun 2027 07:28:25.580   11 Jun 2027 07:28:25.580             0.000             0.000
       327   11 Jun 2027 07:28:29.507   11 Jun 2027 07:28:31.708             2.201           224.344
       328   11 Jun 2027 07:28:40.704   11 Jun 2027 07:28:41.918             1.214           281.125
       329   11 Jun 2027 07:29:22.926   11 Jun 2027 07:29:25.375             2.449           175.438
       330   11 Jun 2027 07:29:48.299   11 Jun 2027 07:29:52.472             4.173           492.719
       331   11 Jun 2027 07:30:55.875   11 Jun 2027 07:30:55.875             0.000             0.000
       332   11 Jun 2027 07:31:21.539   11 Jun 2027 07:31:32.357            10.818          2783.344
       333   11 Jun 2027 07:32:50.686   11 Jun 2027 07:32:54.847             4.161          2026.031
       334   11 Jun 2027 07:33:14.154   11 Jun 2027 07:33:16.838             2.684           239.656
       335   11 Jun 2027 07:33:57.357   11 Jun 2027 07:34:00.603             3.246          1266.219
       336   11 Jun 2027 07:34:28.100   11 Jun 2027 07:34:31.703             3.603           248.219
       337   11 Jun 2027 09:03:42.660   11 Jun 2027 09:03:53.248            10.588          4855.812
       338   11 Jun 2027 09:07:05.851   11 Jun 2027 09:07:08.602             2.751           459.750
       339   11 Jun 2027 09:07:22.394   11 Jun 2027 09:07:24.677             2.283             9.656
       340   11 Jun 2027 09:08:47.266   11 Jun 2027 09:08:47.959             0.693           271.438
       341   11 Jun 2027 09:09:45.329   11 Jun 2027 09:09:50.351             5.022          1288.000
       342   11 Jun 2027 10:40:44.666   11 Jun 2027 10:40:56.499            11.833          5102.563
       343   11 Jun 2027 10:43:35.696   11 Jun 2027 10:43:41.009             5.313           322.094
       344   11 Jun 2027 10:44:37.430   11 Jun 2027 10:44:48.232            10.802          1597.688
       345   11 Jun 2027 10:45:21.253   11 Jun 2027 10:45:24.738             3.485          1031.906
       346   11 Jun 2027 10:45:35.215   11 Jun 2027 10:45:37.395             2.180           154.844
       347   11 Jun 2027 10:45:55.941   11 Jun 2027 10:45:57.647             1.706           382.469
       348   12 Jun 2027 03:05:08.561   12 Jun 2027 03:05:51.685            43.124         21562.000
       349   12 Jun 2027 03:07:06.785   12 Jun 2027 03:07:15.675             8.890          4445.000
       350   12 Jun 2027 03:07:34.769   12 Jun 2027 03:07:41.147             6.378          3189.000
       351   12 Jun 2027 03:08:49.077   12 Jun 2027 03:08:50.360             1.283           641.500
       352   12 Jun 2027 03:09:05.997   12 Jun 2027 03:09:09.161             3.164          1582.000
       353   12 Jun 2027 04:28:02.719   12 Jun 2027 04:29:15.167            72.448         36224.000
       354   12 Jun 2027 06:04:38.983   12 Jun 2027 06:07:37.575           178.592         89296.000
       355   12 Jun 2027 07:39:46.219   12 Jun 2027 07:40:04.830            18.611          7816.438
       356   12 Jun 2027 07:40:51.626   12 Jun 2027 07:40:54.218             2.592           614.250
       357   12 Jun 2027 07:41:20.732   12 Jun 2027 07:41:23.783             3.051           524.469
       358   12 Jun 2027 07:42:00.534   12 Jun 2027 07:42:02.969             2.435          1126.906
       359   12 Jun 2027 07:43:08.147   12 Jun 2027 07:43:09.579             1.432           451.125
       360   12 Jun 2027 07:43:44.617   12 Jun 2027 07:43:46.543             1.926           500.687
       361   12 Jun 2027 07:45:07.051   12 Jun 2027 07:45:12.988             5.937          2196.125
       362   12 Jun 2027 07:45:43.579   12 Jun 2027 07:45:45.150             1.571           733.281
       363   12 Jun 2027 07:46:25.210   12 Jun 2027 07:46:26.995             1.785           408.469
       364   12 Jun 2027 09:16:06.655   12 Jun 2027 09:16:18.875            12.220          5049.687
       365   12 Jun 2027 09:17:28.174   12 Jun 2027 09:17:33.537             5.363           994.531
       366   12 Jun 2027 09:18:21.089   12 Jun 2027 09:18:22.937             1.848            71.125
       367   12 Jun 2027 09:19:14.687   12 Jun 2027 09:19:17.794             3.107          1389.281
       368   12 Jun 2027 09:19:28.701   12 Jun 2027 09:19:30.297             1.596            91.344
       369   12 Jun 2027 09:19:43.598   12 Jun 2027 09:19:46.732             3.134           383.750
       370   12 Jun 2027 09:20:28.256   12 Jun 2027 09:20:31.893             3.637           768.719
       371   12 Jun 2027 09:20:58.627   12 Jun 2027 09:21:01.241             2.614           835.437
       372   12 Jun 2027 09:21:55.459   12 Jun 2027 09:21:57.442             1.983           608.531
       373   12 Jun 2027 09:22:21.395   12 Jun 2027 09:22:21.930             0.535           158.781
       374   12 Jun 2027 10:53:37.118   12 Jun 2027 10:53:52.225            15.107          5112.281
       375   12 Jun 2027 10:55:07.813   12 Jun 2027 10:55:12.094             4.281          1402.375
       376   12 Jun 2027 10:55:42.277   12 Jun 2027 10:55:44.021             1.744           625.312
       377   12 Jun 2027 10:56:18.858   12 Jun 2027 10:56:21.678             2.820          1088.656
       378   12 Jun 2027 10:56:43.733   12 Jun 2027 10:56:46.141             2.408           542.188
       379   12 Jun 2027 10:56:47.641   12 Jun 2027 10:56:53.479             5.838            46.875
       380   12 Jun 2027 10:57:44.086   12 Jun 2027 10:57:52.697             8.611          1317.344
       381   13 Jun 2027 03:17:44.026   13 Jun 2027 03:19:28.812           104.786         52393.000
       382   13 Jun 2027 03:19:58.437   13 Jun 2027 03:20:32.281            33.844         16922.000
       383   13 Jun 2027 04:40:15.622   13 Jun 2027 04:41:02.957            47.335         23667.500
       384   13 Jun 2027 04:43:08.126   13 Jun 2027 04:43:20.255            12.129          6064.500
       385   13 Jun 2027 06:16:50.074   13 Jun 2027 06:18:46.498           116.424         57531.000
       386   13 Jun 2027 06:18:50.333   13 Jun 2027 06:18:51.216             0.883           119.844
       387   13 Jun 2027 06:19:16.806   13 Jun 2027 06:19:18.182             1.376           400.094
       388   13 Jun 2027 07:51:59.444   13 Jun 2027 07:52:08.392             8.948          1991.031
       389   13 Jun 2027 07:52:20.251   13 Jun 2027 07:52:26.356             6.105            78.094
       390   13 Jun 2027 07:53:24.128   13 Jun 2027 07:53:25.656             1.528           281.062
       391   13 Jun 2027 07:53:48.989   13 Jun 2027 07:53:50.820             1.831           729.156
       392   13 Jun 2027 07:54:50.533   13 Jun 2027 07:54:53.922             3.389          1223.437
       393   13 Jun 2027 07:55:13.334   13 Jun 2027 07:55:15.928             2.594           588.187
       394   13 Jun 2027 07:55:57.578   13 Jun 2027 07:56:01.855             4.277           829.406
       395   13 Jun 2027 07:57:23.293   13 Jun 2027 07:57:24.871             1.578           505.813
       396   13 Jun 2027 07:58:17.759   13 Jun 2027 07:58:17.953             0.194            27.563
       397   13 Jun 2027 09:28:20.783   13 Jun 2027 09:28:34.209            13.426          6605.563
       398   13 Jun 2027 09:30:07.673   13 Jun 2027 09:30:09.701             2.028           699.781
       399   13 Jun 2027 09:31:00.149   13 Jun 2027 09:31:03.738             3.589           190.344
       400   13 Jun 2027 09:32:14.331   13 Jun 2027 09:32:20.232             5.901          1660.312
       401   13 Jun 2027 09:33:28.558   13 Jun 2027 09:33:33.248             4.690          1210.031
       402   13 Jun 2027 11:05:38.501   13 Jun 2027 11:05:51.452            12.951          5516.937
       403   13 Jun 2027 11:06:14.412   13 Jun 2027 11:06:19.165             4.753           544.469
       404   13 Jun 2027 11:08:21.456   13 Jun 2027 11:08:25.634             4.178          1930.875
       405   13 Jun 2027 11:08:59.015   13 Jun 2027 11:09:07.883             8.868          1043.156
       406   13 Jun 2027 11:10:00.034   13 Jun 2027 11:10:02.079             2.045           140.250
