uniorb/output/strategy_4/Camera/Camera_KinoSat_112009.txt

KinoSat_112009
-------------------------
    Access    *     Start Time (UTCG)     *     Stop Time (UTCG)  *   Duration (s) *   Data (Mbytes)
         1   01 Jun 2027 03:54:21.614   01 Jun 2027 03:56:42.660           141.046         70523.000
         2   01 Jun 2027 03:57:34.342   01 Jun 2027 03:57:34.532             0.190            95.000
         3   01 Jun 2027 03:59:12.608   01 Jun 2027 03:59:14.867             2.259          1129.500
         4   01 Jun 2027 03:59:23.560   01 Jun 2027 03:59:33.022             9.462          4731.000
         5   01 Jun 2027 04:00:30.832   01 Jun 2027 04:00:38.103             7.271          3635.500
         6   01 Jun 2027 05:32:38.562   01 Jun 2027 05:32:57.992            19.430          9715.000
         7   01 Jun 2027 05:33:41.429   01 Jun 2027 05:35:38.367           116.938         58469.000
         8   01 Jun 2027 05:36:00.175   01 Jun 2027 05:36:00.175             0.000             0.000
         9   01 Jun 2027 05:36:26.877   01 Jun 2027 05:36:28.235             1.358           679.000
        10   01 Jun 2027 05:38:07.247   01 Jun 2027 05:38:12.457             5.210          2605.000
        11   01 Jun 2027 05:40:59.181   01 Jun 2027 05:41:18.197            19.016          9508.000
        12   01 Jun 2027 07:10:50.547   01 Jun 2027 07:11:27.168            36.621         18310.500
        13   01 Jun 2027 07:11:55.758   01 Jun 2027 07:12:49.018            53.260         26630.000
        14   01 Jun 2027 07:13:15.034   01 Jun 2027 07:13:32.171            17.137          8568.500
        15   01 Jun 2027 07:13:54.153   01 Jun 2027 07:14:00.887             6.734          3367.000
        16   01 Jun 2027 07:14:13.144   01 Jun 2027 07:14:13.144             0.000             0.000
        17   01 Jun 2027 08:34:17.908   01 Jun 2027 08:35:40.871            82.963         41481.500
        18   01 Jun 2027 08:37:00.642   01 Jun 2027 08:37:09.923             9.281          4640.500
        19   01 Jun 2027 10:12:43.867   01 Jun 2027 10:14:12.308            88.441         44220.500
        20   01 Jun 2027 11:45:58.457   01 Jun 2027 11:46:13.743            15.286          7643.000
        21   01 Jun 2027 11:52:19.450   01 Jun 2027 11:52:35.003            15.553          7776.500
        22   02 Jun 2027 04:06:27.926   02 Jun 2027 04:09:31.142           183.216         91608.000
        23   02 Jun 2027 04:09:48.647   02 Jun 2027 04:09:51.501             2.854          1427.000
        24   02 Jun 2027 04:10:09.603   02 Jun 2027 04:10:18.155             8.552          4276.000
        25   02 Jun 2027 05:45:43.446   02 Jun 2027 05:48:28.679           165.233         82616.500
        26   02 Jun 2027 05:50:51.173   02 Jun 2027 05:51:08.330            17.157          8578.500
        27   02 Jun 2027 05:51:52.661   02 Jun 2027 05:53:30.005            97.344         48672.000
        28   02 Jun 2027 07:11:54.084   02 Jun 2027 07:12:18.136            24.052         12026.000
        29   02 Jun 2027 07:22:46.453   02 Jun 2027 07:23:31.813            45.360         22680.000
        30   02 Jun 2027 07:24:14.442   02 Jun 2027 07:24:23.363             8.921          4460.500
        31   02 Jun 2027 07:24:36.302   02 Jun 2027 07:24:54.508            18.206          9103.000
        32   02 Jun 2027 08:46:44.845   02 Jun 2027 08:49:04.039           139.194         69597.000
        33   02 Jun 2027 10:22:29.534   02 Jun 2027 10:24:19.541           110.007         55003.500
        34   02 Jun 2027 10:24:23.425   02 Jun 2027 10:24:41.178            17.753          5097.001
        35   02 Jun 2027 10:25:45.480   02 Jun 2027 10:25:46.636             1.156           537.844
        36   02 Jun 2027 11:58:50.540   02 Jun 2027 11:59:06.193            15.653          7826.500
        37   03 Jun 2027 04:19:06.147   03 Jun 2027 04:21:18.457           132.310         66155.000
        38   03 Jun 2027 04:22:58.609   03 Jun 2027 04:23:01.237             2.628          1314.000
        39   03 Jun 2027 05:58:06.960   03 Jun 2027 05:59:07.270            60.310         30155.000
        40   03 Jun 2027 06:00:14.014   03 Jun 2027 06:01:24.734            70.720         35360.000
        41   03 Jun 2027 06:03:32.323   03 Jun 2027 06:05:21.590           109.267         51347.125
        42   03 Jun 2027 07:23:08.676   03 Jun 2027 07:23:26.361            17.685          8305.906
        43   03 Jun 2027 07:23:56.855   03 Jun 2027 07:23:57.909             1.054           266.687
        44   03 Jun 2027 07:24:31.913   03 Jun 2027 07:24:31.913             0.000             0.000
        45   03 Jun 2027 07:34:47.945   03 Jun 2027 07:34:56.542             8.597          3103.063
        46   03 Jun 2027 07:35:52.739   03 Jun 2027 07:35:54.981             2.242           595.344
        47   03 Jun 2027 08:57:20.221   03 Jun 2027 08:57:47.146            26.925         12404.437
        48   03 Jun 2027 08:59:01.676   03 Jun 2027 08:59:07.837             6.161          1509.844
        49   03 Jun 2027 09:00:01.301   03 Jun 2027 09:00:05.185             3.884          1059.531
        50   03 Jun 2027 09:01:58.711   03 Jun 2027 09:02:06.176             7.465          1461.875
        51   03 Jun 2027 10:32:23.019   03 Jun 2027 10:32:27.259             4.240          1887.562
        52   03 Jun 2027 10:33:05.810   03 Jun 2027 10:33:06.273             0.463            66.937
        53   03 Jun 2027 10:35:13.731   03 Jun 2027 10:35:15.739             2.008           912.031
        54   03 Jun 2027 10:37:57.231   03 Jun 2027 10:38:04.551             7.320          3589.844
        55   03 Jun 2027 10:38:39.926   03 Jun 2027 10:38:44.226             4.300           729.500
        56   04 Jun 2027 03:00:00.000   04 Jun 2027 03:00:03.429             3.429          1714.500
        57   04 Jun 2027 03:00:46.890   04 Jun 2027 03:00:58.353            11.463          5731.500
        58   04 Jun 2027 03:01:28.099   04 Jun 2027 03:01:39.334            11.235          5617.500
        59   04 Jun 2027 04:31:24.214   04 Jun 2027 04:32:05.790            41.576         20788.000
        60   04 Jun 2027 04:32:15.383   04 Jun 2027 04:34:16.889           121.506         60753.000
        61   04 Jun 2027 04:35:10.701   04 Jun 2027 04:35:13.185             2.484          1242.000
        62   04 Jun 2027 06:10:25.518   04 Jun 2027 06:13:32.714           187.196         89996.281
        63   04 Jun 2027 06:13:52.782   04 Jun 2027 06:13:53.706             0.924           416.844
        64   04 Jun 2027 06:15:18.480   04 Jun 2027 06:15:20.700             2.220           840.812
        65   04 Jun 2027 06:15:47.753   04 Jun 2027 06:15:51.645             3.892           647.688
        66   04 Jun 2027 07:34:29.889   04 Jun 2027 07:34:43.857            13.968          6464.625
        67   04 Jun 2027 07:35:21.411   04 Jun 2027 07:35:23.667             2.256           512.281
        68   04 Jun 2027 07:35:28.976   04 Jun 2027 07:35:31.107             2.131           114.719
        69   04 Jun 2027 07:35:46.688   04 Jun 2027 07:35:48.125             1.437           362.188
        70   04 Jun 2027 07:36:41.605   04 Jun 2027 07:36:44.928             3.323          1545.375
        71   04 Jun 2027 07:46:45.190   04 Jun 2027 07:46:54.652             9.462          1920.844
        72   04 Jun 2027 09:08:44.578   04 Jun 2027 09:09:08.895            24.317         12085.938
        73   04 Jun 2027 09:10:53.018   04 Jun 2027 09:10:56.435             3.417          1515.062
        74   04 Jun 2027 09:11:34.760   04 Jun 2027 09:11:40.620             5.860           166.125
        75   04 Jun 2027 09:11:53.790   04 Jun 2027 09:11:57.778             3.988           411.562
        76   04 Jun 2027 09:13:10.606   04 Jun 2027 09:13:15.936             5.330          1969.563
        77   04 Jun 2027 09:13:59.223   04 Jun 2027 09:14:03.108             3.885           147.031
        78   04 Jun 2027 10:43:46.237   04 Jun 2027 10:43:53.699             7.462          3270.656
        79   04 Jun 2027 10:45:46.579   04 Jun 2027 10:45:51.311             4.732          2061.250
        80   04 Jun 2027 10:47:39.700   04 Jun 2027 10:47:39.700             0.000             0.000
        81   04 Jun 2027 10:47:55.635   04 Jun 2027 10:48:00.392             4.757          1389.687
        82   04 Jun 2027 10:50:33.624   04 Jun 2027 10:50:35.214             1.590            86.781
        83   04 Jun 2027 10:51:57.235   04 Jun 2027 10:52:02.434             5.199          1971.875
        84   04 Jun 2027 10:52:23.078   04 Jun 2027 10:52:25.154             2.076           506.812
        85   05 Jun 2027 03:06:33.826   05 Jun 2027 03:06:46.349            12.523          6261.500
        86   05 Jun 2027 03:06:58.397   05 Jun 2027 03:07:01.962             3.565          1782.500
        87   05 Jun 2027 03:07:03.135   05 Jun 2027 03:07:12.249             9.114          4557.000
        88   05 Jun 2027 03:09:03.835   05 Jun 2027 03:09:03.835             0.000             0.000
        89   05 Jun 2027 03:09:29.617   05 Jun 2027 03:09:57.090            27.473         13736.500
        90   05 Jun 2027 03:10:26.016   05 Jun 2027 03:10:27.888             1.872           936.000
        91   05 Jun 2027 03:11:01.193   05 Jun 2027 03:11:24.768            23.575         11787.500
        92   05 Jun 2027 03:12:10.249   05 Jun 2027 03:12:15.929             5.680          2840.000
        93   05 Jun 2027 03:13:24.464   05 Jun 2027 03:13:49.656            25.192         12596.000
        94   05 Jun 2027 04:43:48.831   05 Jun 2027 04:43:50.171             1.340           670.000
        95   05 Jun 2027 04:44:10.094   05 Jun 2027 04:46:36.466           146.372         73186.000
        96   05 Jun 2027 04:46:48.595   05 Jun 2027 04:46:52.583             3.988          1994.000
        97   05 Jun 2027 06:22:30.704   05 Jun 2027 06:24:21.457           110.753         54795.969
        98   05 Jun 2027 06:25:46.688   05 Jun 2027 06:25:50.414             3.726          1830.437
        99   05 Jun 2027 06:26:41.506   05 Jun 2027 06:26:44.370             2.864          1337.156
       100   05 Jun 2027 06:27:14.331   05 Jun 2027 06:27:15.078             0.747           175.781
       101   05 Jun 2027 06:28:46.032   05 Jun 2027 06:28:49.633             3.601          1054.375
       102   05 Jun 2027 07:46:37.785   05 Jun 2027 07:46:50.335            12.550          6228.594
       103   05 Jun 2027 07:47:40.176   05 Jun 2027 07:47:42.628             2.452           822.625
       104   05 Jun 2027 07:47:57.199   05 Jun 2027 07:47:58.838             1.639           104.813
       105   05 Jun 2027 07:48:24.385   05 Jun 2027 07:48:26.907             2.522           788.156
       106   05 Jun 2027 09:20:27.268   05 Jun 2027 09:20:46.795            19.527          7683.375
       107   05 Jun 2027 09:22:33.758   05 Jun 2027 09:22:38.919             5.161          1983.844
       108   05 Jun 2027 09:23:39.268   05 Jun 2027 09:23:43.375             4.107          1856.813
       109   05 Jun 2027 09:25:08.391   05 Jun 2027 09:25:13.142             4.751          1619.281
       110   05 Jun 2027 09:25:41.779   05 Jun 2027 09:25:44.643             2.864           798.250
       111   05 Jun 2027 10:55:19.154   05 Jun 2027 10:55:23.861             4.707          2353.500
       112   05 Jun 2027 10:56:26.734   05 Jun 2027 10:56:31.586             4.852          2361.500
       113   05 Jun 2027 10:59:03.110   05 Jun 2027 10:59:03.110             0.000             0.000
       114   05 Jun 2027 10:59:17.442   05 Jun 2027 10:59:34.795            17.353          2546.375
       115   05 Jun 2027 11:03:09.915   05 Jun 2027 11:03:09.915             0.000             0.000
       116   06 Jun 2027 03:18:33.619   06 Jun 2027 03:19:07.118            33.499         16749.500
       117   06 Jun 2027 03:20:56.935   06 Jun 2027 03:23:23.599           146.664         73332.000
       118   06 Jun 2027 03:24:18.970   06 Jun 2027 03:24:29.247            10.277          5138.500
       119   06 Jun 2027 03:25:03.376   06 Jun 2027 03:25:43.580            40.204         20102.000
       120   06 Jun 2027 04:56:42.326   06 Jun 2027 04:57:36.144            53.818         26909.000
       121   06 Jun 2027 04:57:45.457   06 Jun 2027 04:58:26.378            40.921         20460.500
       122   06 Jun 2027 05:01:36.058   06 Jun 2027 05:01:57.967            21.909          8846.094
       123   06 Jun 2027 06:35:07.531   06 Jun 2027 06:35:39.607            32.076         15216.813
       124   06 Jun 2027 06:37:47.527   06 Jun 2027 06:37:53.182             5.655          1047.219
       125   06 Jun 2027 06:38:04.260   06 Jun 2027 06:38:07.754             3.494           346.188
       126   06 Jun 2027 06:38:17.741   06 Jun 2027 06:38:19.596             1.855           158.656
       127   06 Jun 2027 06:38:33.115   06 Jun 2027 06:38:37.805             4.690           266.219
       128   06 Jun 2027 06:39:01.854   06 Jun 2027 06:39:05.676             3.822            11.625
       129   06 Jun 2027 06:39:35.607   06 Jun 2027 06:39:38.380             2.773           719.344
       130   06 Jun 2027 07:58:34.366   06 Jun 2027 07:58:48.222            13.856          6613.156
       131   06 Jun 2027 07:59:55.393   06 Jun 2027 07:59:55.393             0.000             0.000
       132   06 Jun 2027 08:00:19.868   06 Jun 2027 08:00:27.919             8.051          2246.437
       133   06 Jun 2027 08:00:34.230   06 Jun 2027 08:00:35.355             1.125            79.063
       134   06 Jun 2027 09:34:46.878   06 Jun 2027 09:34:52.342             5.464          1530.156
       135   06 Jun 2027 09:35:56.340   06 Jun 2027 09:35:59.852             3.512          1446.500
       136   06 Jun 2027 09:37:05.097   06 Jun 2027 09:37:08.806             3.709          1146.156
       137   06 Jun 2027 09:37:53.294   06 Jun 2027 09:37:55.731             2.437          1161.437
       138   06 Jun 2027 11:10:27.349   06 Jun 2027 11:10:50.918            23.569          8653.406
       139   06 Jun 2027 11:11:40.424   06 Jun 2027 11:12:02.309            21.885          1196.562
       140   06 Jun 2027 11:13:09.974   06 Jun 2027 11:13:13.552             3.578            33.656
       141   06 Jun 2027 11:13:59.140   06 Jun 2027 11:14:01.576             2.436           820.344
       142   06 Jun 2027 11:15:55.741   06 Jun 2027 11:16:02.338             6.597          2799.531
       143   06 Jun 2027 11:16:21.788   06 Jun 2027 11:16:29.555             7.767           384.031
       144   07 Jun 2027 03:30:39.788   07 Jun 2027 03:30:51.069            11.281          5640.500
       145   07 Jun 2027 03:31:04.338   07 Jun 2027 03:31:18.072            13.734          6867.000
       146   07 Jun 2027 03:31:54.367   07 Jun 2027 03:31:54.367             0.000             0.000
       147   07 Jun 2027 03:32:24.354   07 Jun 2027 03:32:42.289            17.935          8967.500
       148   07 Jun 2027 03:33:38.641   07 Jun 2027 03:36:01.156           142.515         71257.500
       149   07 Jun 2027 03:36:58.332   07 Jun 2027 03:37:24.122            25.790         12895.000
       150   07 Jun 2027 03:37:48.975   07 Jun 2027 03:38:00.171            11.196          5598.000
       151   07 Jun 2027 05:10:03.489   07 Jun 2027 05:10:53.316            49.827         24913.500
       152   07 Jun 2027 05:12:32.680   07 Jun 2027 05:13:40.138            67.458         33729.000
       153   07 Jun 2027 05:14:23.301   07 Jun 2027 05:14:28.563             5.262          2543.157
       154   07 Jun 2027 05:14:38.551   07 Jun 2027 05:14:40.495             1.944           256.031
       155   07 Jun 2027 06:46:46.247   07 Jun 2027 06:47:16.748            30.501         13219.937
       156   07 Jun 2027 06:47:41.168   07 Jun 2027 06:47:43.632             2.464           326.750
       157   07 Jun 2027 06:48:21.866   07 Jun 2027 06:48:27.402             5.536          1094.813
       158   07 Jun 2027 06:49:25.421   07 Jun 2027 06:49:27.806             2.385           414.938
       159   07 Jun 2027 06:50:50.910   07 Jun 2027 06:50:54.585             3.675          1621.375
       160   07 Jun 2027 08:10:25.414   07 Jun 2027 08:10:37.950            12.536          5110.156
       161   07 Jun 2027 08:11:56.733   07 Jun 2027 08:11:56.733             0.000             0.000
       162   07 Jun 2027 08:12:50.607   07 Jun 2027 08:13:04.568            13.961          3462.438
       163   07 Jun 2027 09:46:52.344   07 Jun 2027 09:47:04.217            11.873          3807.812
       164   07 Jun 2027 09:48:07.066   07 Jun 2027 09:48:10.349             3.283          1050.406
       165   07 Jun 2027 09:48:39.133   07 Jun 2027 09:48:40.349             1.216           217.625
       166   07 Jun 2027 09:49:00.458   07 Jun 2027 09:49:00.458             0.000             0.000
       167   07 Jun 2027 09:49:56.412   07 Jun 2027 09:50:01.729             5.317          2285.937
       168   07 Jun 2027 11:21:05.476   07 Jun 2027 11:21:21.436            15.960          6343.750
       169   07 Jun 2027 11:23:03.780   07 Jun 2027 11:23:04.593             0.813           276.531
       170   07 Jun 2027 11:24:31.678   07 Jun 2027 11:24:35.797             4.119           472.812
       171   07 Jun 2027 11:26:10.384   07 Jun 2027 11:26:15.057             4.673          1936.375
       172   07 Jun 2027 11:26:19.115   07 Jun 2027 11:26:20.642             1.527            99.281
       173   07 Jun 2027 11:27:37.127   07 Jun 2027 11:27:42.686             5.559          1606.375
       174   07 Jun 2027 11:28:40.206   07 Jun 2027 11:28:44.873             4.667          1797.500
       175   08 Jun 2027 03:42:42.311   08 Jun 2027 03:42:58.347            16.036          8018.000
       176   08 Jun 2027 03:43:27.861   08 Jun 2027 03:44:00.291            32.430         16215.000
       177   08 Jun 2027 03:45:55.406   08 Jun 2027 03:47:03.590            68.184         34092.000
       178   08 Jun 2027 03:48:53.828   08 Jun 2027 03:50:07.201            73.373         36686.500
       179   08 Jun 2027 05:20:51.519   08 Jun 2027 05:21:50.623            59.104         29552.000
       180   08 Jun 2027 05:22:43.308   08 Jun 2027 05:24:15.081            91.773         45518.157
       181   08 Jun 2027 05:24:41.995   08 Jun 2027 05:24:45.921             3.926           570.656
       182   08 Jun 2027 06:59:59.756   08 Jun 2027 07:00:10.818            11.062          5275.375
       183   08 Jun 2027 07:01:47.051   08 Jun 2027 07:01:56.596             9.545          2156.344
       184   08 Jun 2027 07:02:17.142   08 Jun 2027 07:02:19.257             2.115           629.156
       185   08 Jun 2027 07:02:35.785   08 Jun 2027 07:02:37.827             2.042           209.125
       186   08 Jun 2027 08:22:34.038   08 Jun 2027 08:22:45.992            11.954          5707.750
       187   08 Jun 2027 08:23:57.825   08 Jun 2027 08:24:03.889             6.064          2172.406
       188   08 Jun 2027 08:24:15.025   08 Jun 2027 08:24:17.076             2.051           196.063
       189   08 Jun 2027 09:59:02.486   08 Jun 2027 09:59:14.447            11.961          2886.094
       190   08 Jun 2027 10:00:40.712   08 Jun 2027 10:00:45.330             4.618          2088.437
       191   08 Jun 2027 10:01:01.289   08 Jun 2027 10:01:02.267             0.978           223.937
       192   08 Jun 2027 10:02:02.120   08 Jun 2027 10:02:03.292             1.172           485.500
       193   08 Jun 2027 11:34:45.141   08 Jun 2027 11:34:58.279            13.138          5917.438
       194   08 Jun 2027 11:37:47.480   08 Jun 2027 11:37:55.487             8.007          3976.344
       195   08 Jun 2027 11:38:09.674   08 Jun 2027 11:38:10.744             1.070            16.656
       196   08 Jun 2027 11:38:47.494   08 Jun 2027 11:38:51.205             3.711           373.187
       197   08 Jun 2027 11:39:43.972   08 Jun 2027 11:39:54.320            10.348           984.531
       198   08 Jun 2027 11:40:47.292   08 Jun 2027 11:40:51.028             3.736          1566.531
       199   09 Jun 2027 03:54:39.892   09 Jun 2027 03:57:32.313           172.421         86210.500
       200   09 Jun 2027 03:59:15.034   09 Jun 2027 03:59:27.716            12.682          6341.000
       201   09 Jun 2027 05:32:56.370   09 Jun 2027 05:33:11.424            15.054          7527.000
       202   09 Jun 2027 05:33:58.926   09 Jun 2027 05:36:19.051           140.125         69978.282
       203   09 Jun 2027 05:36:46.810   09 Jun 2027 05:36:47.637             0.827           116.656
       204   09 Jun 2027 05:37:25.887   09 Jun 2027 05:37:28.363             2.476          1119.312
       205   09 Jun 2027 05:37:58.728   09 Jun 2027 05:38:00.559             1.831           915.500
       206   09 Jun 2027 05:38:01.024   09 Jun 2027 05:38:03.183             2.159            47.938
       207   09 Jun 2027 05:38:57.963   09 Jun 2027 05:39:00.876             2.913          1388.031
       208   09 Jun 2027 05:41:13.046   09 Jun 2027 05:41:19.811             6.765          2135.844
       209   09 Jun 2027 07:11:07.706   09 Jun 2027 07:11:20.096            12.390          6127.344
       210   09 Jun 2027 07:12:15.404   09 Jun 2027 07:12:20.771             5.367           920.250
       211   09 Jun 2027 07:13:03.470   09 Jun 2027 07:13:05.398             1.928           829.219
       212   09 Jun 2027 08:35:16.719   09 Jun 2027 08:35:39.999            23.280         11480.031
       213   09 Jun 2027 08:35:50.411   09 Jun 2027 08:35:52.043             1.632           311.250
       214   09 Jun 2027 08:37:17.516   09 Jun 2027 08:37:24.617             7.101          2466.188
       215   09 Jun 2027 10:11:01.793   09 Jun 2027 10:11:09.280             7.487          2828.281
       216   09 Jun 2027 10:12:45.564   09 Jun 2027 10:12:50.243             4.679          2244.844
       217   09 Jun 2027 10:13:22.741   09 Jun 2027 10:13:34.314            11.573            90.906
       218   09 Jun 2027 11:46:06.577   09 Jun 2027 11:46:12.838             6.261          3003.344
       219   09 Jun 2027 11:52:36.506   09 Jun 2027 11:52:52.878            16.372          7001.750
       220   10 Jun 2027 04:07:14.783   10 Jun 2027 04:09:52.010           157.227         78613.500
       221   10 Jun 2027 04:11:01.642   10 Jun 2027 04:11:02.249             0.607           303.500
       222   10 Jun 2027 04:11:41.481   10 Jun 2027 04:11:43.305             1.824           912.000
       223   10 Jun 2027 05:46:01.942   10 Jun 2027 05:47:49.605           107.663         53831.500
       224   10 Jun 2027 05:48:23.124   10 Jun 2027 05:48:50.730            27.606         13803.000
       225   10 Jun 2027 05:52:39.017   10 Jun 2027 05:53:46.776            67.759         33879.500
       226   10 Jun 2027 07:12:08.124   10 Jun 2027 07:12:27.779            19.655          8746.812
       227   10 Jun 2027 07:23:04.062   10 Jun 2027 07:23:11.261             7.199          3029.031
       228   10 Jun 2027 07:25:23.859   10 Jun 2027 07:25:25.766             1.907           457.813
       229   10 Jun 2027 07:25:53.870   10 Jun 2027 07:25:55.678             1.808           191.500
       230   10 Jun 2027 07:26:11.105   10 Jun 2027 07:26:13.311             2.206             7.937
       231   10 Jun 2027 08:46:23.779   10 Jun 2027 08:46:46.828            23.049          9301.000
       232   10 Jun 2027 08:47:23.172   10 Jun 2027 08:47:24.749             1.577           447.563
       233   10 Jun 2027 08:48:15.273   10 Jun 2027 08:48:18.591             3.318          1009.031
       234   10 Jun 2027 10:22:46.398   10 Jun 2027 10:22:53.119             6.721          2670.719
       235   10 Jun 2027 10:24:33.959   10 Jun 2027 10:24:38.161             4.202          1908.594
       236   10 Jun 2027 10:26:05.754   10 Jun 2027 10:26:12.870             7.116           557.000
       237   10 Jun 2027 11:58:12.706   10 Jun 2027 11:58:30.040            17.334          7771.594
       238   11 Jun 2027 04:19:25.228   11 Jun 2027 04:21:38.635           133.407         66703.500
       239   11 Jun 2027 04:23:33.990   11 Jun 2027 04:23:40.168             6.178          3089.000
       240   11 Jun 2027 05:58:28.037   11 Jun 2027 06:00:54.177           146.140         73070.000
       241   11 Jun 2027 06:03:28.553   11 Jun 2027 06:03:40.903            12.350          6175.000
       242   11 Jun 2027 06:03:51.441   11 Jun 2027 06:04:03.525            12.084          6042.000
       243   11 Jun 2027 06:04:37.643   11 Jun 2027 06:05:15.182            37.539         18206.969
       244   11 Jun 2027 07:23:26.211   11 Jun 2027 07:23:37.101            10.890          5445.000
       245   11 Jun 2027 07:24:08.192   11 Jun 2027 07:24:08.192             0.000             0.000
       246   11 Jun 2027 07:24:50.063   11 Jun 2027 07:24:52.320             2.257          1128.500
       247   11 Jun 2027 07:35:06.488   11 Jun 2027 07:35:13.571             7.083          2672.125
       248   11 Jun 2027 07:35:28.322   11 Jun 2027 07:35:28.938             0.616            83.469
       249   11 Jun 2027 07:36:08.366   11 Jun 2027 07:36:12.284             3.918           626.250
       250   11 Jun 2027 08:57:22.012   11 Jun 2027 08:57:47.479            25.467         12613.969
       251   11 Jun 2027 08:58:07.925   11 Jun 2027 08:58:09.008             1.083           541.500
       252   11 Jun 2027 08:59:19.158   11 Jun 2027 08:59:30.495            11.337          1636.531
       253   11 Jun 2027 09:00:19.152   11 Jun 2027 09:00:28.415             9.263          1058.563
       254   11 Jun 2027 10:32:34.099   11 Jun 2027 10:32:42.910             8.811          3396.656
       255   11 Jun 2027 10:33:23.840   11 Jun 2027 10:33:25.394             1.554           519.281
       256   11 Jun 2027 10:35:07.754   11 Jun 2027 10:35:13.620             5.866          2933.000
       257   11 Jun 2027 10:35:20.012   11 Jun 2027 10:35:22.368             2.356           465.500
       258   11 Jun 2027 10:36:17.905   11 Jun 2027 10:36:23.713             5.808          1459.031
       259   11 Jun 2027 10:38:35.958   11 Jun 2027 10:38:37.188             1.230           584.688
       260   11 Jun 2027 10:39:09.045   11 Jun 2027 10:39:16.595             7.550           995.531
       261   12 Jun 2027 03:00:00.000   12 Jun 2027 03:00:17.235            17.235          8617.500
       262   12 Jun 2027 03:01:00.773   12 Jun 2027 03:01:11.217            10.444          5222.000
       263   12 Jun 2027 04:31:42.816   12 Jun 2027 04:34:25.393           162.577         81288.500
       264   12 Jun 2027 04:35:58.926   12 Jun 2027 04:36:04.636             5.710          2855.000
       265   12 Jun 2027 04:36:11.420   12 Jun 2027 04:36:23.932            12.512          6256.000
       266   12 Jun 2027 06:10:43.132   12 Jun 2027 06:13:03.391           140.259         69616.750
       267   12 Jun 2027 06:13:55.034   12 Jun 2027 06:13:56.798             1.764           657.219
       268   12 Jun 2027 06:15:06.768   12 Jun 2027 06:15:13.042             6.274          1746.281
       269   12 Jun 2027 06:15:41.911   12 Jun 2027 06:15:44.722             2.811           276.969
       270   12 Jun 2027 06:17:18.446   12 Jun 2027 06:17:21.944             3.498          1604.156
       271   12 Jun 2027 07:34:48.233   12 Jun 2027 07:35:02.928            14.695          5957.906
       272   12 Jun 2027 07:35:53.390   12 Jun 2027 07:35:56.705             3.315           947.500
       273   12 Jun 2027 07:36:09.990   12 Jun 2027 07:36:11.197             1.207           167.531
       274   12 Jun 2027 07:36:33.719   12 Jun 2027 07:36:36.226             2.507           249.750
       275   12 Jun 2027 07:36:59.113   12 Jun 2027 07:36:59.708             0.595            59.313
       276   12 Jun 2027 07:47:03.664   12 Jun 2027 07:47:09.447             5.783          2352.406
       277   12 Jun 2027 09:09:04.281   12 Jun 2027 09:09:27.496            23.215         11287.219
       278   12 Jun 2027 09:11:09.702   12 Jun 2027 09:11:14.039             4.337          1664.594
       279   12 Jun 2027 09:11:53.516   12 Jun 2027 09:11:57.009             3.493           194.438
       280   12 Jun 2027 09:13:00.004   12 Jun 2027 09:13:05.417             5.413          1931.563
       281   12 Jun 2027 09:14:12.152   12 Jun 2027 09:14:17.873             5.721          1400.156
       282   12 Jun 2027 10:44:01.255   12 Jun 2027 10:44:06.739             5.484          2647.563
       283   12 Jun 2027 10:45:48.843   12 Jun 2027 10:45:53.048             4.205          1624.844
       284   12 Jun 2027 10:47:54.599   12 Jun 2027 10:48:03.992             9.393          3353.750
       285   12 Jun 2027 10:52:35.201   12 Jun 2027 10:52:41.787             6.586          3247.625
       286   13 Jun 2027 03:06:51.519   13 Jun 2027 03:07:02.174            10.655          5327.500
       287   13 Jun 2027 03:07:13.021   13 Jun 2027 03:07:16.535             3.514          1757.000
       288   13 Jun 2027 03:07:20.072   13 Jun 2027 03:07:29.681             9.609          4804.500
       289   13 Jun 2027 03:09:44.544   13 Jun 2027 03:10:40.687            56.143         28071.500
       290   13 Jun 2027 03:11:37.640   13 Jun 2027 03:11:39.667             2.027          1013.500
       291   13 Jun 2027 03:14:08.162   13 Jun 2027 03:14:12.655             4.493          2246.500
       292   13 Jun 2027 04:44:28.814   13 Jun 2027 04:44:53.367            24.553         12276.500
       293   13 Jun 2027 04:44:56.100   13 Jun 2027 04:47:06.866           130.766         65383.000
       294   13 Jun 2027 06:22:51.412   13 Jun 2027 06:24:53.034           121.622         60647.125
       295   13 Jun 2027 06:25:03.404   13 Jun 2027 06:25:04.720             1.316            10.094
       296   13 Jun 2027 06:26:15.928   13 Jun 2027 06:26:17.095             1.167           447.156
       297   13 Jun 2027 06:26:33.792   13 Jun 2027 06:26:33.845             0.053             4.156
       298   13 Jun 2027 06:26:58.351   13 Jun 2027 06:27:01.837             3.486           559.156
       299   13 Jun 2027 06:28:01.729   13 Jun 2027 06:28:06.026             4.297          1016.219
       300   13 Jun 2027 07:46:55.737   13 Jun 2027 07:47:14.636            18.899          7075.219
       301   13 Jun 2027 07:47:58.456   13 Jun 2027 07:48:01.371             2.915           894.812
       302   13 Jun 2027 09:20:43.422   13 Jun 2027 09:20:59.321            15.899          7707.750
       303   13 Jun 2027 09:22:49.483   13 Jun 2027 09:22:54.127             4.644          1940.875
       304   13 Jun 2027 09:23:26.696   13 Jun 2027 09:23:31.160             4.464           832.094
       305   13 Jun 2027 09:23:48.988   13 Jun 2027 09:23:56.766             7.778           541.750
       306   13 Jun 2027 09:24:42.285   13 Jun 2027 09:24:45.608             3.323          1422.469
       307   13 Jun 2027 09:25:38.189   13 Jun 2027 09:25:42.320             4.131           410.375
       308   13 Jun 2027 09:26:10.550   13 Jun 2027 09:26:11.488             0.938           431.188
       309   13 Jun 2027 10:55:35.235   13 Jun 2027 10:55:39.385             4.150          1891.656
       310   13 Jun 2027 10:58:16.236   13 Jun 2027 10:58:29.332            13.096          4831.969
       311   13 Jun 2027 10:59:16.448   13 Jun 2027 10:59:16.448             0.000             0.000
       312   13 Jun 2027 10:59:31.788   13 Jun 2027 10:59:35.775             3.987          1026.500
       313   13 Jun 2027 11:03:16.990   13 Jun 2027 11:03:18.951             1.961           843.375
