uniorb/output/strategy_4/Camera/Camera_KinoSat_110903.txt

KinoSat_110903
-------------------------
    Access    *     Start Time (UTCG)     *     Stop Time (UTCG)  *   Duration (s) *   Data (Mbytes)
         1   01 Jun 2027 03:50:15.773   01 Jun 2027 03:51:54.597            98.824         49412.000
         2   01 Jun 2027 03:52:00.395   01 Jun 2027 03:52:09.983             9.588          4794.000
         3   01 Jun 2027 03:52:50.263   01 Jun 2027 03:52:50.263             0.000             0.000
         4   01 Jun 2027 03:53:12.813   01 Jun 2027 03:53:21.228             8.415          4207.500
         5   01 Jun 2027 05:26:44.006   01 Jun 2027 05:28:53.154           129.148         64574.000
         6   01 Jun 2027 05:30:01.428   01 Jun 2027 05:30:04.473             3.045          1522.500
         7   01 Jun 2027 07:01:56.696   01 Jun 2027 07:03:59.610           122.914         61457.000
         8   01 Jun 2027 07:05:27.386   01 Jun 2027 07:05:27.894             0.508           254.000
         9   01 Jun 2027 07:08:11.282   01 Jun 2027 07:08:24.031            12.749          6374.500
        10   01 Jun 2027 08:37:51.528   01 Jun 2027 08:39:55.471           123.943         61971.500
        11   01 Jun 2027 08:40:34.416   01 Jun 2027 08:40:41.265             6.849          3424.500
        12   01 Jun 2027 08:40:51.699   01 Jun 2027 08:40:59.015             7.316          3658.000
        13   01 Jun 2027 08:41:32.458   01 Jun 2027 08:41:33.013             0.555           277.500
        14   01 Jun 2027 08:41:47.441   01 Jun 2027 08:41:52.612             5.171          2585.500
        15   01 Jun 2027 08:42:03.155   01 Jun 2027 08:42:17.873            14.718          7359.000
        16   01 Jun 2027 08:43:47.827   01 Jun 2027 08:43:53.971             6.144          3072.000
        17   01 Jun 2027 10:15:48.298   01 Jun 2027 10:17:12.184            83.886         41943.000
        18   01 Jun 2027 10:18:21.160   01 Jun 2027 10:19:28.129            66.969         33484.500
        19   01 Jun 2027 10:20:10.963   01 Jun 2027 10:20:14.586             3.623          1811.500
        20   01 Jun 2027 11:51:41.798   01 Jun 2027 11:53:36.975           115.177         57588.500
        21   01 Jun 2027 11:56:31.594   01 Jun 2027 11:56:36.312             4.718          2359.000
        22   02 Jun 2027 04:02:42.259   02 Jun 2027 04:03:03.830            21.571         10785.500
        23   02 Jun 2027 04:04:25.328   02 Jun 2027 04:04:40.333            15.005          7502.500
        24   02 Jun 2027 04:05:21.155   02 Jun 2027 04:05:22.402             1.247           623.500
        25   02 Jun 2027 05:38:27.156   02 Jun 2027 05:40:59.914           152.758         76379.000
        26   02 Jun 2027 05:41:59.483   02 Jun 2027 05:42:30.126            30.643         15321.500
        27   02 Jun 2027 07:13:10.940   02 Jun 2027 07:16:32.222           201.282        100641.000
        28   02 Jun 2027 07:18:41.546   02 Jun 2027 07:19:05.736            24.190         12095.000
        29   02 Jun 2027 07:20:04.864   02 Jun 2027 07:20:06.009             1.145           572.500
        30   02 Jun 2027 08:49:58.567   02 Jun 2027 08:53:22.379           203.812        101906.000
        31   02 Jun 2027 08:54:23.174   02 Jun 2027 08:54:35.450            12.276          6138.000
        32   02 Jun 2027 10:28:13.849   02 Jun 2027 10:29:00.245            46.396         22868.501
        33   02 Jun 2027 10:30:02.413   02 Jun 2027 10:30:06.559             4.146          1203.094
        34   02 Jun 2027 10:31:31.175   02 Jun 2027 10:31:36.704             5.529          2562.594
        35   02 Jun 2027 10:32:02.565   02 Jun 2027 10:32:08.719             6.154           747.969
        36   03 Jun 2027 04:13:18.064   03 Jun 2027 04:13:49.591            31.527         15763.500
        37   03 Jun 2027 04:13:59.484   03 Jun 2027 04:14:13.519            14.035          7017.500
        38   03 Jun 2027 04:17:23.409   03 Jun 2027 04:17:23.409             0.000             0.000
        39   03 Jun 2027 04:17:32.923   03 Jun 2027 04:17:44.539            11.616          5808.000
        40   03 Jun 2027 05:48:21.954   03 Jun 2027 05:49:38.983            77.029         38514.500
        41   03 Jun 2027 05:50:11.640   03 Jun 2027 05:50:46.807            35.167         17583.500
        42   03 Jun 2027 05:51:21.584   03 Jun 2027 05:51:45.117            23.533         11766.500
        43   03 Jun 2027 05:52:17.460   03 Jun 2027 05:52:51.652            34.192         17096.000
        44   03 Jun 2027 07:25:19.101   03 Jun 2027 07:27:13.250           114.149         54778.062
        45   03 Jun 2027 07:28:06.469   03 Jun 2027 07:28:09.426             2.957          1478.500
        46   03 Jun 2027 07:28:12.962   03 Jun 2027 07:28:13.469             0.507           169.656
        47   03 Jun 2027 07:28:25.725   03 Jun 2027 07:28:25.725             0.000             0.000
        48   03 Jun 2027 07:28:59.056   03 Jun 2027 07:29:02.466             3.410          1367.344
        49   03 Jun 2027 07:30:40.256   03 Jun 2027 07:30:49.347             9.091          2937.906
        50   03 Jun 2027 07:31:08.570   03 Jun 2027 07:31:09.021             0.451           126.594
        51   03 Jun 2027 07:31:50.450   03 Jun 2027 07:31:52.968             2.518           272.969
        52   03 Jun 2027 09:02:17.789   03 Jun 2027 09:02:33.122            15.333          5817.094
        53   03 Jun 2027 09:03:32.799   03 Jun 2027 09:03:36.071             3.272           225.156
        54   03 Jun 2027 09:04:42.194   03 Jun 2027 09:04:43.821             1.627           604.594
        55   03 Jun 2027 09:06:19.360   03 Jun 2027 09:06:21.915             2.555          1023.719
        56   03 Jun 2027 09:06:32.671   03 Jun 2027 09:06:35.313             2.642           321.469
        57   03 Jun 2027 09:07:06.903   03 Jun 2027 09:07:07.306             0.403             7.781
        58   03 Jun 2027 09:08:21.941   03 Jun 2027 09:08:25.285             3.344           877.219
        59   03 Jun 2027 10:40:12.019   03 Jun 2027 10:40:24.370            12.351          5245.625
        60   03 Jun 2027 10:42:08.419   03 Jun 2027 10:42:09.066             0.647            14.719
        61   03 Jun 2027 10:43:20.051   03 Jun 2027 10:43:26.061             6.010           356.094
        62   03 Jun 2027 10:43:50.896   03 Jun 2027 10:43:53.175             2.279           281.688
        63   03 Jun 2027 10:43:56.172   03 Jun 2027 10:43:57.972             1.800            82.625
        64   03 Jun 2027 10:44:09.193   03 Jun 2027 10:44:10.239             1.046           288.125
        65   04 Jun 2027 03:02:42.918   04 Jun 2027 03:03:38.637            55.719         27859.500
        66   04 Jun 2027 04:24:47.891   04 Jun 2027 04:25:30.922            43.031         21515.500
        67   04 Jun 2027 04:26:50.374   04 Jun 2027 04:26:58.263             7.889          3944.500
        68   04 Jun 2027 04:27:18.827   04 Jun 2027 04:27:18.827             0.000             0.000
        69   04 Jun 2027 04:28:32.713   04 Jun 2027 04:28:58.389            25.676         12838.000
        70   04 Jun 2027 04:30:07.208   04 Jun 2027 04:30:07.208             0.000             0.000
        71   04 Jun 2027 05:59:46.923   04 Jun 2027 06:02:12.158           145.235         72617.500
        72   04 Jun 2027 06:02:19.624   04 Jun 2027 06:02:53.731            34.107         16491.313
        73   04 Jun 2027 06:04:09.654   04 Jun 2027 06:04:15.768             6.114          2311.531
        74   04 Jun 2027 06:08:01.737   04 Jun 2027 06:08:16.075            14.338          7056.656
        75   04 Jun 2027 07:37:23.118   04 Jun 2027 07:37:27.335             4.217           648.625
        76   04 Jun 2027 07:38:58.017   04 Jun 2027 07:39:04.596             6.579          2172.250
        77   04 Jun 2027 07:39:45.568   04 Jun 2027 07:39:48.286             2.718           788.375
        78   04 Jun 2027 07:40:38.954   04 Jun 2027 07:40:43.335             4.381           848.375
        79   04 Jun 2027 07:41:43.764   04 Jun 2027 07:41:47.286             3.522          1123.406
        80   04 Jun 2027 07:42:51.769   04 Jun 2027 07:42:54.636             2.867           426.156
        81   04 Jun 2027 07:43:30.188   04 Jun 2027 07:43:33.773             3.585           592.406
        82   04 Jun 2027 09:14:06.913   04 Jun 2027 09:14:17.922            11.009          5270.719
        83   04 Jun 2027 09:17:14.986   04 Jun 2027 09:17:18.502             3.516          1055.937
        84   04 Jun 2027 09:18:00.080   04 Jun 2027 09:18:03.889             3.809          1169.094
        85   04 Jun 2027 09:18:15.068   04 Jun 2027 09:18:20.166             5.098             4.094
        86   04 Jun 2027 09:18:35.520   04 Jun 2027 09:18:38.855             3.335           479.812
        87   04 Jun 2027 09:19:16.855   04 Jun 2027 09:19:19.024             2.169           535.625
        88   04 Jun 2027 09:19:27.806   04 Jun 2027 09:19:28.483             0.677           274.437
        89   04 Jun 2027 09:20:13.392   04 Jun 2027 09:20:13.952             0.560           280.000
        90   04 Jun 2027 09:20:16.760   04 Jun 2027 09:20:21.743             4.983           524.469
        91   04 Jun 2027 10:52:11.435   04 Jun 2027 10:52:26.103            14.668          7161.469
        92   04 Jun 2027 10:54:12.953   04 Jun 2027 10:54:13.628             0.675           193.344
        93   04 Jun 2027 10:55:19.674   04 Jun 2027 10:55:24.201             4.527           318.219
        94   04 Jun 2027 10:55:33.226   04 Jun 2027 10:55:35.624             2.398           183.250
        95   04 Jun 2027 10:55:49.635   04 Jun 2027 10:55:53.450             3.815           227.406
        96   04 Jun 2027 10:56:04.741   04 Jun 2027 10:56:07.170             2.429           112.969
        97   05 Jun 2027 03:02:34.204   05 Jun 2027 03:02:47.321            13.117          6558.500
        98   05 Jun 2027 03:04:21.639   05 Jun 2027 03:04:21.639             0.000             0.000
        99   05 Jun 2027 03:15:03.737   05 Jun 2027 03:15:14.143            10.406          5203.000
       100   05 Jun 2027 04:36:24.002   05 Jun 2027 04:39:01.228           157.226         78613.000
       101   05 Jun 2027 04:40:48.069   05 Jun 2027 04:40:52.230             4.161          2080.500
       102   05 Jun 2027 04:41:01.041   05 Jun 2027 04:41:13.608            12.567          6283.500
       103   05 Jun 2027 04:42:03.093   05 Jun 2027 04:42:23.013            19.920          9960.000
       104   05 Jun 2027 06:11:17.523   05 Jun 2027 06:12:48.687            91.164         45390.375
       105   05 Jun 2027 06:14:05.808   05 Jun 2027 06:14:10.936             5.128          2410.031
       106   05 Jun 2027 06:15:00.120   05 Jun 2027 06:15:02.780             2.660          1168.781
       107   05 Jun 2027 06:15:59.689   05 Jun 2027 06:16:04.427             4.738          1778.406
       108   05 Jun 2027 06:16:51.054   05 Jun 2027 06:16:58.778             7.724          1087.719
       109   05 Jun 2027 06:17:56.439   05 Jun 2027 06:18:02.423             5.984          1801.906
       110   05 Jun 2027 06:18:29.337   05 Jun 2027 06:18:33.276             3.939           710.906
       111   05 Jun 2027 06:19:49.923   05 Jun 2027 06:19:54.078             4.155          1992.906
       112   05 Jun 2027 07:49:21.313   05 Jun 2027 07:49:24.708             3.395          1557.875
       113   05 Jun 2027 07:50:57.078   05 Jun 2027 07:51:04.566             7.488          2003.844
       114   05 Jun 2027 07:53:12.647   05 Jun 2027 07:53:16.296             3.649           867.375
       115   05 Jun 2027 07:53:54.459   05 Jun 2027 07:53:56.330             1.871           687.125
       116   05 Jun 2027 07:54:59.257   05 Jun 2027 07:55:00.645             1.388           665.906
       117   05 Jun 2027 07:56:07.185   05 Jun 2027 07:56:16.291             9.106          1750.187
       118   05 Jun 2027 07:56:39.723   05 Jun 2027 07:56:43.722             3.999           583.031
       119   05 Jun 2027 09:26:14.530   05 Jun 2027 09:26:26.513            11.983          4790.812
       120   05 Jun 2027 09:26:57.593   05 Jun 2027 09:27:01.781             4.188           311.469
       121   05 Jun 2027 09:29:31.106   05 Jun 2027 09:29:35.187             4.081          1626.313
       122   05 Jun 2027 09:29:56.478   05 Jun 2027 09:29:57.710             1.232           478.938
       123   05 Jun 2027 09:30:39.368   05 Jun 2027 09:30:39.545             0.177            55.937
       124   05 Jun 2027 09:30:50.312   05 Jun 2027 09:30:55.091             4.779           179.594
       125   05 Jun 2027 09:31:06.754   05 Jun 2027 09:31:08.019             1.265           130.906
       126   05 Jun 2027 11:03:24.681   05 Jun 2027 11:03:40.491            15.810          6070.688
       127   05 Jun 2027 11:04:25.282   05 Jun 2027 11:04:28.264             2.982            45.469
       128   05 Jun 2027 11:06:26.990   05 Jun 2027 11:06:38.997            12.007           710.375
       129   05 Jun 2027 11:07:01.638   05 Jun 2027 11:07:04.248             2.610           470.750
       130   05 Jun 2027 11:08:05.737   05 Jun 2027 11:08:11.102             5.365          1921.531
       131   06 Jun 2027 03:14:31.113   06 Jun 2027 03:14:35.583             4.470          2235.000
       132   06 Jun 2027 03:15:22.604   06 Jun 2027 03:15:36.677            14.073          7036.500
       133   06 Jun 2027 04:50:42.733   06 Jun 2027 04:53:49.296           186.563         93281.500
       134   06 Jun 2027 06:24:16.194   06 Jun 2027 06:25:52.386            96.192         47748.687
       135   06 Jun 2027 06:26:28.420   06 Jun 2027 06:26:29.921             1.501           204.250
       136   06 Jun 2027 06:26:42.865   06 Jun 2027 06:26:46.056             3.191           174.031
       137   06 Jun 2027 06:27:22.326   06 Jun 2027 06:27:23.861             1.535           620.594
       138   06 Jun 2027 06:28:59.777   06 Jun 2027 06:29:06.472             6.695          2557.125
       139   06 Jun 2027 06:30:31.636   06 Jun 2027 06:30:38.550             6.914          2510.125
       140   06 Jun 2027 06:30:50.112   06 Jun 2027 06:30:51.938             1.826           361.313
       141   06 Jun 2027 06:31:11.654   06 Jun 2027 06:31:14.170             2.516           475.188
       142   06 Jun 2027 06:31:50.392   06 Jun 2027 06:31:52.778             2.386           361.469
       143   06 Jun 2027 06:32:48.778   06 Jun 2027 06:32:49.885             1.107           253.469
       144   06 Jun 2027 08:01:43.274   06 Jun 2027 08:01:46.333             3.059           886.469
       145   06 Jun 2027 08:03:49.553   06 Jun 2027 08:03:52.896             3.343           704.156
       146   06 Jun 2027 08:05:09.248   06 Jun 2027 08:05:14.460             5.212          2217.406
       147   06 Jun 2027 08:05:33.656   06 Jun 2027 08:05:35.877             2.221             1.563
       148   06 Jun 2027 08:06:52.380   06 Jun 2027 08:06:54.602             2.222           181.000
       149   06 Jun 2027 09:38:43.437   06 Jun 2027 09:38:53.571            10.134          4737.594
       150   06 Jun 2027 09:39:45.466   06 Jun 2027 09:39:51.178             5.712           753.594
       151   06 Jun 2027 09:41:41.504   06 Jun 2027 09:41:47.208             5.704          1759.687
       152   06 Jun 2027 09:42:33.379   06 Jun 2027 09:42:38.174             4.795           407.062
       153   06 Jun 2027 09:43:19.152   06 Jun 2027 09:43:21.697             2.545          1106.562
       154   06 Jun 2027 09:43:26.956   06 Jun 2027 09:43:29.933             2.977           134.938
       155   06 Jun 2027 11:15:37.440   06 Jun 2027 11:15:49.822            12.382          5359.938
       156   06 Jun 2027 11:17:26.402   06 Jun 2027 11:17:29.029             2.627           372.219
       157   06 Jun 2027 11:18:05.685   06 Jun 2027 11:18:08.263             2.578           462.531
       158   06 Jun 2027 11:18:42.436   06 Jun 2027 11:18:47.338             4.902           655.312
       159   06 Jun 2027 11:20:06.055   06 Jun 2027 11:20:11.758             5.703          2173.125
       160   07 Jun 2027 03:26:21.404   07 Jun 2027 03:26:36.911            15.507          7753.500
       161   07 Jun 2027 05:02:48.317   07 Jun 2027 05:03:54.422            66.105         33052.500
       162   07 Jun 2027 05:04:59.336   07 Jun 2027 05:05:15.483            16.147          8073.500
       163   07 Jun 2027 05:05:40.407   07 Jun 2027 05:06:21.512            41.105         20552.500
       164   07 Jun 2027 06:34:59.053   07 Jun 2027 06:35:07.540             8.487          4243.500
       165   07 Jun 2027 06:36:55.080   07 Jun 2027 06:39:28.970           153.890         75951.687
       166   07 Jun 2027 06:40:58.170   07 Jun 2027 06:41:04.224             6.054          2345.094
       167   07 Jun 2027 06:41:14.034   07 Jun 2027 06:41:14.034             0.000             0.000
       168   07 Jun 2027 06:41:19.293   07 Jun 2027 06:41:21.557             2.264           470.906
       169   07 Jun 2027 06:41:40.835   07 Jun 2027 06:41:45.960             5.125           218.562
       170   07 Jun 2027 06:42:02.714   07 Jun 2027 06:42:02.714             0.000             0.000
       171   07 Jun 2027 06:42:18.174   07 Jun 2027 06:42:18.174             0.000             0.000
       172   07 Jun 2027 06:42:57.360   07 Jun 2027 06:43:03.085             5.725          2231.250
       173   07 Jun 2027 06:43:38.682   07 Jun 2027 06:43:40.539             1.857           772.813
       174   07 Jun 2027 06:44:27.842   07 Jun 2027 06:44:36.639             8.797          1046.594
       175   07 Jun 2027 08:13:52.998   07 Jun 2027 08:13:57.074             4.076          1558.562
       176   07 Jun 2027 08:16:14.270   07 Jun 2027 08:16:18.502             4.232          1504.437
       177   07 Jun 2027 08:16:42.227   07 Jun 2027 08:16:43.125             0.898           425.656
       178   07 Jun 2027 08:16:57.523   07 Jun 2027 08:16:58.393             0.870           165.000
       179   07 Jun 2027 08:17:35.158   07 Jun 2027 08:17:37.580             2.422           827.750
       180   07 Jun 2027 08:18:18.457   07 Jun 2027 08:18:19.503             1.046           414.469
       181   07 Jun 2027 08:19:40.541   07 Jun 2027 08:19:42.112             1.571           762.062
       182   07 Jun 2027 09:51:09.328   07 Jun 2027 09:51:23.812            14.484          6394.219
       183   07 Jun 2027 09:54:15.039   07 Jun 2027 09:54:15.875             0.836           375.781
       184   07 Jun 2027 09:54:39.892   07 Jun 2027 09:54:41.575             1.683           674.469
       185   07 Jun 2027 09:55:28.787   07 Jun 2027 09:55:31.323             2.536           620.969
       186   07 Jun 2027 09:55:50.113   07 Jun 2027 09:55:55.773             5.660           166.906
       187   07 Jun 2027 11:27:38.419   07 Jun 2027 11:27:50.180            11.761          4979.500
       188   07 Jun 2027 11:30:16.406   07 Jun 2027 11:30:21.791             5.385           680.437
       189   07 Jun 2027 11:32:11.192   07 Jun 2027 11:32:11.407             0.215            27.969
       190   08 Jun 2027 03:38:29.265   08 Jun 2027 03:38:37.897             8.632          4316.000
       191   08 Jun 2027 03:40:37.710   08 Jun 2027 03:41:08.426            30.716         15358.000
       192   08 Jun 2027 05:17:26.487   08 Jun 2027 05:18:36.231            69.744         34872.000
       193   08 Jun 2027 06:50:07.931   08 Jun 2027 06:53:35.195           207.264        103583.281
       194   08 Jun 2027 06:53:43.902   08 Jun 2027 06:53:43.902             0.000             0.000
       195   08 Jun 2027 06:54:57.842   08 Jun 2027 06:55:04.327             6.485          2582.719
       196   08 Jun 2027 06:56:09.266   08 Jun 2027 06:56:12.940             3.674          1629.906
       197   08 Jun 2027 06:56:22.793   08 Jun 2027 06:56:23.232             0.439           176.406
       198   08 Jun 2027 08:26:27.109   08 Jun 2027 08:26:32.813             5.704          1061.188
       199   08 Jun 2027 08:28:05.512   08 Jun 2027 08:28:12.549             7.037          1358.406
       200   08 Jun 2027 08:28:19.726   08 Jun 2027 08:28:20.323             0.597           215.156
       201   08 Jun 2027 08:29:33.025   08 Jun 2027 08:29:39.128             6.103           357.688
       202   08 Jun 2027 08:30:35.439   08 Jun 2027 08:30:44.851             9.412          1733.031
       203   08 Jun 2027 08:31:31.365   08 Jun 2027 08:31:36.451             5.086           673.437
       204   08 Jun 2027 08:32:14.461   08 Jun 2027 08:32:18.856             4.395           866.219
       205   08 Jun 2027 10:03:50.848   08 Jun 2027 10:04:01.992            11.144          5049.188
       206   08 Jun 2027 10:05:35.516   08 Jun 2027 10:05:37.396             1.880           204.406
       207   08 Jun 2027 10:06:08.737   08 Jun 2027 10:06:10.078             1.341            34.344
       208   08 Jun 2027 10:06:17.974   08 Jun 2027 10:06:18.885             0.911            14.875
       209   08 Jun 2027 10:07:18.087   08 Jun 2027 10:07:23.648             5.561          1701.938
       210   08 Jun 2027 10:07:46.795   08 Jun 2027 10:07:49.949             3.154           702.219
       211   08 Jun 2027 10:08:18.235   08 Jun 2027 10:08:20.812             2.577           835.187
       212   08 Jun 2027 11:40:03.202   08 Jun 2027 11:40:18.084            14.882          5206.125
       213   09 Jun 2027 03:50:30.589   09 Jun 2027 03:51:00.488            29.899         14949.500
       214   09 Jun 2027 05:26:58.539   09 Jun 2027 05:29:42.256           163.717         81858.500
       215   09 Jun 2027 05:30:09.995   09 Jun 2027 05:30:09.995             0.000             0.000
       216   09 Jun 2027 07:02:11.242   09 Jun 2027 07:04:14.471           123.229         60392.156
       217   09 Jun 2027 07:04:50.162   09 Jun 2027 07:04:50.971             0.809            77.031
       218   09 Jun 2027 07:05:09.218   09 Jun 2027 07:05:10.572             1.354           533.937
       219   09 Jun 2027 07:05:18.942   09 Jun 2027 07:05:22.495             3.553           261.562
       220   09 Jun 2027 07:06:57.820   09 Jun 2027 07:07:09.895            12.075          2299.062
       221   09 Jun 2027 07:08:01.245   09 Jun 2027 07:08:01.245             0.000             0.000
       222   09 Jun 2027 07:08:08.639   09 Jun 2027 07:08:13.627             4.988          1514.469
       223   09 Jun 2027 07:08:30.275   09 Jun 2027 07:08:32.515             2.240            91.000
       224   09 Jun 2027 08:38:06.317   09 Jun 2027 08:38:13.976             7.659          3753.844
       225   09 Jun 2027 08:41:48.231   09 Jun 2027 08:41:50.786             2.555          1137.750
       226   09 Jun 2027 08:43:01.290   09 Jun 2027 08:43:05.799             4.509           647.625
       227   09 Jun 2027 08:43:25.264   09 Jun 2027 08:43:30.792             5.528           152.375
       228   09 Jun 2027 10:16:03.975   09 Jun 2027 10:16:21.787            17.812          6552.656
       229   09 Jun 2027 10:16:38.161   09 Jun 2027 10:16:39.681             1.520           185.313
       230   09 Jun 2027 10:18:24.342   09 Jun 2027 10:18:27.017             2.675           345.437
       231   09 Jun 2027 10:19:53.314   09 Jun 2027 10:19:59.862             6.548           710.781
       232   09 Jun 2027 10:20:05.754   09 Jun 2027 10:20:06.414             0.660            37.125
       233   09 Jun 2027 10:20:24.403   09 Jun 2027 10:20:27.184             2.781           322.906
       234   09 Jun 2027 11:51:56.820   09 Jun 2027 11:52:08.688            11.868          5729.344
       235   09 Jun 2027 11:54:11.030   09 Jun 2027 11:54:17.264             6.234           464.156
       236   10 Jun 2027 04:02:56.938   10 Jun 2027 04:03:05.953             9.015          4507.500
       237   10 Jun 2027 04:05:37.628   10 Jun 2027 04:05:53.389            15.761          7880.500
       238   10 Jun 2027 05:38:41.999   10 Jun 2027 05:38:50.082             8.083          4041.500
       239   10 Jun 2027 05:40:41.365   10 Jun 2027 05:42:16.212            94.847         47423.500
       240   10 Jun 2027 05:42:51.038   10 Jun 2027 05:43:01.416            10.378          5189.000
       241   10 Jun 2027 07:13:25.889   10 Jun 2027 07:16:22.087           176.198         87778.750
       242   10 Jun 2027 07:16:26.529   10 Jun 2027 07:16:34.060             7.531           118.031
       243   10 Jun 2027 07:16:44.893   10 Jun 2027 07:16:45.675             0.782           192.000
       244   10 Jun 2027 07:17:13.918   10 Jun 2027 07:17:17.571             3.653           833.281
       245   10 Jun 2027 07:18:57.199   10 Jun 2027 07:19:05.700             8.501          3004.219
       246   10 Jun 2027 07:19:20.433   10 Jun 2027 07:19:23.132             2.699           378.812
       247   10 Jun 2027 07:20:02.368   10 Jun 2027 07:20:02.368             0.000             0.000
       248   10 Jun 2027 07:20:19.572   10 Jun 2027 07:20:23.835             4.263          1763.750
       249   10 Jun 2027 08:50:14.074   10 Jun 2027 08:50:26.741            12.667          4308.188
       250   10 Jun 2027 08:52:30.291   10 Jun 2027 08:52:32.388             2.097           469.062
       251   10 Jun 2027 08:54:00.077   10 Jun 2027 08:54:01.709             1.632           581.938
       252   10 Jun 2027 08:54:39.911   10 Jun 2027 08:54:43.498             3.587           211.125
       253   10 Jun 2027 08:54:49.968   10 Jun 2027 08:54:53.898             3.930           157.906
       254   10 Jun 2027 08:55:22.254   10 Jun 2027 08:55:27.962             5.708           776.250
       255   10 Jun 2027 08:55:57.249   10 Jun 2027 08:56:03.399             6.150           219.719
       256   10 Jun 2027 08:56:24.438   10 Jun 2027 08:56:27.152             2.714           657.469
       257   10 Jun 2027 10:28:28.991   10 Jun 2027 10:28:43.236            14.245          6643.156
       258   10 Jun 2027 10:30:19.364   10 Jun 2027 10:30:21.991             2.627          1243.594
       259   10 Jun 2027 10:31:46.563   10 Jun 2027 10:31:52.996             6.433          2568.969
       260   10 Jun 2027 10:32:17.674   10 Jun 2027 10:32:19.609             1.935           718.281
       261   11 Jun 2027 04:13:32.487   11 Jun 2027 04:14:06.528            34.041         17020.500
       262   11 Jun 2027 04:16:14.814   11 Jun 2027 04:16:22.739             7.925          3962.500
       263   11 Jun 2027 04:16:45.044   11 Jun 2027 04:17:04.651            19.607          9803.500
       264   11 Jun 2027 05:48:36.092   11 Jun 2027 05:49:54.292            78.200         39100.000
       265   11 Jun 2027 05:50:26.296   11 Jun 2027 05:51:01.830            35.534         17767.000
       266   11 Jun 2027 05:51:36.185   11 Jun 2027 05:51:52.943            16.758          8379.000
       267   11 Jun 2027 05:54:28.019   11 Jun 2027 05:54:53.219            25.200         12600.000
       268   11 Jun 2027 07:25:34.100   11 Jun 2027 07:27:28.213           114.113         55296.437
       269   11 Jun 2027 07:28:25.580   11 Jun 2027 07:28:26.516             0.936           101.625
       270   11 Jun 2027 07:28:31.708   11 Jun 2027 07:28:33.923             2.215            68.781
       271   11 Jun 2027 07:29:17.312   11 Jun 2027 07:29:19.807             2.495          1144.000
       272   11 Jun 2027 07:29:52.472   11 Jun 2027 07:29:54.338             1.866           923.312
       273   11 Jun 2027 07:30:18.766   11 Jun 2027 07:30:20.641             1.875           235.687
       274   11 Jun 2027 07:31:08.065   11 Jun 2027 07:31:12.814             4.749          1386.938
       275   11 Jun 2027 07:31:23.855   11 Jun 2027 07:31:24.244             0.389            72.375
       276   11 Jun 2027 07:31:58.393   11 Jun 2027 07:32:03.939             5.546          1013.812
       277   11 Jun 2027 09:02:32.271   11 Jun 2027 09:02:50.623            18.352          5687.937
       278   11 Jun 2027 09:03:41.057   11 Jun 2027 09:03:47.180             6.123          1202.969
       279   11 Jun 2027 09:04:37.593   11 Jun 2027 09:04:49.655            12.062          1555.875
       280   11 Jun 2027 09:06:02.334   11 Jun 2027 09:06:13.689            11.355          2029.875
       281   11 Jun 2027 09:06:34.897   11 Jun 2027 09:06:36.392             1.495           597.844
       282   11 Jun 2027 09:07:22.085   11 Jun 2027 09:07:24.677             2.592          1049.531
       283   11 Jun 2027 09:08:38.580   11 Jun 2027 09:08:40.029             1.449           724.500
       284   11 Jun 2027 10:40:27.145   11 Jun 2027 10:40:40.909            13.764          6704.156
       285   11 Jun 2027 10:43:25.389   11 Jun 2027 10:43:31.959             6.570          1891.563
       286   11 Jun 2027 10:44:06.370   11 Jun 2027 10:44:08.019             1.649           314.437
       287   11 Jun 2027 10:44:11.333   11 Jun 2027 10:44:14.114             2.781             5.188
       288   12 Jun 2027 03:02:57.985   12 Jun 2027 03:03:34.794            36.809         18404.500
       289   12 Jun 2027 04:24:56.823   12 Jun 2027 04:25:46.392            49.569         24784.500
       290   12 Jun 2027 04:27:44.686   12 Jun 2027 04:27:59.458            14.772          7386.000
       291   12 Jun 2027 04:28:12.217   12 Jun 2027 04:28:14.235             2.018          1009.000
       292   12 Jun 2027 04:28:31.222   12 Jun 2027 04:28:46.910            15.688          7844.000
       293   12 Jun 2027 06:00:01.043   12 Jun 2027 06:02:26.848           145.805         72902.500
       294   12 Jun 2027 06:03:36.443   12 Jun 2027 06:04:04.390            27.947         13973.500
       295   12 Jun 2027 06:04:33.046   12 Jun 2027 06:04:56.683            23.637         11521.968
       296   12 Jun 2027 06:05:59.016   12 Jun 2027 06:06:03.134             4.118          1666.281
       297   12 Jun 2027 07:37:37.001   12 Jun 2027 07:37:48.342            11.341          5235.531
       298   12 Jun 2027 07:39:38.037   12 Jun 2027 07:39:46.219             8.182           752.500
       299   12 Jun 2027 07:41:24.473   12 Jun 2027 07:41:25.536             1.063           116.906
       300   12 Jun 2027 07:42:53.711   12 Jun 2027 07:43:02.944             9.233          1661.781
       301   12 Jun 2027 07:43:28.595   12 Jun 2027 07:43:31.067             2.472           639.000
       302   12 Jun 2027 09:14:21.829   12 Jun 2027 09:14:34.595            12.766          5384.094
       303   12 Jun 2027 09:16:56.349   12 Jun 2027 09:16:56.725             0.376           180.500
       304   12 Jun 2027 09:17:47.371   12 Jun 2027 09:17:51.847             4.476          1413.156
       305   12 Jun 2027 09:18:14.427   12 Jun 2027 09:18:15.717             1.290           339.375
       306   12 Jun 2027 09:18:21.130   12 Jun 2027 09:18:22.937             1.807            79.031
       307   12 Jun 2027 09:18:30.230   12 Jun 2027 09:18:35.639             5.409             7.562
       308   12 Jun 2027 09:18:51.315   12 Jun 2027 09:18:55.069             3.754           489.875
       309   12 Jun 2027 09:19:35.086   12 Jun 2027 09:19:36.221             1.135           362.156
       310   12 Jun 2027 09:20:03.657   12 Jun 2027 09:20:05.460             1.803           648.906
       311   12 Jun 2027 09:20:42.702   12 Jun 2027 09:20:44.625             1.923           821.844
       312   12 Jun 2027 10:52:26.556   12 Jun 2027 10:52:40.083            13.527          5393.812
       313   12 Jun 2027 10:54:20.015   12 Jun 2027 10:54:21.902             1.887           551.250
       314   12 Jun 2027 10:54:29.831   12 Jun 2027 10:54:42.708            12.877           247.781
       315   12 Jun 2027 10:55:33.980   12 Jun 2027 10:55:40.169             6.189           271.938
       316   12 Jun 2027 10:55:48.551   12 Jun 2027 10:55:49.776             1.225           172.656
       317   12 Jun 2027 10:56:25.987   12 Jun 2027 10:56:28.077             2.090           861.375
       318   13 Jun 2027 03:02:49.202   13 Jun 2027 03:03:01.948            12.746          6373.000
       319   13 Jun 2027 03:15:19.017   13 Jun 2027 03:15:25.058             6.041          3020.500
       320   13 Jun 2027 04:36:38.725   13 Jun 2027 04:39:02.763           144.038         72019.000
       321   13 Jun 2027 04:40:16.791   13 Jun 2027 04:41:02.957            46.166         23083.000
       322   13 Jun 2027 06:11:31.479   13 Jun 2027 06:13:15.480           104.001         51054.969
       323   13 Jun 2027 06:14:21.163   13 Jun 2027 06:14:25.000             3.837          1757.438
       324   13 Jun 2027 06:15:15.983   13 Jun 2027 06:15:18.251             2.268          1062.625
       325   13 Jun 2027 06:15:22.984   13 Jun 2027 06:15:23.144             0.160            25.344
       326   13 Jun 2027 06:15:51.066   13 Jun 2027 06:15:51.066             0.000             0.000
       327   13 Jun 2027 06:17:14.520   13 Jun 2027 06:17:25.226            10.706          3411.750
       328   13 Jun 2027 06:18:12.060   13 Jun 2027 06:18:12.060             0.000             0.000
       329   13 Jun 2027 06:18:12.880   13 Jun 2027 06:18:17.674             4.794          1489.187
       330   13 Jun 2027 06:18:46.498   13 Jun 2027 06:18:49.463             2.965           736.281
       331   13 Jun 2027 06:19:20.238   13 Jun 2027 06:19:24.530             4.292           934.531
       332   13 Jun 2027 06:20:17.556   13 Jun 2027 06:20:21.687             4.131          1644.844
       333   13 Jun 2027 06:20:28.993   13 Jun 2027 06:20:30.672             1.679           157.563
       334   13 Jun 2027 07:49:36.699   13 Jun 2027 07:49:38.096             1.397           152.156
       335   13 Jun 2027 07:50:09.883   13 Jun 2027 07:50:12.480             2.597           191.781
       336   13 Jun 2027 07:53:27.376   13 Jun 2027 07:53:29.836             2.460           848.719
       337   13 Jun 2027 07:54:11.383   13 Jun 2027 07:54:15.481             4.098           699.813
       338   13 Jun 2027 07:55:13.334   13 Jun 2027 07:55:15.928             2.594           588.187
       339   13 Jun 2027 09:26:30.019   13 Jun 2027 09:26:41.666            11.647          4575.250
       340   13 Jun 2027 09:29:45.280   13 Jun 2027 09:29:50.569             5.289          1547.719
       341   13 Jun 2027 09:30:54.058   13 Jun 2027 09:30:55.200             1.142            22.500
       342   13 Jun 2027 09:31:32.519   13 Jun 2027 09:31:34.147             1.628           651.813
       343   13 Jun 2027 11:03:39.687   13 Jun 2027 11:03:50.694            11.007          4916.188
       344   13 Jun 2027 11:06:43.656   13 Jun 2027 11:06:45.398             1.742           700.937
       345   13 Jun 2027 11:08:00.433   13 Jun 2027 11:08:06.160             5.727          1818.500
       346   13 Jun 2027 11:08:25.634   13 Jun 2027 11:08:26.492             0.858           130.562
