uniorb/output/strategy_4/Camera/Camera_KinoSat_110102.txt

KinoSat_110102
-------------------------
    Access    *     Start Time (UTCG)     *     Stop Time (UTCG)  *   Duration (s) *   Data (Mbytes)
         1   01 Jun 2027 03:00:00.000   01 Jun 2027 03:00:34.495            34.495         17247.500
         2   01 Jun 2027 03:02:13.812   01 Jun 2027 03:02:26.641            12.829          6414.500
         3   01 Jun 2027 03:03:11.353   01 Jun 2027 03:03:28.455            17.102          8551.000
         4   01 Jun 2027 03:03:34.709   01 Jun 2027 03:03:53.053            18.344          9172.000
         5   01 Jun 2027 03:04:28.110   01 Jun 2027 03:04:44.506            16.396          8198.000
         6   01 Jun 2027 03:05:06.727   01 Jun 2027 03:05:27.290            20.563         10281.500
         7   01 Jun 2027 03:05:39.879   01 Jun 2027 03:05:47.471             7.592          3796.000
         8   01 Jun 2027 03:05:49.161   01 Jun 2027 03:05:50.583             1.422           711.000
         9   01 Jun 2027 04:35:36.601   01 Jun 2027 04:38:05.490           148.889         74444.500
        10   01 Jun 2027 04:38:33.429   01 Jun 2027 04:38:40.415             6.986          3493.000
        11   01 Jun 2027 04:38:51.801   01 Jun 2027 04:38:55.919             4.118          2059.000
        12   01 Jun 2027 04:38:58.142   01 Jun 2027 04:39:13.276            15.134          7567.000
        13   01 Jun 2027 04:40:05.731   01 Jun 2027 04:40:18.169            12.438          6219.000
        14   01 Jun 2027 04:40:21.701   01 Jun 2027 04:40:27.388             5.687          2843.500
        15   01 Jun 2027 06:13:26.937   01 Jun 2027 06:16:23.576           176.639         88319.500
        16   01 Jun 2027 06:17:26.981   01 Jun 2027 06:17:48.264            21.283         10641.500
        17   01 Jun 2027 07:49:25.614   01 Jun 2027 07:51:32.289           126.675         63337.500
        18   01 Jun 2027 07:52:02.535   01 Jun 2027 07:52:22.800            20.265         10132.500
        19   01 Jun 2027 07:52:55.619   01 Jun 2027 07:53:13.320            17.701          8850.500
        20   02 Jun 2027 03:11:01.003   02 Jun 2027 03:18:13.744           432.741        216370.500
        21   02 Jun 2027 04:48:13.297   02 Jun 2027 04:52:41.787           268.490        134245.000
        22   02 Jun 2027 04:52:51.514   02 Jun 2027 04:53:36.753            45.239         22619.500
        23   02 Jun 2027 04:53:43.460   02 Jun 2027 04:54:03.103            19.643          9821.500
        24   02 Jun 2027 06:24:56.533   02 Jun 2027 06:29:45.337           288.804        144402.000
        25   02 Jun 2027 08:00:15.095   02 Jun 2027 08:00:21.042             5.947          2973.500
        26   02 Jun 2027 08:01:53.329   02 Jun 2027 08:04:46.702           173.373         86686.500
        27   03 Jun 2027 03:23:22.159   03 Jun 2027 03:30:04.586           402.427        201213.500
        28   03 Jun 2027 05:00:19.997   03 Jun 2027 05:05:17.918           297.921        148960.500
        29   03 Jun 2027 06:37:25.740   03 Jun 2027 06:41:44.833           259.093        129546.500
        30   03 Jun 2027 08:15:17.762   03 Jun 2027 08:16:17.422            59.660         29830.000
        31   04 Jun 2027 03:35:48.742   04 Jun 2027 03:42:10.697           381.955        190977.500
        32   04 Jun 2027 05:13:21.528   04 Jun 2027 05:17:45.739           264.211        132105.500
        33   04 Jun 2027 06:49:39.539   04 Jun 2027 06:53:39.585           240.046        120023.000
        34   05 Jun 2027 03:47:56.334   05 Jun 2027 03:53:43.370           347.036        173518.000
        35   05 Jun 2027 03:53:51.712   05 Jun 2027 03:54:01.718            10.006          5003.000
        36   05 Jun 2027 05:25:27.887   05 Jun 2027 05:29:58.678           270.791        135395.500
        37   05 Jun 2027 07:01:28.590   05 Jun 2027 07:05:40.134           251.544        125772.000
        38   05 Jun 2027 07:05:44.394   05 Jun 2027 07:06:25.980            41.586         20793.000
        39   06 Jun 2027 03:59:39.634   06 Jun 2027 04:06:02.924           383.290        191645.000
        40   06 Jun 2027 05:37:57.027   06 Jun 2027 05:41:40.718           223.691        111845.500
        41   06 Jun 2027 07:11:58.411   06 Jun 2027 07:12:42.793            44.382         22191.000
        42   06 Jun 2027 07:13:36.198   06 Jun 2027 07:17:27.086           230.888        115444.000
        43   06 Jun 2027 07:17:51.204   06 Jun 2027 07:18:46.007            54.803         27401.500
        44   07 Jun 2027 04:12:00.679   07 Jun 2027 04:17:49.804           349.125        174562.500
        45   07 Jun 2027 04:17:51.169   07 Jun 2027 04:18:14.075            22.906         11453.000
        46   07 Jun 2027 05:49:54.754   07 Jun 2027 05:53:53.642           238.888        119444.000
        47   07 Jun 2027 07:23:01.200   07 Jun 2027 07:29:25.442           384.242        192121.000
        48   07 Jun 2027 07:30:12.075   07 Jun 2027 07:31:00.758            48.683         24341.500
        49   08 Jun 2027 04:23:52.040   08 Jun 2027 04:29:05.707           313.667        156833.500
        50   08 Jun 2027 04:29:08.128   08 Jun 2027 04:30:05.501            57.373         28686.500
        51   08 Jun 2027 04:30:10.028   08 Jun 2027 04:30:28.885            18.857          9428.500
        52   08 Jun 2027 06:01:54.788   08 Jun 2027 06:06:04.152           249.364        124682.000
        53   08 Jun 2027 07:35:31.160   08 Jun 2027 07:42:55.480           444.320        222160.000
        54   09 Jun 2027 03:00:00.000   09 Jun 2027 03:06:30.309           390.309        195154.500
        55   09 Jun 2027 04:35:52.090   09 Jun 2027 04:41:30.801           338.711        169355.500
        56   09 Jun 2027 04:41:49.344   09 Jun 2027 04:42:30.259            40.915         20457.500
        57   09 Jun 2027 06:13:42.274   09 Jun 2027 06:18:03.024           260.750        130375.000
        58   09 Jun 2027 07:50:41.827   09 Jun 2027 07:53:55.829           194.002         97001.000
        59   10 Jun 2027 03:11:16.570   10 Jun 2027 03:18:28.646           432.076        216038.000
        60   10 Jun 2027 04:48:28.524   10 Jun 2027 04:52:56.768           268.244        134122.000
        61   10 Jun 2027 04:53:06.205   10 Jun 2027 04:54:18.038            71.833         35916.500
        62   10 Jun 2027 06:25:16.621   10 Jun 2027 06:30:00.297           283.676        141838.000
        63   10 Jun 2027 08:00:29.324   10 Jun 2027 08:00:36.497             7.173          3586.500
        64   10 Jun 2027 08:02:08.380   10 Jun 2027 08:05:01.440           173.060         86530.000
        65   11 Jun 2027 03:23:36.905   11 Jun 2027 03:30:19.650           402.745        201372.500
        66   11 Jun 2027 05:00:34.825   11 Jun 2027 05:05:32.711           297.886        148943.000
        67   11 Jun 2027 06:37:40.172   11 Jun 2027 06:42:00.249           260.077        130038.500
        68   11 Jun 2027 08:15:42.454   11 Jun 2027 08:16:31.721            49.267         24633.500
        69   12 Jun 2027 03:36:04.753   12 Jun 2027 03:42:25.805           381.052        190526.000
        70   12 Jun 2027 05:13:36.381   12 Jun 2027 05:18:01.102           264.721        132360.500
        71   12 Jun 2027 06:49:56.229   12 Jun 2027 06:53:54.886           238.657        119328.500
        72   13 Jun 2027 03:48:11.490   13 Jun 2027 03:53:58.401           346.911        173455.500
        73   13 Jun 2027 03:54:06.875   13 Jun 2027 03:54:16.573             9.698          4849.000
        74   13 Jun 2027 05:25:42.015   13 Jun 2027 05:30:13.665           271.650        135825.000
        75   13 Jun 2027 07:01:43.163   13 Jun 2027 07:05:55.166           252.003        126001.500
        76   13 Jun 2027 07:05:59.352   13 Jun 2027 07:06:41.705            42.353         21176.500
