uniorb/output/strategy_4/Camera/Camera_KinoSat_110401.txt

KinoSat_110401
-------------------------
    Access    *     Start Time (UTCG)     *     Stop Time (UTCG)  *   Duration (s) *   Data (Mbytes)
         1   01 Jun 2027 04:29:57.825   01 Jun 2027 04:32:18.998           141.173         70586.500
         2   01 Jun 2027 04:32:34.500   01 Jun 2027 04:32:41.139             6.639          3319.500
         3   01 Jun 2027 04:35:17.263   01 Jun 2027 04:35:54.977            37.714         18857.000
         4   01 Jun 2027 04:36:10.886   01 Jun 2027 04:36:10.886             0.000             0.000
         5   01 Jun 2027 04:36:29.467   01 Jun 2027 04:36:34.856             5.389          2694.500
         6   01 Jun 2027 04:36:40.207   01 Jun 2027 04:36:48.528             8.321          4160.500
         7   01 Jun 2027 04:37:19.215   01 Jun 2027 04:37:23.983             4.768          2384.000
         8   01 Jun 2027 06:06:58.699   01 Jun 2027 06:09:41.910           163.211         81605.500
         9   01 Jun 2027 06:11:57.484   01 Jun 2027 06:12:28.728            31.244         15622.000
        10   01 Jun 2027 07:44:59.170   01 Jun 2027 07:48:07.939           188.769         94384.500
        11   01 Jun 2027 07:48:28.415   01 Jun 2027 07:48:36.556             8.141          4070.500
        12   01 Jun 2027 09:18:13.069   01 Jun 2027 09:21:54.063           220.994        110497.000
        13   01 Jun 2027 09:23:36.119   01 Jun 2027 09:23:53.643            17.524          8762.000
        14   01 Jun 2027 09:24:34.323   01 Jun 2027 09:24:59.392            25.069         12534.500
        15   02 Jun 2027 03:04:54.319   02 Jun 2027 03:06:28.409            94.090         47045.000
        16   02 Jun 2027 03:06:55.866   02 Jun 2027 03:11:45.296           289.430        144715.000
        17   02 Jun 2027 03:12:50.123   02 Jun 2027 03:12:59.726             9.603          4801.500
        18   02 Jun 2027 04:42:06.711   02 Jun 2027 04:44:45.183           158.472         79236.000
        19   02 Jun 2027 04:45:20.278   02 Jun 2027 04:45:31.919            11.641          5820.500
        20   02 Jun 2027 04:46:21.219   02 Jun 2027 04:46:24.360             3.141          1570.500
        21   02 Jun 2027 04:49:05.351   02 Jun 2027 04:49:32.530            27.179         13589.500
        22   02 Jun 2027 06:19:03.888   02 Jun 2027 06:25:00.435           356.547        178273.500
        23   02 Jun 2027 07:57:41.464   02 Jun 2027 08:00:58.350           196.886         98443.000
        24   02 Jun 2027 09:30:31.297   02 Jun 2027 09:38:03.362           452.065        226032.500
        25   03 Jun 2027 03:16:23.899   03 Jun 2027 03:24:14.714           470.815        235407.500
        26   03 Jun 2027 03:24:42.385   03 Jun 2027 03:25:33.162            50.777         25388.500
        27   03 Jun 2027 04:54:08.508   03 Jun 2027 05:01:34.278           445.770        222885.000
        28   03 Jun 2027 06:30:56.326   03 Jun 2027 06:36:49.749           353.423        176711.500
        29   03 Jun 2027 06:37:28.529   03 Jun 2027 06:37:38.827            10.298          5149.000
        30   03 Jun 2027 08:09:10.065   03 Jun 2027 08:13:07.656           237.591        118795.500
        31   03 Jun 2027 09:42:50.569   03 Jun 2027 09:48:36.661           346.092        173046.000
        32   04 Jun 2027 03:29:08.349   04 Jun 2027 03:36:27.991           439.642        219821.000
        33   04 Jun 2027 03:36:49.900   04 Jun 2027 03:37:37.894            47.994         23997.000
        34   04 Jun 2027 05:06:11.453   04 Jun 2027 05:13:31.616           440.163        220081.500
        35   04 Jun 2027 06:43:05.927   04 Jun 2027 06:48:08.887           302.960        151480.000
        36   04 Jun 2027 06:48:19.984   04 Jun 2027 06:49:26.529            66.545         33272.500
        37   04 Jun 2027 08:20:27.158   04 Jun 2027 08:25:05.577           278.419        139209.500
        38   04 Jun 2027 09:55:13.603   04 Jun 2027 09:55:56.950            43.347         21673.500
        39   04 Jun 2027 09:56:56.585   04 Jun 2027 10:00:13.349           196.764         98382.000
        40   05 Jun 2027 03:41:06.292   05 Jun 2027 03:49:37.139           510.847        255423.500
        41   05 Jun 2027 05:18:37.128   05 Jun 2027 05:25:22.127           404.999        202499.500
        42   05 Jun 2027 06:55:33.361   05 Jun 2027 06:59:56.732           263.371        131685.500
        43   05 Jun 2027 07:00:02.975   05 Jun 2027 07:01:20.226            77.251         38625.500
        44   05 Jun 2027 08:32:29.336   05 Jun 2027 08:36:56.315           266.979        133489.500
        45   05 Jun 2027 10:10:00.862   05 Jun 2027 10:11:43.660           102.798         51399.000
        46   06 Jun 2027 03:53:55.942   06 Jun 2027 04:00:31.286           395.344        197672.000
        47   06 Jun 2027 04:00:34.131   06 Jun 2027 04:01:32.375            58.244         29122.000
        48   06 Jun 2027 05:30:43.807   06 Jun 2027 05:37:26.777           402.970        201485.000
        49   06 Jun 2027 07:08:24.825   06 Jun 2027 07:12:52.398           267.573        133786.500
        50   06 Jun 2027 08:44:30.502   06 Jun 2027 08:49:14.098           283.596        141798.000
        51   07 Jun 2027 04:06:57.101   07 Jun 2027 04:13:34.034           396.933        198466.500
        52   07 Jun 2027 05:43:19.599   07 Jun 2027 05:49:32.652           373.053        186526.500
        53   07 Jun 2027 07:20:42.618   07 Jun 2027 07:25:12.819           270.201        135100.500
        54   07 Jun 2027 08:56:49.551   07 Jun 2027 09:01:32.917           283.366        141683.000
        55   08 Jun 2027 04:18:38.871   08 Jun 2027 04:21:09.590           150.719         75359.500
        56   08 Jun 2027 04:21:34.854   08 Jun 2027 04:25:41.293           246.439        123219.500
        57   08 Jun 2027 05:54:51.496   08 Jun 2027 06:01:19.142           387.646        193823.000
        58   08 Jun 2027 07:33:30.958   08 Jun 2027 07:37:03.115           212.157        106078.500
        59   08 Jun 2027 09:08:45.401   08 Jun 2027 09:12:55.973           250.572        125286.000
        60   08 Jun 2027 09:13:19.939   08 Jun 2027 09:14:00.154            40.215         20107.500
        61   09 Jun 2027 04:30:12.283   09 Jun 2027 04:37:46.174           453.891        226945.500
        62   09 Jun 2027 06:07:13.446   09 Jun 2027 06:13:21.148           367.702        183851.000
        63   09 Jun 2027 07:45:13.627   09 Jun 2027 07:49:10.610           236.983        118491.500
        64   09 Jun 2027 09:18:27.262   09 Jun 2027 09:24:37.656           370.394        185197.000
        65   09 Jun 2027 09:24:38.456   09 Jun 2027 09:26:05.342            86.886         43443.000
        66   10 Jun 2027 03:05:08.696   10 Jun 2027 03:06:48.996           100.300         50150.000
        67   10 Jun 2027 03:07:10.338   10 Jun 2027 03:12:08.824           298.486        149243.000
        68   10 Jun 2027 03:13:09.104   10 Jun 2027 03:13:19.518            10.414          5207.000
        69   10 Jun 2027 04:42:21.464   10 Jun 2027 04:49:47.188           445.724        222862.000
        70   10 Jun 2027 06:19:18.225   10 Jun 2027 06:25:27.119           368.894        184447.000
        71   10 Jun 2027 07:57:21.472   10 Jun 2027 08:01:12.888           231.416        115708.000
        72   10 Jun 2027 09:30:45.931   10 Jun 2027 09:38:05.468           439.537        219768.500
        73   11 Jun 2027 03:16:38.213   11 Jun 2027 03:24:29.425           471.212        235606.000
        74   11 Jun 2027 03:24:56.862   11 Jun 2027 03:25:48.070            51.208         25604.000
        75   11 Jun 2027 04:54:23.350   11 Jun 2027 05:01:48.913           445.563        222781.500
        76   11 Jun 2027 06:31:11.039   11 Jun 2027 06:37:04.283           353.244        176622.000
        77   11 Jun 2027 06:37:29.129   11 Jun 2027 06:37:53.510            24.381         12190.500
        78   11 Jun 2027 08:09:33.116   11 Jun 2027 08:13:22.401           229.285        114642.500
        79   11 Jun 2027 09:43:05.082   11 Jun 2027 09:49:04.251           359.169        179584.500
        80   12 Jun 2027 03:29:23.029   12 Jun 2027 03:36:42.641           439.612        219806.000
        81   12 Jun 2027 03:37:07.443   12 Jun 2027 03:37:52.492            45.049         22524.500
        82   12 Jun 2027 05:06:26.231   12 Jun 2027 05:13:46.133           439.902        219951.000
        83   12 Jun 2027 06:43:20.609   12 Jun 2027 06:48:23.443           302.834        151417.000
        84   12 Jun 2027 06:48:34.242   12 Jun 2027 06:49:40.978            66.736         33368.000
        85   12 Jun 2027 08:20:42.528   12 Jun 2027 08:25:20.187           277.659        138829.500
        86   12 Jun 2027 09:57:13.456   12 Jun 2027 10:00:27.788           194.332         97166.000
        87   13 Jun 2027 03:41:21.000   13 Jun 2027 03:49:51.761           510.761        255380.500
        88   13 Jun 2027 05:18:52.030   13 Jun 2027 05:25:36.736           404.706        202353.000
        89   13 Jun 2027 06:56:02.915   13 Jun 2027 07:00:11.375           248.460        124230.000
        90   13 Jun 2027 07:00:16.919   13 Jun 2027 07:01:34.761            77.842         38921.000
        91   13 Jun 2027 08:32:44.101   13 Jun 2027 08:37:10.996           266.895        133447.500
        92   13 Jun 2027 10:10:15.516   13 Jun 2027 10:11:58.661           103.145         51572.500
