uniorb/output/strategy_4/Camera/Camera_KinoSat_111508.txt

KinoSat_111508
-------------------------
    Access    *     Start Time (UTCG)     *     Stop Time (UTCG)  *   Duration (s) *   Data (Mbytes)
         1   01 Jun 2027 04:27:42.693   01 Jun 2027 04:29:57.399           134.706         67353.000
         2   01 Jun 2027 04:30:34.400   01 Jun 2027 04:30:59.863            25.463         12731.500
         3   01 Jun 2027 05:51:10.983   01 Jun 2027 05:52:04.999            54.016         27008.000
         4   01 Jun 2027 05:52:48.142   01 Jun 2027 05:53:29.910            41.768         20884.000
         5   01 Jun 2027 07:27:23.663   01 Jun 2027 07:29:49.996           146.333         73166.500
         6   01 Jun 2027 09:00:56.966   01 Jun 2027 09:03:23.555           146.589         73294.500
         7   01 Jun 2027 09:06:39.508   01 Jun 2027 09:06:50.610            11.102          5551.000
         8   01 Jun 2027 09:08:52.420   01 Jun 2027 09:09:31.003            38.583         19291.500
         9   01 Jun 2027 10:38:28.383   01 Jun 2027 10:40:15.979           107.596         53798.000
        10   01 Jun 2027 10:40:37.754   01 Jun 2027 10:40:37.754             0.000             0.000
        11   01 Jun 2027 10:42:34.793   01 Jun 2027 10:43:20.527            45.734         22867.000
        12   02 Jun 2027 03:01:21.943   02 Jun 2027 03:01:49.040            27.097         13548.500
        13   02 Jun 2027 03:01:52.957   02 Jun 2027 03:01:59.376             6.419          3209.500
        14   02 Jun 2027 03:02:54.910   02 Jun 2027 03:02:55.644             0.734           367.000
        15   02 Jun 2027 03:03:12.671   02 Jun 2027 03:03:23.089            10.418          5209.000
        16   02 Jun 2027 03:04:57.271   02 Jun 2027 03:05:10.586            13.315          6657.500
        17   02 Jun 2027 03:05:46.391   02 Jun 2027 03:06:16.259            29.868         14934.000
        18   02 Jun 2027 03:07:06.069   02 Jun 2027 03:07:06.069             0.000             0.000
        19   02 Jun 2027 03:07:18.081   02 Jun 2027 03:07:29.868            11.787          5893.500
        20   02 Jun 2027 04:39:22.913   02 Jun 2027 04:41:05.694           102.781         51390.500
        21   02 Jun 2027 04:41:08.690   02 Jun 2027 04:41:17.051             8.361          4180.500
        22   02 Jun 2027 04:42:01.066   02 Jun 2027 04:42:32.179            31.113         15556.500
        23   02 Jun 2027 06:03:01.993   02 Jun 2027 06:04:41.318            99.325         49662.500
        24   02 Jun 2027 06:05:26.619   02 Jun 2027 06:05:41.098            14.479          7239.500
        25   02 Jun 2027 07:39:28.921   02 Jun 2027 07:42:20.066           171.145         85572.500
        26   02 Jun 2027 07:42:54.733   02 Jun 2027 07:43:04.248             9.515          4757.500
        27   02 Jun 2027 09:11:37.019   02 Jun 2027 09:11:48.072            11.053          5526.500
        28   02 Jun 2027 09:13:35.853   02 Jun 2027 09:15:22.295           106.442         53221.000
        29   02 Jun 2027 09:16:50.380   02 Jun 2027 09:17:21.407            31.027         15513.500
        30   02 Jun 2027 09:18:36.118   02 Jun 2027 09:19:02.810            26.692         12179.312
        31   02 Jun 2027 09:21:17.303   02 Jun 2027 09:21:23.349             6.046          2940.344
        32   02 Jun 2027 10:50:34.618   02 Jun 2027 10:50:47.561            12.943          6083.437
        33   02 Jun 2027 10:52:36.178   02 Jun 2027 10:52:42.573             6.395          1739.250
        34   02 Jun 2027 10:53:22.552   02 Jun 2027 10:53:31.893             9.341          1249.344
        35   02 Jun 2027 10:54:16.332   02 Jun 2027 10:54:28.744            12.412           880.437
        36   02 Jun 2027 10:54:39.081   02 Jun 2027 10:54:40.303             1.222           323.031
        37   02 Jun 2027 10:55:16.373   02 Jun 2027 10:55:17.644             1.271           442.781
        38   02 Jun 2027 10:55:38.153   02 Jun 2027 10:55:39.724             1.571           640.906
        39   02 Jun 2027 10:56:37.259   02 Jun 2027 10:56:41.008             3.749          1761.938
        40   02 Jun 2027 10:56:43.164   02 Jun 2027 10:56:43.351             0.187            47.500
        41   02 Jun 2027 10:57:00.180   02 Jun 2027 10:57:01.434             1.254           525.906
        42   02 Jun 2027 10:57:11.056   02 Jun 2027 10:57:14.020             2.964           176.562
        43   03 Jun 2027 03:13:28.056   03 Jun 2027 03:14:30.310            62.254         31127.000
        44   03 Jun 2027 03:14:37.380   03 Jun 2027 03:15:16.543            39.163         19581.500
        45   03 Jun 2027 03:15:42.189   03 Jun 2027 03:15:49.332             7.143          3571.500
        46   03 Jun 2027 03:16:03.880   03 Jun 2027 03:16:56.693            52.813         26406.500
        47   03 Jun 2027 03:18:17.299   03 Jun 2027 03:18:19.459             2.160          1080.000
        48   03 Jun 2027 03:18:43.373   03 Jun 2027 03:19:00.843            17.470          8735.000
        49   03 Jun 2027 03:19:14.181   03 Jun 2027 03:19:44.273            30.092         15046.000
        50   03 Jun 2027 04:52:36.160   03 Jun 2027 04:54:29.475           113.315         56111.562
        51   03 Jun 2027 04:55:22.383   03 Jun 2027 04:55:25.487             3.104          1538.531
        52   03 Jun 2027 06:15:10.447   03 Jun 2027 06:15:24.915            14.468          7062.375
        53   03 Jun 2027 06:16:23.240   03 Jun 2027 06:16:23.240             0.000             0.000
        54   03 Jun 2027 06:17:16.197   03 Jun 2027 06:17:26.797            10.600          3303.781
        55   03 Jun 2027 07:51:38.887   03 Jun 2027 07:51:47.070             8.183          2749.219
        56   03 Jun 2027 07:52:37.137   03 Jun 2027 07:52:44.353             7.216          1318.250
        57   03 Jun 2027 07:53:41.462   03 Jun 2027 07:53:45.302             3.840          1630.375
        58   03 Jun 2027 07:55:03.032   03 Jun 2027 07:55:07.449             4.417          1709.031
        59   03 Jun 2027 09:26:50.171   03 Jun 2027 09:26:56.459             6.288          2600.000
        60   03 Jun 2027 09:28:00.366   03 Jun 2027 09:28:04.100             3.734          1480.969
        61   03 Jun 2027 09:28:14.417   03 Jun 2027 09:28:21.246             6.829           290.281
        62   03 Jun 2027 09:29:50.222   03 Jun 2027 09:29:56.932             6.710          1461.750
        63   03 Jun 2027 09:30:35.252   03 Jun 2027 09:30:37.203             1.951           590.281
        64   03 Jun 2027 09:31:06.052   03 Jun 2027 09:31:10.002             3.950           713.531
        65   03 Jun 2027 09:31:17.221   03 Jun 2027 09:31:18.640             1.419            92.938
        66   03 Jun 2027 09:31:31.911   03 Jun 2027 09:31:35.554             3.643           262.594
        67   03 Jun 2027 09:32:53.612   03 Jun 2027 09:32:57.420             3.808          1576.031
        68   03 Jun 2027 09:33:24.331   03 Jun 2027 09:33:25.625             1.294            94.094
        69   03 Jun 2027 11:03:08.887   03 Jun 2027 11:03:17.172             8.285          4141.469
        70   03 Jun 2027 11:04:27.166   03 Jun 2027 11:04:40.166            13.000          1449.531
        71   03 Jun 2027 11:05:16.250   03 Jun 2027 11:05:19.522             3.272           610.812
        72   03 Jun 2027 11:05:50.680   03 Jun 2027 11:06:03.809            13.129           930.437
        73   03 Jun 2027 11:06:41.157   03 Jun 2027 11:06:42.824             1.667           648.781
        74   03 Jun 2027 11:07:10.099   03 Jun 2027 11:07:13.281             3.182           277.313
        75   03 Jun 2027 11:07:43.910   03 Jun 2027 11:07:47.931             4.021           957.156
        76   03 Jun 2027 11:08:41.786   03 Jun 2027 11:08:48.928             7.142          1276.656
        77   03 Jun 2027 11:08:55.560   03 Jun 2027 11:08:56.579             1.019           118.063
        78   04 Jun 2027 03:25:32.788   04 Jun 2027 03:26:14.069            41.281         20640.500
        79   04 Jun 2027 03:26:35.993   04 Jun 2027 03:28:50.841           134.848         67424.000
        80   04 Jun 2027 03:30:09.865   04 Jun 2027 03:30:25.772            15.907          7953.500
        81   04 Jun 2027 05:03:45.149   04 Jun 2027 05:04:21.565            36.416         18208.000
        82   04 Jun 2027 05:04:50.165   04 Jun 2027 05:05:48.051            57.886         28575.594
        83   04 Jun 2027 05:06:34.768   04 Jun 2027 05:06:39.684             4.916           998.969
        84   04 Jun 2027 05:07:08.429   04 Jun 2027 05:07:10.221             1.792           715.844
        85   04 Jun 2027 06:27:52.952   04 Jun 2027 06:27:59.217             6.265          3132.500
        86   04 Jun 2027 06:28:05.949   04 Jun 2027 06:28:06.948             0.999           302.062
        87   04 Jun 2027 06:28:30.612   04 Jun 2027 06:28:34.528             3.916           727.563
        88   04 Jun 2027 06:29:53.520   04 Jun 2027 06:30:02.734             9.214          2468.500
        89   04 Jun 2027 08:03:38.185   04 Jun 2027 08:03:47.045             8.860          2203.000
        90   04 Jun 2027 08:04:15.592   04 Jun 2027 08:04:16.706             1.114           506.719
        91   04 Jun 2027 08:05:19.617   04 Jun 2027 08:05:23.719             4.102          1281.250
        92   04 Jun 2027 08:05:34.120   04 Jun 2027 08:05:34.414             0.294            41.344
        93   04 Jun 2027 08:06:17.926   04 Jun 2027 08:06:22.556             4.630           661.406
        94   04 Jun 2027 09:38:51.216   04 Jun 2027 09:38:59.830             8.614          4200.937
        95   04 Jun 2027 09:40:15.618   04 Jun 2027 09:40:20.439             4.821          2352.344
        96   04 Jun 2027 09:40:48.078   04 Jun 2027 09:40:50.931             2.853           517.625
        97   04 Jun 2027 09:41:45.671   04 Jun 2027 09:41:47.915             2.244           914.906
        98   04 Jun 2027 09:44:03.480   04 Jun 2027 09:44:13.927            10.447          2709.344
        99   04 Jun 2027 09:45:17.291   04 Jun 2027 09:45:23.388             6.097           583.656
       100   04 Jun 2027 11:14:47.720   04 Jun 2027 11:15:06.236            18.516          7625.000
       101   04 Jun 2027 11:16:56.779   04 Jun 2027 11:17:02.838             6.059          1583.281
       102   04 Jun 2027 11:17:14.906   04 Jun 2027 11:17:17.319             2.413           369.187
       103   04 Jun 2027 11:17:45.148   04 Jun 2027 11:17:49.523             4.375           869.656
       104   04 Jun 2027 11:18:16.807   04 Jun 2027 11:18:26.142             9.335           763.250
       105   04 Jun 2027 11:19:07.147   04 Jun 2027 11:19:15.146             7.999          1143.906
       106   04 Jun 2027 11:20:09.844   04 Jun 2027 11:20:15.823             5.979          1709.312
       107   04 Jun 2027 11:20:43.761   04 Jun 2027 11:20:52.523             8.762           841.344
       108   04 Jun 2027 11:21:04.497   04 Jun 2027 11:21:06.443             1.946           347.000
       109   05 Jun 2027 03:38:37.303   05 Jun 2027 03:42:22.485           225.182        112591.000
       110   05 Jun 2027 03:43:35.734   05 Jun 2027 03:43:42.764             7.030          3515.000
       111   05 Jun 2027 03:45:34.327   05 Jun 2027 03:45:39.029             4.702          2351.000
       112   05 Jun 2027 05:04:43.525   05 Jun 2027 05:04:49.633             6.108          3054.000
       113   05 Jun 2027 05:15:40.842   05 Jun 2027 05:17:03.314            82.472         40343.687
       114   05 Jun 2027 05:17:57.746   05 Jun 2027 05:18:02.727             4.981           361.500
       115   05 Jun 2027 05:18:26.671   05 Jun 2027 05:18:28.983             2.312           569.563
       116   05 Jun 2027 05:18:53.217   05 Jun 2027 05:18:54.544             1.327           507.969
       117   05 Jun 2027 06:38:59.895   05 Jun 2027 06:39:11.670            11.775          3598.750
       118   05 Jun 2027 06:40:24.063   05 Jun 2027 06:40:28.199             4.136          1769.406
       119   05 Jun 2027 06:41:53.413   05 Jun 2027 06:41:59.491             6.078          2460.031
       120   05 Jun 2027 08:15:22.738   05 Jun 2027 08:15:27.593             4.855          2408.187
       121   05 Jun 2027 08:16:39.874   05 Jun 2027 08:16:48.865             8.991          1902.437
       122   05 Jun 2027 08:17:00.649   05 Jun 2027 08:17:02.687             2.038            30.063
       123   05 Jun 2027 08:18:07.345   05 Jun 2027 08:18:11.198             3.853           692.062
       124   05 Jun 2027 08:18:16.341   05 Jun 2027 08:18:22.874             6.533           160.719
       125   05 Jun 2027 08:19:11.922   05 Jun 2027 08:19:11.922             0.000             0.000
       126   05 Jun 2027 09:50:07.753   05 Jun 2027 09:50:15.109             7.356          3473.437
       127   05 Jun 2027 09:52:16.371   05 Jun 2027 09:52:25.376             9.005          2924.719
       128   05 Jun 2027 09:53:41.223   05 Jun 2027 09:53:46.012             4.789          1219.906
       129   05 Jun 2027 09:54:40.851   05 Jun 2027 09:54:44.676             3.825          1713.719
       130   05 Jun 2027 09:55:24.788   05 Jun 2027 09:55:25.901             1.113           398.156
       131   05 Jun 2027 09:55:36.954   05 Jun 2027 09:55:38.733             1.779           124.375
       132   05 Jun 2027 09:55:44.764   05 Jun 2027 09:55:47.423             2.659           188.469
       133   05 Jun 2027 09:55:56.604   05 Jun 2027 09:55:59.154             2.550           286.906
       134   05 Jun 2027 09:57:01.314   05 Jun 2027 09:57:05.216             3.902          1831.375
       135   05 Jun 2027 09:57:11.597   05 Jun 2027 09:57:12.185             0.588           199.406
       136   05 Jun 2027 09:57:33.550   05 Jun 2027 09:57:35.725             2.175           605.188
       137   05 Jun 2027 11:26:57.110   05 Jun 2027 11:27:10.491            13.381          6542.000
       138   05 Jun 2027 11:27:54.125   05 Jun 2027 11:27:56.660             2.535           652.906
       139   05 Jun 2027 11:28:38.539   05 Jun 2027 11:28:40.279             1.740           248.750
       140   05 Jun 2027 11:28:49.566   05 Jun 2027 11:28:55.942             6.376           156.594
       141   05 Jun 2027 11:29:19.804   05 Jun 2027 11:29:22.411             2.607           602.469
       142   05 Jun 2027 11:30:00.313   05 Jun 2027 11:30:00.951             0.638           222.219
       143   05 Jun 2027 11:30:58.812   05 Jun 2027 11:31:03.067             4.255           492.906
       144   05 Jun 2027 11:31:21.305   05 Jun 2027 11:31:22.992             1.687           503.875
       145   05 Jun 2027 11:32:31.689   05 Jun 2027 11:32:38.480             6.791          1953.937
       146   05 Jun 2027 11:32:54.144   05 Jun 2027 11:32:58.719             4.575           259.781
       147   06 Jun 2027 03:51:00.068   06 Jun 2027 03:54:11.865           191.797         95898.500
       148   06 Jun 2027 03:56:47.753   06 Jun 2027 03:56:56.540             8.787          4393.500
       149   06 Jun 2027 03:57:49.950   06 Jun 2027 03:58:17.566            27.616         13808.000
       150   06 Jun 2027 05:16:02.081   06 Jun 2027 05:16:03.743             1.662           831.000
       151   06 Jun 2027 05:27:41.999   06 Jun 2027 05:29:02.631            80.632         40316.000
       152   06 Jun 2027 06:49:58.324   06 Jun 2027 06:50:06.527             8.203          4101.500
       153   06 Jun 2027 06:50:08.794   06 Jun 2027 06:50:17.849             9.055          2012.000
       154   06 Jun 2027 06:51:05.827   06 Jun 2027 06:51:11.739             5.912          1295.500
       155   06 Jun 2027 06:52:23.830   06 Jun 2027 06:52:28.907             5.077          2001.969
       156   06 Jun 2027 06:53:52.225   06 Jun 2027 06:53:59.430             7.205          2340.438
       157   06 Jun 2027 06:54:36.081   06 Jun 2027 06:54:36.081             0.000             0.000
       158   06 Jun 2027 06:54:52.294   06 Jun 2027 06:55:01.700             9.406          1212.437
       159   06 Jun 2027 08:25:10.759   06 Jun 2027 08:25:19.333             8.574          2160.844
       160   06 Jun 2027 08:26:02.179   06 Jun 2027 08:26:04.644             2.465          1176.906
       161   06 Jun 2027 08:27:06.680   06 Jun 2027 08:27:11.321             4.641           488.656
       162   06 Jun 2027 08:28:40.855   06 Jun 2027 08:28:45.586             4.731          2346.344
       163   06 Jun 2027 08:28:57.099   06 Jun 2027 08:29:00.854             3.755           355.469
       164   06 Jun 2027 08:30:35.184   06 Jun 2027 08:30:38.173             2.989          1381.625
       165   06 Jun 2027 10:02:15.073   06 Jun 2027 10:02:21.408             6.335          2657.344
       166   06 Jun 2027 10:03:02.407   06 Jun 2027 10:03:03.618             1.211            79.781
       167   06 Jun 2027 10:05:47.549   06 Jun 2027 10:05:48.732             1.183           577.875
       168   06 Jun 2027 10:06:43.237   06 Jun 2027 10:06:47.230             3.993          1636.062
       169   06 Jun 2027 10:07:02.178   06 Jun 2027 10:07:03.672             1.494           456.937
       170   06 Jun 2027 10:07:23.567   06 Jun 2027 10:07:24.936             1.369           492.563
       171   06 Jun 2027 10:07:52.859   06 Jun 2027 10:07:56.357             3.498           456.313
       172   06 Jun 2027 10:08:46.716   06 Jun 2027 10:08:50.461             3.745          1424.437
       173   06 Jun 2027 10:08:58.980   06 Jun 2027 10:09:01.169             2.189           266.219
       174   06 Jun 2027 10:09:24.086   06 Jun 2027 10:09:29.050             4.964           679.562
       175   06 Jun 2027 11:39:13.113   06 Jun 2027 11:39:27.812            14.699          6354.469
       176   06 Jun 2027 11:41:53.055   06 Jun 2027 11:41:58.715             5.660          2174.844
       177   06 Jun 2027 11:42:47.343   06 Jun 2027 11:42:53.109             5.766          1458.688
       178   06 Jun 2027 11:43:22.701   06 Jun 2027 11:43:27.443             4.742           726.656
       179   06 Jun 2027 11:43:48.866   06 Jun 2027 11:43:52.761             3.895           543.406
       180   06 Jun 2027 11:44:28.166   06 Jun 2027 11:44:34.558             6.392           992.344
       181   06 Jun 2027 11:44:54.458   06 Jun 2027 11:44:55.671             1.213           202.813
       182   06 Jun 2027 11:45:05.102   06 Jun 2027 11:45:05.391             0.289           111.312
       183   07 Jun 2027 04:03:18.881   07 Jun 2027 04:05:56.061           157.180         78590.000
       184   07 Jun 2027 04:06:11.372   07 Jun 2027 04:06:16.812             5.440          2720.000
       185   07 Jun 2027 04:07:11.203   07 Jun 2027 04:07:14.354             3.151          1575.500
       186   07 Jun 2027 04:09:18.601   07 Jun 2027 04:09:18.601             0.000             0.000
       187   07 Jun 2027 04:09:30.950   07 Jun 2027 04:09:39.017             8.067          4033.500
       188   07 Jun 2027 05:27:23.781   07 Jun 2027 05:28:08.528            44.747         22373.500
       189   07 Jun 2027 05:39:39.232   07 Jun 2027 05:40:19.010            39.778         19889.000
       190   07 Jun 2027 07:01:39.108   07 Jun 2027 07:02:41.614            62.506         30947.750
       191   07 Jun 2027 07:04:47.828   07 Jun 2027 07:05:02.177            14.349          3821.563
       192   07 Jun 2027 07:06:36.144   07 Jun 2027 07:06:44.671             8.527          2333.687
       193   07 Jun 2027 08:36:38.413   07 Jun 2027 08:36:45.263             6.850          2394.219
       194   07 Jun 2027 08:37:19.660   07 Jun 2027 08:37:21.938             2.278           155.906
       195   07 Jun 2027 08:38:28.882   07 Jun 2027 08:38:33.029             4.147           656.469
       196   07 Jun 2027 08:39:05.888   07 Jun 2027 08:39:09.687             3.799           971.781
       197   07 Jun 2027 08:39:54.147   07 Jun 2027 08:39:58.705             4.558          1295.438
       198   07 Jun 2027 08:40:24.561   07 Jun 2027 08:40:24.860             0.299            13.938
       199   07 Jun 2027 08:42:12.372   07 Jun 2027 08:42:18.704             6.332          2358.219
       200   07 Jun 2027 08:43:34.352   07 Jun 2027 08:43:42.049             7.697          1937.687
       201   07 Jun 2027 08:44:16.657   07 Jun 2027 08:44:20.891             4.234           108.781
       202   07 Jun 2027 10:14:17.242   07 Jun 2027 10:14:25.250             8.008          3535.344
       203   07 Jun 2027 10:15:20.303   07 Jun 2027 10:15:20.560             0.257            50.938
       204   07 Jun 2027 10:18:36.003   07 Jun 2027 10:18:39.376             3.373          1339.031
       205   07 Jun 2027 10:19:33.466   07 Jun 2027 10:19:37.346             3.880          1656.406
       206   07 Jun 2027 10:20:26.838   07 Jun 2027 10:20:32.557             5.719          1505.625
       207   07 Jun 2027 10:20:36.059   07 Jun 2027 10:20:38.368             2.309           109.438
       208   07 Jun 2027 10:21:00.416   07 Jun 2027 10:21:06.557             6.141           274.750
       209   07 Jun 2027 10:21:19.892   07 Jun 2027 10:21:21.655             1.763           416.719
       210   07 Jun 2027 11:51:03.789   07 Jun 2027 11:51:17.538            13.749          6152.812
       211   07 Jun 2027 11:51:24.413   07 Jun 2027 11:51:26.657             2.244            45.781
       212   07 Jun 2027 11:53:51.841   07 Jun 2027 11:53:56.934             5.093          2197.844
       213   07 Jun 2027 11:55:07.529   07 Jun 2027 11:55:14.028             6.499          1087.594
       214   07 Jun 2027 11:55:20.660   07 Jun 2027 11:55:22.493             1.833            17.063
       215   07 Jun 2027 11:55:56.443   07 Jun 2027 11:55:59.007             2.564           911.219
       216   07 Jun 2027 11:56:34.038   07 Jun 2027 11:56:36.241             2.203          1094.719
       217   07 Jun 2027 11:56:54.209   07 Jun 2027 11:56:58.627             4.418           126.844
       218   07 Jun 2027 11:57:18.330   07 Jun 2027 11:57:20.955             2.625           411.906
       219   07 Jun 2027 11:57:36.915   07 Jun 2027 11:57:38.689             1.774            90.312
       220   08 Jun 2027 04:15:23.905   08 Jun 2027 04:18:11.364           167.459         83729.500
       221   08 Jun 2027 04:19:01.011   08 Jun 2027 04:19:16.353            15.342          7671.000
       222   08 Jun 2027 05:39:31.311   08 Jun 2027 05:40:11.509            40.198         20099.000
       223   08 Jun 2027 07:13:19.844   08 Jun 2027 07:14:58.022            98.178         49007.344
       224   08 Jun 2027 07:15:13.312   08 Jun 2027 07:15:14.577             1.265           477.813
       225   08 Jun 2027 07:15:27.139   08 Jun 2027 07:15:29.123             1.984           311.500
       226   08 Jun 2027 07:15:48.616   08 Jun 2027 07:15:51.645             3.029           478.906
       227   08 Jun 2027 07:16:49.723   08 Jun 2027 07:16:52.934             3.211          1363.563
       228   08 Jun 2027 07:17:27.792   08 Jun 2027 07:17:30.683             2.891           563.469
       229   08 Jun 2027 07:18:02.825   08 Jun 2027 07:18:04.651             1.826           431.844
       230   08 Jun 2027 07:18:43.245   08 Jun 2027 07:18:43.245             0.000             0.000
       231   08 Jun 2027 07:18:46.195   08 Jun 2027 07:18:54.257             8.062           853.906
       232   08 Jun 2027 08:48:12.355   08 Jun 2027 08:48:16.764             4.409          1945.437
       233   08 Jun 2027 08:48:28.940   08 Jun 2027 08:48:33.855             4.915           380.500
       234   08 Jun 2027 08:49:11.000   08 Jun 2027 08:49:22.764            11.764           128.875
       235   08 Jun 2027 08:50:33.001   08 Jun 2027 08:50:34.351             1.350            96.406
       236   08 Jun 2027 08:52:26.567   08 Jun 2027 08:52:30.202             3.635          1091.094
       237   08 Jun 2027 08:54:12.142   08 Jun 2027 08:54:19.913             7.771          2279.406
       238   08 Jun 2027 08:55:16.572   08 Jun 2027 08:55:25.161             8.589           441.750
       239   08 Jun 2027 08:55:37.168   08 Jun 2027 08:55:37.168             0.000             0.000
       240   08 Jun 2027 08:55:49.130   08 Jun 2027 08:55:51.317             2.187           749.031
       241   08 Jun 2027 08:56:59.181   08 Jun 2027 08:57:02.687             3.506          1275.719
       242   08 Jun 2027 10:26:19.172   08 Jun 2027 10:26:31.330            12.158          5535.031
       243   08 Jun 2027 10:29:11.442   08 Jun 2027 10:29:15.978             4.536          1761.781
       244   08 Jun 2027 10:29:57.957   08 Jun 2027 10:30:01.124             3.167          1251.062
       245   08 Jun 2027 10:30:31.872   08 Jun 2027 10:30:34.284             2.412           477.719
       246   08 Jun 2027 10:30:52.338   08 Jun 2027 10:30:52.868             0.530            46.094
       247   08 Jun 2027 10:31:16.138   08 Jun 2027 10:31:17.645             1.507           224.375
       248   08 Jun 2027 10:31:39.943   08 Jun 2027 10:31:42.057             2.114           615.375
       249   08 Jun 2027 10:32:39.784   08 Jun 2027 10:32:50.466            10.682          1803.969
       250   08 Jun 2027 10:32:53.642   08 Jun 2027 10:32:54.487             0.845            99.250
       251   08 Jun 2027 10:33:25.661   08 Jun 2027 10:33:27.877             2.216           717.375
       252   09 Jun 2027 04:28:00.497   09 Jun 2027 04:30:29.131           148.634         74317.000
       253   09 Jun 2027 04:31:18.374   09 Jun 2027 04:31:22.475             4.101          2050.500
       254   09 Jun 2027 04:31:25.175   09 Jun 2027 04:31:26.550             1.375           687.500
       255   09 Jun 2027 04:31:48.225   09 Jun 2027 04:31:56.121             7.896          3948.000
       256   09 Jun 2027 04:32:21.987   09 Jun 2027 04:32:28.917             6.930          3465.000
       257   09 Jun 2027 05:51:27.033   09 Jun 2027 05:52:08.069            41.036         20518.000
       258   09 Jun 2027 05:52:37.543   09 Jun 2027 05:52:55.300            17.757          8878.500
       259   09 Jun 2027 07:27:41.417   09 Jun 2027 07:29:15.000            93.583         46334.344
       260   09 Jun 2027 07:30:37.084   09 Jun 2027 07:30:42.796             5.712          1900.281
       261   09 Jun 2027 09:01:13.974   09 Jun 2027 09:01:22.744             8.770          3942.500
       262   09 Jun 2027 09:02:39.057   09 Jun 2027 09:02:40.875             1.818           267.687
       263   09 Jun 2027 09:03:41.626   09 Jun 2027 09:03:44.583             2.957          1202.000
       264   09 Jun 2027 09:03:53.423   09 Jun 2027 09:03:54.141             0.718           258.375
       265   09 Jun 2027 09:04:41.404   09 Jun 2027 09:04:47.129             5.725          1048.937
       266   09 Jun 2027 09:06:11.245   09 Jun 2027 09:06:16.838             5.593          2099.938
       267   09 Jun 2027 09:07:05.997   09 Jun 2027 09:07:06.571             0.574           281.062
       268   09 Jun 2027 09:08:16.421   09 Jun 2027 09:08:17.754             1.333           123.875
       269   09 Jun 2027 09:09:10.549   09 Jun 2027 09:09:22.223            11.674          1589.344
       270   09 Jun 2027 10:38:46.560   09 Jun 2027 10:38:57.192            10.632          4485.719
       271   09 Jun 2027 10:40:53.102   09 Jun 2027 10:40:56.407             3.305           314.969
       272   09 Jun 2027 10:41:56.027   09 Jun 2027 10:41:59.705             3.678          1463.594
       273   09 Jun 2027 10:42:50.935   09 Jun 2027 10:42:52.727             1.792           626.406
       274   09 Jun 2027 10:42:54.684   09 Jun 2027 10:42:56.784             2.100            58.156
       275   09 Jun 2027 10:44:14.590   09 Jun 2027 10:44:21.222             6.632          1799.187
       276   09 Jun 2027 10:45:03.669   09 Jun 2027 10:45:06.452             2.783          1326.469
       277   09 Jun 2027 10:45:13.538   09 Jun 2027 10:45:15.604             2.066           221.438
       278   10 Jun 2027 03:01:37.045   10 Jun 2027 03:01:58.748            21.703         10851.500
       279   10 Jun 2027 03:02:37.690   10 Jun 2027 03:02:43.441             5.751          2875.500
       280   10 Jun 2027 03:03:52.349   10 Jun 2027 03:03:56.679             4.330          2165.000
       281   10 Jun 2027 03:04:25.898   10 Jun 2027 03:04:28.809             2.911          1455.500
       282   10 Jun 2027 03:05:11.750   10 Jun 2027 03:05:21.317             9.567          4783.500
       283   10 Jun 2027 03:05:31.930   10 Jun 2027 03:05:52.268            20.338         10169.000
       284   10 Jun 2027 03:07:15.489   10 Jun 2027 03:07:22.743             7.254          3627.000
       285   10 Jun 2027 03:07:32.855   10 Jun 2027 03:07:41.701             8.846          4423.000
       286   10 Jun 2027 04:39:39.590   10 Jun 2027 04:41:31.927           112.337         56168.500
       287   10 Jun 2027 04:42:01.422   10 Jun 2027 04:43:16.248            74.826         37413.000
       288   10 Jun 2027 06:03:18.602   10 Jun 2027 06:04:17.199            58.597         29298.500
       289   10 Jun 2027 07:39:45.824   10 Jun 2027 07:40:03.271            17.447          8248.188
       290   10 Jun 2027 07:40:27.216   10 Jun 2027 07:40:28.058             0.842           362.281
       291   10 Jun 2027 07:41:14.519   10 Jun 2027 07:41:17.223             2.704          1078.781
       292   10 Jun 2027 07:41:41.130   10 Jun 2027 07:41:41.488             0.358           102.656
       293   10 Jun 2027 07:42:36.892   10 Jun 2027 07:42:43.079             6.187          1559.125
       294   10 Jun 2027 09:11:54.500   10 Jun 2027 09:12:00.290             5.790          2643.313
       295   10 Jun 2027 09:14:30.528   10 Jun 2027 09:14:36.680             6.152          2845.375
       296   10 Jun 2027 09:15:38.181   10 Jun 2027 09:15:41.363             3.182             2.156
       297   10 Jun 2027 09:17:09.693   10 Jun 2027 09:17:14.377             4.684          1219.656
       298   10 Jun 2027 09:18:50.271   10 Jun 2027 09:18:55.473             5.202          2133.750
       299   10 Jun 2027 09:20:19.019   10 Jun 2027 09:20:20.604             1.585           641.219
       300   10 Jun 2027 09:20:40.385   10 Jun 2027 09:20:40.657             0.272           136.000
       301   10 Jun 2027 09:20:43.675   10 Jun 2027 09:20:47.934             4.259           482.156
       302   10 Jun 2027 09:21:24.312   10 Jun 2027 09:21:26.086             1.774           519.750
       303   10 Jun 2027 10:50:51.351   10 Jun 2027 10:51:01.044             9.693          3748.500
       304   10 Jun 2027 10:53:38.686   10 Jun 2027 10:53:49.848            11.162          1132.469
       305   10 Jun 2027 10:54:33.140   10 Jun 2027 10:54:45.658            12.518           872.062
       306   10 Jun 2027 10:54:54.852   10 Jun 2027 10:54:55.489             0.637           287.312
       307   10 Jun 2027 10:55:31.853   10 Jun 2027 10:55:33.448             1.595           388.594
       308   10 Jun 2027 10:55:55.218   10 Jun 2027 10:55:59.838             4.620           680.313
       309   10 Jun 2027 10:56:22.512   10 Jun 2027 10:56:29.566             7.054           617.063
       310   10 Jun 2027 10:56:50.316   10 Jun 2027 10:56:53.789             3.473           648.437
       311   10 Jun 2027 10:57:11.275   10 Jun 2027 10:57:15.768             4.493           546.438
       312   11 Jun 2027 03:13:44.672   11 Jun 2027 03:14:45.199            60.527         30263.500
       313   11 Jun 2027 03:14:53.724   11 Jun 2027 03:15:25.196            31.472         15736.000
       314   11 Jun 2027 03:15:36.215   11 Jun 2027 03:15:52.499            16.284          8142.000
       315   11 Jun 2027 03:16:04.378   11 Jun 2027 03:16:21.497            17.119          8559.500
       316   11 Jun 2027 03:16:30.200   11 Jun 2027 03:16:34.175             3.975          1987.500
       317   11 Jun 2027 03:17:07.789   11 Jun 2027 03:17:11.625             3.836          1918.000
       318   11 Jun 2027 03:17:26.154   11 Jun 2027 03:18:02.351            36.197         18098.500
       319   11 Jun 2027 03:18:26.555   11 Jun 2027 03:18:33.489             6.934          3467.000
       320   11 Jun 2027 04:52:52.738   11 Jun 2027 04:55:01.931           129.193         63819.125
       321   11 Jun 2027 06:15:26.888   11 Jun 2027 06:15:40.158            13.270          6506.469
       322   11 Jun 2027 06:16:39.543   11 Jun 2027 06:16:47.727             8.184          1701.812
       323   11 Jun 2027 06:17:13.104   11 Jun 2027 06:17:14.790             1.686           641.125
       324   11 Jun 2027 06:17:54.681   11 Jun 2027 06:17:54.681             0.000             0.000
       325   11 Jun 2027 07:51:55.975   11 Jun 2027 07:52:05.487             9.512          3185.406
       326   11 Jun 2027 07:52:54.955   11 Jun 2027 07:52:56.333             1.378           689.000
       327   11 Jun 2027 07:53:07.861   11 Jun 2027 07:53:09.964             2.103          1048.344
       328   11 Jun 2027 07:53:28.590   11 Jun 2027 07:53:31.151             2.561           513.437
       329   11 Jun 2027 07:53:34.953   11 Jun 2027 07:53:37.239             2.286           118.813
       330   11 Jun 2027 07:54:36.130   11 Jun 2027 07:54:36.130             0.000             0.000
       331   11 Jun 2027 07:55:16.739   11 Jun 2027 07:55:23.626             6.887          2396.063
       332   11 Jun 2027 09:27:07.139   11 Jun 2027 09:27:16.522             9.383          3515.500
       333   11 Jun 2027 09:28:18.991   11 Jun 2027 09:28:23.001             4.010          1573.563
       334   11 Jun 2027 09:28:32.224   11 Jun 2027 09:28:37.253             5.029           267.125
       335   11 Jun 2027 09:30:06.860   11 Jun 2027 09:30:12.311             5.451          1407.031
       336   11 Jun 2027 09:30:53.199   11 Jun 2027 09:30:56.374             3.175           688.375
       337   11 Jun 2027 09:31:32.818   11 Jun 2027 09:31:33.868             1.050           208.437
       338   11 Jun 2027 09:31:48.047   11 Jun 2027 09:31:49.430             1.383           283.000
       339   11 Jun 2027 09:33:07.579   11 Jun 2027 09:33:12.815             5.236          1520.156
       340   11 Jun 2027 09:33:36.000   11 Jun 2027 09:33:37.533             1.533           724.531
       341   11 Jun 2027 11:03:26.229   11 Jun 2027 11:03:35.395             9.166          4500.094
       342   11 Jun 2027 11:04:41.993   11 Jun 2027 11:04:57.413            15.420          1338.594
       343   11 Jun 2027 11:05:12.029   11 Jun 2027 11:05:13.174             1.145           393.469
       344   11 Jun 2027 11:05:24.497   11 Jun 2027 11:05:30.734             6.237            57.094
       345   11 Jun 2027 11:05:57.418   11 Jun 2027 11:06:00.775             3.357           590.344
       346   11 Jun 2027 11:06:32.763   11 Jun 2027 11:06:35.866             3.103           999.625
       347   11 Jun 2027 11:06:56.926   11 Jun 2027 11:07:04.459             7.533           610.844
       348   11 Jun 2027 11:07:29.007   11 Jun 2027 11:07:31.834             2.827           423.563
       349   11 Jun 2027 11:07:45.517   11 Jun 2027 11:07:47.230             1.713           134.437
       350   11 Jun 2027 11:08:43.075   11 Jun 2027 11:08:47.014             3.939          1289.906
       351   11 Jun 2027 11:09:27.429   11 Jun 2027 11:09:31.564             4.135          1262.969
       352   12 Jun 2027 03:25:49.658   12 Jun 2027 03:26:08.932            19.274          9637.000
       353   12 Jun 2027 03:26:52.346   12 Jun 2027 03:29:44.024           171.678         85839.000
       354   12 Jun 2027 03:30:07.256   12 Jun 2027 03:30:37.588            30.332         15166.000
       355   12 Jun 2027 03:34:07.090   12 Jun 2027 03:34:33.521            26.431         13215.500
       356   12 Jun 2027 05:04:01.335   12 Jun 2027 05:04:38.170            36.835         18417.500
       357   12 Jun 2027 05:05:06.944   12 Jun 2027 05:05:46.283            39.339         19662.969
       358   12 Jun 2027 05:06:20.492   12 Jun 2027 05:06:22.286             1.794           749.531
       359   12 Jun 2027 05:07:10.485   12 Jun 2027 05:07:13.433             2.948           584.750
       360   12 Jun 2027 06:28:09.600   12 Jun 2027 06:28:21.127            11.527          4306.781
       361   12 Jun 2027 06:28:25.330   12 Jun 2027 06:28:27.288             1.958            92.812
       362   12 Jun 2027 06:29:32.039   12 Jun 2027 06:29:35.895             3.856          1622.594
       363   12 Jun 2027 06:30:29.281   12 Jun 2027 06:30:29.281             0.000             0.000
       364   12 Jun 2027 06:30:34.953   12 Jun 2027 06:30:38.180             3.227           897.250
       365   12 Jun 2027 08:04:04.098   12 Jun 2027 08:04:14.058             9.960          3896.625
       366   12 Jun 2027 08:04:33.563   12 Jun 2027 08:04:35.977             2.414           561.062
       367   12 Jun 2027 08:05:34.361   12 Jun 2027 08:05:34.361             0.000             0.000
       368   12 Jun 2027 08:05:38.285   12 Jun 2027 08:05:42.375             4.090          1308.438
       369   12 Jun 2027 08:05:51.093   12 Jun 2027 08:05:53.270             2.177            48.250
       370   12 Jun 2027 08:06:34.646   12 Jun 2027 08:06:37.279             2.633           596.125
       371   12 Jun 2027 09:38:57.153   12 Jun 2027 09:39:05.500             8.347          4121.938
       372   12 Jun 2027 09:40:33.384   12 Jun 2027 09:40:42.159             8.775          2425.000
       373   12 Jun 2027 09:41:07.158   12 Jun 2027 09:41:09.621             2.463           525.625
       374   12 Jun 2027 09:41:59.744   12 Jun 2027 09:42:02.552             2.808           772.375
       375   12 Jun 2027 09:42:54.961   12 Jun 2027 09:42:59.870             4.909          1623.813
       376   12 Jun 2027 09:43:17.517   12 Jun 2027 09:43:21.893             4.376            13.750
       377   12 Jun 2027 09:44:57.709   12 Jun 2027 09:45:01.345             3.636          1668.219
       378   12 Jun 2027 09:45:32.352   12 Jun 2027 09:45:38.103             5.751           638.438
       379   12 Jun 2027 11:15:02.948   12 Jun 2027 11:15:15.491            12.543          5014.844
       380   12 Jun 2027 11:17:14.312   12 Jun 2027 11:17:14.879             0.567           138.063
       381   12 Jun 2027 11:17:16.718   12 Jun 2027 11:17:17.856             1.138            50.031
       382   12 Jun 2027 11:18:00.212   12 Jun 2027 11:18:05.565             5.353           518.750
       383   12 Jun 2027 11:18:34.320   12 Jun 2027 11:18:42.986             8.666           780.625
       384   12 Jun 2027 11:19:22.778   12 Jun 2027 11:19:32.360             9.582          1094.062
       385   12 Jun 2027 11:20:24.275   12 Jun 2027 11:20:31.095             6.820          1622.344
       386   12 Jun 2027 11:21:00.139   12 Jun 2027 11:21:08.391             8.252           853.500
       387   12 Jun 2027 11:21:22.192   12 Jun 2027 11:21:24.132             1.940           431.281
       388   13 Jun 2027 03:38:54.367   13 Jun 2027 03:42:39.228           224.861        112430.500
       389   13 Jun 2027 03:45:30.151   13 Jun 2027 03:45:33.290             3.139          1569.500
       390   13 Jun 2027 03:45:51.887   13 Jun 2027 03:45:55.319             3.432          1716.000
       391   13 Jun 2027 05:05:15.135   13 Jun 2027 05:05:16.426             1.291           645.500
       392   13 Jun 2027 05:15:57.216   13 Jun 2027 05:17:32.453            95.237         45574.687
       393   13 Jun 2027 05:18:13.088   13 Jun 2027 05:18:17.083             3.995           369.094
       394   13 Jun 2027 05:18:41.146   13 Jun 2027 05:18:44.305             3.159           476.250
       395   13 Jun 2027 05:19:08.878   13 Jun 2027 05:19:11.489             2.611           464.906
       396   13 Jun 2027 06:39:15.530   13 Jun 2027 06:39:26.895            11.365          4339.875
       397   13 Jun 2027 06:40:40.320   13 Jun 2027 06:40:44.096             3.776          1730.031
       398   13 Jun 2027 06:40:53.052   13 Jun 2027 06:40:53.628             0.576            72.344
       399   13 Jun 2027 06:42:00.361   13 Jun 2027 06:42:00.361             0.000             0.000
       400   13 Jun 2027 06:42:50.910   13 Jun 2027 06:42:52.665             1.755           877.500
       401   13 Jun 2027 08:14:30.088   13 Jun 2027 08:14:33.850             3.762          1881.000
       402   13 Jun 2027 08:15:54.632   13 Jun 2027 08:15:59.965             5.333          2515.187
       403   13 Jun 2027 08:16:36.552   13 Jun 2027 08:16:38.136             1.584           684.063
       404   13 Jun 2027 08:18:04.230   13 Jun 2027 08:18:10.954             6.724          2080.719
       405   13 Jun 2027 08:18:28.137   13 Jun 2027 08:18:29.625             1.488           422.250
       406   13 Jun 2027 08:19:30.678   13 Jun 2027 08:19:38.483             7.805          1825.188
       407   13 Jun 2027 08:19:50.393   13 Jun 2027 08:19:51.453             1.060            48.500
       408   13 Jun 2027 09:50:24.357   13 Jun 2027 09:50:30.241             5.884          2922.750
       409   13 Jun 2027 09:52:34.091   13 Jun 2027 09:52:40.617             6.526          3006.656
       410   13 Jun 2027 09:53:21.323   13 Jun 2027 09:53:24.137             2.814           825.969
       411   13 Jun 2027 09:53:58.441   13 Jun 2027 09:54:04.046             5.605           340.125
       412   13 Jun 2027 09:54:59.273   13 Jun 2027 09:55:09.422            10.149          1671.406
       413   13 Jun 2027 09:55:40.669   13 Jun 2027 09:55:41.607             0.938           316.656
       414   13 Jun 2027 09:55:53.580   13 Jun 2027 09:55:54.027             0.447            17.781
       415   13 Jun 2027 09:55:57.721   13 Jun 2027 09:55:59.427             1.706           115.438
       416   13 Jun 2027 09:56:11.787   13 Jun 2027 09:56:12.712             0.925           285.750
       417   13 Jun 2027 09:57:17.091   13 Jun 2027 09:57:21.291             4.200          1783.031
       418   13 Jun 2027 09:57:26.605   13 Jun 2027 09:57:28.292             1.687           166.063
       419   13 Jun 2027 09:57:50.950   13 Jun 2027 09:57:52.607             1.657           650.844
       420   13 Jun 2027 11:27:14.939   13 Jun 2027 11:27:25.205            10.266          4860.437
       421   13 Jun 2027 11:28:12.327   13 Jun 2027 11:28:14.988             2.661           697.313
       422   13 Jun 2027 11:29:11.159   13 Jun 2027 11:29:14.934             3.775          1494.000
       423   13 Jun 2027 11:30:04.570   13 Jun 2027 11:30:09.428             4.858           886.656
       424   13 Jun 2027 11:30:17.809   13 Jun 2027 11:30:20.272             2.463           241.125
       425   13 Jun 2027 11:31:01.076   13 Jun 2027 11:31:04.714             3.638           169.906
       426   13 Jun 2027 11:31:36.858   13 Jun 2027 11:31:41.042             4.184           756.188
       427   13 Jun 2027 11:32:47.320   13 Jun 2027 11:32:52.520             5.200          1911.625
       428   13 Jun 2027 11:33:09.130   13 Jun 2027 11:33:13.079             3.949           216.250
       429   13 Jun 2027 11:33:24.386   13 Jun 2027 11:33:27.683             3.297           100.688
