uniorb/output/strategy_4/Camera/Camera_KinoSat_110909.txt

KinoSat_110909
-------------------------
    Access    *     Start Time (UTCG)     *     Stop Time (UTCG)  *   Duration (s) *   Data (Mbytes)
         1   01 Jun 2027 03:05:00.805   01 Jun 2027 03:05:54.974            54.169         27084.500
         2   01 Jun 2027 04:27:02.898   01 Jun 2027 04:28:07.825            64.927         32463.500
         3   01 Jun 2027 04:29:06.108   01 Jun 2027 04:29:16.393            10.285          5142.500
         4   01 Jun 2027 04:29:53.992   01 Jun 2027 04:30:02.398             8.406          4203.000
         5   01 Jun 2027 04:32:22.876   01 Jun 2027 04:32:38.210            15.334          7667.000
         6   01 Jun 2027 06:01:56.100   01 Jun 2027 06:04:01.692           125.592         62796.000
         7   01 Jun 2027 06:08:31.229   01 Jun 2027 06:08:31.229             0.000             0.000
         8   01 Jun 2027 06:08:50.458   01 Jun 2027 06:08:51.840             1.382           691.000
         9   01 Jun 2027 06:10:09.916   01 Jun 2027 06:10:19.687             9.771          4885.500
        10   01 Jun 2027 07:39:37.971   01 Jun 2027 07:41:59.187           141.216         70608.000
        11   01 Jun 2027 07:42:33.051   01 Jun 2027 07:42:33.051             0.000             0.000
        12   01 Jun 2027 07:43:13.481   01 Jun 2027 07:43:25.425            11.944          5972.000
        13   01 Jun 2027 07:45:06.277   01 Jun 2027 07:45:06.277             0.000             0.000
        14   01 Jun 2027 07:45:28.795   01 Jun 2027 07:45:31.433             2.638          1319.000
        15   01 Jun 2027 09:16:25.889   01 Jun 2027 09:16:47.069            21.180         10590.000
        16   01 Jun 2027 09:16:47.378   01 Jun 2027 09:20:13.112           205.734        102867.000
        17   01 Jun 2027 09:22:44.779   01 Jun 2027 09:22:52.109             7.330          3665.000
        18   01 Jun 2027 10:54:27.492   01 Jun 2027 10:56:31.141           123.649         61824.500
        19   01 Jun 2027 10:57:25.376   01 Jun 2027 10:58:01.252            35.876         17938.000
        20   02 Jun 2027 03:04:51.997   02 Jun 2027 03:05:00.578             8.581          4290.500
        21   02 Jun 2027 03:05:38.710   02 Jun 2027 03:05:38.710             0.000             0.000
        22   02 Jun 2027 03:06:38.322   02 Jun 2027 03:06:48.507            10.185          5092.500
        23   02 Jun 2027 04:38:38.963   02 Jun 2027 04:40:48.081           129.118         64559.000
        24   02 Jun 2027 04:43:27.490   02 Jun 2027 04:43:27.490             0.000             0.000
        25   02 Jun 2027 04:43:38.423   02 Jun 2027 04:44:07.109            28.686         14343.000
        26   02 Jun 2027 06:13:31.316   02 Jun 2027 06:16:55.299           203.983        101991.500
        27   02 Jun 2027 06:19:15.982   02 Jun 2027 06:19:26.332            10.350          5175.000
        28   02 Jun 2027 06:19:33.198   02 Jun 2027 06:19:39.138             5.940          2970.000
        29   02 Jun 2027 06:20:58.654   02 Jun 2027 06:21:08.700            10.046          5023.000
        30   02 Jun 2027 06:22:29.377   02 Jun 2027 06:22:57.295            27.918         13959.000
        31   02 Jun 2027 07:51:41.073   02 Jun 2027 07:54:17.391           156.318         78159.000
        32   02 Jun 2027 07:55:59.780   02 Jun 2027 07:55:59.780             0.000             0.000
        33   02 Jun 2027 07:56:14.164   02 Jun 2027 07:56:52.023            37.859         18929.500
        34   02 Jun 2027 07:57:09.208   02 Jun 2027 07:58:21.316            72.108         34378.562
        35   02 Jun 2027 09:28:35.901   02 Jun 2027 09:29:02.654            26.753         13233.313
        36   02 Jun 2027 09:29:05.620   02 Jun 2027 09:29:08.576             2.956            92.687
        37   02 Jun 2027 09:29:35.647   02 Jun 2027 09:29:37.392             1.745           791.656
        38   02 Jun 2027 09:30:36.795   02 Jun 2027 09:30:42.826             6.031          1856.344
        39   02 Jun 2027 09:31:42.068   02 Jun 2027 09:31:46.754             4.686          1425.937
        40   02 Jun 2027 09:32:11.065   02 Jun 2027 09:32:14.048             2.983           337.000
        41   02 Jun 2027 09:32:40.456   02 Jun 2027 09:32:41.400             0.944           100.250
        42   02 Jun 2027 09:32:55.588   02 Jun 2027 09:32:59.008             3.420           144.156
        43   02 Jun 2027 09:33:13.706   02 Jun 2027 09:33:14.736             1.030           184.281
        44   02 Jun 2027 09:33:18.202   02 Jun 2027 09:33:18.548             0.346             5.094
        45   02 Jun 2027 09:34:17.036   02 Jun 2027 09:34:27.218            10.182          1827.750
        46   02 Jun 2027 11:05:42.448   02 Jun 2027 11:05:54.537            12.089          5325.219
        47   02 Jun 2027 11:08:21.341   02 Jun 2027 11:08:30.672             9.331          1607.219
        48   02 Jun 2027 11:09:18.007   02 Jun 2027 11:09:18.087             0.080            16.312
        49   03 Jun 2027 03:16:46.740   03 Jun 2027 03:16:54.006             7.266          3633.000
        50   03 Jun 2027 03:16:58.010   03 Jun 2027 03:17:04.317             6.307          3153.500
        51   03 Jun 2027 04:53:05.688   03 Jun 2027 04:56:34.423           208.735        104367.500
        52   03 Jun 2027 06:26:35.030   03 Jun 2027 06:27:55.943            80.913         40114.157
        53   03 Jun 2027 06:29:01.997   03 Jun 2027 06:29:05.248             3.251           598.844
        54   03 Jun 2027 06:29:36.234   03 Jun 2027 06:29:39.424             3.190           291.969
        55   03 Jun 2027 06:30:07.760   03 Jun 2027 06:30:09.834             2.074           872.656
        56   03 Jun 2027 06:30:58.451   03 Jun 2027 06:31:00.085             1.634           695.031
        57   03 Jun 2027 06:31:29.164   03 Jun 2027 06:31:29.164             0.000             0.000
        58   03 Jun 2027 06:32:06.887   03 Jun 2027 06:32:10.666             3.779          1544.625
        59   03 Jun 2027 06:33:20.011   03 Jun 2027 06:33:23.238             3.227          1474.844
        60   03 Jun 2027 06:34:02.255   03 Jun 2027 06:34:02.255             0.000             0.000
        61   03 Jun 2027 06:34:55.550   03 Jun 2027 06:35:02.546             6.996          2723.250
        62   03 Jun 2027 08:04:07.448   03 Jun 2027 08:04:08.260             0.812           172.219
        63   03 Jun 2027 08:07:48.213   03 Jun 2027 08:07:50.253             2.040           653.906
        64   03 Jun 2027 08:08:41.666   03 Jun 2027 08:08:46.183             4.517          1562.906
        65   03 Jun 2027 08:09:38.086   03 Jun 2027 08:09:43.070             4.984          1329.687
        66   03 Jun 2027 09:41:02.686   03 Jun 2027 09:41:15.138            12.452          5776.562
        67   03 Jun 2027 09:41:56.039   03 Jun 2027 09:41:59.075             3.036           508.875
        68   03 Jun 2027 09:43:03.613   03 Jun 2027 09:43:06.481             2.868          1183.562
        69   03 Jun 2027 09:44:20.666   03 Jun 2027 09:44:22.988             2.322           726.000
        70   03 Jun 2027 09:44:45.204   03 Jun 2027 09:44:46.287             1.083           204.063
        71   03 Jun 2027 09:45:01.862   03 Jun 2027 09:45:05.939             4.077           165.094
        72   03 Jun 2027 09:45:35.303   03 Jun 2027 09:45:37.284             1.981           322.156
        73   03 Jun 2027 09:45:43.676   03 Jun 2027 09:45:47.084             3.408           159.469
        74   03 Jun 2027 09:46:29.167   03 Jun 2027 09:46:32.369             3.202          1315.094
        75   03 Jun 2027 11:17:54.212   03 Jun 2027 11:18:06.830            12.618          4665.938
        76   03 Jun 2027 11:20:39.485   03 Jun 2027 11:20:42.122             2.637           698.969
        77   03 Jun 2027 11:22:26.652   03 Jun 2027 11:22:26.832             0.180            90.000
        78   04 Jun 2027 03:28:38.421   04 Jun 2027 03:28:55.274            16.853          8426.500
        79   04 Jun 2027 05:05:06.833   04 Jun 2027 05:05:56.967            50.134         25067.000
        80   04 Jun 2027 05:07:40.815   04 Jun 2027 05:07:56.039            15.224          7612.000
        81   04 Jun 2027 05:08:39.581   04 Jun 2027 05:08:42.196             2.615          1307.500
        82   04 Jun 2027 06:39:14.529   04 Jun 2027 06:42:56.424           221.895        110622.688
        83   04 Jun 2027 06:43:51.346   04 Jun 2027 06:43:53.946             2.600          1114.250
        84   04 Jun 2027 06:45:02.736   04 Jun 2027 06:45:07.447             4.711          2024.781
        85   04 Jun 2027 06:45:31.614   04 Jun 2027 06:45:33.697             2.083           512.781
        86   04 Jun 2027 06:46:04.357   04 Jun 2027 06:46:05.926             1.569           207.844
        87   04 Jun 2027 06:46:43.091   04 Jun 2027 06:46:45.593             2.502           886.375
        88   04 Jun 2027 06:47:01.294   04 Jun 2027 06:47:01.749             0.455            68.375
        89   04 Jun 2027 08:16:13.119   04 Jun 2027 08:16:17.715             4.596          1573.250
        90   04 Jun 2027 08:19:53.824   04 Jun 2027 08:19:55.517             1.693           709.219
        91   04 Jun 2027 08:20:48.353   04 Jun 2027 08:20:53.364             5.011          1157.125
        92   04 Jun 2027 08:21:56.413   04 Jun 2027 08:22:01.189             4.776           725.750
        93   04 Jun 2027 08:22:28.542   04 Jun 2027 08:22:29.004             0.462           163.812
        94   04 Jun 2027 09:53:49.359   04 Jun 2027 09:54:00.162            10.803          5132.844
        95   04 Jun 2027 09:55:53.993   04 Jun 2027 09:55:56.950             2.957           108.094
        96   04 Jun 2027 09:58:01.685   04 Jun 2027 09:58:08.027             6.342          2026.750
        97   04 Jun 2027 11:29:58.063   04 Jun 2027 11:30:13.240            15.177          7114.781
        98   04 Jun 2027 11:30:50.898   04 Jun 2027 11:30:58.091             7.193           359.438
        99   04 Jun 2027 11:32:37.484   04 Jun 2027 11:32:39.368             1.884           817.563
       100   04 Jun 2027 11:34:37.771   04 Jun 2027 11:34:39.008             1.237           456.875
       101   05 Jun 2027 03:40:46.999   05 Jun 2027 03:40:56.190             9.191          4595.500
       102   05 Jun 2027 03:43:25.849   05 Jun 2027 03:43:52.214            26.365         13182.500
       103   05 Jun 2027 05:17:35.450   05 Jun 2027 05:20:23.501           168.051         84025.500
       104   05 Jun 2027 06:52:27.439   05 Jun 2027 06:54:23.896           116.457         56601.906
       105   05 Jun 2027 06:55:18.384   05 Jun 2027 06:55:23.816             5.432           167.469
       106   05 Jun 2027 06:55:34.377   05 Jun 2027 06:55:37.088             2.711           303.500
       107   05 Jun 2027 06:57:15.602   05 Jun 2027 06:57:26.347            10.745          2746.656
       108   05 Jun 2027 06:58:30.222   05 Jun 2027 06:58:34.670             4.448          1733.063
       109   05 Jun 2027 06:58:36.047   05 Jun 2027 06:58:36.567             0.520            43.031
       110   05 Jun 2027 08:28:48.996   05 Jun 2027 08:28:53.897             4.901          2031.781
       111   05 Jun 2027 08:30:25.421   05 Jun 2027 08:30:29.362             3.941          1598.094
       112   05 Jun 2027 08:30:56.067   05 Jun 2027 08:30:57.674             1.607           266.125
       113   05 Jun 2027 08:31:56.453   05 Jun 2027 08:31:59.290             2.837          1355.469
       114   05 Jun 2027 08:32:54.158   05 Jun 2027 08:32:58.062             3.904          1714.625
       115   05 Jun 2027 08:33:47.815   05 Jun 2027 08:33:57.296             9.481           667.250
       116   05 Jun 2027 08:34:33.682   05 Jun 2027 08:34:36.338             2.656          1075.437
       117   05 Jun 2027 10:06:07.645   05 Jun 2027 10:06:18.131            10.486          4942.813
       118   05 Jun 2027 10:07:33.485   05 Jun 2027 10:07:35.797             2.312            23.750
       119   05 Jun 2027 10:08:41.731   05 Jun 2027 10:08:43.210             1.479           517.750
       120   05 Jun 2027 10:09:08.831   05 Jun 2027 10:09:10.379             1.548             2.344
       121   05 Jun 2027 10:10:01.382   05 Jun 2027 10:10:05.693             4.311           902.437
       122   05 Jun 2027 10:10:36.585   05 Jun 2027 10:10:39.118             2.533           850.281
       123   05 Jun 2027 11:42:19.402   05 Jun 2027 11:42:36.583            17.181          7123.437
       124   05 Jun 2027 11:44:26.671   05 Jun 2027 11:44:28.791             2.120            99.719
       125   05 Jun 2027 11:45:30.276   05 Jun 2027 11:45:33.316             3.040          1056.938
       126   05 Jun 2027 11:46:54.955   05 Jun 2027 11:46:57.687             2.732           824.469
       127   06 Jun 2027 03:53:26.944   06 Jun 2027 03:53:57.911            30.967         15483.500
       128   06 Jun 2027 03:55:26.809   06 Jun 2027 03:55:26.809             0.000             0.000
       129   06 Jun 2027 03:55:46.420   06 Jun 2027 03:55:54.614             8.194          4097.000
       130   06 Jun 2027 05:29:12.668   06 Jun 2027 05:31:54.677           162.009         81004.500
       131   06 Jun 2027 07:04:10.440   06 Jun 2027 07:05:59.940           109.500         54716.563
       132   06 Jun 2027 07:06:34.143   06 Jun 2027 07:06:34.961             0.818           393.219
       133   06 Jun 2027 07:07:27.933   06 Jun 2027 07:07:27.933             0.000             0.000
       134   06 Jun 2027 07:07:36.701   06 Jun 2027 07:07:39.425             2.724           459.594
       135   06 Jun 2027 07:09:15.478   06 Jun 2027 07:09:27.937            12.459          2294.281
       136   06 Jun 2027 07:10:14.805   06 Jun 2027 07:10:14.805             0.000             0.000
       137   06 Jun 2027 07:10:24.644   06 Jun 2027 07:10:29.100             4.456          1463.375
       138   06 Jun 2027 08:40:22.464   06 Jun 2027 08:40:32.218             9.754          4006.156
       139   06 Jun 2027 08:44:08.208   06 Jun 2027 08:44:10.300             2.092          1039.219
       140   06 Jun 2027 08:44:59.147   06 Jun 2027 08:45:03.280             4.133           998.812
       141   06 Jun 2027 08:45:33.530   06 Jun 2027 08:45:36.995             3.465           502.469
       142   06 Jun 2027 08:46:42.634   06 Jun 2027 08:46:48.071             5.437          1885.750
       143   06 Jun 2027 10:18:22.722   06 Jun 2027 10:18:40.134            17.412          6746.812
       144   06 Jun 2027 10:19:25.315   06 Jun 2027 10:19:26.166             0.851            37.563
       145   06 Jun 2027 10:20:42.320   06 Jun 2027 10:20:43.922             1.602           329.875
       146   06 Jun 2027 10:22:12.155   06 Jun 2027 10:22:18.310             6.155           650.313
       147   06 Jun 2027 10:22:31.167   06 Jun 2027 10:22:32.321             1.154           378.875
       148   06 Jun 2027 11:54:03.897   06 Jun 2027 11:54:18.883            14.986          6775.406
       149   07 Jun 2027 04:04:16.733   07 Jun 2027 04:04:23.303             6.570          3285.000
       150   07 Jun 2027 04:04:47.615   07 Jun 2027 04:04:51.515             3.900          1950.000
       151   07 Jun 2027 04:07:55.754   07 Jun 2027 04:08:06.023            10.269          5134.500
       152   07 Jun 2027 05:39:48.734   07 Jun 2027 05:39:54.606             5.872          2936.000
       153   07 Jun 2027 05:40:58.244   07 Jun 2027 05:43:17.053           138.809         69404.500
       154   07 Jun 2027 05:43:37.507   07 Jun 2027 05:43:49.108            11.601          5800.500
       155   07 Jun 2027 07:15:44.210   07 Jun 2027 07:18:14.925           150.715         74608.656
       156   07 Jun 2027 07:19:04.084   07 Jun 2027 07:19:04.084             0.000             0.000
       157   07 Jun 2027 07:19:38.781   07 Jun 2027 07:19:45.433             6.652          2574.844
       158   07 Jun 2027 07:21:14.735   07 Jun 2027 07:21:21.115             6.380          2168.437
       159   07 Jun 2027 07:21:58.156   07 Jun 2027 07:21:59.861             1.705           635.656
       160   07 Jun 2027 07:22:35.146   07 Jun 2027 07:22:37.025             1.879           511.906
       161   07 Jun 2027 08:52:43.524   07 Jun 2027 08:52:52.782             9.258          4418.969
       162   07 Jun 2027 08:54:27.567   07 Jun 2027 08:54:31.424             3.857           715.125
       163   07 Jun 2027 08:56:02.563   07 Jun 2027 08:56:05.994             3.431          1474.094
       164   07 Jun 2027 08:57:03.351   07 Jun 2027 08:57:08.715             5.364          1330.531
       165   07 Jun 2027 08:57:39.865   07 Jun 2027 08:57:45.122             5.257           897.500
       166   07 Jun 2027 10:30:44.520   07 Jun 2027 10:30:57.356            12.836          5894.719
       167   07 Jun 2027 10:31:20.634   07 Jun 2027 10:31:26.768             6.134           563.281
       168   07 Jun 2027 10:33:02.004   07 Jun 2027 10:33:08.204             6.200           821.313
       169   07 Jun 2027 10:33:29.333   07 Jun 2027 10:33:30.706             1.373           254.719
       170   07 Jun 2027 10:34:12.618   07 Jun 2027 10:34:18.003             5.385          1241.813
       171   07 Jun 2027 10:34:27.775   07 Jun 2027 10:34:28.279             0.504           195.406
       172   08 Jun 2027 04:15:32.903   08 Jun 2027 04:16:23.900            50.997         25498.500
       173   08 Jun 2027 04:19:56.711   08 Jun 2027 04:20:07.164            10.453          5226.500
       174   08 Jun 2027 04:20:15.351   08 Jun 2027 04:20:15.732             0.381           190.500
       175   08 Jun 2027 05:50:41.580   08 Jun 2027 05:52:08.655            87.075         43537.500
       176   08 Jun 2027 05:52:41.779   08 Jun 2027 05:52:41.893             0.114            57.000
       177   08 Jun 2027 05:53:21.702   08 Jun 2027 05:53:49.200            27.498         13749.000
       178   08 Jun 2027 05:53:54.141   08 Jun 2027 05:54:08.179            14.038          7019.000
       179   08 Jun 2027 05:54:23.338   08 Jun 2027 05:54:34.374            11.036          5518.000
       180   08 Jun 2027 05:55:30.189   08 Jun 2027 05:55:47.022            16.833          8416.500
       181   08 Jun 2027 05:56:28.904   08 Jun 2027 05:56:44.973            16.069          8034.500
       182   08 Jun 2027 05:58:36.685   08 Jun 2027 05:58:41.147             4.462          2231.000
       183   08 Jun 2027 07:27:51.704   08 Jun 2027 07:29:20.850            89.146         44289.594
       184   08 Jun 2027 07:30:35.673   08 Jun 2027 07:30:42.442             6.769          1348.750
       185   08 Jun 2027 07:30:52.846   08 Jun 2027 07:30:57.168             4.322            79.156
       186   08 Jun 2027 07:31:34.695   08 Jun 2027 07:31:37.139             2.444          1172.719
       187   08 Jun 2027 07:33:13.272   08 Jun 2027 07:33:19.714             6.442          2896.219
       188   08 Jun 2027 07:33:43.545   08 Jun 2027 07:33:48.211             4.666           171.437
       189   08 Jun 2027 07:35:16.326   08 Jun 2027 07:35:17.773             1.447           723.500
       190   08 Jun 2027 09:04:49.110   08 Jun 2027 09:05:00.557            11.447          5279.344
       191   08 Jun 2027 09:06:25.701   08 Jun 2027 09:06:26.271             0.570           104.813
       192   08 Jun 2027 09:08:22.473   08 Jun 2027 09:08:26.644             4.171          2039.813
       193   08 Jun 2027 09:08:49.535   08 Jun 2027 09:08:50.785             1.250           384.406
       194   08 Jun 2027 09:09:06.797   08 Jun 2027 09:09:17.230            10.433           462.719
       195   08 Jun 2027 09:09:49.773   08 Jun 2027 09:09:52.250             2.477           286.531
       196   08 Jun 2027 09:10:57.208   08 Jun 2027 09:10:57.800             0.592           296.000
       197   08 Jun 2027 10:42:42.161   08 Jun 2027 10:42:55.203            13.042          5922.094
       198   08 Jun 2027 10:43:18.734   08 Jun 2027 10:43:22.112             3.378           685.250
       199   08 Jun 2027 10:44:43.135   08 Jun 2027 10:44:45.946             2.811            58.562
       200   08 Jun 2027 10:46:14.447   08 Jun 2027 10:46:18.870             4.423           838.469
       201   08 Jun 2027 10:46:24.866   08 Jun 2027 10:46:26.171             1.305            42.750
       202   08 Jun 2027 10:46:29.788   08 Jun 2027 10:46:31.148             1.360            36.469
       203   08 Jun 2027 10:46:43.353   08 Jun 2027 10:46:44.027             0.674           337.000
       204   09 Jun 2027 03:05:15.841   09 Jun 2027 03:06:09.238            53.397         26698.500
       205   09 Jun 2027 04:27:17.916   09 Jun 2027 04:28:04.447            46.531         23265.500
       206   09 Jun 2027 04:30:02.583   09 Jun 2027 04:30:17.190            14.607          7303.500
       207   09 Jun 2027 04:31:35.345   09 Jun 2027 04:31:48.777            13.432          6716.000
       208   09 Jun 2027 04:31:53.633   09 Jun 2027 04:31:57.440             3.807          1903.500
       209   09 Jun 2027 04:32:38.972   09 Jun 2027 04:32:53.376            14.404          7202.000
       210   09 Jun 2027 06:02:10.409   09 Jun 2027 06:04:04.293           113.884         56942.000
       211   09 Jun 2027 06:04:21.189   09 Jun 2027 06:04:31.766            10.577          5288.500
       212   09 Jun 2027 06:05:38.762   09 Jun 2027 06:05:56.070            17.308          8654.000
       213   09 Jun 2027 06:06:21.708   09 Jun 2027 06:06:35.852            14.144          7072.000
       214   09 Jun 2027 06:07:31.915   09 Jun 2027 06:07:40.166             8.251          4125.500
       215   09 Jun 2027 06:08:37.416   09 Jun 2027 06:09:02.353            24.937         10284.875
       216   09 Jun 2027 06:09:34.605   09 Jun 2027 06:09:34.605             0.000             0.000
       217   09 Jun 2027 06:11:00.128   09 Jun 2027 06:11:08.838             8.710          3248.313
       218   09 Jun 2027 07:41:31.443   09 Jun 2027 07:41:35.747             4.304          2130.281
       219   09 Jun 2027 07:42:15.256   09 Jun 2027 07:42:16.696             1.440           615.562
       220   09 Jun 2027 07:43:14.296   09 Jun 2027 07:43:17.054             2.758           553.250
       221   09 Jun 2027 07:43:42.082   09 Jun 2027 07:43:45.722             3.640           123.969
       222   09 Jun 2027 07:45:10.937   09 Jun 2027 07:45:21.073            10.136          1599.406
       223   09 Jun 2027 07:45:46.154   09 Jun 2027 07:45:54.279             8.125           733.375
       224   09 Jun 2027 09:16:41.231   09 Jun 2027 09:16:58.226            16.995          5871.937
       225   09 Jun 2027 09:18:29.570   09 Jun 2027 09:18:35.923             6.353          1091.625
       226   09 Jun 2027 09:19:36.799   09 Jun 2027 09:19:39.558             2.759           713.906
       227   09 Jun 2027 09:20:39.735   09 Jun 2027 09:20:42.018             2.283          1029.375
       228   09 Jun 2027 09:21:39.654   09 Jun 2027 09:21:41.923             2.269           943.250
       229   09 Jun 2027 09:21:50.985   09 Jun 2027 09:21:55.627             4.642           283.188
       230   09 Jun 2027 09:22:27.905   09 Jun 2027 09:22:29.945             2.040           611.469
       231   09 Jun 2027 09:22:59.647   09 Jun 2027 09:23:03.103             3.456           402.906
       232   09 Jun 2027 10:54:42.910   09 Jun 2027 10:54:57.449            14.539          6545.688
       233   09 Jun 2027 10:56:48.013   09 Jun 2027 10:56:51.114             3.101           269.375
       234   09 Jun 2027 10:57:46.735   09 Jun 2027 10:57:48.333             1.598           173.219
       235   09 Jun 2027 10:58:37.183   09 Jun 2027 10:58:40.281             3.098          1261.094
       236   10 Jun 2027 03:05:06.918   10 Jun 2027 03:05:15.516             8.598          4299.000
       237   10 Jun 2027 03:06:09.356   10 Jun 2027 03:06:09.694             0.338           169.000
       238   10 Jun 2027 03:06:32.350   10 Jun 2027 03:06:51.708            19.358          9679.000
       239   10 Jun 2027 04:38:53.360   10 Jun 2027 04:41:49.524           176.164         88082.000
       240   10 Jun 2027 04:43:19.071   10 Jun 2027 04:43:35.672            16.601          8300.500
       241   10 Jun 2027 06:14:53.843   10 Jun 2027 06:16:30.700            96.857         47658.437
       242   10 Jun 2027 06:16:44.954   10 Jun 2027 06:16:45.792             0.838            41.375
       243   10 Jun 2027 06:17:31.242   10 Jun 2027 06:17:33.644             2.402           944.156
       244   10 Jun 2027 06:17:40.978   10 Jun 2027 06:17:41.789             0.811           183.344
       245   10 Jun 2027 06:17:50.705   10 Jun 2027 06:17:50.705             0.000             0.000
       246   10 Jun 2027 06:18:09.103   10 Jun 2027 06:18:14.007             4.904           835.406
       247   10 Jun 2027 06:19:22.527   10 Jun 2027 06:19:33.636            11.109          1844.250
       248   10 Jun 2027 06:19:43.098   10 Jun 2027 06:19:46.304             3.206           295.688
       249   10 Jun 2027 06:20:29.037   10 Jun 2027 06:20:36.387             7.350          1252.031
       250   10 Jun 2027 06:21:02.487   10 Jun 2027 06:21:03.801             1.314           421.625
       251   10 Jun 2027 06:21:37.672   10 Jun 2027 06:21:39.842             2.170           849.469
       252   10 Jun 2027 06:22:08.353   10 Jun 2027 06:22:10.690             2.337           804.750
       253   10 Jun 2027 06:22:42.286   10 Jun 2027 06:22:44.803             2.517           953.156
       254   10 Jun 2027 07:51:56.373   10 Jun 2027 07:51:59.281             2.908          1237.437
       255   10 Jun 2027 07:53:56.759   10 Jun 2027 07:53:58.463             1.704           825.563
       256   10 Jun 2027 07:54:34.314   10 Jun 2027 07:54:37.414             3.100          1120.344
       257   10 Jun 2027 07:55:04.327   10 Jun 2027 07:55:06.899             2.572           587.188
       258   10 Jun 2027 07:56:07.628   10 Jun 2027 07:56:10.147             2.519           844.375
       259   10 Jun 2027 07:56:45.034   10 Jun 2027 07:56:50.010             4.976          1090.219
       260   10 Jun 2027 07:57:23.173   10 Jun 2027 07:57:28.422             5.249           430.562
       261   10 Jun 2027 09:28:51.138   10 Jun 2027 09:29:01.136             9.998          4994.312
       262   10 Jun 2027 09:31:56.198   10 Jun 2027 09:31:59.159             2.961          1309.187
       263   10 Jun 2027 09:32:26.108   10 Jun 2027 09:32:28.998             2.890           268.750
       264   10 Jun 2027 09:33:11.345   10 Jun 2027 09:33:15.206             3.861           175.844
       265   10 Jun 2027 09:33:34.724   10 Jun 2027 09:33:35.943             1.219           353.344
       266   10 Jun 2027 09:34:32.937   10 Jun 2027 09:34:43.680            10.743          1781.062
       267   10 Jun 2027 11:05:57.411   10 Jun 2027 11:06:09.174            11.763          4851.719
       268   10 Jun 2027 11:07:23.582   10 Jun 2027 11:07:25.062             1.480           495.000
       269   10 Jun 2027 11:08:52.396   10 Jun 2027 11:08:57.454             5.058           498.719
       270   10 Jun 2027 11:09:32.948   10 Jun 2027 11:09:34.572             1.624           713.719
       271   10 Jun 2027 11:10:43.844   10 Jun 2027 11:10:44.643             0.799           142.438
       272   11 Jun 2027 03:17:01.651   11 Jun 2027 03:17:08.668             7.017          3508.500
       273   11 Jun 2027 03:19:16.485   11 Jun 2027 03:19:21.148             4.663          2331.500
       274   11 Jun 2027 04:53:21.002   11 Jun 2027 04:56:49.562           208.560        104280.000
       275   11 Jun 2027 06:26:50.310   11 Jun 2027 06:28:10.758            80.448         38483.438
       276   11 Jun 2027 06:29:11.634   11 Jun 2027 06:29:12.911             1.277           366.531
       277   11 Jun 2027 06:29:35.907   11 Jun 2027 06:29:41.637             5.730           576.594
       278   11 Jun 2027 06:29:53.972   11 Jun 2027 06:29:55.718             1.746           344.187
       279   11 Jun 2027 06:30:53.651   11 Jun 2027 06:30:57.917             4.266          1808.906
       280   11 Jun 2027 06:32:14.369   11 Jun 2027 06:32:22.891             8.522          1907.437
       281   11 Jun 2027 06:33:07.695   11 Jun 2027 06:33:12.662             4.967          1400.125
       282   11 Jun 2027 06:34:13.547   11 Jun 2027 06:34:13.547             0.000             0.000
       283   11 Jun 2027 06:34:16.283   11 Jun 2027 06:34:18.051             1.768           884.000
       284   11 Jun 2027 06:35:11.508   11 Jun 2027 06:35:18.745             7.237          2329.250
       285   11 Jun 2027 08:04:22.393   11 Jun 2027 08:04:23.964             1.571           165.437
       286   11 Jun 2027 08:07:25.520   11 Jun 2027 08:07:29.265             3.745            83.562
       287   11 Jun 2027 08:07:58.377   11 Jun 2027 08:07:59.381             1.004           422.500
       288   11 Jun 2027 08:08:57.660   11 Jun 2027 08:09:01.426             3.766          1593.594
       289   11 Jun 2027 08:09:52.737   11 Jun 2027 08:09:59.231             6.494          1359.688
       290   11 Jun 2027 09:41:18.601   11 Jun 2027 09:41:30.450            11.849          5798.250
       291   11 Jun 2027 09:42:10.340   11 Jun 2027 09:42:12.993             2.653           460.250
       292   11 Jun 2027 09:43:18.424   11 Jun 2027 09:43:21.393             2.969          1140.438
       293   11 Jun 2027 09:44:35.694   11 Jun 2027 09:44:39.864             4.170           700.906
       294   11 Jun 2027 09:44:59.876   11 Jun 2027 09:45:00.273             0.397           185.688
       295   11 Jun 2027 09:45:07.021   11 Jun 2027 09:45:09.547             2.526           210.875
       296   11 Jun 2027 09:45:16.910   11 Jun 2027 09:45:20.885             3.975           188.125
       297   11 Jun 2027 09:45:50.741   11 Jun 2027 09:45:51.833             1.092           432.281
       298   11 Jun 2027 09:46:02.933   11 Jun 2027 09:46:03.547             0.614           269.469
       299   11 Jun 2027 09:46:43.927   11 Jun 2027 09:46:46.698             2.771          1261.875
       300   11 Jun 2027 11:18:09.303   11 Jun 2027 11:18:23.118            13.815          5610.375
       301   11 Jun 2027 11:19:59.166   11 Jun 2027 11:20:04.673             5.507           208.469
       302   11 Jun 2027 11:20:32.173   11 Jun 2027 11:20:34.163             1.990           856.719
       303   11 Jun 2027 11:21:11.794   11 Jun 2027 11:21:13.494             1.700           484.375
       304   12 Jun 2027 03:28:52.627   12 Jun 2027 03:29:09.930            17.303          8651.500
       305   12 Jun 2027 05:05:22.515   12 Jun 2027 05:08:54.287           211.772        105886.000
       306   12 Jun 2027 06:39:29.925   12 Jun 2027 06:40:49.058            79.133         38351.656
       307   12 Jun 2027 06:40:50.850   12 Jun 2027 06:40:52.393             1.543            28.250
       308   12 Jun 2027 06:41:27.310   12 Jun 2027 06:41:29.060             1.750           338.062
       309   12 Jun 2027 06:41:55.258   12 Jun 2027 06:41:57.270             2.012           330.688
       310   12 Jun 2027 06:42:18.065   12 Jun 2027 06:42:23.846             5.781           649.844
       311   12 Jun 2027 06:43:39.767   12 Jun 2027 06:43:44.334             4.567           279.500
       312   12 Jun 2027 06:43:49.576   12 Jun 2027 06:43:52.095             2.519            30.406
       313   12 Jun 2027 06:45:14.829   12 Jun 2027 06:45:20.880             6.051          2089.906
       314   12 Jun 2027 06:45:49.041   12 Jun 2027 06:45:52.286             3.245           566.219
       315   12 Jun 2027 06:46:30.619   12 Jun 2027 06:46:36.423             5.804           394.781
       316   12 Jun 2027 06:47:14.673   12 Jun 2027 06:47:16.071             1.398           483.781
       317   12 Jun 2027 08:16:28.416   12 Jun 2027 08:16:29.989             1.573           697.219
       318   12 Jun 2027 08:19:46.181   12 Jun 2027 08:19:48.122             1.941           631.531
       319   12 Jun 2027 08:20:49.193   12 Jun 2027 08:20:51.356             2.163           405.594
       320   12 Jun 2027 08:21:47.813   12 Jun 2027 08:21:52.609             4.796          1359.500
       321   12 Jun 2027 08:22:40.201   12 Jun 2027 08:22:42.902             2.701           896.250
       322   12 Jun 2027 09:54:07.427   12 Jun 2027 09:54:23.295            15.868          5414.062
       323   12 Jun 2027 09:57:14.840   12 Jun 2027 09:57:17.271             2.431           703.531
       324   12 Jun 2027 09:58:06.668   12 Jun 2027 09:58:10.503             3.835           720.781
       325   12 Jun 2027 09:58:31.692   12 Jun 2027 09:58:35.508             3.816           237.063
       326   12 Jun 2027 11:30:12.429   12 Jun 2027 11:30:28.491            16.062          7252.656
       327   12 Jun 2027 11:31:06.865   12 Jun 2027 11:31:07.681             0.816           299.812
       328   12 Jun 2027 11:33:54.922   12 Jun 2027 11:33:58.801             3.879          1470.375
       329   12 Jun 2027 11:34:38.799   12 Jun 2027 11:34:42.871             4.072          1197.281
       330   13 Jun 2027 03:41:01.911   13 Jun 2027 03:41:14.680            12.769          6384.500
       331   13 Jun 2027 05:17:32.453   13 Jun 2027 05:17:50.303            17.850          8925.000
       332   13 Jun 2027 05:19:55.972   13 Jun 2027 05:21:07.575            71.603         35801.500
       333   13 Jun 2027 06:52:42.522   13 Jun 2027 06:56:02.893           200.371         99599.250
       334   13 Jun 2027 06:57:31.296   13 Jun 2027 06:57:38.450             7.154          2755.563
       335   13 Jun 2027 06:58:46.214   13 Jun 2027 06:58:50.079             3.865          1688.656
       336   13 Jun 2027 06:58:51.773   13 Jun 2027 06:58:52.654             0.881            41.938
       337   13 Jun 2027 08:29:04.540   13 Jun 2027 08:29:13.472             8.932          4274.563
       338   13 Jun 2027 08:30:42.934   13 Jun 2027 08:30:45.662             2.728             1.312
       339   13 Jun 2027 08:31:55.680   13 Jun 2027 08:32:02.587             6.907           609.031
       340   13 Jun 2027 08:32:14.445   13 Jun 2027 08:32:15.029             0.584            89.563
       341   13 Jun 2027 08:33:11.690   13 Jun 2027 08:33:12.135             0.445           145.844
       342   13 Jun 2027 08:34:03.021   13 Jun 2027 08:34:05.359             2.338           686.437
       343   13 Jun 2027 08:34:50.493   13 Jun 2027 08:34:53.604             3.111          1137.906
       344   13 Jun 2027 10:06:22.270   13 Jun 2027 10:06:39.178            16.908          4374.813
       345   13 Jun 2027 10:08:28.078   13 Jun 2027 10:08:33.798             5.720          2045.031
       346   13 Jun 2027 10:08:56.953   13 Jun 2027 10:08:58.246             1.293           461.438
       347   13 Jun 2027 10:09:53.460   13 Jun 2027 10:09:57.464             4.004          1612.344
       348   13 Jun 2027 10:10:12.274   13 Jun 2027 10:10:14.048             1.774            31.750
       349   13 Jun 2027 10:10:45.063   13 Jun 2027 10:10:46.803             1.740           801.719
       350   13 Jun 2027 11:42:34.570   13 Jun 2027 11:42:52.192            17.622          7179.688
       351   13 Jun 2027 11:46:42.280   13 Jun 2027 11:46:43.964             1.684           547.156
       352   13 Jun 2027 11:47:00.285   13 Jun 2027 11:47:03.640             3.355           510.031
