uniorb/output/strategy_4/Camera/Camera_KinoSat_111002.txt

KinoSat_111002
-------------------------
    Access    *     Start Time (UTCG)     *     Stop Time (UTCG)  *   Duration (s) *   Data (Mbytes)
         1   01 Jun 2027 03:55:44.924   01 Jun 2027 03:57:31.173           106.249         53124.500
         2   01 Jun 2027 03:57:50.818   01 Jun 2027 03:58:07.571            16.753          8376.500
         3   01 Jun 2027 05:32:11.980   01 Jun 2027 05:33:54.739           102.759         51379.500
         4   01 Jun 2027 05:34:14.751   01 Jun 2027 05:34:19.890             5.139          2569.500
         5   01 Jun 2027 05:35:07.403   01 Jun 2027 05:35:37.023            29.620         14810.000
         6   01 Jun 2027 07:04:19.879   01 Jun 2027 07:04:30.955            11.076          5538.000
         7   01 Jun 2027 07:06:18.810   01 Jun 2027 07:07:50.265            91.455         45727.500
         8   01 Jun 2027 07:08:01.626   01 Jun 2027 07:08:11.282             9.656          4828.000
         9   01 Jun 2027 07:08:47.744   01 Jun 2027 07:08:49.891             2.147          1073.500
        10   01 Jun 2027 07:10:11.416   01 Jun 2027 07:10:26.195            14.779          7389.500
        11   01 Jun 2027 07:10:47.050   01 Jun 2027 07:10:47.050             0.000             0.000
        12   01 Jun 2027 07:10:51.679   01 Jun 2027 07:10:58.613             6.934          3467.000
        13   01 Jun 2027 07:12:22.200   01 Jun 2027 07:12:26.159             3.959          1979.500
        14   01 Jun 2027 07:13:51.693   01 Jun 2027 07:13:58.880             7.187          3593.500
        15   01 Jun 2027 07:14:07.802   01 Jun 2027 07:14:07.993             0.191            95.500
        16   01 Jun 2027 08:43:17.446   01 Jun 2027 08:45:58.052           160.606         80303.000
        17   01 Jun 2027 08:49:40.990   01 Jun 2027 08:50:02.122            21.132         10566.000
        18   01 Jun 2027 10:20:43.933   01 Jun 2027 10:22:50.172           126.239         63119.500
        19   01 Jun 2027 10:23:35.729   01 Jun 2027 10:23:38.311             2.582          1291.000
        20   01 Jun 2027 10:25:11.204   01 Jun 2027 10:25:24.617            13.413          6706.500
        21   01 Jun 2027 11:57:04.719   01 Jun 2027 11:58:43.275            98.556         49278.000
        22   02 Jun 2027 04:07:53.145   02 Jun 2027 04:08:40.500            47.355         23677.500
        23   02 Jun 2027 05:44:21.788   02 Jun 2027 05:47:17.939           176.151         88075.500
        24   02 Jun 2027 07:19:32.841   02 Jun 2027 07:22:54.213           201.372        100686.000
        25   02 Jun 2027 07:24:32.694   02 Jun 2027 07:24:32.694             0.000             0.000
        26   02 Jun 2027 07:25:49.017   02 Jun 2027 07:25:49.017             0.000             0.000
        27   02 Jun 2027 07:26:01.677   02 Jun 2027 07:26:07.772             6.095          3047.500
        28   02 Jun 2027 08:55:51.724   02 Jun 2027 09:00:11.968           260.244        130122.000
        29   02 Jun 2027 10:33:14.819   02 Jun 2027 10:33:52.087            37.268         18509.155
        30   02 Jun 2027 10:35:45.850   02 Jun 2027 10:35:49.091             3.241          1372.969
        31   02 Jun 2027 10:36:38.891   02 Jun 2027 10:36:42.869             3.978           940.969
        32   02 Jun 2027 10:37:18.396   02 Jun 2027 10:37:22.898             4.502          1110.219
        33   02 Jun 2027 10:37:46.737   02 Jun 2027 10:37:47.262             0.525           262.500
        34   03 Jun 2027 04:20:35.518   03 Jun 2027 04:21:11.131            35.613         17806.500
        35   03 Jun 2027 04:21:50.167   03 Jun 2027 04:22:40.660            50.493         25246.500
        36   03 Jun 2027 05:56:20.321   03 Jun 2027 05:58:32.765           132.444         66222.000
        37   03 Jun 2027 05:59:49.650   03 Jun 2027 05:59:51.736             2.086          1043.000
        38   03 Jun 2027 07:31:25.976   03 Jun 2027 07:33:08.033           102.057         50565.407
        39   03 Jun 2027 07:34:03.930   03 Jun 2027 07:34:05.639             1.709           723.812
        40   03 Jun 2027 07:34:19.266   03 Jun 2027 07:34:19.824             0.558           140.313
        41   03 Jun 2027 07:34:56.542   03 Jun 2027 07:35:00.680             4.138          1147.438
        42   03 Jun 2027 07:36:32.530   03 Jun 2027 07:36:40.891             8.361          2196.406
        43   03 Jun 2027 07:36:55.690   03 Jun 2027 07:36:59.012             3.322           385.406
        44   03 Jun 2027 07:37:24.320   03 Jun 2027 07:37:28.831             4.511           627.812
        45   03 Jun 2027 07:37:46.222   03 Jun 2027 07:37:47.389             1.167           543.469
        46   03 Jun 2027 09:07:30.204   03 Jun 2027 09:07:42.074            11.870          5429.875
        47   03 Jun 2027 09:11:09.485   03 Jun 2027 09:11:11.203             1.718           452.938
        48   03 Jun 2027 09:12:15.761   03 Jun 2027 09:12:19.788             4.027          1962.031
        49   03 Jun 2027 09:12:56.139   03 Jun 2027 09:12:57.382             1.243           266.094
        50   03 Jun 2027 09:13:06.695   03 Jun 2027 09:13:08.631             1.936           260.781
        51   03 Jun 2027 10:45:27.994   03 Jun 2027 10:45:40.756            12.762          5190.094
        52   03 Jun 2027 10:47:52.823   03 Jun 2027 10:47:53.359             0.536            14.063
        53   03 Jun 2027 10:48:18.757   03 Jun 2027 10:48:20.499             1.742           749.344
        54   03 Jun 2027 10:49:11.791   03 Jun 2027 10:49:26.695            14.904           503.562
        55   03 Jun 2027 10:49:34.863   03 Jun 2027 10:49:38.739             3.876           180.281
        56   03 Jun 2027 10:49:49.803   03 Jun 2027 10:49:53.121             3.318           337.750
        57   04 Jun 2027 03:09:10.356   04 Jun 2027 03:10:19.452            69.096         34548.000
        58   04 Jun 2027 03:11:11.107   04 Jun 2027 03:11:38.780            27.673         13836.500
        59   04 Jun 2027 04:31:42.235   04 Jun 2027 04:32:36.641            54.406         27203.000
        60   04 Jun 2027 04:33:43.807   04 Jun 2027 04:33:49.158             5.351          2675.500
        61   04 Jun 2027 04:34:18.575   04 Jun 2027 04:34:18.575             0.000             0.000
        62   04 Jun 2027 06:08:04.887   04 Jun 2027 06:10:28.648           143.761         71880.500
        63   04 Jun 2027 06:10:43.754   04 Jun 2027 06:10:48.167             4.413          2206.500
        64   04 Jun 2027 06:11:16.041   04 Jun 2027 06:11:16.041             0.000             0.000
        65   04 Jun 2027 06:11:57.329   04 Jun 2027 06:12:05.992             8.663          3787.749
        66   04 Jun 2027 07:42:50.149   04 Jun 2027 07:42:55.974             5.825          2876.125
        67   04 Jun 2027 07:43:39.932   04 Jun 2027 07:43:53.414            13.482           304.500
        68   04 Jun 2027 07:45:02.124   04 Jun 2027 07:45:03.196             1.072           354.969
        69   04 Jun 2027 07:45:55.412   04 Jun 2027 07:46:01.513             6.101           884.375
        70   04 Jun 2027 07:46:58.624   04 Jun 2027 07:47:01.763             3.139          1372.656
        71   04 Jun 2027 07:47:26.168   04 Jun 2027 07:47:29.038             2.870           610.594
        72   04 Jun 2027 07:47:37.964   04 Jun 2027 07:47:43.765             5.801            55.562
        73   04 Jun 2027 07:48:22.542   04 Jun 2027 07:48:26.210             3.668            82.156
        74   04 Jun 2027 07:48:56.935   04 Jun 2027 07:48:58.664             1.729           787.594
        75   04 Jun 2027 07:49:35.977   04 Jun 2027 07:49:42.479             6.502           980.594
        76   04 Jun 2027 07:50:18.454   04 Jun 2027 07:50:20.657             2.203           413.625
        77   04 Jun 2027 09:19:39.499   04 Jun 2027 09:19:53.278            13.779          6443.750
        78   04 Jun 2027 09:21:20.368   04 Jun 2027 09:21:27.870             7.502          1635.344
        79   04 Jun 2027 09:23:25.186   04 Jun 2027 09:23:26.436             1.250           122.156
        80   04 Jun 2027 09:24:01.754   04 Jun 2027 09:24:05.029             3.275           886.875
        81   04 Jun 2027 09:24:21.024   04 Jun 2027 09:24:22.379             1.355           499.844
        82   04 Jun 2027 09:24:48.097   04 Jun 2027 09:24:51.330             3.233           689.969
        83   04 Jun 2027 09:25:05.305   04 Jun 2027 09:25:07.198             1.893           381.750
        84   04 Jun 2027 10:57:50.312   04 Jun 2027 10:58:04.711            14.399          7066.344
        85   04 Jun 2027 10:59:58.277   04 Jun 2027 11:00:00.223             1.946           172.937
        86   04 Jun 2027 11:00:20.959   04 Jun 2027 11:00:23.668             2.709            86.531
        87   04 Jun 2027 11:01:12.083   04 Jun 2027 11:01:18.233             6.150           894.062
        88   04 Jun 2027 11:01:27.632   04 Jun 2027 11:01:28.721             1.089           231.687
        89   05 Jun 2027 03:08:43.892   05 Jun 2027 03:09:03.835            19.943          9971.500
        90   05 Jun 2027 03:20:24.488   05 Jun 2027 03:21:49.667            85.179         42589.500
        91   05 Jun 2027 04:42:40.489   05 Jun 2027 04:43:56.107            75.618         37809.000
        92   05 Jun 2027 04:44:37.241   05 Jun 2027 04:45:07.472            30.231         15115.500
        93   05 Jun 2027 04:46:46.048   05 Jun 2027 04:46:50.084             4.036          2018.000
        94   05 Jun 2027 04:47:25.751   05 Jun 2027 04:47:26.805             1.054           527.000
        95   05 Jun 2027 06:17:53.199   05 Jun 2027 06:19:17.598            84.399         42199.500
        96   05 Jun 2027 06:19:48.819   05 Jun 2027 06:20:00.540            11.721          5450.250
        97   05 Jun 2027 06:21:14.775   05 Jun 2027 06:21:18.675             3.900          1885.000
        98   05 Jun 2027 06:21:37.859   05 Jun 2027 06:21:41.109             3.250           346.813
        99   05 Jun 2027 06:22:57.143   05 Jun 2027 06:23:01.559             4.416          1924.437
       100   05 Jun 2027 06:24:07.215   05 Jun 2027 06:24:10.131             2.916          1381.219
       101   05 Jun 2027 06:24:40.423   05 Jun 2027 06:24:42.944             2.521           577.063
       102   05 Jun 2027 07:54:57.337   05 Jun 2027 07:55:06.106             8.769          1767.187
       103   05 Jun 2027 07:55:40.572   05 Jun 2027 07:55:44.357             3.785           839.969
       104   05 Jun 2027 07:58:07.816   05 Jun 2027 07:58:08.584             0.768           209.125
       105   05 Jun 2027 07:59:00.425   05 Jun 2027 07:59:04.430             4.005          1475.313
       106   05 Jun 2027 07:59:47.535   05 Jun 2027 07:59:49.176             1.641           682.906
       107   05 Jun 2027 08:00:53.931   05 Jun 2027 08:00:58.658             4.727          2006.312
       108   05 Jun 2027 08:01:27.695   05 Jun 2027 08:01:31.416             3.721           872.969
       109   05 Jun 2027 08:02:22.664   05 Jun 2027 08:02:22.690             0.026            13.000
       110   05 Jun 2027 09:31:55.343   05 Jun 2027 09:32:06.366            11.023          5355.812
       111   05 Jun 2027 09:33:14.423   05 Jun 2027 09:33:14.888             0.465            14.313
       112   05 Jun 2027 09:35:39.782   05 Jun 2027 09:35:47.078             7.296          2313.531
       113   05 Jun 2027 09:36:07.630   05 Jun 2027 09:36:15.193             7.563           527.375
       114   05 Jun 2027 09:36:40.884   05 Jun 2027 09:36:45.242             4.358           708.688
       115   05 Jun 2027 09:37:40.269   05 Jun 2027 09:37:43.738             3.469          1695.219
       116   05 Jun 2027 11:09:51.768   05 Jun 2027 11:10:06.301            14.533          7052.156
       117   05 Jun 2027 11:11:47.362   05 Jun 2027 11:11:51.842             4.480          1304.031
       118   05 Jun 2027 11:12:03.631   05 Jun 2027 11:12:11.279             7.648           368.406
       119   05 Jun 2027 11:13:12.421   05 Jun 2027 11:13:17.344             4.923           130.344
       120   05 Jun 2027 11:13:35.275   05 Jun 2027 11:13:38.054             2.779            95.312
       121   06 Jun 2027 03:20:06.113   06 Jun 2027 03:20:08.711             2.598          1299.000
       122   06 Jun 2027 03:21:28.090   06 Jun 2027 03:22:19.778            51.688         25844.000
       123   06 Jun 2027 03:32:21.786   06 Jun 2027 03:33:17.054            55.268         27634.000
       124   06 Jun 2027 04:54:21.064   06 Jun 2027 04:55:43.359            82.295         41147.500
       125   06 Jun 2027 04:56:27.518   06 Jun 2027 04:56:51.918            24.400         12200.000
       126   06 Jun 2027 04:57:57.739   06 Jun 2027 04:57:57.739             0.000             0.000
       127   06 Jun 2027 04:58:16.635   06 Jun 2027 04:58:47.633            30.998         15499.000
       128   06 Jun 2027 06:29:20.615   06 Jun 2027 06:30:31.636            71.021         35510.500
       129   06 Jun 2027 06:30:38.550   06 Jun 2027 06:30:43.279             4.729          1848.937
       130   06 Jun 2027 06:31:10.732   06 Jun 2027 06:31:11.654             0.922           461.000
       131   06 Jun 2027 06:31:42.421   06 Jun 2027 06:31:45.919             3.498          1144.844
       132   06 Jun 2027 06:32:13.688   06 Jun 2027 06:32:15.468             1.780           728.000
       133   06 Jun 2027 06:32:48.778   06 Jun 2027 06:32:49.885             1.107           191.812
       134   06 Jun 2027 06:32:58.179   06 Jun 2027 06:33:00.203             2.024           168.969
       135   06 Jun 2027 06:33:11.200   06 Jun 2027 06:33:13.307             2.107           343.656
       136   06 Jun 2027 06:34:06.032   06 Jun 2027 06:34:09.254             3.222          1587.594
       137   06 Jun 2027 06:35:18.534   06 Jun 2027 06:35:18.968             0.434           217.000
       138   06 Jun 2027 06:35:24.519   06 Jun 2027 06:35:27.290             2.771          1162.469
       139   06 Jun 2027 06:35:59.441   06 Jun 2027 06:36:01.939             2.498           139.281
       140   06 Jun 2027 06:36:32.782   06 Jun 2027 06:36:34.234             1.452           714.938
       141   06 Jun 2027 06:36:44.783   06 Jun 2027 06:36:46.894             2.111           131.656
       142   06 Jun 2027 06:37:55.989   06 Jun 2027 06:37:59.698             3.709          1580.813
       143   06 Jun 2027 08:06:59.351   06 Jun 2027 08:07:05.626             6.275          1476.719
       144   06 Jun 2027 08:08:50.344   06 Jun 2027 08:08:57.862             7.518          2082.250
       145   06 Jun 2027 08:12:27.738   06 Jun 2027 08:12:31.176             3.438          1430.719
       146   06 Jun 2027 08:13:02.396   06 Jun 2027 08:13:04.954             2.558           957.781
       147   06 Jun 2027 08:14:06.189   06 Jun 2027 08:14:09.988             3.799          1460.781
       148   06 Jun 2027 08:14:22.118   06 Jun 2027 08:14:22.798             0.680           115.562
       149   06 Jun 2027 09:43:45.770   06 Jun 2027 09:44:00.104            14.334          6444.187
       150   06 Jun 2027 09:46:46.087   06 Jun 2027 09:46:48.219             2.132           558.031
       151   06 Jun 2027 09:47:31.462   06 Jun 2027 09:47:32.385             0.923           229.969
       152   06 Jun 2027 09:47:52.388   06 Jun 2027 09:47:55.127             2.739           215.500
       153   06 Jun 2027 09:48:01.567   06 Jun 2027 09:48:06.740             5.173           177.969
       154   06 Jun 2027 09:48:50.284   06 Jun 2027 09:48:53.015             2.731           727.812
       155   06 Jun 2027 09:48:59.535   06 Jun 2027 09:49:08.599             9.064           203.750
       156   06 Jun 2027 09:50:06.243   06 Jun 2027 09:50:09.851             3.608          1499.500
       157   06 Jun 2027 11:21:49.877   06 Jun 2027 11:22:06.066            16.189          5066.875
       158   06 Jun 2027 11:23:01.540   06 Jun 2027 11:23:02.221             0.681           140.156
       159   06 Jun 2027 11:24:14.375   06 Jun 2027 11:24:16.473             2.098           578.844
       160   06 Jun 2027 11:25:06.081   06 Jun 2027 11:25:09.024             2.943          1444.938
       161   06 Jun 2027 11:25:53.934   06 Jun 2027 11:25:59.267             5.333          1403.438
       162   07 Jun 2027 03:32:13.185   07 Jun 2027 03:32:24.354            11.169          5584.500
       163   07 Jun 2027 03:33:09.273   07 Jun 2027 03:33:19.266             9.993          4996.500
       164   07 Jun 2027 03:34:01.941   07 Jun 2027 03:34:01.941             0.000             0.000
       165   07 Jun 2027 03:44:45.898   07 Jun 2027 03:44:48.629             2.731          1365.500
       166   07 Jun 2027 05:06:01.985   07 Jun 2027 05:09:23.528           201.543        100771.500
       167   07 Jun 2027 05:11:03.961   07 Jun 2027 05:11:08.551             4.590          2295.000
       168   07 Jun 2027 06:40:54.343   07 Jun 2027 06:42:20.236            85.893         42930.500
       169   07 Jun 2027 06:43:13.952   07 Jun 2027 06:43:15.837             1.885           518.500
       170   07 Jun 2027 06:44:22.894   07 Jun 2027 06:44:27.184             4.290          1192.875
       171   07 Jun 2027 06:44:44.308   07 Jun 2027 06:44:45.720             1.412           514.562
       172   07 Jun 2027 06:45:03.454   07 Jun 2027 06:45:05.487             2.033           541.000
       173   07 Jun 2027 06:45:36.362   07 Jun 2027 06:45:36.362             0.000             0.000
       174   07 Jun 2027 06:46:07.149   07 Jun 2027 06:46:10.986             3.837          1620.844
       175   07 Jun 2027 06:47:25.859   07 Jun 2027 06:47:30.686             4.827          1642.031
       176   07 Jun 2027 06:47:47.161   07 Jun 2027 06:47:54.607             7.446           262.500
       177   07 Jun 2027 06:48:33.961   07 Jun 2027 06:48:36.034             2.073           706.750
       178   07 Jun 2027 06:49:28.521   07 Jun 2027 06:49:34.002             5.481          1115.250
       179   07 Jun 2027 08:19:00.803   07 Jun 2027 08:19:03.496             2.693           766.594
       180   07 Jun 2027 08:19:49.432   07 Jun 2027 08:19:54.984             5.552           467.062
       181   07 Jun 2027 08:23:27.365   07 Jun 2027 08:23:29.598             2.233           762.312
       182   07 Jun 2027 08:24:14.016   07 Jun 2027 08:24:17.002             2.986          1044.063
       183   07 Jun 2027 08:24:24.202   07 Jun 2027 08:24:25.808             1.606           180.719
       184   07 Jun 2027 08:24:31.389   07 Jun 2027 08:24:34.023             2.634           114.312
       185   07 Jun 2027 08:25:07.152   07 Jun 2027 08:25:20.087            12.935           482.750
       186   07 Jun 2027 08:25:50.431   07 Jun 2027 08:25:57.763             7.332           427.687
       187   07 Jun 2027 08:26:07.158   07 Jun 2027 08:26:08.160             1.002           189.531
       188   07 Jun 2027 09:55:55.773   07 Jun 2027 09:56:13.636            17.863          5950.906
       189   07 Jun 2027 09:59:04.302   07 Jun 2027 09:59:16.274            11.972           908.156
       190   07 Jun 2027 10:00:08.567   07 Jun 2027 10:00:11.454             2.887           884.781
       191   07 Jun 2027 10:00:26.558   07 Jun 2027 10:00:27.250             0.692           300.500
       192   07 Jun 2027 10:00:42.041   07 Jun 2027 10:00:44.130             2.089           414.219
       193   07 Jun 2027 10:00:47.968   07 Jun 2027 10:00:51.518             3.550           116.688
       194   07 Jun 2027 10:01:50.821   07 Jun 2027 10:01:54.912             4.091          1429.063
       195   07 Jun 2027 11:33:03.632   07 Jun 2027 11:33:14.878            11.246          5233.156
       196   07 Jun 2027 11:35:37.286   07 Jun 2027 11:35:40.626             3.340          1310.594
       197   07 Jun 2027 11:36:45.560   07 Jun 2027 11:36:47.686             2.126           773.719
       198   07 Jun 2027 11:37:56.595   07 Jun 2027 11:37:57.601             1.006           503.000
       199   08 Jun 2027 03:44:08.637   08 Jun 2027 03:44:25.000            16.363          8181.500
       200   08 Jun 2027 03:44:52.493   08 Jun 2027 03:44:59.334             6.841          3420.500
       201   08 Jun 2027 05:20:23.063   08 Jun 2027 05:23:31.460           188.397         94198.500
       202   08 Jun 2027 06:53:55.482   08 Jun 2027 06:55:42.138           106.656         52624.625
       203   08 Jun 2027 06:56:17.148   08 Jun 2027 06:56:18.667             1.519           220.125
       204   08 Jun 2027 06:56:38.293   08 Jun 2027 06:56:42.598             4.305           484.375
       205   08 Jun 2027 06:57:38.255   08 Jun 2027 06:57:42.713             4.458          1531.562
       206   08 Jun 2027 06:58:24.148   08 Jun 2027 06:58:24.148             0.000             0.000
       207   08 Jun 2027 06:59:26.981   08 Jun 2027 06:59:32.313             5.332          2398.656
       208   08 Jun 2027 07:00:47.526   08 Jun 2027 07:00:52.581             5.055          2060.500
       209   08 Jun 2027 07:01:26.247   08 Jun 2027 07:01:29.790             3.543          1052.063
       210   08 Jun 2027 07:02:11.126   08 Jun 2027 07:02:17.142             6.016          1172.531
       211   08 Jun 2027 07:02:27.433   08 Jun 2027 07:02:28.703             1.270            10.937
       212   08 Jun 2027 08:31:28.014   08 Jun 2027 08:31:36.451             8.437          2007.656
       213   08 Jun 2027 08:36:48.838   08 Jun 2027 08:36:53.042             4.204           960.469
       214   08 Jun 2027 08:37:36.141   08 Jun 2027 08:37:38.330             2.189          1074.500
       215   08 Jun 2027 10:08:22.957   08 Jun 2027 10:08:37.459            14.502          6116.219
       216   08 Jun 2027 10:08:44.400   08 Jun 2027 10:08:48.792             4.392           216.906
       217   08 Jun 2027 10:11:48.026   08 Jun 2027 10:11:51.682             3.656           700.156
       218   08 Jun 2027 10:12:04.562   08 Jun 2027 10:12:06.287             1.725            36.688
       219   08 Jun 2027 10:12:12.278   08 Jun 2027 10:12:12.641             0.363           148.781
       220   08 Jun 2027 10:12:29.731   08 Jun 2027 10:12:31.989             2.258           324.094
       221   08 Jun 2027 10:13:08.850   08 Jun 2027 10:13:11.359             2.509           826.844
       222   08 Jun 2027 10:13:18.685   08 Jun 2027 10:13:20.148             1.463           228.938
       223   08 Jun 2027 10:13:42.165   08 Jun 2027 10:13:47.495             5.330           485.344
       224   08 Jun 2027 10:14:05.479   08 Jun 2027 10:14:07.108             1.629           460.219
       225   08 Jun 2027 11:45:17.428   08 Jun 2027 11:45:28.159            10.731          4821.281
       226   08 Jun 2027 11:47:27.262   08 Jun 2027 11:47:30.245             2.983          1186.875
       227   08 Jun 2027 11:48:16.639   08 Jun 2027 11:48:20.234             3.595          1055.812
       228   08 Jun 2027 11:49:17.196   08 Jun 2027 11:49:21.620             4.424          1655.031
       229   09 Jun 2027 03:56:00.143   09 Jun 2027 03:56:50.668            50.525         25262.500
       230   09 Jun 2027 05:32:27.382   09 Jun 2027 05:34:55.062           147.680         73840.000
       231   09 Jun 2027 07:04:35.077   09 Jun 2027 07:04:45.903            10.826          5413.000
       232   09 Jun 2027 07:06:34.222   09 Jun 2027 07:08:27.363           113.141         56323.125
       233   09 Jun 2027 07:08:30.275   09 Jun 2027 07:08:32.515             2.240            91.000
       234   09 Jun 2027 07:09:04.101   09 Jun 2027 07:09:06.204             2.103           546.156
       235   09 Jun 2027 07:09:36.599   09 Jun 2027 07:09:38.704             2.105           826.656
       236   09 Jun 2027 07:11:27.828   09 Jun 2027 07:11:27.828             0.000             0.000
       237   09 Jun 2027 07:12:03.625   09 Jun 2027 07:12:11.354             7.729          3113.375
       238   09 Jun 2027 07:13:20.976   09 Jun 2027 07:13:22.168             1.192           596.000
       239   09 Jun 2027 07:13:25.210   09 Jun 2027 07:13:26.900             1.690           424.187
       240   09 Jun 2027 07:13:34.027   09 Jun 2027 07:13:36.915             2.888           138.188
       241   09 Jun 2027 07:14:15.225   09 Jun 2027 07:14:17.111             1.886           897.031
       242   09 Jun 2027 08:43:32.691   09 Jun 2027 08:43:42.143             9.452          4638.969
       243   09 Jun 2027 08:48:04.830   09 Jun 2027 08:48:12.690             7.860           366.438
       244   09 Jun 2027 08:48:37.312   09 Jun 2027 08:48:38.867             1.555           462.187
       245   09 Jun 2027 08:49:24.923   09 Jun 2027 08:49:27.644             2.721          1262.125
       246   09 Jun 2027 08:50:02.439   09 Jun 2027 08:50:05.244             2.805           209.562
       247   09 Jun 2027 10:21:02.265   09 Jun 2027 10:21:14.232            11.967          5598.062
       248   09 Jun 2027 10:22:46.616   09 Jun 2027 10:22:51.040             4.424          1047.781
       249   09 Jun 2027 10:23:44.208   09 Jun 2027 10:23:47.593             3.385            29.406
       250   09 Jun 2027 10:24:26.532   09 Jun 2027 10:24:28.675             2.143           628.969
       251   09 Jun 2027 10:25:32.169   09 Jun 2027 10:25:36.574             4.405          1950.875
       252   09 Jun 2027 11:57:21.235   09 Jun 2027 11:57:37.188            15.953          6962.813
       253   09 Jun 2027 11:59:37.032   09 Jun 2027 11:59:41.204             4.172          1156.438
       254   10 Jun 2027 04:08:08.267   10 Jun 2027 04:08:56.957            48.690         24345.000
       255   10 Jun 2027 05:44:37.218   10 Jun 2027 05:46:56.759           139.541         69770.500
       256   10 Jun 2027 07:19:48.228   10 Jun 2027 07:22:04.202           135.974         67741.531
       257   10 Jun 2027 07:23:11.261   10 Jun 2027 07:23:14.428             3.167          1011.781
       258   10 Jun 2027 07:23:37.434   10 Jun 2027 07:23:41.449             4.015           513.156
       259   10 Jun 2027 07:25:52.970   10 Jun 2027 07:26:00.914             7.944          2009.281
       260   10 Jun 2027 07:26:02.486   10 Jun 2027 07:26:05.527             3.041            42.938
       261   10 Jun 2027 07:26:16.669   10 Jun 2027 07:26:20.003             3.334           348.188
       262   10 Jun 2027 08:56:07.206   10 Jun 2027 08:56:19.314            12.108          4664.906
       263   10 Jun 2027 08:57:54.420   10 Jun 2027 08:58:04.446            10.026          1935.313
       264   10 Jun 2027 08:58:56.164   10 Jun 2027 08:58:58.051             1.887           535.531
       265   10 Jun 2027 08:59:19.779   10 Jun 2027 08:59:23.526             3.747           679.000
       266   10 Jun 2027 08:59:58.456   10 Jun 2027 09:00:03.816             5.360           694.781
       267   10 Jun 2027 09:00:38.528   10 Jun 2027 09:00:41.100             2.572           322.625
       268   10 Jun 2027 09:01:19.251   10 Jun 2027 09:01:25.505             6.254            77.906
       269   10 Jun 2027 09:01:52.611   10 Jun 2027 09:01:54.193             1.582           784.031
       270   10 Jun 2027 10:33:30.495   10 Jun 2027 10:33:44.376            13.881          5855.281
       271   10 Jun 2027 10:35:08.918   10 Jun 2027 10:35:11.278             2.360           156.469
       272   10 Jun 2027 10:36:03.220   10 Jun 2027 10:36:06.938             3.718          1441.531
       273   10 Jun 2027 10:36:54.265   10 Jun 2027 10:36:58.126             3.861          1456.406
       274   10 Jun 2027 10:37:36.834   10 Jun 2027 10:37:44.872             8.038          1202.031
       275   10 Jun 2027 10:38:02.263   10 Jun 2027 10:38:02.789             0.526           263.000
       276   11 Jun 2027 03:00:00.000   11 Jun 2027 03:00:02.626             2.626          1313.000
       277   11 Jun 2027 04:20:50.762   11 Jun 2027 04:21:33.461            42.699         21349.500
       278   11 Jun 2027 04:22:00.261   11 Jun 2027 04:22:56.202            55.941         27970.500
       279   11 Jun 2027 05:56:34.946   11 Jun 2027 05:58:48.792           133.846         66923.000
       280   11 Jun 2027 05:59:36.679   11 Jun 2027 05:59:44.456             7.777          3888.500
       281   11 Jun 2027 07:31:39.400   11 Jun 2027 07:32:49.921            70.521         34095.500
       282   11 Jun 2027 07:33:16.838   11 Jun 2027 07:33:17.754             0.916            83.875
       283   11 Jun 2027 07:34:20.157   11 Jun 2027 07:34:22.129             1.972           712.500
       284   11 Jun 2027 07:34:35.098   11 Jun 2027 07:34:35.640             0.542           218.688
       285   11 Jun 2027 07:35:13.571   11 Jun 2027 07:35:16.741             3.170          1182.187
       286   11 Jun 2027 07:36:48.478   11 Jun 2027 07:36:55.839             7.361          2171.594
       287   11 Jun 2027 07:37:10.838   11 Jun 2027 07:37:11.665             0.827           331.469
       288   11 Jun 2027 07:37:39.997   11 Jun 2027 07:37:43.555             3.558           885.375
       289   11 Jun 2027 07:38:01.236   11 Jun 2027 07:38:02.351             1.115           552.531
       290   11 Jun 2027 09:07:44.771   11 Jun 2027 09:07:59.707            14.936          5155.375
       291   11 Jun 2027 09:11:24.879   11 Jun 2027 09:11:27.236             2.357           306.375
       292   11 Jun 2027 09:12:30.421   11 Jun 2027 09:12:34.708             4.287          1936.469
       293   11 Jun 2027 09:13:11.697   11 Jun 2027 09:13:12.931             1.234           278.219
       294   11 Jun 2027 09:13:21.431   11 Jun 2027 09:13:22.568             1.137           265.625
       295   11 Jun 2027 10:45:43.058   11 Jun 2027 10:46:02.314            19.256          7668.844
       296   11 Jun 2027 10:46:57.112   11 Jun 2027 10:46:57.627             0.515            60.094
       297   11 Jun 2027 10:48:09.694   11 Jun 2027 10:48:10.229             0.535            44.656
       298   11 Jun 2027 10:48:10.564   11 Jun 2027 10:48:18.025             7.461            10.469
       299   11 Jun 2027 10:48:43.885   11 Jun 2027 10:48:46.347             2.462           541.687
       300   11 Jun 2027 10:49:46.511   11 Jun 2027 10:49:50.473             3.962          1648.531
       301   11 Jun 2027 10:49:53.642   11 Jun 2027 10:49:54.319             0.677            99.031
       302   12 Jun 2027 03:08:39.028   12 Jun 2027 03:09:51.090            72.062         36031.000
       303   12 Jun 2027 03:10:34.296   12 Jun 2027 03:10:34.296             0.000             0.000
       304   12 Jun 2027 03:11:26.748   12 Jun 2027 03:11:53.304            26.556         13278.000
       305   12 Jun 2027 04:31:57.108   12 Jun 2027 04:32:52.792            55.684         27842.000
       306   12 Jun 2027 04:33:59.811   12 Jun 2027 04:34:02.688             2.877          1438.500
       307   12 Jun 2027 06:08:19.607   12 Jun 2027 06:10:53.927           154.320         77160.000
       308   12 Jun 2027 06:11:29.699   12 Jun 2027 06:11:38.378             8.679          4339.500
       309   12 Jun 2027 07:43:05.337   12 Jun 2027 07:43:12.413             7.076          3410.781
       310   12 Jun 2027 07:43:56.775   12 Jun 2027 07:44:07.918            11.143           379.938
       311   12 Jun 2027 07:47:15.632   12 Jun 2027 07:47:20.031             4.399          1575.688
       312   12 Jun 2027 07:47:43.065   12 Jun 2027 07:47:47.850             4.785           620.500
       313   12 Jun 2027 07:47:54.565   12 Jun 2027 07:48:01.072             6.507           109.344
       314   12 Jun 2027 07:48:41.895   12 Jun 2027 07:48:44.443             2.548           237.062
       315   12 Jun 2027 07:49:14.619   12 Jun 2027 07:49:20.349             5.730           842.937
       316   12 Jun 2027 07:49:52.825   12 Jun 2027 07:49:57.384             4.559          1001.469
       317   12 Jun 2027 07:50:02.782   12 Jun 2027 07:50:04.820             2.038            32.000
       318   12 Jun 2027 07:50:33.786   12 Jun 2027 07:50:35.079             1.293           426.937
       319   12 Jun 2027 09:19:54.852   12 Jun 2027 09:20:09.205            14.353          6598.844
       320   12 Jun 2027 09:22:41.359   12 Jun 2027 09:22:43.937             2.578           400.687
       321   12 Jun 2027 09:23:25.585   12 Jun 2027 09:23:27.173             1.588           238.687
       322   12 Jun 2027 09:24:07.613   12 Jun 2027 09:24:11.161             3.548          1019.219
       323   12 Jun 2027 09:24:37.181   12 Jun 2027 09:24:38.289             1.108           548.406
       324   12 Jun 2027 09:24:58.644   12 Jun 2027 09:25:01.032             2.388           539.312
       325   12 Jun 2027 09:25:07.647   12 Jun 2027 09:25:09.740             2.093           206.719
       326   12 Jun 2027 10:58:05.308   12 Jun 2027 10:58:19.260            13.952          6094.594
       327   12 Jun 2027 10:58:32.987   12 Jun 2027 10:58:36.782             3.795           404.719
       328   12 Jun 2027 10:58:53.053   12 Jun 2027 10:58:54.541             1.488           508.469
       329   12 Jun 2027 10:59:46.829   12 Jun 2027 10:59:50.803             3.974           412.188
       330   12 Jun 2027 11:00:08.152   12 Jun 2027 11:00:11.124             2.972           355.500
       331   12 Jun 2027 11:00:31.853   12 Jun 2027 11:00:33.869             2.016           647.781
       332   12 Jun 2027 11:01:35.990   12 Jun 2027 11:01:42.030             6.040           258.313
       333   12 Jun 2027 11:01:56.558   12 Jun 2027 11:01:57.540             0.982           448.125
       334   13 Jun 2027 03:08:58.702   13 Jun 2027 03:09:18.910            20.208         10104.000
       335   13 Jun 2027 03:20:39.760   13 Jun 2027 03:22:03.820            84.060         42030.000
       336   13 Jun 2027 04:42:55.205   13 Jun 2027 04:44:10.855            75.650         37825.000
       337   13 Jun 2027 04:47:22.763   13 Jun 2027 04:47:27.833             5.070          2535.000
       338   13 Jun 2027 04:47:43.783   13 Jun 2027 04:48:01.163            17.380          8690.000
       339   13 Jun 2027 06:18:07.580   13 Jun 2027 06:19:32.419            84.839         42419.500
       340   13 Jun 2027 06:20:03.683   13 Jun 2027 06:20:33.778            30.095         14832.374
       341   13 Jun 2027 06:21:11.356   13 Jun 2027 06:21:12.166             0.810           138.219
       342   13 Jun 2027 06:21:15.062   13 Jun 2027 06:21:15.848             0.786            90.500
       343   13 Jun 2027 06:21:50.585   13 Jun 2027 06:21:50.585             0.000             0.000
       344   13 Jun 2027 06:22:59.338   13 Jun 2027 06:23:06.597             7.259          2758.437
       345   13 Jun 2027 06:23:39.991   13 Jun 2027 06:23:43.207             3.216           832.187
       346   13 Jun 2027 06:24:20.493   13 Jun 2027 06:24:21.393             0.900           364.062
       347   13 Jun 2027 06:24:55.125   13 Jun 2027 06:24:58.256             3.131           551.812
       348   13 Jun 2027 07:55:12.270   13 Jun 2027 07:55:20.696             8.426          2512.813
       349   13 Jun 2027 07:55:57.578   13 Jun 2027 07:56:01.855             4.277           829.406
       350   13 Jun 2027 07:58:22.968   13 Jun 2027 07:58:25.008             2.040           162.781
       351   13 Jun 2027 07:59:17.409   13 Jun 2027 07:59:21.072             3.663          1478.625
       352   13 Jun 2027 08:00:02.107   13 Jun 2027 08:00:04.835             2.728           670.750
       353   13 Jun 2027 08:01:08.762   13 Jun 2027 08:01:13.588             4.826          1954.031
       354   13 Jun 2027 08:02:34.956   13 Jun 2027 08:02:38.313             3.357          1678.500
       355   13 Jun 2027 09:32:10.399   13 Jun 2027 09:32:21.941            11.542          5712.313
       356   13 Jun 2027 09:33:29.644   13 Jun 2027 09:33:29.724             0.080            33.937
       357   13 Jun 2027 09:34:37.674   13 Jun 2027 09:34:42.929             5.255          2123.438
       358   13 Jun 2027 09:35:56.950   13 Jun 2027 09:35:59.425             2.475           146.719
       359   13 Jun 2027 09:36:05.279   13 Jun 2027 09:36:05.920             0.641           182.937
       360   13 Jun 2027 09:36:40.515   13 Jun 2027 09:36:41.850             1.335           541.375
       361   13 Jun 2027 09:37:10.966   13 Jun 2027 09:37:28.702            17.736           909.875
       362   13 Jun 2027 11:10:06.702   13 Jun 2027 11:10:17.366            10.664          5063.812
       363   13 Jun 2027 11:11:20.208   13 Jun 2027 11:11:24.732             4.524           887.750
       364   13 Jun 2027 11:12:11.989   13 Jun 2027 11:12:13.600             1.611           721.156
       365   13 Jun 2027 11:13:14.212   13 Jun 2027 11:13:17.877             3.665           580.563
       366   13 Jun 2027 11:13:26.921   13 Jun 2027 11:13:30.824             3.903            85.500
       367   13 Jun 2027 11:13:50.441   13 Jun 2027 11:13:53.285             2.844            75.625
       368   13 Jun 2027 11:14:03.863   13 Jun 2027 11:14:04.681             0.818           158.719
