uniorb/output/strategy_4/Camera/Camera_KinoSat_111705.txt

KinoSat_111705
-------------------------
    Access    *     Start Time (UTCG)     *     Stop Time (UTCG)  *   Duration (s) *   Data (Mbytes)
         1   01 Jun 2027 03:09:08.997   01 Jun 2027 03:10:34.036            85.039         42519.500
         2   01 Jun 2027 03:11:18.661   01 Jun 2027 03:11:22.595             3.934          1967.000
         3   01 Jun 2027 03:11:58.720   01 Jun 2027 03:12:02.781             4.061          2030.500
         4   01 Jun 2027 03:14:08.060   01 Jun 2027 03:14:25.796            17.736          8868.000
         5   01 Jun 2027 04:48:13.158   01 Jun 2027 04:49:45.213            92.055         46027.500
         6   01 Jun 2027 04:50:30.644   01 Jun 2027 04:50:40.111             9.467          4733.500
         7   01 Jun 2027 04:54:11.507   01 Jun 2027 04:54:20.563             9.056          4528.000
         8   01 Jun 2027 04:55:02.198   01 Jun 2027 04:55:19.440            17.242          8621.000
         9   01 Jun 2027 06:13:02.703   01 Jun 2027 06:13:58.128            55.425         27712.500
        10   01 Jun 2027 06:14:32.247   01 Jun 2027 06:14:38.406             6.159          3079.500
        11   01 Jun 2027 06:24:42.328   01 Jun 2027 06:25:28.257            45.929         22964.500
        12   01 Jun 2027 07:46:59.732   01 Jun 2027 07:47:44.931            45.199         22599.500
        13   01 Jun 2027 07:48:54.044   01 Jun 2027 07:49:16.204            22.160         11080.000
        14   01 Jun 2027 07:50:49.119   01 Jun 2027 07:51:14.437            25.318         12659.000
        15   01 Jun 2027 07:51:52.422   01 Jun 2027 07:52:14.469            22.047         11023.500
        16   01 Jun 2027 09:21:53.552   01 Jun 2027 09:22:55.620            62.068         31034.000
        17   01 Jun 2027 09:23:30.517   01 Jun 2027 09:23:55.141            24.624         12312.000
        18   01 Jun 2027 09:24:01.920   01 Jun 2027 09:24:07.433             5.513          2756.500
        19   01 Jun 2027 09:25:00.055   01 Jun 2027 09:25:26.894            26.839         13419.500
        20   01 Jun 2027 11:02:29.235   01 Jun 2027 11:02:29.235             0.000             0.000
        21   01 Jun 2027 11:02:44.022   01 Jun 2027 11:04:47.770           123.748         61874.000
        22   01 Jun 2027 11:05:25.908   01 Jun 2027 11:06:09.026            43.118         21559.000
        23   01 Jun 2027 11:06:39.533   01 Jun 2027 11:06:46.144             6.611          3305.500
        24   02 Jun 2027 03:21:36.371   02 Jun 2027 03:21:54.367            17.996          8998.000
        25   02 Jun 2027 03:22:01.879   02 Jun 2027 03:22:31.655            29.776         14888.000
        26   02 Jun 2027 03:22:36.572   02 Jun 2027 03:23:30.701            54.129         27064.500
        27   02 Jun 2027 03:23:32.839   02 Jun 2027 03:23:51.573            18.734          9367.000
        28   02 Jun 2027 03:24:36.375   02 Jun 2027 03:25:34.766            58.391         29195.500
        29   02 Jun 2027 05:00:18.074   02 Jun 2027 05:02:28.704           130.630         65315.000
        30   02 Jun 2027 05:04:06.325   02 Jun 2027 05:06:14.306           127.981         63990.500
        31   02 Jun 2027 06:24:36.099   02 Jun 2027 06:25:01.793            25.694         12847.000
        32   02 Jun 2027 06:26:26.548   02 Jun 2027 06:26:32.552             6.004          3002.000
        33   02 Jun 2027 06:36:57.919   02 Jun 2027 06:37:15.578            17.659          8829.500
        34   02 Jun 2027 07:58:30.910   02 Jun 2027 07:59:52.029            81.119         40559.500
        35   02 Jun 2027 08:00:40.369   02 Jun 2027 08:02:08.986            88.617         44308.500
        36   02 Jun 2027 08:03:36.399   02 Jun 2027 08:03:42.213             5.814          2907.000
        37   02 Jun 2027 09:33:24.489   02 Jun 2027 09:34:27.218            62.729         29667.656
        38   02 Jun 2027 09:35:36.210   02 Jun 2027 09:35:37.385             1.175           393.156
        39   02 Jun 2027 09:37:06.379   02 Jun 2027 09:37:14.386             8.007          2331.375
        40   02 Jun 2027 09:39:12.111   02 Jun 2027 09:39:32.807            20.696          2745.500
        41   02 Jun 2027 09:40:28.072   02 Jun 2027 09:40:32.664             4.592          1553.344
        42   02 Jun 2027 09:40:37.881   02 Jun 2027 09:40:38.349             0.468            36.469
        43   02 Jun 2027 09:41:04.130   02 Jun 2027 09:41:10.115             5.985           630.281
        44   02 Jun 2027 09:41:14.924   02 Jun 2027 09:41:17.091             2.167           150.281
        45   02 Jun 2027 09:42:00.932   02 Jun 2027 09:42:06.514             5.582           853.969
        46   02 Jun 2027 09:42:20.245   02 Jun 2027 09:42:21.620             1.375           236.906
        47   02 Jun 2027 11:11:21.063   02 Jun 2027 11:11:29.144             8.081          4040.500
        48   02 Jun 2027 11:15:07.864   02 Jun 2027 11:15:23.447            15.583          7633.438
        49   02 Jun 2027 11:15:26.979   02 Jun 2027 11:15:30.143             3.164            99.531
        50   02 Jun 2027 11:16:22.450   02 Jun 2027 11:16:25.934             3.484          1446.531
        51   02 Jun 2027 11:17:29.011   02 Jun 2027 11:17:34.598             5.587          1448.688
        52   02 Jun 2027 11:17:52.574   02 Jun 2027 11:17:56.580             4.006           443.813
        53   02 Jun 2027 11:18:20.808   02 Jun 2027 11:18:22.791             1.983           737.969
        54   03 Jun 2027 03:34:12.315   03 Jun 2027 03:34:24.945            12.630          6315.000
        55   03 Jun 2027 03:34:35.307   03 Jun 2027 03:35:35.833            60.526         30263.000
        56   03 Jun 2027 03:35:44.062   03 Jun 2027 03:36:11.930            27.868         13934.000
        57   03 Jun 2027 03:36:21.288   03 Jun 2027 03:37:52.968            91.680         45840.000
        58   03 Jun 2027 05:12:43.461   03 Jun 2027 05:14:28.862           105.401         52115.750
        59   03 Jun 2027 05:14:47.246   03 Jun 2027 05:14:50.684             3.438           539.438
        60   03 Jun 2027 05:16:13.228   03 Jun 2027 05:16:15.521             2.293           774.500
        61   03 Jun 2027 05:17:08.884   03 Jun 2027 05:17:09.526             0.642           231.250
        62   03 Jun 2027 06:36:32.124   03 Jun 2027 06:36:44.855            12.731          6140.969
        63   03 Jun 2027 06:37:40.469   03 Jun 2027 06:37:42.015             1.546           773.000
        64   03 Jun 2027 06:38:33.444   03 Jun 2027 06:38:39.140             5.696          2202.062
        65   03 Jun 2027 08:12:31.667   03 Jun 2027 08:12:41.143             9.476          4681.281
        66   03 Jun 2027 08:13:15.379   03 Jun 2027 08:13:19.358             3.979          1069.875
        67   03 Jun 2027 08:14:01.240   03 Jun 2027 08:14:05.649             4.409          1308.813
        68   03 Jun 2027 08:15:36.969   03 Jun 2027 08:15:44.681             7.712          2505.531
        69   03 Jun 2027 09:46:18.682   03 Jun 2027 09:46:28.815            10.133          2935.875
        70   03 Jun 2027 09:47:57.565   03 Jun 2027 09:48:03.022             5.457          1030.781
        71   03 Jun 2027 09:48:29.413   03 Jun 2027 09:48:32.921             3.508           117.500
        72   03 Jun 2027 09:48:52.216   03 Jun 2027 09:48:55.029             2.813           573.437
        73   03 Jun 2027 09:51:11.631   03 Jun 2027 09:51:18.429             6.798          2636.781
        74   03 Jun 2027 09:53:04.938   03 Jun 2027 09:53:05.836             0.898           449.000
        75   03 Jun 2027 09:53:06.653   03 Jun 2027 09:53:09.639             2.986          1143.469
        76   03 Jun 2027 09:53:33.525   03 Jun 2027 09:53:35.137             1.612           232.906
        77   03 Jun 2027 11:23:34.563   03 Jun 2027 11:23:52.206            17.643          6356.000
        78   03 Jun 2027 11:26:02.451   03 Jun 2027 11:26:06.963             4.512          2091.312
        79   03 Jun 2027 11:26:58.125   03 Jun 2027 11:27:03.188             5.063          1462.406
        80   03 Jun 2027 11:28:12.100   03 Jun 2027 11:28:16.045             3.945          1567.656
        81   03 Jun 2027 11:28:41.481   03 Jun 2027 11:28:43.257             1.776           331.500
        82   03 Jun 2027 11:29:29.850   03 Jun 2027 11:29:32.130             2.280          1038.406
        83   03 Jun 2027 11:29:58.802   03 Jun 2027 11:30:00.765             1.963           430.094
        84   03 Jun 2027 11:30:07.675   03 Jun 2027 11:30:08.354             0.679            84.906
        85   03 Jun 2027 11:30:15.415   03 Jun 2027 11:30:16.296             0.881           220.656
        86   03 Jun 2027 11:30:46.068   03 Jun 2027 11:30:47.272             1.204           602.000
        87   04 Jun 2027 03:46:45.527   04 Jun 2027 03:46:56.116            10.589          5294.500
        88   04 Jun 2027 03:48:46.250   04 Jun 2027 03:51:26.011           159.761         79880.500
        89   04 Jun 2027 03:51:29.085   04 Jun 2027 03:51:34.873             5.788          2894.000
        90   04 Jun 2027 03:51:42.163   04 Jun 2027 03:52:03.497            21.334         10667.000
        91   04 Jun 2027 03:52:25.665   04 Jun 2027 03:52:39.634            13.969          6984.500
        92   04 Jun 2027 05:25:02.083   04 Jun 2027 05:25:24.038            21.955         10977.500
        93   04 Jun 2027 05:25:48.714   04 Jun 2027 05:27:09.749            81.035         40365.781
        94   04 Jun 2027 05:27:57.569   04 Jun 2027 05:28:00.439             2.870          1040.219
        95   04 Jun 2027 05:28:58.518   04 Jun 2027 05:29:00.908             2.390          1095.594
        96   04 Jun 2027 05:29:20.992   04 Jun 2027 05:29:22.460             1.468           379.281
        97   04 Jun 2027 06:48:24.222   04 Jun 2027 06:48:36.815            12.593          5296.187
        98   04 Jun 2027 06:49:43.323   04 Jun 2027 06:49:51.798             8.475          1676.969
        99   04 Jun 2027 06:50:03.386   04 Jun 2027 06:50:04.406             1.020           339.719
       100   04 Jun 2027 06:50:54.144   04 Jun 2027 06:50:57.780             3.636          1500.312
       101   04 Jun 2027 08:24:46.364   04 Jun 2027 08:25:05.577            19.213          8205.937
       102   04 Jun 2027 08:25:22.402   04 Jun 2027 08:25:24.018             1.616           297.281
       103   04 Jun 2027 08:25:34.798   04 Jun 2027 08:25:36.158             1.360           336.875
       104   04 Jun 2027 08:26:25.910   04 Jun 2027 08:26:28.560             2.650          1187.656
       105   04 Jun 2027 08:26:43.402   04 Jun 2027 08:26:44.037             0.635            73.875
       106   04 Jun 2027 09:57:03.561   04 Jun 2027 09:57:11.296             7.735          3106.031
       107   04 Jun 2027 09:58:50.651   04 Jun 2027 09:58:53.175             2.524           671.031
       108   04 Jun 2027 10:00:31.041   04 Jun 2027 10:00:35.343             4.302          2062.688
       109   04 Jun 2027 10:00:51.765   04 Jun 2027 10:00:52.432             0.667           181.781
       110   04 Jun 2027 10:01:52.836   04 Jun 2027 10:01:55.193             2.357           515.000
       111   04 Jun 2027 10:03:13.560   04 Jun 2027 10:03:16.958             3.398           762.406
       112   04 Jun 2027 10:04:16.239   04 Jun 2027 10:04:19.408             3.169          1543.031
       113   04 Jun 2027 10:05:25.371   04 Jun 2027 10:05:28.024             2.653          1095.687
       114   04 Jun 2027 10:05:53.174   04 Jun 2027 10:05:57.666             4.492           623.844
       115   04 Jun 2027 10:06:09.534   04 Jun 2027 10:06:10.660             1.126           252.125
       116   04 Jun 2027 10:06:46.186   04 Jun 2027 10:06:49.946             3.760          1110.187
       117   04 Jun 2027 11:35:54.733   04 Jun 2027 11:36:04.650             9.917          4345.250
       118   04 Jun 2027 11:38:38.415   04 Jun 2027 11:38:43.693             5.278          1155.969
       119   04 Jun 2027 11:39:35.281   04 Jun 2027 11:39:37.370             2.089           989.719
       120   04 Jun 2027 11:40:38.235   04 Jun 2027 11:40:43.447             5.212          1599.063
       121   04 Jun 2027 11:41:09.289   04 Jun 2027 11:41:12.964             3.675           608.250
       122   04 Jun 2027 11:41:46.823   04 Jun 2027 11:41:48.708             1.885           234.562
       123   04 Jun 2027 11:42:32.578   04 Jun 2027 11:42:37.140             4.562          1225.750
       124   05 Jun 2027 03:58:51.980   05 Jun 2027 03:59:53.487            61.507         30753.500
       125   05 Jun 2027 03:59:59.454   05 Jun 2027 04:02:22.228           142.774         71387.000
       126   05 Jun 2027 04:04:06.385   05 Jun 2027 04:04:37.184            30.799         15399.500
       127   05 Jun 2027 05:37:55.017   05 Jun 2027 05:39:27.561            92.544         45016.906
       128   05 Jun 2027 07:00:27.700   05 Jun 2027 07:00:38.658            10.958          4630.031
       129   05 Jun 2027 07:01:44.403   05 Jun 2027 07:01:50.772             6.369          2015.312
       130   05 Jun 2027 07:02:07.870   05 Jun 2027 07:02:09.739             1.869           301.656
       131   05 Jun 2027 07:02:35.091   05 Jun 2027 07:02:35.091             0.000             0.000
       132   05 Jun 2027 08:36:57.113   05 Jun 2027 08:37:03.994             6.881          3309.625
       133   05 Jun 2027 08:37:48.626   05 Jun 2027 08:37:51.741             3.115          1235.656
       134   05 Jun 2027 08:38:22.452   05 Jun 2027 08:38:27.595             5.143           959.719
       135   05 Jun 2027 08:38:53.628   05 Jun 2027 08:38:55.947             2.319           753.375
       136   05 Jun 2027 10:12:01.850   05 Jun 2027 10:12:07.911             6.061          3011.719
       137   05 Jun 2027 10:13:09.956   05 Jun 2027 10:13:13.069             3.113          1014.906
       138   05 Jun 2027 10:14:01.120   05 Jun 2027 10:14:05.876             4.756          1501.594
       139   05 Jun 2027 10:15:44.174   05 Jun 2027 10:15:49.228             5.054          1121.156
       140   05 Jun 2027 10:16:09.122   05 Jun 2027 10:16:13.695             4.573           289.406
       141   05 Jun 2027 10:17:48.582   05 Jun 2027 10:17:57.129             8.547          2230.312
       142   05 Jun 2027 10:18:26.414   05 Jun 2027 10:18:28.962             2.548           698.125
       143   05 Jun 2027 10:18:42.066   05 Jun 2027 10:18:49.148             7.082           409.500
       144   05 Jun 2027 11:48:23.308   05 Jun 2027 11:48:35.065            11.757          5688.875
       145   05 Jun 2027 11:50:19.739   05 Jun 2027 11:50:20.985             1.246           294.156
       146   05 Jun 2027 11:51:06.539   05 Jun 2027 11:51:14.582             8.043          1394.438
       147   05 Jun 2027 11:52:35.307   05 Jun 2027 11:52:43.956             8.649          1736.125
       148   05 Jun 2027 11:53:44.863   05 Jun 2027 11:53:50.386             5.523          1881.000
       149   05 Jun 2027 11:54:22.148   05 Jun 2027 11:54:24.486             2.338           992.563
       150   05 Jun 2027 11:54:36.245   05 Jun 2027 11:54:40.869             4.624           218.469
       151   06 Jun 2027 04:10:50.619   06 Jun 2027 04:11:36.276            45.657         22828.500
       152   06 Jun 2027 04:11:56.915   06 Jun 2027 04:14:11.226           134.311         67155.500
       153   06 Jun 2027 04:16:05.514   06 Jun 2027 04:16:06.744             1.230           615.000
       154   06 Jun 2027 05:49:04.129   06 Jun 2027 05:50:05.540            61.411         30705.500
       155   06 Jun 2027 05:50:11.755   06 Jun 2027 05:51:14.068            62.313         31156.500
       156   06 Jun 2027 05:51:46.769   06 Jun 2027 05:51:50.877             4.108          2054.000
       157   06 Jun 2027 07:12:24.843   06 Jun 2027 07:12:37.881            13.038          6462.312
       158   06 Jun 2027 07:13:17.594   06 Jun 2027 07:13:20.235             2.641           582.344
       159   06 Jun 2027 07:13:55.367   06 Jun 2027 07:13:58.982             3.615           903.969
       160   06 Jun 2027 07:15:06.039   06 Jun 2027 07:15:06.265             0.226           113.000
       161   06 Jun 2027 07:15:31.919   06 Jun 2027 07:15:37.990             6.071          2652.812
       162   06 Jun 2027 08:49:02.490   06 Jun 2027 08:49:08.537             6.047          2903.187
       163   06 Jun 2027 08:50:13.809   06 Jun 2027 08:50:18.637             4.828          1652.188
       164   06 Jun 2027 08:51:35.701   06 Jun 2027 08:51:40.909             5.208          2308.594
       165   06 Jun 2027 08:52:11.876   06 Jun 2027 08:52:15.036             3.160           250.156
       166   06 Jun 2027 10:24:12.414   06 Jun 2027 10:24:17.613             5.199          2565.500
       167   06 Jun 2027 10:25:38.098   06 Jun 2027 10:25:43.314             5.216          2253.250
       168   06 Jun 2027 10:26:12.211   06 Jun 2027 10:26:14.570             2.359           518.688
       169   06 Jun 2027 10:29:08.422   06 Jun 2027 10:29:18.725            10.303          3853.813
       170   06 Jun 2027 10:29:50.569   06 Jun 2027 10:29:53.497             2.928           557.719
       171   06 Jun 2027 10:30:36.822   06 Jun 2027 10:30:39.897             3.075           840.750
       172   07 Jun 2027 04:23:55.985   07 Jun 2027 04:25:21.692            85.707         42853.500
       173   07 Jun 2027 04:25:36.358   07 Jun 2027 04:26:03.470            27.112         13556.000
       174   07 Jun 2027 04:27:15.432   07 Jun 2027 04:27:42.759            27.327         13663.500
       175   07 Jun 2027 04:28:09.410   07 Jun 2027 04:28:35.775            26.365         13182.500
       176   07 Jun 2027 04:30:35.353   07 Jun 2027 04:30:36.615             1.262           631.000
       177   07 Jun 2027 04:30:53.874   07 Jun 2027 04:31:29.126            35.252         17626.000
       178   07 Jun 2027 05:50:16.008   07 Jun 2027 05:50:25.953             9.945          4972.500
       179   07 Jun 2027 06:01:01.828   07 Jun 2027 06:01:43.697            41.869         20934.500
       180   07 Jun 2027 06:01:49.037   07 Jun 2027 06:02:41.533            52.496         26248.000
       181   07 Jun 2027 06:04:28.988   07 Jun 2027 06:04:37.594             8.606          4303.000
       182   07 Jun 2027 07:25:01.198   07 Jun 2027 07:25:14.285            13.087          6472.937
       183   07 Jun 2027 07:25:31.698   07 Jun 2027 07:25:33.495             1.797            86.656
       184   07 Jun 2027 07:26:19.278   07 Jun 2027 07:26:19.278             0.000             0.000
       185   07 Jun 2027 07:27:01.426   07 Jun 2027 07:27:06.267             4.841          2368.031
       186   07 Jun 2027 07:27:26.120   07 Jun 2027 07:27:27.486             1.366           619.656
       187   07 Jun 2027 09:01:03.888   07 Jun 2027 09:01:03.888             0.000             0.000
       188   07 Jun 2027 09:02:50.693   07 Jun 2027 09:03:07.295            16.602          8184.125
       189   07 Jun 2027 09:03:14.994   07 Jun 2027 09:03:16.560             1.566           240.594
       190   07 Jun 2027 09:04:07.305   07 Jun 2027 09:04:07.305             0.000             0.000
       191   07 Jun 2027 10:35:37.550   07 Jun 2027 10:35:49.533            11.983          4203.719
       192   07 Jun 2027 10:38:07.237   07 Jun 2027 10:38:14.603             7.366          3659.438
       193   07 Jun 2027 10:38:31.072   07 Jun 2027 10:38:33.057             1.985           150.187
       194   07 Jun 2027 10:39:00.559   07 Jun 2027 10:39:01.197             0.638           316.281
       195   07 Jun 2027 10:40:07.621   07 Jun 2027 10:40:09.945             2.324           912.719
       196   07 Jun 2027 10:40:28.717   07 Jun 2027 10:40:33.156             4.439           499.062
       197   07 Jun 2027 10:40:49.749   07 Jun 2027 10:40:51.421             1.672           518.531
       198   07 Jun 2027 10:41:06.289   07 Jun 2027 10:41:07.334             1.045           292.875
       199   07 Jun 2027 10:42:25.423   07 Jun 2027 10:42:30.412             4.989          2413.531
       200   08 Jun 2027 03:00:09.757   08 Jun 2027 03:00:23.246            13.489          6744.500
       201   08 Jun 2027 03:00:38.685   08 Jun 2027 03:00:38.708             0.023            11.500
       202   08 Jun 2027 03:01:14.961   08 Jun 2027 03:01:37.140            22.179         11089.500
       203   08 Jun 2027 03:03:36.801   08 Jun 2027 03:03:45.803             9.002          4501.000
       204   08 Jun 2027 04:36:16.679   08 Jun 2027 04:38:28.241           131.562         65781.000
       205   08 Jun 2027 04:38:49.262   08 Jun 2027 04:39:00.092            10.830          5415.000
       206   08 Jun 2027 04:40:10.414   08 Jun 2027 04:40:14.732             4.318          2159.000
       207   08 Jun 2027 04:42:16.166   08 Jun 2027 04:43:33.697            77.531         38765.500
       208   08 Jun 2027 06:01:32.789   08 Jun 2027 06:02:04.191            31.402         15701.000
       209   08 Jun 2027 06:13:00.464   08 Jun 2027 06:13:58.924            58.460         27733.187
       210   08 Jun 2027 07:35:39.590   08 Jun 2027 07:35:52.321            12.731          5512.562
       211   08 Jun 2027 07:36:01.073   08 Jun 2027 07:36:03.581             2.508           169.344
       212   08 Jun 2027 07:37:45.663   08 Jun 2027 07:37:52.946             7.283          2392.687
       213   08 Jun 2027 07:39:05.988   08 Jun 2027 07:39:12.069             6.081          2159.250
       214   08 Jun 2027 07:39:53.584   08 Jun 2027 07:39:53.584             0.000             0.000
       215   08 Jun 2027 07:40:14.131   08 Jun 2027 07:40:18.605             4.474          1404.406
       216   08 Jun 2027 09:10:59.735   08 Jun 2027 09:11:07.281             7.546          3628.406
       217   08 Jun 2027 09:12:52.082   08 Jun 2027 09:12:55.973             3.891          1472.656
       218   08 Jun 2027 09:14:03.334   08 Jun 2027 09:14:06.857             3.523          1386.156
       219   08 Jun 2027 09:15:28.793   08 Jun 2027 09:15:34.211             5.418          2560.500
       220   08 Jun 2027 09:15:54.332   08 Jun 2027 09:15:58.635             4.303           540.156
       221   08 Jun 2027 09:16:08.565   08 Jun 2027 09:16:11.341             2.776            51.344
       222   08 Jun 2027 09:16:52.218   08 Jun 2027 09:16:53.814             1.596           784.188
       223   08 Jun 2027 10:50:41.059   08 Jun 2027 10:51:03.793            22.734         10962.250
       224   08 Jun 2027 10:52:06.081   08 Jun 2027 10:52:09.754             3.673          1568.531
       225   08 Jun 2027 10:52:39.743   08 Jun 2027 10:52:42.293             2.550           597.250
       226   08 Jun 2027 10:53:36.150   08 Jun 2027 10:53:42.919             6.769          1174.031
       227   08 Jun 2027 10:54:15.240   08 Jun 2027 10:54:17.700             2.460           959.094
       228   09 Jun 2027 03:09:26.955   09 Jun 2027 03:10:33.351            66.396         33198.000
       229   09 Jun 2027 03:10:45.291   09 Jun 2027 03:10:51.270             5.979          2989.500
       230   09 Jun 2027 03:12:08.971   09 Jun 2027 03:12:17.712             8.741          4370.500
       231   09 Jun 2027 03:12:23.100   09 Jun 2027 03:12:29.955             6.855          3427.500
       232   09 Jun 2027 03:13:58.904   09 Jun 2027 03:14:32.153            33.249         16624.500
       233   09 Jun 2027 04:48:32.542   09 Jun 2027 04:51:11.887           159.345         79672.500
       234   09 Jun 2027 04:52:19.478   09 Jun 2027 04:52:43.422            23.944         10294.437
       235   09 Jun 2027 04:53:31.163   09 Jun 2027 04:53:33.307             2.144           474.594
       236   09 Jun 2027 04:53:43.077   09 Jun 2027 04:53:43.983             0.906           222.469
       237   09 Jun 2027 04:54:27.087   09 Jun 2027 04:54:29.356             2.269           275.813
       238   09 Jun 2027 04:55:18.195   09 Jun 2027 04:55:23.854             5.659          1084.844
       239   09 Jun 2027 06:12:47.457   09 Jun 2027 06:12:50.661             3.204          1602.000
       240   09 Jun 2027 06:13:14.866   09 Jun 2027 06:13:20.766             5.900          2950.000
       241   09 Jun 2027 06:14:33.412   09 Jun 2027 06:14:43.710            10.298          4757.688
       242   09 Jun 2027 06:24:59.730   09 Jun 2027 06:25:04.798             5.068          2455.625
       243   09 Jun 2027 07:47:15.690   09 Jun 2027 07:47:30.452            14.762          6896.656
       244   09 Jun 2027 07:48:07.413   09 Jun 2027 07:48:22.435            15.022           932.750
       245   09 Jun 2027 07:49:11.401   09 Jun 2027 07:49:12.357             0.956           247.719
       246   09 Jun 2027 07:49:55.397   09 Jun 2027 07:49:56.890             1.493           693.312
       247   09 Jun 2027 07:51:05.032   09 Jun 2027 07:51:09.610             4.578          1987.906
       248   09 Jun 2027 07:51:34.678   09 Jun 2027 07:51:37.805             3.127            79.875
       249   09 Jun 2027 09:22:09.153   09 Jun 2027 09:22:17.349             8.196          2770.563
       250   09 Jun 2027 09:25:27.157   09 Jun 2027 09:25:29.487             2.330           325.969
       251   09 Jun 2027 09:27:26.825   09 Jun 2027 09:27:34.865             8.040          3299.469
       252   09 Jun 2027 09:27:58.755   09 Jun 2027 09:28:03.971             5.216           343.594
       253   09 Jun 2027 09:28:43.275   09 Jun 2027 09:28:46.624             3.349          1116.625
       254   09 Jun 2027 09:30:13.656   09 Jun 2027 09:30:19.360             5.704          1592.063
       255   09 Jun 2027 10:59:43.098   09 Jun 2027 10:59:57.799            14.701          5624.813
       256   09 Jun 2027 11:02:42.972   09 Jun 2027 11:02:44.737             1.765            98.313
       257   09 Jun 2027 11:03:04.013   09 Jun 2027 11:03:06.391             2.378           567.844
       258   09 Jun 2027 11:03:58.018   09 Jun 2027 11:04:02.863             4.845          1561.875
       259   09 Jun 2027 11:04:31.076   09 Jun 2027 11:04:33.095             2.019           477.156
       260   09 Jun 2027 11:04:56.972   09 Jun 2027 11:04:59.364             2.392           746.156
       261   09 Jun 2027 11:05:09.848   09 Jun 2027 11:05:12.770             2.922           327.625
       262   09 Jun 2027 11:06:11.615   09 Jun 2027 11:06:16.328             4.713          1612.344
       263   09 Jun 2027 11:06:53.612   09 Jun 2027 11:07:03.122             9.510           866.813
       264   10 Jun 2027 03:21:53.871   10 Jun 2027 03:22:10.673            16.802          8401.000
       265   10 Jun 2027 03:22:19.805   10 Jun 2027 03:22:48.815            29.010         14505.000
       266   10 Jun 2027 03:22:53.541   10 Jun 2027 03:23:47.812            54.271         27135.500
       267   10 Jun 2027 03:23:49.324   10 Jun 2027 03:25:10.566            81.242         40621.000
       268   10 Jun 2027 03:26:28.182   10 Jun 2027 03:26:29.043             0.861           430.500
       269   10 Jun 2027 03:26:52.009   10 Jun 2027 03:27:16.493            24.484         12242.000
       270   10 Jun 2027 05:00:37.387   10 Jun 2027 05:00:45.537             8.150          4075.000
       271   10 Jun 2027 05:01:31.062   10 Jun 2027 05:02:56.226            85.164         42582.000
       272   10 Jun 2027 05:03:16.227   10 Jun 2027 05:03:30.077            13.850          6738.594
       273   10 Jun 2027 05:05:08.639   10 Jun 2027 05:05:12.719             4.080          1372.281
       274   10 Jun 2027 05:06:58.891   10 Jun 2027 05:07:00.950             2.059           919.187
       275   10 Jun 2027 05:07:22.591   10 Jun 2027 05:07:26.833             4.242           237.531
       276   10 Jun 2027 06:24:53.439   10 Jun 2027 06:25:03.971            10.532          5169.594
       277   10 Jun 2027 06:25:34.795   10 Jun 2027 06:25:34.795             0.000             0.000
       278   10 Jun 2027 06:25:57.513   10 Jun 2027 06:26:07.674            10.161          1264.156
       279   10 Jun 2027 06:26:36.385   10 Jun 2027 06:26:37.384             0.999           209.219
       280   10 Jun 2027 06:37:20.925   10 Jun 2027 06:37:27.052             6.127          2162.219
       281   10 Jun 2027 07:58:44.935   10 Jun 2027 07:58:53.728             8.793          3527.906
       282   10 Jun 2027 08:00:45.132   10 Jun 2027 08:00:50.296             5.164          1624.937
       283   10 Jun 2027 08:01:34.935   10 Jun 2027 08:01:40.033             5.098          1362.781
       284   10 Jun 2027 08:02:28.331   10 Jun 2027 08:02:32.082             3.751          1385.656
       285   10 Jun 2027 08:03:53.883   10 Jun 2027 08:04:00.096             6.213          2556.281
       286   10 Jun 2027 09:33:39.794   10 Jun 2027 09:33:47.701             7.907          3712.219
       287   10 Jun 2027 09:35:41.414   10 Jun 2027 09:35:46.527             5.113          2222.125
       288   10 Jun 2027 09:36:37.684   10 Jun 2027 09:36:40.382             2.698          1331.187
       289   10 Jun 2027 09:37:23.349   10 Jun 2027 09:37:26.639             3.290           311.250
       290   10 Jun 2027 09:39:29.529   10 Jun 2027 09:39:48.046            18.517          2724.750
       291   10 Jun 2027 09:41:25.844   10 Jun 2027 09:41:32.074             6.230          1449.813
       292   10 Jun 2027 09:42:15.903   10 Jun 2027 09:42:21.359             5.456           828.125
       293   10 Jun 2027 09:42:27.469   10 Jun 2027 09:42:27.984             0.515             6.437
       294   10 Jun 2027 09:42:40.114   10 Jun 2027 09:42:40.698             0.584           104.125
       295   10 Jun 2027 11:11:37.255   10 Jun 2027 11:11:51.728            14.473          5090.781
       296   10 Jun 2027 11:15:28.212   10 Jun 2027 11:15:44.838            16.626          6765.125
       297   10 Jun 2027 11:16:22.967   10 Jun 2027 11:16:24.515             1.548           626.281
       298   10 Jun 2027 11:17:03.284   10 Jun 2027 11:17:06.907             3.623          1091.969
       299   10 Jun 2027 11:17:36.057   10 Jun 2027 11:17:37.424             1.367           426.938
       300   10 Jun 2027 11:17:55.452   10 Jun 2027 11:17:58.626             3.174           287.094
       301   10 Jun 2027 11:18:35.949   10 Jun 2027 11:18:38.278             2.329           976.688
       302   11 Jun 2027 03:34:30.469   11 Jun 2027 03:34:41.651            11.182          5591.000
       303   11 Jun 2027 03:34:53.226   11 Jun 2027 03:35:54.579            61.353         30676.500
       304   11 Jun 2027 03:36:00.573   11 Jun 2027 03:36:36.822            36.249         18124.500
       305   11 Jun 2027 03:36:38.694   11 Jun 2027 03:38:07.363            88.669         44334.500
       306   11 Jun 2027 03:39:24.312   11 Jun 2027 03:39:33.442             9.130          4565.000
       307   11 Jun 2027 05:13:00.273   11 Jun 2027 05:14:30.889            90.616         45308.000
       308   11 Jun 2027 05:14:37.924   11 Jun 2027 05:14:41.025             3.101           699.156
       309   11 Jun 2027 05:16:29.809   11 Jun 2027 05:16:36.580             6.771          3289.437
       310   11 Jun 2027 05:17:22.919   11 Jun 2027 05:17:24.796             1.877           145.875
       311   11 Jun 2027 06:36:49.513   11 Jun 2027 06:37:02.607            13.094          6195.781
       312   11 Jun 2027 06:37:57.565   11 Jun 2027 06:38:00.786             3.221          1426.906
       313   11 Jun 2027 06:38:50.703   11 Jun 2027 06:38:53.979             3.276          1559.906
       314   11 Jun 2027 08:12:49.078   11 Jun 2027 08:12:59.192            10.114          4955.219
       315   11 Jun 2027 08:13:42.006   11 Jun 2027 08:13:46.446             4.440          1310.437
       316   11 Jun 2027 08:15:54.419   11 Jun 2027 08:16:02.599             8.180          3195.688
       317   11 Jun 2027 09:46:33.407   11 Jun 2027 09:46:43.927            10.520          3778.906
       318   11 Jun 2027 09:48:16.569   11 Jun 2027 09:48:19.621             3.052          1070.219
       319   11 Jun 2027 09:48:48.858   11 Jun 2027 09:48:51.094             2.236           319.062
       320   11 Jun 2027 09:49:08.696   11 Jun 2027 09:49:10.368             1.672           501.250
       321   11 Jun 2027 09:51:28.985   11 Jun 2027 09:51:34.390             5.405          2606.562
       322   11 Jun 2027 09:53:23.883   11 Jun 2027 09:53:28.302             4.419          1662.937
       323   11 Jun 2027 09:53:48.764   11 Jun 2027 09:53:49.726             0.962           210.344
       324   11 Jun 2027 09:55:08.025   11 Jun 2027 09:55:08.156             0.131            65.500
       325   11 Jun 2027 11:23:58.616   11 Jun 2027 11:24:11.778            13.162          6205.594
       326   11 Jun 2027 11:25:18.521   11 Jun 2027 11:25:18.956             0.435           155.562
       327   11 Jun 2027 11:26:18.306   11 Jun 2027 11:26:18.306             0.000             0.000
       328   11 Jun 2027 11:27:56.433   11 Jun 2027 11:28:06.435            10.002          4843.375
       329   11 Jun 2027 11:28:57.944   11 Jun 2027 11:28:58.523             0.579           262.938
       330   11 Jun 2027 11:30:00.518   11 Jun 2027 11:30:07.046             6.528          1577.438
       331   11 Jun 2027 11:30:36.894   11 Jun 2027 11:30:38.391             1.497           659.375
       332   12 Jun 2027 03:47:01.844   12 Jun 2027 03:47:11.054             9.210          4605.000
       333   12 Jun 2027 03:49:01.407   12 Jun 2027 03:51:42.353           160.946         80473.000
       334   12 Jun 2027 03:52:20.467   12 Jun 2027 03:52:47.342            26.875         13437.500
       335   12 Jun 2027 03:53:07.358   12 Jun 2027 03:53:11.802             4.444          2222.000
       336   12 Jun 2027 05:25:00.838   12 Jun 2027 05:25:38.609            37.771         18885.500
       337   12 Jun 2027 05:26:16.352   12 Jun 2027 05:27:22.890            66.538         32984.937
       338   12 Jun 2027 05:28:27.275   12 Jun 2027 05:28:31.823             4.548          1474.562
       339   12 Jun 2027 05:29:15.096   12 Jun 2027 05:29:19.611             4.515          1172.594
       340   12 Jun 2027 05:29:34.813   12 Jun 2027 05:29:36.006             1.193           341.469
       341   12 Jun 2027 06:48:41.085   12 Jun 2027 06:48:52.598            11.513          5190.531
       342   12 Jun 2027 06:50:00.269   12 Jun 2027 06:50:08.357             8.088          1733.781
       343   12 Jun 2027 06:50:42.901   12 Jun 2027 06:50:44.708             1.807           610.156
       344   12 Jun 2027 08:25:03.694   12 Jun 2027 08:25:20.187            16.493          6945.219
       345   12 Jun 2027 08:25:53.950   12 Jun 2027 08:25:56.374             2.424           683.594
       346   12 Jun 2027 08:26:44.790   12 Jun 2027 08:26:48.292             3.502          1173.125
       347   12 Jun 2027 08:26:56.791   12 Jun 2027 08:26:57.232             0.441           209.469
       348   12 Jun 2027 08:27:39.853   12 Jun 2027 08:27:42.880             3.027          1331.906
       349   12 Jun 2027 09:59:08.160   12 Jun 2027 09:59:12.757             4.597          2247.156
       350   12 Jun 2027 10:01:02.293   12 Jun 2027 10:01:04.775             2.482           372.062
       351   12 Jun 2027 10:01:56.829   12 Jun 2027 10:01:59.800             2.971          1437.844
       352   12 Jun 2027 10:04:17.627   12 Jun 2027 10:04:28.682            11.055          3944.438
       353   12 Jun 2027 10:04:57.502   12 Jun 2027 10:05:03.989             6.487           588.125
       354   12 Jun 2027 10:05:52.545   12 Jun 2027 10:05:55.365             2.820           855.656
       355   12 Jun 2027 10:06:29.610   12 Jun 2027 10:06:31.237             1.627           519.531
       356   12 Jun 2027 10:06:52.389   12 Jun 2027 10:06:56.735             4.346           189.469
       357   12 Jun 2027 10:07:00.341   12 Jun 2027 10:07:03.495             3.154           112.688
       358   12 Jun 2027 11:36:12.090   12 Jun 2027 11:36:20.928             8.838          4184.594
       359   12 Jun 2027 11:39:21.321   12 Jun 2027 11:39:23.554             2.233           833.875
       360   12 Jun 2027 11:40:55.477   12 Jun 2027 11:40:58.611             3.134          1505.062
       361   12 Jun 2027 11:41:25.545   12 Jun 2027 11:41:31.511             5.966           613.781
       362   12 Jun 2027 11:42:02.294   12 Jun 2027 11:42:06.245             3.951           235.875
       363   12 Jun 2027 11:42:50.320   12 Jun 2027 11:42:54.793             4.473          1254.812
       364   13 Jun 2027 03:59:07.878   13 Jun 2027 04:00:09.793            61.915         30957.500
       365   13 Jun 2027 04:00:16.266   13 Jun 2027 04:01:42.887            86.621         43310.500
       366   13 Jun 2027 04:02:28.505   13 Jun 2027 04:02:43.351            14.846          7423.000
       367   13 Jun 2027 04:03:52.026   13 Jun 2027 04:04:45.196            53.170         26585.000
       368   13 Jun 2027 05:38:14.014   13 Jun 2027 05:40:03.390           109.376         52756.937
       369   13 Jun 2027 07:00:45.482   13 Jun 2027 07:00:54.926             9.444          4645.625
       370   13 Jun 2027 07:02:40.418   13 Jun 2027 07:02:47.720             7.302          3296.625
       371   13 Jun 2027 08:37:14.495   13 Jun 2027 08:37:21.752             7.257          3196.219
       372   13 Jun 2027 08:38:08.107   13 Jun 2027 08:38:13.708             5.601          1317.812
       373   13 Jun 2027 08:39:11.458   13 Jun 2027 08:39:17.172             5.714          1720.187
       374   13 Jun 2027 08:40:14.083   13 Jun 2027 08:40:16.436             2.353          1003.813
       375   13 Jun 2027 10:12:20.104   13 Jun 2027 10:12:26.828             6.724          3347.156
       376   13 Jun 2027 10:13:29.714   13 Jun 2027 10:13:32.416             2.702          1127.250
       377   13 Jun 2027 10:14:19.944   13 Jun 2027 10:14:24.183             4.239          1485.250
       378   13 Jun 2027 10:15:59.389   13 Jun 2027 10:16:05.360             5.971          1059.187
       379   13 Jun 2027 10:17:07.977   13 Jun 2027 10:17:08.292             0.315           102.844
       380   13 Jun 2027 10:18:23.756   13 Jun 2027 10:18:28.819             5.063          1804.781
       381   13 Jun 2027 10:18:44.553   13 Jun 2027 10:18:45.645             1.092           102.656
       382   13 Jun 2027 10:18:58.823   13 Jun 2027 10:18:59.768             0.945           411.813
       383   13 Jun 2027 11:48:42.396   13 Jun 2027 11:48:53.866            11.470          4739.625
       384   13 Jun 2027 11:50:37.600   13 Jun 2027 11:50:38.438             0.838           288.313
       385   13 Jun 2027 11:51:24.181   13 Jun 2027 11:51:31.656             7.475          1429.469
       386   13 Jun 2027 11:52:50.003   13 Jun 2027 11:53:01.325            11.322          1644.281
       387   13 Jun 2027 11:54:01.952   13 Jun 2027 11:54:05.905             3.953          1837.625
       388   13 Jun 2027 11:54:44.784   13 Jun 2027 11:54:52.479             7.695           789.156
