uniorb/output/strategy_4/Camera/Camera_KinoSat_110804.txt

KinoSat_110804
-------------------------
    Access    *     Start Time (UTCG)     *     Stop Time (UTCG)  *   Duration (s) *   Data (Mbytes)
         1   01 Jun 2027 03:43:43.998   01 Jun 2027 03:44:44.677            60.679         30339.500
         2   01 Jun 2027 03:45:25.473   01 Jun 2027 03:45:56.590            31.117         15558.500
         3   01 Jun 2027 03:47:11.439   01 Jun 2027 03:47:22.828            11.389          5694.500
         4   01 Jun 2027 03:47:58.178   01 Jun 2027 03:47:58.744             0.566           283.000
         5   01 Jun 2027 03:48:11.890   01 Jun 2027 03:48:20.640             8.750          4375.000
         6   01 Jun 2027 05:18:47.573   01 Jun 2027 05:20:05.896            78.323         39161.500
         7   01 Jun 2027 05:20:37.832   01 Jun 2027 05:21:09.431            31.599         15799.500
         8   01 Jun 2027 05:24:12.269   01 Jun 2027 05:24:30.062            17.793          8896.500
         9   01 Jun 2027 05:24:39.625   01 Jun 2027 05:24:57.087            17.462          8731.000
        10   01 Jun 2027 05:25:24.651   01 Jun 2027 05:25:30.991             6.340          3170.000
        11   01 Jun 2027 06:55:45.682   01 Jun 2027 06:57:25.154            99.472         49736.000
        12   01 Jun 2027 06:57:57.071   01 Jun 2027 06:58:21.032            23.961         11980.500
        13   01 Jun 2027 08:32:43.825   01 Jun 2027 08:35:03.357           139.532         69766.000
        14   01 Jun 2027 08:35:43.279   01 Jun 2027 08:36:07.910            24.631         12315.500
        15   01 Jun 2027 08:36:38.331   01 Jun 2027 08:36:44.159             5.828          2914.000
        16   01 Jun 2027 08:36:53.600   01 Jun 2027 08:37:00.164             6.564          3282.000
        17   01 Jun 2027 10:10:38.762   01 Jun 2027 10:12:42.525           123.763         61881.500
        18   01 Jun 2027 10:13:20.168   01 Jun 2027 10:13:33.124            12.956          6478.000
        19   01 Jun 2027 10:14:14.561   01 Jun 2027 10:14:19.400             4.839          2419.500
        20   01 Jun 2027 11:43:57.889   01 Jun 2027 11:45:58.049           120.160         60080.000
        21   01 Jun 2027 11:46:33.759   01 Jun 2027 11:46:33.986             0.227           113.500
        22   01 Jun 2027 11:48:12.334   01 Jun 2027 11:48:23.177            10.843          5421.500
        23   01 Jun 2027 11:49:00.383   01 Jun 2027 11:49:01.906             1.523           761.500
        24   01 Jun 2027 11:49:26.354   01 Jun 2027 11:49:40.647            14.293          7146.500
        25   02 Jun 2027 03:55:08.320   02 Jun 2027 03:55:31.776            23.456         11728.000
        26   02 Jun 2027 03:55:38.014   02 Jun 2027 03:55:46.998             8.984          4492.000
        27   02 Jun 2027 05:30:12.499   02 Jun 2027 05:33:13.265           180.766         90383.000
        28   02 Jun 2027 05:33:21.221   02 Jun 2027 05:33:29.090             7.869          3934.500
        29   02 Jun 2027 05:35:18.776   02 Jun 2027 05:35:18.776             0.000             0.000
        30   02 Jun 2027 05:35:43.970   02 Jun 2027 05:35:53.201             9.231          4615.500
        31   02 Jun 2027 07:07:48.388   02 Jun 2027 07:11:47.454           239.066        119533.000
        32   02 Jun 2027 07:12:51.284   02 Jun 2027 07:12:51.284             0.000             0.000
        33   02 Jun 2027 07:13:47.129   02 Jun 2027 07:14:04.275            17.146          8573.000
        34   02 Jun 2027 08:44:33.390   02 Jun 2027 08:47:02.437           149.047         74523.500
        35   02 Jun 2027 08:47:45.673   02 Jun 2027 08:48:30.934            45.261         22630.500
        36   02 Jun 2027 08:49:25.544   02 Jun 2027 08:49:52.022            26.478         12997.938
        37   02 Jun 2027 08:50:08.078   02 Jun 2027 08:50:10.529             2.451           122.844
        38   02 Jun 2027 08:50:54.220   02 Jun 2027 08:50:56.745             2.525           660.500
        39   02 Jun 2027 10:22:38.131   02 Jun 2027 10:23:00.265            22.134         10399.062
        40   02 Jun 2027 10:25:46.636   02 Jun 2027 10:25:47.609             0.973           331.313
        41   02 Jun 2027 10:25:49.574   02 Jun 2027 10:25:51.058             1.484            40.219
        42   02 Jun 2027 10:26:08.652   02 Jun 2027 10:26:10.432             1.780           549.812
        43   02 Jun 2027 10:26:18.948   02 Jun 2027 10:26:23.699             4.751           266.125
        44   02 Jun 2027 10:26:43.782   02 Jun 2027 10:26:46.079             2.297           205.906
        45   02 Jun 2027 11:56:24.214   02 Jun 2027 11:56:31.891             7.677          1764.844
        46   02 Jun 2027 11:58:15.261   02 Jun 2027 11:58:17.429             2.168           358.344
        47   02 Jun 2027 11:58:29.244   02 Jun 2027 11:58:32.475             3.231           157.313
        48   02 Jun 2027 11:58:44.506   02 Jun 2027 11:58:47.041             2.535           227.750
        49   02 Jun 2027 11:59:55.102   02 Jun 2027 11:59:59.821             4.719          1598.156
        50   03 Jun 2027 04:06:50.267   03 Jun 2027 04:07:20.053            29.786         14893.000
        51   03 Jun 2027 04:07:25.335   03 Jun 2027 04:07:43.254            17.919          8959.500
        52   03 Jun 2027 04:08:27.224   03 Jun 2027 04:08:30.598             3.374          1687.000
        53   03 Jun 2027 04:11:31.361   03 Jun 2027 04:11:34.428             3.067          1533.500
        54   03 Jun 2027 05:41:43.006   03 Jun 2027 05:44:26.267           163.261         81630.500
        55   03 Jun 2027 05:45:02.357   03 Jun 2027 05:45:15.551            13.194          6597.000
        56   03 Jun 2027 05:49:07.131   03 Jun 2027 05:49:13.989             6.858          3429.000
        57   03 Jun 2027 05:49:27.862   03 Jun 2027 05:49:32.915             5.053          2526.500
        58   03 Jun 2027 05:50:46.807   03 Jun 2027 05:50:56.473             9.666          4833.000
        59   03 Jun 2027 05:51:09.242   03 Jun 2027 05:51:09.242             0.000             0.000
        60   03 Jun 2027 07:19:48.265   03 Jun 2027 07:21:24.607            96.342         46324.500
        61   03 Jun 2027 07:21:47.425   03 Jun 2027 07:21:48.667             1.242           480.344
        62   03 Jun 2027 07:23:15.018   03 Jun 2027 07:23:15.018             0.000             0.000
        63   03 Jun 2027 07:23:48.321   03 Jun 2027 07:23:54.647             6.326          1415.375
        64   03 Jun 2027 07:24:48.447   03 Jun 2027 07:24:52.689             4.242          1612.250
        65   03 Jun 2027 07:25:20.401   03 Jun 2027 07:25:24.658             4.257           793.438
        66   03 Jun 2027 08:56:41.594   03 Jun 2027 08:56:50.571             8.977          4403.219
        67   03 Jun 2027 08:59:15.695   03 Jun 2027 08:59:18.881             3.186           695.500
        68   03 Jun 2027 08:59:43.083   03 Jun 2027 08:59:49.855             6.772           756.312
        69   03 Jun 2027 09:00:05.185   03 Jun 2027 09:00:12.171             6.986           228.969
        70   03 Jun 2027 09:00:48.849   03 Jun 2027 09:00:53.726             4.877          1022.531
        71   03 Jun 2027 09:01:11.689   03 Jun 2027 09:01:12.967             1.278           302.156
        72   03 Jun 2027 10:33:51.237   03 Jun 2027 10:34:04.587            13.350          5782.656
        73   03 Jun 2027 10:35:30.965   03 Jun 2027 10:35:36.367             5.402           579.406
        74   03 Jun 2027 10:37:10.725   03 Jun 2027 10:37:22.497            11.772          1415.156
        75   03 Jun 2027 10:38:12.942   03 Jun 2027 10:38:16.582             3.640          1576.406
        76   04 Jun 2027 04:21:09.381   04 Jun 2027 04:22:10.218            60.837         30418.500
        77   04 Jun 2027 04:23:05.829   04 Jun 2027 04:23:09.347             3.518          1759.000
        78   04 Jun 2027 04:23:29.799   04 Jun 2027 04:23:29.799             0.000             0.000
        79   04 Jun 2027 04:24:15.852   04 Jun 2027 04:24:41.791            25.939         12969.500
        80   04 Jun 2027 05:54:42.687   04 Jun 2027 05:57:04.388           141.701         70850.500
        81   04 Jun 2027 05:57:43.690   04 Jun 2027 05:57:58.552            14.862          7431.000
        82   04 Jun 2027 06:00:59.536   04 Jun 2027 06:01:31.864            32.328         16164.000
        83   04 Jun 2027 06:01:53.448   04 Jun 2027 06:01:56.458             3.010          1505.000
        84   04 Jun 2027 06:03:04.636   04 Jun 2027 06:03:16.382            11.746          5873.000
        85   04 Jun 2027 07:32:10.844   04 Jun 2027 07:32:44.984            34.140         15891.062
        86   04 Jun 2027 07:34:06.840   04 Jun 2027 07:34:07.471             0.631           302.531
        87   04 Jun 2027 07:35:09.639   04 Jun 2027 07:35:10.230             0.591            20.781
        88   04 Jun 2027 07:36:32.760   04 Jun 2027 07:36:36.657             3.897          1019.562
        89   04 Jun 2027 07:37:16.550   04 Jun 2027 07:37:20.357             3.807          1162.156
        90   04 Jun 2027 07:37:52.581   04 Jun 2027 07:37:53.865             1.284           150.094
        91   04 Jun 2027 07:38:12.269   04 Jun 2027 07:38:17.858             5.589           431.750
        92   04 Jun 2027 07:38:50.477   04 Jun 2027 07:38:53.206             2.729            75.844
        93   04 Jun 2027 09:09:09.814   04 Jun 2027 09:09:23.896            14.082          6761.812
        94   04 Jun 2027 09:10:57.068   04 Jun 2027 09:11:00.510             3.442           255.469
        95   04 Jun 2027 09:11:53.264   04 Jun 2027 09:11:57.778             4.514          1648.562
        96   04 Jun 2027 09:12:50.921   04 Jun 2027 09:12:52.771             1.850           673.906
        97   04 Jun 2027 09:13:45.421   04 Jun 2027 09:13:46.547             1.126           424.906
        98   04 Jun 2027 10:46:03.843   04 Jun 2027 10:46:20.584            16.741          7986.406
        99   04 Jun 2027 10:48:06.664   04 Jun 2027 10:48:11.591             4.927          1573.281
       100   04 Jun 2027 10:50:18.414   04 Jun 2027 10:50:24.471             6.057          2266.031
       101   05 Jun 2027 04:33:14.602   05 Jun 2027 04:34:18.380            63.778         31889.000
       102   05 Jun 2027 04:34:50.531   05 Jun 2027 04:36:02.419            71.888         35944.000
       103   05 Jun 2027 06:05:24.627   05 Jun 2027 06:05:33.990             9.363          4681.500
       104   05 Jun 2027 06:07:21.604   05 Jun 2027 06:08:26.878            65.274         32637.000
       105   05 Jun 2027 06:09:05.614   05 Jun 2027 06:10:24.767            79.153         39097.218
       106   05 Jun 2027 06:11:19.001   05 Jun 2027 06:11:19.314             0.313           156.500
       107   05 Jun 2027 06:12:25.774   05 Jun 2027 06:12:34.061             8.287          3467.656
       108   05 Jun 2027 06:13:06.448   05 Jun 2027 06:13:09.468             3.020           999.031
       109   05 Jun 2027 06:14:05.808   05 Jun 2027 06:14:09.488             3.680          1760.625
       110   05 Jun 2027 06:15:06.777   05 Jun 2027 06:15:08.472             1.695           832.219
       111   05 Jun 2027 07:44:19.907   05 Jun 2027 07:44:22.525             2.618           248.750
       112   05 Jun 2027 07:47:54.977   05 Jun 2027 07:47:57.199             2.222           846.656
       113   05 Jun 2027 07:48:39.875   05 Jun 2027 07:48:44.954             5.079           367.156
       114   05 Jun 2027 07:49:59.331   05 Jun 2027 07:50:01.420             2.089           187.469
       115   05 Jun 2027 07:50:38.566   05 Jun 2027 07:50:45.049             6.483          1013.312
       116   05 Jun 2027 09:21:38.913   05 Jun 2027 09:21:55.640            16.727          5254.750
       117   05 Jun 2027 09:25:51.478   05 Jun 2027 09:25:56.589             5.111          1874.281
       118   05 Jun 2027 10:58:05.090   05 Jun 2027 10:58:18.933            13.843          6708.062
       119   05 Jun 2027 11:00:16.268   05 Jun 2027 11:00:18.330             2.062           708.125
       120   05 Jun 2027 11:01:40.727   05 Jun 2027 11:01:46.236             5.509          1031.813
       121   05 Jun 2027 11:02:19.772   05 Jun 2027 11:02:23.596             3.824           710.000
       122   06 Jun 2027 03:09:12.353   06 Jun 2027 03:09:23.990            11.637          5818.500
       123   06 Jun 2027 03:11:15.410   06 Jun 2027 03:11:16.457             1.047           523.500
       124   06 Jun 2027 03:11:29.897   06 Jun 2027 03:11:48.589            18.692          9346.000
       125   06 Jun 2027 04:45:24.096   06 Jun 2027 04:48:09.783           165.687         82843.500
       126   06 Jun 2027 06:20:34.913   06 Jun 2027 06:22:22.989           108.076         53838.062
       127   06 Jun 2027 06:23:16.939   06 Jun 2027 06:23:20.651             3.712          1245.250
       128   06 Jun 2027 06:23:23.482   06 Jun 2027 06:23:25.076             1.594            49.656
       129   06 Jun 2027 06:23:57.930   06 Jun 2027 06:23:58.870             0.940           188.188
       130   06 Jun 2027 06:25:23.474   06 Jun 2027 06:25:33.262             9.788          2242.219
       131   06 Jun 2027 06:26:28.420   06 Jun 2027 06:26:29.921             1.501           204.250
       132   06 Jun 2027 06:26:42.865   06 Jun 2027 06:26:46.056             3.191           174.031
       133   06 Jun 2027 07:56:53.785   06 Jun 2027 07:56:59.787             6.002           812.469
       134   06 Jun 2027 08:00:06.599   06 Jun 2027 08:00:10.306             3.707           643.625
       135   06 Jun 2027 08:00:46.060   06 Jun 2027 08:00:48.166             2.106           785.531
       136   06 Jun 2027 08:01:49.446   06 Jun 2027 08:01:51.648             2.202            97.281
       137   06 Jun 2027 08:02:17.513   06 Jun 2027 08:02:19.095             1.582           329.344
       138   06 Jun 2027 08:02:50.667   06 Jun 2027 08:02:53.654             2.987           542.594
       139   06 Jun 2027 09:34:17.054   06 Jun 2027 09:34:35.452            18.398          5622.500
       140   06 Jun 2027 09:38:12.816   06 Jun 2027 09:38:16.451             3.635            70.938
       141   06 Jun 2027 09:38:22.173   06 Jun 2027 09:38:22.925             0.752            34.062
       142   06 Jun 2027 11:10:28.004   06 Jun 2027 11:10:39.180            11.176          5452.875
       143   07 Jun 2027 03:20:56.827   07 Jun 2027 03:21:14.640            17.813          8906.500
       144   07 Jun 2027 03:21:24.382   07 Jun 2027 03:21:24.382             0.000             0.000
       145   07 Jun 2027 03:21:29.348   07 Jun 2027 03:21:32.914             3.566          1783.000
       146   07 Jun 2027 04:57:24.373   07 Jun 2027 05:00:46.973           202.600        101300.000
       147   07 Jun 2027 06:32:37.267   07 Jun 2027 06:33:55.031            77.764         38692.843
       148   07 Jun 2027 06:35:03.529   07 Jun 2027 06:35:07.540             4.011          1667.969
       149   07 Jun 2027 06:35:24.282   07 Jun 2027 06:35:26.647             2.365           337.531
       150   07 Jun 2027 06:35:29.710   07 Jun 2027 06:35:29.710             0.000             0.000
       151   07 Jun 2027 06:35:51.135   07 Jun 2027 06:35:53.986             2.851           765.250
       152   07 Jun 2027 06:37:26.522   07 Jun 2027 06:37:32.958             6.436           511.687
       153   07 Jun 2027 06:38:20.724   07 Jun 2027 06:38:20.724             0.000             0.000
       154   07 Jun 2027 06:38:39.198   07 Jun 2027 06:38:42.073             2.875           635.938
       155   07 Jun 2027 06:39:12.685   07 Jun 2027 06:39:15.841             3.156           809.094
       156   07 Jun 2027 08:08:32.570   07 Jun 2027 08:08:35.365             2.795          1239.469
       157   07 Jun 2027 08:10:15.575   07 Jun 2027 08:10:19.602             4.027           942.594
       158   07 Jun 2027 08:12:14.892   07 Jun 2027 08:12:18.501             3.609          1798.469
       159   07 Jun 2027 08:12:52.388   07 Jun 2027 08:12:53.492             1.104            31.125
       160   07 Jun 2027 09:46:32.073   07 Jun 2027 09:46:44.379            12.306          6148.781
       161   07 Jun 2027 09:50:19.803   07 Jun 2027 09:50:23.771             3.968           702.875
       162   07 Jun 2027 09:50:48.561   07 Jun 2027 09:50:51.430             2.869           722.000
       163   07 Jun 2027 11:22:23.223   07 Jun 2027 11:22:34.162            10.939          5293.531
       164   08 Jun 2027 03:33:23.020   08 Jun 2027 03:33:38.209            15.189          7594.500
       165   08 Jun 2027 03:33:59.973   08 Jun 2027 03:34:10.246            10.273          5136.500
       166   08 Jun 2027 05:09:08.458   08 Jun 2027 05:10:29.421            80.963         40481.500
       167   08 Jun 2027 05:11:05.874   08 Jun 2027 05:13:15.603           129.729         64864.500
       168   08 Jun 2027 06:43:52.346   08 Jun 2027 06:45:00.787            68.441         33977.250
       169   08 Jun 2027 06:45:40.328   08 Jun 2027 06:45:41.991             1.663           539.469
       170   08 Jun 2027 06:46:22.674   08 Jun 2027 06:46:27.080             4.406           391.094
       171   08 Jun 2027 06:47:06.888   08 Jun 2027 06:47:08.696             1.808           492.094
       172   08 Jun 2027 06:47:26.467   08 Jun 2027 06:47:29.918             3.451           554.375
       173   08 Jun 2027 06:48:35.893   08 Jun 2027 06:48:41.908             6.015          2061.719
       174   08 Jun 2027 06:49:29.478   08 Jun 2027 06:49:33.179             3.701           618.625
       175   08 Jun 2027 06:50:11.485   08 Jun 2027 06:50:14.755             3.270           345.313
       176   08 Jun 2027 06:51:13.963   08 Jun 2027 06:51:19.987             6.024           998.375
       177   08 Jun 2027 08:20:41.955   08 Jun 2027 08:20:48.812             6.857          3037.750
       178   08 Jun 2027 08:23:37.800   08 Jun 2027 08:23:39.753             1.953           609.406
       179   08 Jun 2027 08:25:14.588   08 Jun 2027 08:25:18.192             3.604           582.969
       180   08 Jun 2027 08:26:07.546   08 Jun 2027 08:26:12.895             5.349           579.063
       181   08 Jun 2027 09:58:54.172   08 Jun 2027 09:59:05.205            11.033          5252.438
       182   08 Jun 2027 09:59:17.234   08 Jun 2027 09:59:19.025             1.791           375.906
       183   08 Jun 2027 10:00:45.330   08 Jun 2027 10:00:47.082             1.752           695.062
       184   08 Jun 2027 10:01:07.528   08 Jun 2027 10:01:11.329             3.801           625.781
       185   08 Jun 2027 10:02:06.627   08 Jun 2027 10:02:11.636             5.009           118.875
       186   08 Jun 2027 10:02:28.249   08 Jun 2027 10:02:29.482             1.233           465.656
       187   08 Jun 2027 10:02:38.143   08 Jun 2027 10:02:38.282             0.139            23.812
       188   08 Jun 2027 11:32:11.970   08 Jun 2027 11:32:25.396            13.426          6310.281
       189   09 Jun 2027 03:43:58.272   09 Jun 2027 03:44:17.030            18.758          9379.000
       190   09 Jun 2027 03:44:50.921   09 Jun 2027 03:44:57.163             6.242          3121.000
       191   09 Jun 2027 03:45:52.276   09 Jun 2027 03:46:11.694            19.418          9709.000
       192   09 Jun 2027 05:19:01.712   09 Jun 2027 05:19:48.649            46.937         23468.500
       193   09 Jun 2027 05:20:52.376   09 Jun 2027 05:21:35.947            43.571         21785.500
       194   09 Jun 2027 05:22:28.557   09 Jun 2027 05:23:29.458            60.901         30450.500
       195   09 Jun 2027 05:24:05.675   09 Jun 2027 05:24:54.730            49.055         24527.500
       196   09 Jun 2027 06:56:00.406   09 Jun 2027 06:57:18.826            78.420         37900.812
       197   09 Jun 2027 06:57:43.472   09 Jun 2027 06:57:47.127             3.655           625.687
       198   09 Jun 2027 06:58:42.551   09 Jun 2027 06:58:42.756             0.205            51.750
       199   09 Jun 2027 06:58:44.608   09 Jun 2027 06:58:47.880             3.272            57.875
       200   09 Jun 2027 06:59:28.396   09 Jun 2027 06:59:30.191             1.795           813.938
       201   09 Jun 2027 07:01:08.556   09 Jun 2027 07:01:16.816             8.260          2978.031
       202   09 Jun 2027 07:01:42.061   09 Jun 2027 07:01:45.166             3.105           305.094
       203   09 Jun 2027 07:02:16.344   09 Jun 2027 07:02:17.093             0.749           311.250
       204   09 Jun 2027 07:03:14.613   09 Jun 2027 07:03:17.613             3.000           968.656
       205   09 Jun 2027 08:32:58.467   09 Jun 2027 08:33:08.147             9.680          4024.750
       206   09 Jun 2027 08:35:18.346   09 Jun 2027 08:35:23.333             4.987          1133.031
       207   09 Jun 2027 08:35:33.544   09 Jun 2027 08:35:36.936             3.392            20.781
       208   09 Jun 2027 08:36:47.369   09 Jun 2027 08:36:51.561             4.192          1887.000
       209   09 Jun 2027 08:36:59.713   09 Jun 2027 08:37:00.207             0.494           196.969
       210   09 Jun 2027 08:37:38.258   09 Jun 2027 08:37:43.670             5.412           945.938
       211   09 Jun 2027 08:38:35.263   09 Jun 2027 08:38:38.334             3.071           649.187
       212   09 Jun 2027 10:10:53.877   09 Jun 2027 10:11:09.280            15.403          7278.531
       213   09 Jun 2027 10:11:53.182   09 Jun 2027 10:11:56.701             3.519          1031.125
       214   09 Jun 2027 10:14:36.535   09 Jun 2027 10:14:42.664             6.129           985.625
       215   09 Jun 2027 11:44:13.657   09 Jun 2027 11:44:22.091             8.434          4087.969
       216   09 Jun 2027 11:51:49.333   09 Jun 2027 11:51:53.256             3.923            12.469
       217   10 Jun 2027 03:55:22.822   10 Jun 2027 03:55:37.930            15.108          7554.000
       218   10 Jun 2027 03:55:46.383   10 Jun 2027 03:56:02.228            15.845          7922.500
       219   10 Jun 2027 03:59:28.011   10 Jun 2027 03:59:34.605             6.594          3297.000
       220   10 Jun 2027 04:00:41.178   10 Jun 2027 04:00:41.858             0.680           340.000
       221   10 Jun 2027 05:30:26.402   10 Jun 2027 05:33:14.209           167.807         83903.500
       222   10 Jun 2027 05:33:44.556   10 Jun 2027 05:34:08.465            23.909         11954.500
       223   10 Jun 2027 05:34:30.894   10 Jun 2027 05:35:22.122            51.228         25614.000
       224   10 Jun 2027 07:08:02.360   10 Jun 2027 07:09:04.845            62.485         30882.688
       225   10 Jun 2027 07:09:46.518   10 Jun 2027 07:09:48.413             1.895           725.156
       226   10 Jun 2027 07:10:32.844   10 Jun 2027 07:10:35.311             2.467           315.406
       227   10 Jun 2027 07:10:56.808   10 Jun 2027 07:10:58.033             1.225           374.219
       228   10 Jun 2027 07:11:30.043   10 Jun 2027 07:11:34.984             4.941           307.062
       229   10 Jun 2027 07:12:03.807   10 Jun 2027 07:12:05.533             1.726           849.469
       230   10 Jun 2027 07:12:30.908   10 Jun 2027 07:12:31.911             1.003           305.281
       231   10 Jun 2027 07:13:31.307   10 Jun 2027 07:13:34.969             3.662          1198.687
       232   10 Jun 2027 07:14:03.605   10 Jun 2027 07:14:06.800             3.195           894.875
       233   10 Jun 2027 07:15:02.064   10 Jun 2027 07:15:04.958             2.894          1349.031
       234   10 Jun 2027 08:44:48.168   10 Jun 2027 08:44:57.156             8.988          4454.969
       235   10 Jun 2027 08:45:49.943   10 Jun 2027 08:45:51.507             1.564           278.594
       236   10 Jun 2027 08:47:17.401   10 Jun 2027 08:47:20.273             2.872           824.937
       237   10 Jun 2027 08:47:39.956   10 Jun 2027 08:47:42.984             3.028           143.344
       238   10 Jun 2027 08:48:48.784   10 Jun 2027 08:48:56.964             8.180          1895.187
       239   10 Jun 2027 08:49:02.724   10 Jun 2027 08:49:03.480             0.756             8.906
       240   10 Jun 2027 08:49:53.105   10 Jun 2027 08:49:56.702             3.597           382.719
       241   10 Jun 2027 08:50:22.201   10 Jun 2027 08:50:22.411             0.210            75.594
       242   10 Jun 2027 08:51:08.954   10 Jun 2027 08:51:11.159             2.205           612.531
       243   10 Jun 2027 10:22:53.119   10 Jun 2027 10:23:11.664            18.545          6276.750
       244   10 Jun 2027 10:26:03.817   10 Jun 2027 10:26:04.483             0.666            15.844
       245   10 Jun 2027 10:26:25.431   10 Jun 2027 10:26:26.754             1.323           581.406
       246   10 Jun 2027 10:26:57.223   10 Jun 2027 10:27:01.988             4.765           780.281
       247   10 Jun 2027 11:56:40.078   10 Jun 2027 11:56:43.886             3.808          1759.375
       248   11 Jun 2027 04:07:05.108   11 Jun 2027 04:07:36.804            31.696         15848.000
       249   11 Jun 2027 04:08:26.021   11 Jun 2027 04:08:37.984            11.963          5981.500
       250   11 Jun 2027 04:11:57.941   11 Jun 2027 04:11:57.941             0.000             0.000
       251   11 Jun 2027 05:41:57.474   11 Jun 2027 05:44:40.924           163.450         81725.000
       252   11 Jun 2027 05:45:17.004   11 Jun 2027 05:45:31.339            14.335          7167.500
       253   11 Jun 2027 05:47:11.385   11 Jun 2027 05:47:27.543            16.158          8079.000
       254   11 Jun 2027 05:50:54.788   11 Jun 2027 05:51:11.746            16.958          8479.000
       255   11 Jun 2027 07:20:02.939   11 Jun 2027 07:21:22.556            79.617         39486.531
       256   11 Jun 2027 07:22:27.042   11 Jun 2027 07:22:33.095             6.053          2015.187
       257   11 Jun 2027 07:23:31.351   11 Jun 2027 07:23:32.416             1.065           378.187
       258   11 Jun 2027 07:24:04.371   11 Jun 2027 07:24:08.192             3.821           762.281
       259   11 Jun 2027 07:25:03.755   11 Jun 2027 07:25:08.654             4.899          1575.625
       260   11 Jun 2027 07:25:37.446   11 Jun 2027 07:25:39.954             2.508           815.656
       261   11 Jun 2027 08:56:56.853   11 Jun 2027 08:57:12.742            15.889          7702.375
       262   11 Jun 2027 08:58:58.764   11 Jun 2027 08:59:04.222             5.458          2224.844
       263   11 Jun 2027 08:59:30.875   11 Jun 2027 08:59:32.690             1.815           713.313
       264   11 Jun 2027 08:59:38.048   11 Jun 2027 08:59:39.966             1.918           139.312
       265   11 Jun 2027 09:00:29.417   11 Jun 2027 09:00:32.682             3.265           919.812
       266   11 Jun 2027 09:01:10.571   11 Jun 2027 09:01:11.963             1.392           175.344
       267   11 Jun 2027 09:01:27.005   11 Jun 2027 09:01:28.727             1.722           327.219
       268   11 Jun 2027 09:02:54.865   11 Jun 2027 09:03:00.656             5.791          2127.719
       269   11 Jun 2027 10:34:06.106   11 Jun 2027 10:34:16.998            10.892          5153.312
       270   11 Jun 2027 10:37:24.694   11 Jun 2027 10:37:27.895             3.201          1385.406
       271   11 Jun 2027 10:37:37.711   11 Jun 2027 10:37:44.951             7.240           306.750
       272   11 Jun 2027 10:38:33.381   11 Jun 2027 10:38:35.152             1.771            96.344
       273   11 Jun 2027 10:38:54.384   11 Jun 2027 10:38:58.930             4.546           572.500
       274   12 Jun 2027 04:21:24.305   12 Jun 2027 04:22:24.938            60.633         30316.500
       275   12 Jun 2027 04:23:21.566   12 Jun 2027 04:23:32.406            10.840          5420.000
       276   12 Jun 2027 04:24:25.616   12 Jun 2027 04:24:30.711             5.095          2547.500
       277   12 Jun 2027 05:54:57.574   12 Jun 2027 05:57:19.024           141.450         70725.000
       278   12 Jun 2027 05:57:27.121   12 Jun 2027 05:57:30.819             3.698          1849.000
       279   12 Jun 2027 05:57:33.412   12 Jun 2027 05:57:44.852            11.440          5720.000
       280   12 Jun 2027 05:58:38.952   12 Jun 2027 05:59:19.155            40.203         20101.500
       281   12 Jun 2027 06:01:05.952   12 Jun 2027 06:01:10.007             4.055          2027.500
       282   12 Jun 2027 06:03:20.730   12 Jun 2027 06:03:31.193            10.463          5231.500
       283   12 Jun 2027 07:32:27.919   12 Jun 2027 07:32:59.828            31.909         15353.219
       284   12 Jun 2027 07:35:50.014   12 Jun 2027 07:35:53.390             3.376           446.938
       285   12 Jun 2027 07:38:13.036   12 Jun 2027 07:38:13.725             0.689           117.250
       286   12 Jun 2027 07:38:27.084   12 Jun 2027 07:38:28.170             1.086           417.469
       287   12 Jun 2027 07:39:03.708   12 Jun 2027 07:39:10.707             6.999           944.406
       288   12 Jun 2027 09:09:24.696   12 Jun 2027 09:09:38.384            13.688          6220.125
       289   12 Jun 2027 09:09:57.503   12 Jun 2027 09:09:59.462             1.959           285.750
       290   12 Jun 2027 09:12:44.141   12 Jun 2027 09:12:50.626             6.485          1105.344
       291   12 Jun 2027 09:13:59.986   12 Jun 2027 09:14:00.813             0.827           288.625
       292   12 Jun 2027 10:46:18.727   12 Jun 2027 10:46:33.591            14.864          6262.812
       293   12 Jun 2027 10:48:11.878   12 Jun 2027 10:48:14.695             2.817           397.156
       294   12 Jun 2027 10:50:36.644   12 Jun 2027 10:50:39.931             3.287            87.344
       295   13 Jun 2027 04:33:29.356   13 Jun 2027 04:34:31.386            62.030         31015.000
       296   13 Jun 2027 04:35:05.025   13 Jun 2027 04:36:17.304            72.279         36139.500
       297   13 Jun 2027 04:36:33.241   13 Jun 2027 04:36:33.241             0.000             0.000
       298   13 Jun 2027 04:36:52.275   13 Jun 2027 04:37:05.086            12.811          6405.500
       299   13 Jun 2027 06:05:38.764   13 Jun 2027 06:05:48.754             9.990          4995.000
       300   13 Jun 2027 06:07:36.426   13 Jun 2027 06:09:41.881           125.455         62727.500
       301   13 Jun 2027 06:11:34.301   13 Jun 2027 06:11:36.456             2.155          1077.500
       302   13 Jun 2027 06:12:17.369   13 Jun 2027 06:12:27.635            10.266          5034.938
       303   13 Jun 2027 06:13:24.925   13 Jun 2027 06:13:24.925             0.000             0.000
       304   13 Jun 2027 06:13:37.457   13 Jun 2027 06:13:44.293             6.836          1766.719
       305   13 Jun 2027 06:14:55.946   13 Jun 2027 06:15:01.519             5.573          1086.969
       306   13 Jun 2027 06:15:25.344   13 Jun 2027 06:15:25.477             0.133            66.500
       307   13 Jun 2027 07:44:35.120   13 Jun 2027 07:44:36.231             1.111            32.594
       308   13 Jun 2027 07:47:32.283   13 Jun 2027 07:47:32.733             0.450           178.000
       309   13 Jun 2027 07:48:41.544   13 Jun 2027 07:48:45.891             4.347          1951.250
       310   13 Jun 2027 07:50:35.758   13 Jun 2027 07:50:38.599             2.841          1149.875
       311   13 Jun 2027 07:51:15.863   13 Jun 2027 07:51:18.435             2.572           714.469
       312   13 Jun 2027 09:21:56.182   13 Jun 2027 09:22:09.810            13.628          5721.969
       313   13 Jun 2027 09:26:09.242   13 Jun 2027 09:26:14.750             5.508          1947.063
       314   13 Jun 2027 10:58:20.414   13 Jun 2027 10:58:33.768            13.354          6659.437
       315   13 Jun 2027 11:02:37.001   13 Jun 2027 11:02:40.133             3.132           755.531
