uniorb/output/strategy_4/Camera/Camera_KinoSat_111906.txt

KinoSat_111906
-------------------------
    Access    *     Start Time (UTCG)     *     Stop Time (UTCG)  *   Duration (s) *   Data (Mbytes)
         1   01 Jun 2027 04:28:53.006   01 Jun 2027 04:28:55.270             2.264          1132.000
         2   01 Jun 2027 04:29:14.628   01 Jun 2027 04:30:14.047            59.419         29709.500
         3   01 Jun 2027 04:30:19.239   01 Jun 2027 04:31:39.969            80.730         40365.000
         4   01 Jun 2027 04:32:07.166   01 Jun 2027 04:32:11.206             4.040          2020.000
         5   01 Jun 2027 04:32:43.507   01 Jun 2027 04:32:45.339             1.832           916.000
         6   01 Jun 2027 04:34:08.098   01 Jun 2027 04:34:08.098             0.000             0.000
         7   01 Jun 2027 06:07:40.115   01 Jun 2027 06:10:05.663           145.548         72774.000
         8   01 Jun 2027 06:10:41.058   01 Jun 2027 06:10:41.527             0.469           234.500
         9   01 Jun 2027 06:11:18.486   01 Jun 2027 06:11:30.213            11.727          5863.500
        10   01 Jun 2027 07:31:09.025   01 Jun 2027 07:33:06.069           117.044         58522.000
        11   01 Jun 2027 09:07:09.826   01 Jun 2027 09:10:07.132           177.306         88653.000
        12   01 Jun 2027 10:40:53.667   01 Jun 2027 10:42:34.793           101.126         50563.000
        13   01 Jun 2027 10:48:11.727   01 Jun 2027 10:49:28.398            76.671         38335.500
        14   02 Jun 2027 03:03:12.638   02 Jun 2027 03:03:21.191             8.553          4276.500
        15   02 Jun 2027 03:03:33.309   02 Jun 2027 03:03:39.478             6.169          3084.500
        16   02 Jun 2027 03:04:52.448   02 Jun 2027 03:05:17.236            24.788         12394.000
        17   02 Jun 2027 03:05:28.813   02 Jun 2027 03:05:46.391            17.578          8789.000
        18   02 Jun 2027 03:05:55.703   02 Jun 2027 03:05:55.777             0.074            37.000
        19   02 Jun 2027 03:06:23.726   02 Jun 2027 03:06:40.545            16.819          8409.500
        20   02 Jun 2027 03:06:57.881   02 Jun 2027 03:06:59.212             1.331           665.500
        21   02 Jun 2027 03:07:16.393   02 Jun 2027 03:07:18.081             1.688           844.000
        22   02 Jun 2027 03:07:36.341   02 Jun 2027 03:07:51.752            15.411          7705.500
        23   02 Jun 2027 03:08:07.468   02 Jun 2027 03:08:07.615             0.147            73.500
        24   02 Jun 2027 03:08:56.347   02 Jun 2027 03:09:11.273            14.926          7463.000
        25   02 Jun 2027 03:09:25.035   02 Jun 2027 03:09:54.784            29.749         14874.500
        26   02 Jun 2027 04:41:17.178   02 Jun 2027 04:41:45.274            28.096         14048.000
        27   02 Jun 2027 04:41:49.229   02 Jun 2027 04:43:27.059            97.830         48915.000
        28   02 Jun 2027 04:44:45.031   02 Jun 2027 04:44:47.979             2.948          1474.000
        29   02 Jun 2027 04:45:11.657   02 Jun 2027 04:45:52.096            40.439         20219.500
        30   02 Jun 2027 06:19:19.763   02 Jun 2027 06:20:58.424            98.661         49330.500
        31   02 Jun 2027 06:21:28.916   02 Jun 2027 06:23:48.253           139.337         69668.500
        32   02 Jun 2027 07:42:59.428   02 Jun 2027 07:44:04.222            64.794         32397.000
        33   02 Jun 2027 07:44:20.905   02 Jun 2027 07:44:26.299             5.394          2697.000
        34   02 Jun 2027 09:19:26.378   02 Jun 2027 09:20:03.849            37.471         18735.500
        35   02 Jun 2027 09:22:56.023   02 Jun 2027 09:22:59.474             3.451          1725.500
        36   02 Jun 2027 10:51:35.386   02 Jun 2027 10:51:45.277             9.891          4945.500
        37   02 Jun 2027 10:53:32.968   02 Jun 2027 10:55:23.427           110.459         54571.907
        38   02 Jun 2027 10:57:05.158   02 Jun 2027 10:57:14.020             8.862          3179.094
        39   02 Jun 2027 11:00:17.734   02 Jun 2027 11:00:22.386             4.652          2326.000
        40   02 Jun 2027 11:00:24.682   02 Jun 2027 11:00:31.687             7.005          2783.844
        41   02 Jun 2027 11:01:08.920   02 Jun 2027 11:01:10.562             1.642           638.281
        42   02 Jun 2027 11:01:23.581   02 Jun 2027 11:01:26.268             2.687           384.969
        43   03 Jun 2027 03:15:15.520   03 Jun 2027 03:15:23.778             8.258          4129.000
        44   03 Jun 2027 03:15:55.593   03 Jun 2027 03:16:08.113            12.520          6260.000
        45   03 Jun 2027 03:16:28.647   03 Jun 2027 03:19:14.181           165.534         82767.000
        46   03 Jun 2027 03:21:02.901   03 Jun 2027 03:21:24.452            21.551         10775.500
        47   03 Jun 2027 03:22:05.185   03 Jun 2027 03:22:07.125             1.940           970.000
        48   03 Jun 2027 04:53:24.994   03 Jun 2027 04:53:56.109            31.115         15557.500
        49   03 Jun 2027 04:54:55.932   03 Jun 2027 04:55:05.395             9.463          4731.500
        50   03 Jun 2027 04:55:33.395   03 Jun 2027 04:57:06.670            93.275         45812.844
        51   03 Jun 2027 04:59:30.481   03 Jun 2027 04:59:35.388             4.907          2421.906
        52   03 Jun 2027 06:32:33.083   03 Jun 2027 06:32:43.694            10.611          5065.062
        53   03 Jun 2027 06:35:13.932   03 Jun 2027 06:35:16.079             2.147           156.812
        54   03 Jun 2027 07:55:07.449   03 Jun 2027 07:55:23.352            15.903          5562.875
        55   03 Jun 2027 07:56:02.640   03 Jun 2027 07:56:07.115             4.475           716.219
        56   03 Jun 2027 07:56:42.466   03 Jun 2027 07:56:44.947             2.481          1104.719
        57   03 Jun 2027 07:57:55.342   03 Jun 2027 07:58:00.807             5.465           586.000
        58   03 Jun 2027 09:31:35.554   03 Jun 2027 09:31:45.772            10.218          4227.906
        59   03 Jun 2027 09:32:54.124   03 Jun 2027 09:32:57.420             3.296          1579.437
        60   03 Jun 2027 09:33:23.766   03 Jun 2027 09:33:24.058             0.292           121.781
        61   03 Jun 2027 09:34:16.118   03 Jun 2027 09:34:19.269             3.151          1142.281
        62   03 Jun 2027 11:06:46.542   03 Jun 2027 11:06:57.482            10.940          3716.688
        63   03 Jun 2027 11:09:38.345   03 Jun 2027 11:09:48.224             9.879          4433.969
        64   03 Jun 2027 11:10:40.241   03 Jun 2027 11:10:40.241             0.000             0.000
        65   03 Jun 2027 11:12:49.903   03 Jun 2027 11:13:01.455            11.552          4683.406
        66   03 Jun 2027 11:13:18.030   03 Jun 2027 11:13:20.726             2.696           302.906
        67   04 Jun 2027 03:27:13.130   04 Jun 2027 03:27:49.477            36.347         18173.500
        68   04 Jun 2027 03:27:58.073   04 Jun 2027 03:30:29.823           151.750         75875.000
        69   04 Jun 2027 03:31:05.620   04 Jun 2027 03:31:21.235            15.615          7807.500
        70   04 Jun 2027 03:32:45.977   04 Jun 2027 03:32:49.415             3.438          1719.000
        71   04 Jun 2027 03:34:12.111   04 Jun 2027 03:34:15.300             3.189          1594.500
        72   04 Jun 2027 05:05:30.014   04 Jun 2027 05:05:49.012            18.998          9499.000
        73   04 Jun 2027 05:06:32.870   04 Jun 2027 05:08:05.361            92.491         44474.093
        74   04 Jun 2027 05:09:30.074   04 Jun 2027 05:09:33.527             3.453           932.406
        75   04 Jun 2027 05:13:49.994   04 Jun 2027 05:14:02.079            12.085          4791.969
        76   04 Jun 2027 06:43:41.929   04 Jun 2027 06:43:51.818             9.889          4759.469
        77   04 Jun 2027 08:07:09.139   04 Jun 2027 08:07:23.355            14.216          7097.187
        78   04 Jun 2027 08:07:46.369   04 Jun 2027 08:07:50.457             4.088           272.000
        79   04 Jun 2027 08:08:25.114   04 Jun 2027 08:08:28.164             3.050           477.469
        80   04 Jun 2027 08:09:51.418   04 Jun 2027 08:09:57.029             5.611          2601.687
        81   04 Jun 2027 09:43:36.942   04 Jun 2027 09:43:44.254             7.312          3510.156
        82   04 Jun 2027 09:45:11.973   04 Jun 2027 09:45:17.291             5.318          2140.406
        83   04 Jun 2027 09:45:44.366   04 Jun 2027 09:45:51.200             6.834           403.406
        84   04 Jun 2027 09:46:43.436   04 Jun 2027 09:46:46.856             3.420          1467.719
        85   04 Jun 2027 11:18:49.281   04 Jun 2027 11:18:56.143             6.862          2704.250
        86   04 Jun 2027 11:20:57.886   04 Jun 2027 11:21:06.443             8.557          3570.438
        87   04 Jun 2027 11:22:24.748   04 Jun 2027 11:22:24.748             0.000             0.000
        88   04 Jun 2027 11:23:32.786   04 Jun 2027 11:23:40.481             7.695          3676.562
        89   04 Jun 2027 11:24:11.792   04 Jun 2027 11:24:17.609             5.817           943.156
        90   04 Jun 2027 11:25:10.455   04 Jun 2027 11:25:17.504             7.049          1404.688
        91   05 Jun 2027 03:39:19.402   05 Jun 2027 03:42:56.956           217.554        108777.000
        92   05 Jun 2027 03:43:42.764   05 Jun 2027 03:44:09.969            27.205         13602.500
        93   05 Jun 2027 05:18:35.000   05 Jun 2027 05:20:07.023            92.023         43848.531
        94   05 Jun 2027 05:20:17.559   05 Jun 2027 05:20:23.501             5.942           329.250
        95   05 Jun 2027 05:21:40.910   05 Jun 2027 05:21:47.414             6.504          2205.344
        96   05 Jun 2027 05:22:12.050   05 Jun 2027 05:22:13.895             1.845           627.344
        97   05 Jun 2027 05:24:54.269   05 Jun 2027 05:25:04.442            10.173          4960.625
        98   05 Jun 2027 05:26:15.237   05 Jun 2027 05:26:20.531             5.294          1753.844
        99   05 Jun 2027 06:44:43.993   05 Jun 2027 06:44:53.856             9.863          3793.688
       100   05 Jun 2027 06:45:07.905   05 Jun 2027 06:45:07.905             0.000             0.000
       101   05 Jun 2027 06:55:37.875   05 Jun 2027 06:55:44.420             6.545          2168.688
       102   05 Jun 2027 08:19:35.785   05 Jun 2027 08:19:58.250            22.465          9595.625
       103   05 Jun 2027 08:20:12.355   05 Jun 2027 08:20:14.626             2.271           440.594
       104   05 Jun 2027 08:21:45.898   05 Jun 2027 08:21:52.486             6.588          2416.500
       105   05 Jun 2027 08:21:56.364   05 Jun 2027 08:22:01.303             4.939           100.438
       106   05 Jun 2027 09:55:20.917   05 Jun 2027 09:55:28.718             7.801          3818.625
       107   05 Jun 2027 09:56:12.582   05 Jun 2027 09:56:17.166             4.584          1054.187
       108   05 Jun 2027 09:58:08.618   05 Jun 2027 09:58:14.154             5.536          2103.250
       109   05 Jun 2027 09:58:54.436   05 Jun 2027 09:59:01.072             6.636          1228.625
       110   05 Jun 2027 11:30:45.633   05 Jun 2027 11:30:45.633             0.000             0.000
       111   05 Jun 2027 11:30:46.491   05 Jun 2027 11:31:03.067            16.576          7865.375
       112   05 Jun 2027 11:33:05.156   05 Jun 2027 11:33:12.088             6.932          1926.563
       113   05 Jun 2027 11:37:00.157   05 Jun 2027 11:37:17.239            17.082          6549.937
       114   06 Jun 2027 03:51:57.598   06 Jun 2027 03:55:16.634           199.036         99518.000
       115   06 Jun 2027 05:30:58.573   06 Jun 2027 05:32:52.173           113.600         56800.000
       116   06 Jun 2027 05:33:02.073   06 Jun 2027 05:33:15.165            13.092          5395.813
       117   06 Jun 2027 05:36:44.603   06 Jun 2027 05:36:56.358            11.755          4465.406
       118   06 Jun 2027 05:37:08.626   06 Jun 2027 05:37:10.784             2.158           372.969
       119   06 Jun 2027 06:55:59.833   06 Jun 2027 06:56:11.533            11.700          5208.938
       120   06 Jun 2027 06:56:47.114   06 Jun 2027 06:56:47.114             0.000             0.000
       121   06 Jun 2027 06:57:14.877   06 Jun 2027 06:57:17.218             2.341          1165.469
       122   06 Jun 2027 07:07:39.425   06 Jun 2027 07:07:48.146             8.721          1763.125
       123   06 Jun 2027 08:30:10.613   06 Jun 2027 08:30:21.694            11.081          4989.781
       124   06 Jun 2027 08:31:08.290   06 Jun 2027 08:31:11.115             2.825          1359.781
       125   06 Jun 2027 08:32:28.503   06 Jun 2027 08:32:37.623             9.120          2358.688
       126   06 Jun 2027 08:33:52.658   06 Jun 2027 08:33:56.913             4.255          2120.719
       127   06 Jun 2027 08:34:49.961   06 Jun 2027 08:34:53.779             3.818          1576.250
       128   06 Jun 2027 10:05:12.507   06 Jun 2027 10:05:20.508             8.001          4000.500
       129   06 Jun 2027 10:05:30.816   06 Jun 2027 10:05:34.120             3.304           347.219
       130   06 Jun 2027 10:05:51.696   06 Jun 2027 10:06:01.058             9.362           549.250
       131   06 Jun 2027 10:07:42.560   06 Jun 2027 10:07:47.651             5.091          2157.813
       132   06 Jun 2027 10:08:46.716   06 Jun 2027 10:08:46.716             0.000             0.000
       133   06 Jun 2027 10:09:59.168   06 Jun 2027 10:10:01.318             2.150          1075.000
       134   06 Jun 2027 10:11:02.201   06 Jun 2027 10:11:12.397            10.196          4516.156
       135   06 Jun 2027 10:11:36.832   06 Jun 2027 10:11:36.832             0.000             0.000
       136   06 Jun 2027 11:42:12.950   06 Jun 2027 11:42:18.673             5.723          2861.500
       137   06 Jun 2027 11:47:17.023   06 Jun 2027 11:47:40.156            23.133         11477.719
       138   06 Jun 2027 11:48:25.678   06 Jun 2027 11:48:28.715             3.037          1264.844
       139   06 Jun 2027 11:48:56.457   06 Jun 2027 11:49:01.351             4.894           845.531
       140   07 Jun 2027 04:04:15.638   07 Jun 2027 04:06:31.160           135.522         67761.000
       141   07 Jun 2027 04:07:14.354   07 Jun 2027 04:07:34.160            19.806          9903.000
       142   07 Jun 2027 04:08:19.982   07 Jun 2027 04:08:38.874            18.892          9446.000
       143   07 Jun 2027 05:43:17.126   07 Jun 2027 05:45:39.161           142.035         70163.687
       144   07 Jun 2027 05:48:11.510   07 Jun 2027 05:48:19.485             7.975          3577.500
       145   07 Jun 2027 05:48:43.832   07 Jun 2027 05:48:45.598             1.766           416.188
       146   07 Jun 2027 07:07:21.027   07 Jun 2027 07:07:39.170            18.143          6191.687
       147   07 Jun 2027 07:08:10.541   07 Jun 2027 07:08:12.558             2.017           980.344
       148   07 Jun 2027 07:08:18.271   07 Jun 2027 07:08:19.173             0.902           178.531
       149   07 Jun 2027 07:09:24.198   07 Jun 2027 07:09:28.264             4.066          1401.531
       150   07 Jun 2027 07:09:33.838   07 Jun 2027 07:09:36.742             2.904           168.188
       151   07 Jun 2027 07:19:36.607   07 Jun 2027 07:19:45.433             8.826          2956.656
       152   07 Jun 2027 08:41:35.929   07 Jun 2027 08:42:01.198            25.269         11223.969
       153   07 Jun 2027 08:42:58.628   07 Jun 2027 08:43:00.212             1.584           792.000
       154   07 Jun 2027 08:44:14.101   07 Jun 2027 08:44:20.891             6.790          1389.500
       155   07 Jun 2027 08:45:51.456   07 Jun 2027 08:45:56.114             4.658          1900.469
       156   07 Jun 2027 08:46:44.252   07 Jun 2027 08:46:47.148             2.896          1303.563
       157   07 Jun 2027 10:16:36.509   07 Jun 2027 10:16:42.620             6.111          2824.594
       158   07 Jun 2027 10:18:14.507   07 Jun 2027 10:18:19.300             4.793          1561.937
       159   07 Jun 2027 10:18:56.995   07 Jun 2027 10:19:00.832             3.837          1177.969
       160   07 Jun 2027 10:22:32.454   07 Jun 2027 10:22:43.477            11.023          5494.500
       161   07 Jun 2027 10:23:25.483   07 Jun 2027 10:23:26.738             1.255           492.188
       162   07 Jun 2027 10:24:11.964   07 Jun 2027 10:24:17.544             5.580          1283.625
       163   07 Jun 2027 10:25:02.982   07 Jun 2027 10:25:04.481             1.499           662.312
       164   08 Jun 2027 04:16:40.259   08 Jun 2027 04:16:41.535             1.276           638.000
       165   08 Jun 2027 04:17:01.528   08 Jun 2027 04:19:52.697           171.169         85584.500
       166   08 Jun 2027 05:55:22.210   08 Jun 2027 05:57:51.097           148.887         73739.500
       167   08 Jun 2027 05:59:35.147   08 Jun 2027 05:59:46.977            11.830          2800.687
       168   08 Jun 2027 06:00:33.547   08 Jun 2027 06:00:38.884             5.337           999.719
       169   08 Jun 2027 07:19:29.160   08 Jun 2027 07:19:42.302            13.142          6036.656
       170   08 Jun 2027 07:20:13.391   08 Jun 2027 07:20:13.391             0.000             0.000
       171   08 Jun 2027 07:20:32.391   08 Jun 2027 07:20:35.742             3.351          1147.719
       172   08 Jun 2027 08:53:18.323   08 Jun 2027 08:53:42.991            24.668         10494.000
       173   08 Jun 2027 08:55:02.436   08 Jun 2027 08:55:05.939             3.503          1571.687
       174   08 Jun 2027 08:55:33.339   08 Jun 2027 08:55:34.508             1.169           523.969
       175   08 Jun 2027 08:55:49.130   08 Jun 2027 08:55:50.216             1.086           373.813
       176   08 Jun 2027 08:56:59.181   08 Jun 2027 08:57:02.687             3.506          1275.719
       177   08 Jun 2027 08:58:24.472   08 Jun 2027 08:58:31.216             6.744          2276.750
       178   08 Jun 2027 10:28:10.295   08 Jun 2027 10:28:15.417             5.122          2521.344
       179   08 Jun 2027 10:31:08.352   08 Jun 2027 10:31:10.199             1.847           848.719
       180   08 Jun 2027 10:35:22.829   08 Jun 2027 10:35:40.551            17.722          6538.250
       181   08 Jun 2027 10:36:45.477   08 Jun 2027 10:36:49.043             3.566          1577.781
       182   09 Jun 2027 04:29:33.764   09 Jun 2027 04:30:27.232            53.468         26734.000
       183   09 Jun 2027 04:30:36.772   09 Jun 2027 04:31:18.518            41.746         20873.000
       184   09 Jun 2027 04:31:19.120   09 Jun 2027 04:31:28.787             9.667          4833.500
       185   09 Jun 2027 04:34:26.595   09 Jun 2027 04:34:50.027            23.432         11716.000
       186   09 Jun 2027 06:07:58.830   09 Jun 2027 06:11:24.470           205.640        100489.719
       187   09 Jun 2027 06:12:21.067   09 Jun 2027 06:12:23.567             2.500           654.406
       188   09 Jun 2027 07:31:25.418   09 Jun 2027 07:31:40.755            15.337          6906.750
       189   09 Jun 2027 07:32:42.514   09 Jun 2027 07:32:42.514             0.000             0.000
       190   09 Jun 2027 07:32:51.996   09 Jun 2027 07:32:56.713             4.717          1933.531
       191   09 Jun 2027 09:07:38.382   09 Jun 2027 09:08:01.777            23.395         11260.313
       192   09 Jun 2027 09:08:27.456   09 Jun 2027 09:08:30.095             2.639           656.469
       193   09 Jun 2027 09:08:46.761   09 Jun 2027 09:08:49.491             2.730           520.812
       194   09 Jun 2027 09:09:46.321   09 Jun 2027 09:09:46.321             0.000             0.000
       195   09 Jun 2027 09:10:03.749   09 Jun 2027 09:10:08.056             4.307          1662.500
       196   09 Jun 2027 09:10:44.651   09 Jun 2027 09:10:51.736             7.085          1143.594
       197   09 Jun 2027 10:41:11.680   09 Jun 2027 10:41:20.352             8.672          2721.219
       198   09 Jun 2027 10:42:43.333   09 Jun 2027 10:42:50.935             7.602          2119.938
       199   09 Jun 2027 10:43:24.659   09 Jun 2027 10:43:28.091             3.432           389.344
       200   09 Jun 2027 10:45:59.470   09 Jun 2027 10:46:12.697            13.227          4056.094
       201   09 Jun 2027 10:47:47.760   09 Jun 2027 10:47:52.343             4.583          1170.094
       202   09 Jun 2027 10:48:32.532   09 Jun 2027 10:48:32.532             0.000             0.000
       203   09 Jun 2027 10:49:44.942   09 Jun 2027 10:49:45.929             0.987           493.500
       204   10 Jun 2027 03:03:31.080   10 Jun 2027 03:03:47.900            16.820          8410.000
       205   10 Jun 2027 03:05:15.516   10 Jun 2027 03:05:43.049            27.533         13766.500
       206   10 Jun 2027 03:06:32.896   10 Jun 2027 03:06:36.729             3.833          1916.500
       207   10 Jun 2027 03:07:50.119   10 Jun 2027 03:08:22.844            32.725         16362.500
       208   10 Jun 2027 03:10:50.286   10 Jun 2027 03:11:03.469            13.183          6591.500
       209   10 Jun 2027 04:41:34.542   10 Jun 2027 04:42:02.698            28.156         14078.000
       210   10 Jun 2027 04:42:04.965   10 Jun 2027 04:44:30.236           145.271         72635.500
       211   10 Jun 2027 04:45:23.098   10 Jun 2027 04:46:14.531            51.433         25716.500
       212   10 Jun 2027 06:19:37.580   10 Jun 2027 06:20:24.378            46.798         22451.876
       213   10 Jun 2027 06:23:41.483   10 Jun 2027 06:23:44.091             2.608           423.219
       214   10 Jun 2027 06:23:59.845   10 Jun 2027 06:24:01.241             1.396           124.000
       215   10 Jun 2027 07:43:16.705   10 Jun 2027 07:43:28.661            11.956          5590.438
       216   10 Jun 2027 07:44:43.821   10 Jun 2027 07:44:48.977             5.156          1918.156
       217   10 Jun 2027 07:45:11.241   10 Jun 2027 07:45:14.779             3.538           248.750
       218   10 Jun 2027 07:45:35.864   10 Jun 2027 07:45:39.499             3.635           364.500
       219   10 Jun 2027 09:19:43.750   10 Jun 2027 09:19:55.009            11.259          5533.031
       220   10 Jun 2027 09:22:25.207   10 Jun 2027 09:22:34.588             9.381          3883.813
       221   10 Jun 2027 10:51:51.909   10 Jun 2027 10:52:02.319            10.410          4293.594
       222   10 Jun 2027 10:53:50.785   10 Jun 2027 10:53:54.048             3.263           797.719
       223   10 Jun 2027 10:57:50.834   10 Jun 2027 10:57:52.507             1.673           836.500
       224   10 Jun 2027 10:58:18.816   10 Jun 2027 10:58:30.582            11.766          3993.656
       225   10 Jun 2027 11:00:38.081   10 Jun 2027 11:00:38.461             0.380           190.000
       226   10 Jun 2027 11:00:42.039   10 Jun 2027 11:00:51.812             9.773          2974.125
       227   10 Jun 2027 11:01:09.806   10 Jun 2027 11:01:10.527             0.721            20.062
       228   10 Jun 2027 11:01:40.823   10 Jun 2027 11:01:43.135             2.312           524.219
       229   11 Jun 2027 03:15:33.613   11 Jun 2027 03:16:12.081            38.468         19234.000
       230   11 Jun 2027 03:16:43.683   11 Jun 2027 03:19:01.642           137.959         68979.500
       231   11 Jun 2027 03:19:53.461   11 Jun 2027 03:19:55.270             1.809           904.500
       232   11 Jun 2027 03:20:00.864   11 Jun 2027 03:20:06.708             5.844          2922.000
       233   11 Jun 2027 03:20:46.491   11 Jun 2027 03:20:59.805            13.314          6657.000
       234   11 Jun 2027 04:53:42.824   11 Jun 2027 04:54:13.835            31.011         15505.500
       235   11 Jun 2027 04:55:11.005   11 Jun 2027 04:55:21.043            10.038          5019.000
       236   11 Jun 2027 04:55:32.337   11 Jun 2027 04:57:00.991            88.654         44200.219
       237   11 Jun 2027 04:58:32.024   11 Jun 2027 04:58:34.488             2.464           559.594
       238   11 Jun 2027 04:59:59.672   11 Jun 2027 05:00:02.235             2.563          1281.500
       239   11 Jun 2027 06:32:51.050   11 Jun 2027 06:32:58.832             7.782          3784.125
       240   11 Jun 2027 06:35:28.677   11 Jun 2027 06:35:29.236             0.559           161.750
       241   11 Jun 2027 07:55:25.248   11 Jun 2027 07:55:37.001            11.753          5573.531
       242   11 Jun 2027 07:56:24.792   11 Jun 2027 07:56:27.612             2.820           183.281
       243   11 Jun 2027 07:57:55.159   11 Jun 2027 07:58:01.160             6.001          2196.063
       244   11 Jun 2027 07:58:08.595   11 Jun 2027 07:58:08.595             0.000             0.000
       245   11 Jun 2027 07:58:09.033   11 Jun 2027 07:58:10.054             1.021            32.031
       246   11 Jun 2027 07:58:20.514   11 Jun 2027 07:58:20.514             0.000             0.000
       247   11 Jun 2027 07:58:25.282   11 Jun 2027 07:58:26.535             1.253           424.844
       248   11 Jun 2027 09:31:53.934   11 Jun 2027 09:32:06.664            12.730          3444.250
       249   11 Jun 2027 09:33:12.815   11 Jun 2027 09:33:17.153             4.338          1618.438
       250   11 Jun 2027 09:33:42.365   11 Jun 2027 09:33:44.085             1.720           198.906
       251   11 Jun 2027 09:34:24.815   11 Jun 2027 09:34:30.318             5.503           920.812
       252   11 Jun 2027 11:07:05.089   11 Jun 2027 11:07:14.669             9.580          2973.094
       253   11 Jun 2027 11:08:30.147   11 Jun 2027 11:08:34.531             4.384          1787.312
       254   11 Jun 2027 11:09:50.723   11 Jun 2027 11:09:53.130             2.407           727.938
       255   11 Jun 2027 11:10:56.463   11 Jun 2027 11:10:56.463             0.000             0.000
       256   11 Jun 2027 11:13:10.676   11 Jun 2027 11:13:22.915            12.239          6084.125
       257   11 Jun 2027 11:13:35.114   11 Jun 2027 11:13:37.088             1.974           381.219
       258   11 Jun 2027 11:13:42.021   11 Jun 2027 11:13:44.874             2.853            27.656
       259   12 Jun 2027 03:27:31.132   12 Jun 2027 03:28:06.154            35.022         17511.000
       260   12 Jun 2027 03:28:13.281   12 Jun 2027 03:31:11.682           178.401         89200.500
       261   12 Jun 2027 03:33:03.701   12 Jun 2027 03:33:23.200            19.499          9749.500
       262   12 Jun 2027 03:33:43.033   12 Jun 2027 03:33:50.201             7.168          3584.000
       263   12 Jun 2027 05:05:47.649   12 Jun 2027 05:06:02.591            14.942          7471.000
       264   12 Jun 2027 05:06:50.176   12 Jun 2027 05:08:18.074            87.898         42278.437
       265   12 Jun 2027 05:10:38.298   12 Jun 2027 05:10:42.866             4.568           879.281
       266   12 Jun 2027 05:14:03.521   12 Jun 2027 05:14:13.767            10.246          4439.094
       267   12 Jun 2027 06:43:58.954   12 Jun 2027 06:44:11.267            12.313          5562.938
       268   12 Jun 2027 06:47:22.550   12 Jun 2027 06:47:22.938             0.388            88.750
       269   12 Jun 2027 08:08:07.944   12 Jun 2027 08:08:22.255            14.311          6144.781
       270   12 Jun 2027 08:08:39.694   12 Jun 2027 08:08:43.806             4.112           381.406
       271   12 Jun 2027 08:10:07.672   12 Jun 2027 08:10:11.340             3.668          1834.000
       272   12 Jun 2027 09:43:52.426   12 Jun 2027 09:43:58.690             6.264          2736.188
       273   12 Jun 2027 09:45:49.491   12 Jun 2027 09:45:57.174             7.683          3132.188
       274   12 Jun 2027 09:47:01.976   12 Jun 2027 09:47:11.449             9.473          1835.938
       275   12 Jun 2027 11:18:56.209   12 Jun 2027 11:19:04.201             7.992          3796.906
       276   12 Jun 2027 11:21:19.767   12 Jun 2027 11:21:28.427             8.660          3749.719
       277   12 Jun 2027 11:22:40.948   12 Jun 2027 11:22:49.942             8.994          1588.313
       278   12 Jun 2027 11:23:21.067   12 Jun 2027 11:23:30.220             9.153           833.344
       279   12 Jun 2027 11:24:46.539   12 Jun 2027 11:24:52.599             6.060          2234.406
       280   12 Jun 2027 11:25:27.326   12 Jun 2027 11:25:31.792             4.466           614.312
       281   13 Jun 2027 03:40:05.877   13 Jun 2027 03:43:50.199           224.322        112161.000
       282   13 Jun 2027 05:18:53.192   13 Jun 2027 05:20:44.281           111.089         54642.719
       283   13 Jun 2027 05:21:54.977   13 Jun 2027 05:22:02.050             7.073          2138.563
       284   13 Jun 2027 05:22:27.153   13 Jun 2027 05:22:28.529             1.376           577.844
       285   13 Jun 2027 05:25:08.699   13 Jun 2027 05:25:19.155            10.456          4952.156
       286   13 Jun 2027 05:26:31.741   13 Jun 2027 05:26:35.821             4.080          1768.750
       287   13 Jun 2027 06:44:58.007   13 Jun 2027 06:45:10.444            12.437          4640.000
       288   13 Jun 2027 06:55:55.279   13 Jun 2027 06:56:02.893             7.614          3521.000
       289   13 Jun 2027 08:19:14.834   13 Jun 2027 08:19:30.678            15.844          7922.000
       290   13 Jun 2027 08:20:45.999   13 Jun 2027 08:20:54.191             8.192          3565.562
       291   13 Jun 2027 08:22:38.854   13 Jun 2027 08:22:42.698             3.844          1150.625
       292   13 Jun 2027 09:54:31.133   13 Jun 2027 09:54:31.443             0.310           155.000
       293   13 Jun 2027 09:55:37.129   13 Jun 2027 09:55:43.983             6.854          2955.875
       294   13 Jun 2027 09:55:55.333   13 Jun 2027 09:55:57.721             2.388            54.781
       295   13 Jun 2027 09:57:44.300   13 Jun 2027 09:57:50.950             6.650          3270.531
       296   13 Jun 2027 09:58:27.767   13 Jun 2027 09:58:29.862             2.095           366.250
       297   13 Jun 2027 09:59:13.234   13 Jun 2027 09:59:13.234             0.000             0.000
       298   13 Jun 2027 09:59:58.016   13 Jun 2027 09:59:58.234             0.218           109.000
       299   13 Jun 2027 11:31:21.970   13 Jun 2027 11:31:41.042            19.072          8091.937
       300   13 Jun 2027 11:33:21.164   13 Jun 2027 11:33:27.683             6.519          1921.156
       301   13 Jun 2027 11:37:16.731   13 Jun 2027 11:37:32.077            15.346          6525.094
       302   13 Jun 2027 11:37:37.773   13 Jun 2027 11:37:44.932             7.159            36.750
