uniorb/output/strategy_4/Camera/Camera_KinoSat_110801.txt

KinoSat_110801
-------------------------
    Access    *     Start Time (UTCG)     *     Stop Time (UTCG)  *   Duration (s) *   Data (Mbytes)
         1   01 Jun 2027 04:13:39.434   01 Jun 2027 04:15:45.680           126.246         63123.000
         2   01 Jun 2027 05:47:30.399   01 Jun 2027 05:49:30.861           120.462         60231.000
         3   01 Jun 2027 05:49:39.095   01 Jun 2027 05:49:46.870             7.775          3887.500
         4   01 Jun 2027 05:51:00.498   01 Jun 2027 05:51:26.831            26.333         13166.500
         5   01 Jun 2027 05:55:33.385   01 Jun 2027 05:55:44.534            11.149          5574.500
         6   01 Jun 2027 07:24:37.175   01 Jun 2027 07:25:16.666            39.491         19745.500
         7   01 Jun 2027 07:25:31.438   01 Jun 2027 07:27:05.843            94.405         47202.500
         8   01 Jun 2027 07:29:30.413   01 Jun 2027 07:29:32.872             2.459          1229.500
         9   01 Jun 2027 07:29:49.996   01 Jun 2027 07:30:08.311            18.315          9157.500
        10   01 Jun 2027 07:31:25.452   01 Jun 2027 07:31:42.162            16.710          8355.000
        11   01 Jun 2027 09:01:39.739   01 Jun 2027 09:04:30.259           170.520         85260.000
        12   01 Jun 2027 09:04:51.070   01 Jun 2027 09:05:03.913            12.843          6421.500
        13   01 Jun 2027 09:07:23.771   01 Jun 2027 09:07:47.107            23.336         11668.000
        14   01 Jun 2027 10:38:37.100   01 Jun 2027 10:41:16.092           158.992         79496.000
        15   01 Jun 2027 10:41:38.915   01 Jun 2027 10:41:38.915             0.000             0.000
        16   01 Jun 2027 10:42:41.609   01 Jun 2027 10:42:55.643            14.034          7017.000
        17   02 Jun 2027 04:26:01.194   02 Jun 2027 04:27:52.389           111.195         55597.500
        18   02 Jun 2027 05:59:41.369   02 Jun 2027 06:01:48.586           127.217         63608.500
        19   02 Jun 2027 06:02:29.598   02 Jun 2027 06:02:44.492            14.894          7447.000
        20   02 Jun 2027 06:03:08.914   02 Jun 2027 06:03:15.108             6.194          3097.000
        21   02 Jun 2027 06:03:52.951   02 Jun 2027 06:03:56.196             3.245          1622.500
        22   02 Jun 2027 06:05:52.557   02 Jun 2027 06:06:14.751            22.194         11097.000
        23   02 Jun 2027 06:07:42.395   02 Jun 2027 06:07:59.531            17.136          8568.000
        24   02 Jun 2027 07:37:03.171   02 Jun 2027 07:39:54.542           171.371         85685.500
        25   02 Jun 2027 07:40:43.926   02 Jun 2027 07:41:19.019            35.093         17546.500
        26   02 Jun 2027 09:14:00.251   02 Jun 2027 09:17:15.350           195.099         97549.500
        27   02 Jun 2027 09:18:38.379   02 Jun 2027 09:18:47.754             9.375          4387.001
        28   02 Jun 2027 10:50:50.653   02 Jun 2027 10:51:06.629            15.976          7597.750
        29   02 Jun 2027 10:53:10.808   02 Jun 2027 10:53:16.909             6.101           230.813
        30   02 Jun 2027 10:55:04.528   02 Jun 2027 10:55:07.465             2.937            85.812
        31   03 Jun 2027 03:01:24.128   03 Jun 2027 03:01:28.282             4.154          2077.000
        32   03 Jun 2027 03:01:54.386   03 Jun 2027 03:02:07.167            12.781          6390.500
        33   03 Jun 2027 04:38:03.166   03 Jun 2027 04:38:41.212            38.046         19023.000
        34   03 Jun 2027 04:39:08.249   03 Jun 2027 04:41:34.160           145.911         72955.500
        35   03 Jun 2027 06:12:58.126   03 Jun 2027 06:14:44.864           106.738         52808.219
        36   03 Jun 2027 06:16:02.018   03 Jun 2027 06:16:07.270             5.252          2149.719
        37   03 Jun 2027 06:16:36.758   03 Jun 2027 06:16:36.758             0.000             0.000
        38   03 Jun 2027 06:16:57.906   03 Jun 2027 06:17:03.357             5.451          1467.250
        39   03 Jun 2027 06:18:57.139   03 Jun 2027 06:19:03.625             6.486          3009.312
        40   03 Jun 2027 06:19:40.374   03 Jun 2027 06:19:40.374             0.000             0.000
        41   03 Jun 2027 06:19:50.920   03 Jun 2027 06:19:53.077             2.157          1014.875
        42   03 Jun 2027 07:49:10.600   03 Jun 2027 07:49:15.175             4.575          1036.500
        43   03 Jun 2027 07:54:38.531   03 Jun 2027 07:54:45.781             7.250           128.719
        44   03 Jun 2027 07:55:09.120   03 Jun 2027 07:55:12.978             3.858           474.094
        45   03 Jun 2027 09:26:54.234   03 Jun 2027 09:27:03.544             9.310          4561.562
        46   03 Jun 2027 09:28:48.223   03 Jun 2027 09:28:52.564             4.341           813.250
        47   03 Jun 2027 09:30:42.887   03 Jun 2027 09:30:43.219             0.332            35.219
        48   03 Jun 2027 09:31:06.052   03 Jun 2027 09:31:10.002             3.950           713.531
        49   03 Jun 2027 11:03:00.502   03 Jun 2027 11:03:13.765            13.263          6111.125
        50   03 Jun 2027 11:07:10.099   03 Jun 2027 11:07:13.281             3.182           277.313
        51   04 Jun 2027 03:13:56.484   04 Jun 2027 03:14:05.434             8.950          4475.000
        52   04 Jun 2027 03:16:36.667   04 Jun 2027 03:16:40.037             3.370          1685.000
        53   04 Jun 2027 04:50:10.297   04 Jun 2027 04:53:41.988           211.691        105845.500
        54   04 Jun 2027 06:25:20.421   04 Jun 2027 06:26:28.632            68.211         33478.719
        55   04 Jun 2027 06:27:40.278   04 Jun 2027 06:27:43.636             3.358          1655.469
        56   04 Jun 2027 06:28:05.949   04 Jun 2027 06:28:06.948             0.999           335.656
        57   04 Jun 2027 06:28:30.612   04 Jun 2027 06:28:34.528             3.916           727.563
        58   04 Jun 2027 06:29:53.520   04 Jun 2027 06:30:02.734             9.214          2468.500
        59   04 Jun 2027 06:31:07.535   04 Jun 2027 06:31:11.721             4.186          1873.812
        60   04 Jun 2027 06:31:17.113   04 Jun 2027 06:31:20.927             3.814           168.500
        61   04 Jun 2027 06:31:45.165   04 Jun 2027 06:31:48.462             3.297           329.156
        62   04 Jun 2027 08:07:04.637   04 Jun 2027 08:07:06.537             1.900           801.844
        63   04 Jun 2027 09:39:00.603   04 Jun 2027 09:39:18.056            17.453          5628.625
        64   04 Jun 2027 09:42:32.872   04 Jun 2027 09:42:35.965             3.093            18.000
        65   04 Jun 2027 09:43:06.880   04 Jun 2027 09:43:08.289             1.409           536.656
        66   04 Jun 2027 09:43:18.151   04 Jun 2027 09:43:20.277             2.126           106.219
        67   04 Jun 2027 11:15:14.898   04 Jun 2027 11:15:28.784            13.886          5563.219
        68   04 Jun 2027 11:16:58.476   04 Jun 2027 11:16:58.982             0.506           224.156
        69   05 Jun 2027 03:25:52.430   05 Jun 2027 03:25:55.979             3.549          1774.500
        70   05 Jun 2027 03:26:04.469   05 Jun 2027 03:26:08.022             3.553          1776.500
        71   05 Jun 2027 03:26:15.353   05 Jun 2027 03:26:21.642             6.289          3144.500
        72   05 Jun 2027 03:27:05.755   05 Jun 2027 03:27:05.755             0.000             0.000
        73   05 Jun 2027 03:27:10.494   05 Jun 2027 03:27:17.695             7.201          3600.500
        74   05 Jun 2027 05:02:03.121   05 Jun 2027 05:05:18.329           195.208         97604.000
        75   05 Jun 2027 06:36:59.179   05 Jun 2027 06:38:31.202            92.023         45462.187
        76   05 Jun 2027 06:38:58.059   05 Jun 2027 06:38:59.895             1.836           681.375
        77   05 Jun 2027 06:40:04.873   05 Jun 2027 06:40:08.267             3.394           299.656
        78   05 Jun 2027 06:40:34.692   05 Jun 2027 06:40:37.382             2.690           825.781
        79   05 Jun 2027 06:41:53.413   05 Jun 2027 06:41:59.491             6.078          2375.969
        80   05 Jun 2027 06:42:55.657   05 Jun 2027 06:42:58.800             3.143          1408.344
        81   05 Jun 2027 06:43:30.329   05 Jun 2027 06:43:32.638             2.309           985.281
        82   05 Jun 2027 08:13:18.374   05 Jun 2027 08:13:23.489             5.115           996.906
        83   05 Jun 2027 09:51:33.507   05 Jun 2027 09:51:48.616            15.109          6216.656
        84   05 Jun 2027 09:52:17.844   05 Jun 2027 09:52:18.735             0.891           432.781
        85   05 Jun 2027 09:53:28.875   05 Jun 2027 09:53:32.213             3.338           827.500
        86   05 Jun 2027 09:54:43.452   05 Jun 2027 09:54:46.752             3.300          1459.563
        87   05 Jun 2027 09:54:56.135   05 Jun 2027 09:55:02.049             5.914           293.219
        88   05 Jun 2027 11:26:53.837   05 Jun 2027 11:27:09.747            15.910          4886.875
        89   06 Jun 2027 03:36:45.732   06 Jun 2027 03:36:55.565             9.833          4916.500
        90   06 Jun 2027 03:37:21.313   06 Jun 2027 03:37:21.313             0.000             0.000
        91   06 Jun 2027 03:38:19.725   06 Jun 2027 03:38:34.198            14.473          7236.500
        92   06 Jun 2027 05:12:21.751   06 Jun 2027 05:13:00.607            38.856         19428.000
        93   06 Jun 2027 05:13:47.194   06 Jun 2027 05:14:13.661            26.467         13233.500
        94   06 Jun 2027 05:15:12.312   06 Jun 2027 05:17:00.417           108.105         54052.500
        95   06 Jun 2027 05:17:59.208   06 Jun 2027 05:18:20.836            21.628         10814.000
        96   06 Jun 2027 06:48:32.558   06 Jun 2027 06:50:06.564            94.006         47003.000
        97   06 Jun 2027 06:50:24.371   06 Jun 2027 06:50:30.873             6.502          2690.749
        98   06 Jun 2027 06:51:33.238   06 Jun 2027 06:51:34.732             1.494           597.875
        99   06 Jun 2027 06:52:10.354   06 Jun 2027 06:52:12.897             2.543           923.719
       100   06 Jun 2027 06:52:37.331   06 Jun 2027 06:52:39.992             2.661           733.906
       101   06 Jun 2027 06:54:36.081   06 Jun 2027 06:54:39.238             3.157          1370.500
       102   06 Jun 2027 06:55:23.963   06 Jun 2027 06:55:28.124             4.161           989.656
       103   06 Jun 2027 08:25:37.815   06 Jun 2027 08:25:41.970             4.155           972.625
       104   06 Jun 2027 08:30:53.502   06 Jun 2027 08:30:56.054             2.552             5.531
       105   06 Jun 2027 10:03:36.651   06 Jun 2027 10:03:47.336            10.685          5063.219
       106   06 Jun 2027 10:05:08.452   06 Jun 2027 10:05:15.165             6.713          2171.562
       107   06 Jun 2027 10:05:28.644   06 Jun 2027 10:05:30.816             2.172           421.219
       108   06 Jun 2027 10:05:48.732   06 Jun 2027 10:05:50.883             2.151           438.812
       109   06 Jun 2027 10:06:27.865   06 Jun 2027 10:06:31.125             3.260           224.000
       110   06 Jun 2027 10:06:40.184   06 Jun 2027 10:06:43.237             3.053           112.844
       111   06 Jun 2027 10:07:19.855   06 Jun 2027 10:07:23.155             3.300          1019.531
       112   06 Jun 2027 10:07:25.290   06 Jun 2027 10:07:29.737             4.447            43.812
       113   06 Jun 2027 11:36:45.250   06 Jun 2027 11:36:59.475            14.225          5405.469
       114   07 Jun 2027 03:48:24.456   07 Jun 2027 03:48:44.909            20.453         10226.500
       115   07 Jun 2027 03:49:34.136   07 Jun 2027 03:49:34.136             0.000             0.000
       116   07 Jun 2027 05:23:28.149   07 Jun 2027 05:25:11.605           103.456         51728.000
       117   07 Jun 2027 05:25:31.527   07 Jun 2027 05:26:23.087            51.560         25780.000
       118   07 Jun 2027 05:27:12.703   07 Jun 2027 05:28:08.528            55.825         27912.500
       119   07 Jun 2027 07:00:51.017   07 Jun 2027 07:02:27.478            96.461         48230.500
       120   07 Jun 2027 07:03:18.486   07 Jun 2027 07:03:23.769             5.283          2326.312
       121   07 Jun 2027 07:03:40.183   07 Jun 2027 07:03:41.293             1.110           364.500
       122   07 Jun 2027 07:04:17.197   07 Jun 2027 07:04:18.253             1.056           156.687
       123   07 Jun 2027 07:05:51.278   07 Jun 2027 07:05:56.308             5.030          2148.813
       124   07 Jun 2027 07:06:18.446   07 Jun 2027 07:06:19.198             0.752            68.031
       125   07 Jun 2027 07:07:07.300   07 Jun 2027 07:07:08.657             1.357           600.844
       126   07 Jun 2027 08:37:39.205   07 Jun 2027 08:37:47.430             8.225          4049.094
       127   07 Jun 2027 08:40:51.855   07 Jun 2027 08:40:56.909             5.054          1570.437
       128   07 Jun 2027 08:41:29.294   07 Jun 2027 08:41:30.594             1.300           358.406
       129   07 Jun 2027 08:41:43.483   07 Jun 2027 08:41:44.338             0.855           314.844
       130   07 Jun 2027 08:42:22.327   07 Jun 2027 08:42:25.859             3.532          1186.813
       131   07 Jun 2027 08:42:55.967   07 Jun 2027 08:42:56.493             0.526            71.156
       132   07 Jun 2027 08:43:07.016   07 Jun 2027 08:43:10.143             3.127           229.344
       133   07 Jun 2027 08:43:28.748   07 Jun 2027 08:43:29.992             1.244           204.438
       134   07 Jun 2027 08:43:33.014   07 Jun 2027 08:43:34.064             1.050            94.438
       135   07 Jun 2027 08:43:55.753   07 Jun 2027 08:43:57.090             1.337           384.469
       136   07 Jun 2027 10:15:36.341   07 Jun 2027 10:15:50.500            14.159          5712.187
       137   07 Jun 2027 10:16:37.447   07 Jun 2027 10:16:40.804             3.357          1273.375
       138   07 Jun 2027 10:17:27.594   07 Jun 2027 10:17:29.349             1.755           426.938
       139   07 Jun 2027 10:19:01.452   07 Jun 2027 10:19:03.693             2.241          1079.875
       140   07 Jun 2027 10:19:14.637   07 Jun 2027 10:19:19.174             4.537           342.000
       141   07 Jun 2027 10:19:31.095   07 Jun 2027 10:19:33.466             2.371           372.531
       142   07 Jun 2027 11:49:12.472   07 Jun 2027 11:49:17.805             5.333           552.375
       143   07 Jun 2027 11:55:35.263   07 Jun 2027 11:55:38.463             3.200           841.406
       144   08 Jun 2027 04:00:08.122   08 Jun 2027 04:00:46.134            38.012         19006.000
       145   08 Jun 2027 05:34:56.367   08 Jun 2027 05:37:26.616           150.249         75124.500
       146   08 Jun 2027 05:37:59.024   08 Jun 2027 05:38:22.626            23.602         11801.000
       147   08 Jun 2027 05:38:40.550   08 Jun 2027 05:38:46.333             5.783          2891.500
       148   08 Jun 2027 05:42:02.015   08 Jun 2027 05:42:05.014             2.999          1499.500
       149   08 Jun 2027 07:12:45.576   08 Jun 2027 07:14:47.344           121.768         58156.125
       150   08 Jun 2027 07:15:13.312   08 Jun 2027 07:15:14.577             1.265           477.813
       151   08 Jun 2027 07:15:48.616   08 Jun 2027 07:15:51.645             3.029           478.906
       152   08 Jun 2027 07:16:50.365   08 Jun 2027 07:16:52.934             2.569          1145.594
       153   08 Jun 2027 07:18:02.825   08 Jun 2027 07:18:04.651             1.826           431.844
       154   08 Jun 2027 07:18:43.245   08 Jun 2027 07:18:45.901             2.656           761.719
       155   08 Jun 2027 08:49:29.976   08 Jun 2027 08:49:40.487            10.511          5151.313
       156   08 Jun 2027 08:53:12.516   08 Jun 2027 08:53:13.431             0.915           133.094
       157   08 Jun 2027 08:53:55.099   08 Jun 2027 08:53:59.934             4.835           251.125
       158   08 Jun 2027 08:54:26.213   08 Jun 2027 08:54:26.912             0.699           142.875
       159   08 Jun 2027 08:55:05.253   08 Jun 2027 08:55:05.570             0.317           100.594
       160   08 Jun 2027 08:55:45.358   08 Jun 2027 08:55:47.057             1.699           563.344
       161   08 Jun 2027 08:56:11.017   08 Jun 2027 08:56:13.592             2.575           615.625
       162   08 Jun 2027 10:27:38.393   08 Jun 2027 10:27:52.646            14.253          6848.687
       163   08 Jun 2027 10:30:36.207   08 Jun 2027 10:30:39.706             3.499            60.094
       164   08 Jun 2027 10:31:11.279   08 Jun 2027 10:31:16.138             4.859           591.906
       165   09 Jun 2027 04:13:54.234   09 Jun 2027 04:14:27.685            33.451         16725.500
       166   09 Jun 2027 05:47:45.014   09 Jun 2027 05:50:13.796           148.782         74391.000
       167   09 Jun 2027 05:52:08.069   09 Jun 2027 05:52:14.406             6.337          3168.500
       168   09 Jun 2027 05:54:06.547   09 Jun 2027 05:54:15.533             8.986          4493.000
       169   09 Jun 2027 05:55:15.119   09 Jun 2027 05:55:38.730            23.611         11805.500
       170   09 Jun 2027 07:24:52.016   09 Jun 2027 07:26:39.483           107.467         53733.500
       171   09 Jun 2027 07:27:08.378   09 Jun 2027 07:27:20.493            12.115          3808.500
       172   09 Jun 2027 07:28:12.318   09 Jun 2027 07:28:12.318             0.000             0.000
       173   09 Jun 2027 07:28:23.914   09 Jun 2027 07:28:30.055             6.141          1981.906
       174   09 Jun 2027 07:29:07.444   09 Jun 2027 07:29:12.333             4.889           201.969
       175   09 Jun 2027 07:30:03.839   09 Jun 2027 07:30:07.673             3.834           566.625
       176   09 Jun 2027 09:01:54.945   09 Jun 2027 09:02:04.515             9.570          4763.250
       177   09 Jun 2027 09:06:09.415   09 Jun 2027 09:06:11.043             1.628           638.438
       178   09 Jun 2027 09:06:33.478   09 Jun 2027 09:06:34.303             0.825           369.438
       179   09 Jun 2027 09:07:43.015   09 Jun 2027 09:07:44.616             1.601            94.688
       180   09 Jun 2027 10:38:52.781   09 Jun 2027 10:39:05.168            12.387          6046.813
       181   09 Jun 2027 10:41:32.849   09 Jun 2027 10:41:35.495             2.646           699.656
       182   09 Jun 2027 10:42:08.366   09 Jun 2027 10:42:11.657             3.291           744.750
       183   09 Jun 2027 10:43:15.711   09 Jun 2027 10:43:20.575             4.864          2001.687
       184   10 Jun 2027 04:26:15.924   10 Jun 2027 04:28:08.513           112.589         56294.500
       185   10 Jun 2027 04:29:08.575   10 Jun 2027 04:29:14.965             6.390          3195.000
       186   10 Jun 2027 05:59:57.611   10 Jun 2027 06:01:51.669           114.058         57029.000
       187   10 Jun 2027 06:02:03.219   10 Jun 2027 06:02:28.592            25.373         12686.500
       188   10 Jun 2027 06:04:18.858   10 Jun 2027 06:04:35.699            16.841          8420.500
       189   10 Jun 2027 06:07:22.946   10 Jun 2027 06:07:51.693            28.747         14373.500
       190   10 Jun 2027 07:37:18.244   10 Jun 2027 07:37:42.103            23.859         11097.906
       191   10 Jun 2027 07:41:53.836   10 Jun 2027 07:41:57.110             3.274           597.875
       192   10 Jun 2027 07:42:57.969   10 Jun 2027 07:42:58.493             0.524            98.781
       193   10 Jun 2027 07:43:29.445   10 Jun 2027 07:43:31.277             1.832           760.125
       194   10 Jun 2027 09:14:15.093   10 Jun 2027 09:14:27.383            12.290          5519.437
       195   10 Jun 2027 09:17:23.947   10 Jun 2027 09:17:25.381             1.434           557.531
       196   10 Jun 2027 09:17:37.619   10 Jun 2027 09:17:38.697             1.078           382.438
       197   10 Jun 2027 09:18:30.025   10 Jun 2027 09:18:31.572             1.547           313.719
       198   10 Jun 2027 09:19:14.819   10 Jun 2027 09:19:18.921             4.102          1284.875
       199   10 Jun 2027 10:51:05.584   10 Jun 2027 10:51:19.261            13.677          5867.906
       200   10 Jun 2027 10:53:19.066   10 Jun 2027 10:53:22.651             3.585            31.187
       201   10 Jun 2027 10:54:15.104   10 Jun 2027 10:54:20.974             5.870          1227.312
       202   11 Jun 2027 03:01:38.871   11 Jun 2027 03:02:10.208            31.337         15668.500
       203   11 Jun 2027 03:03:49.892   11 Jun 2027 03:03:49.892             0.000             0.000
       204   11 Jun 2027 03:04:01.310   11 Jun 2027 03:04:15.165            13.855          6927.500
       205   11 Jun 2027 04:38:18.951   11 Jun 2027 04:38:53.626            34.675         17337.500
       206   11 Jun 2027 04:39:01.735   11 Jun 2027 04:41:08.678           126.943         63471.500
       207   11 Jun 2027 04:41:18.477   11 Jun 2027 04:41:48.610            30.133         15066.500
       208   11 Jun 2027 06:13:18.052   11 Jun 2027 06:14:37.951            79.899         39422.562
       209   11 Jun 2027 06:14:54.976   11 Jun 2027 06:14:54.976             0.000             0.000
       210   11 Jun 2027 06:15:08.584   11 Jun 2027 06:15:11.725             3.141           950.937
       211   11 Jun 2027 06:16:22.254   11 Jun 2027 06:16:22.254             0.000             0.000
       212   11 Jun 2027 06:16:26.687   11 Jun 2027 06:16:28.073             1.386           304.000
       213   11 Jun 2027 06:17:13.104   11 Jun 2027 06:17:14.790             1.686           641.125
       214   11 Jun 2027 06:18:21.581   11 Jun 2027 06:18:24.666             3.085          1480.031
       215   11 Jun 2027 06:19:16.609   11 Jun 2027 06:19:17.886             1.277           146.937
       216   11 Jun 2027 06:19:58.360   11 Jun 2027 06:20:02.183             3.823          1219.812
       217   11 Jun 2027 07:49:25.668   11 Jun 2027 07:49:30.199             4.531           874.625
       218   11 Jun 2027 07:54:53.461   11 Jun 2027 07:54:53.797             0.336           140.563
       219   11 Jun 2027 07:55:23.626   11 Jun 2027 07:55:24.914             1.288           410.438
       220   11 Jun 2027 09:27:09.817   11 Jun 2027 09:27:21.162            11.345          5352.469
       221   11 Jun 2027 09:31:20.614   11 Jun 2027 09:31:26.148             5.534           624.094
       222   11 Jun 2027 11:03:15.650   11 Jun 2027 11:03:29.592            13.942          5730.906
       223   12 Jun 2027 03:13:53.323   12 Jun 2027 03:14:11.098            17.775          8887.500
       224   12 Jun 2027 04:50:25.145   12 Jun 2027 04:53:56.568           211.423        105711.500
       225   12 Jun 2027 06:25:35.389   12 Jun 2027 06:26:52.298            76.909         36579.594
       226   12 Jun 2027 06:28:11.081   12 Jun 2027 06:28:14.134             3.053           478.812
       227   12 Jun 2027 06:28:22.360   12 Jun 2027 06:28:24.471             2.111           257.062
       228   12 Jun 2027 06:30:08.953   12 Jun 2027 06:30:17.503             8.550          3238.219
       229   12 Jun 2027 06:31:23.517   12 Jun 2027 06:31:27.377             3.860          1838.844
       230   12 Jun 2027 06:31:32.710   12 Jun 2027 06:31:40.100             7.390           166.656
       231   12 Jun 2027 06:31:59.845   12 Jun 2027 06:32:00.966             1.121           304.375
       232   12 Jun 2027 08:01:59.288   12 Jun 2027 08:02:03.793             4.505           906.875
       233   12 Jun 2027 08:07:21.096   12 Jun 2027 08:07:25.824             4.728           857.500
       234   12 Jun 2027 09:39:15.703   12 Jun 2027 09:39:29.651            13.948          5625.281
       235   12 Jun 2027 09:42:50.047   12 Jun 2027 09:42:50.558             0.511            66.344
       236   12 Jun 2027 09:43:22.431   12 Jun 2027 09:43:23.452             1.021           179.594
       237   12 Jun 2027 09:43:33.245   12 Jun 2027 09:43:36.312             3.067           107.219
       238   12 Jun 2027 11:15:29.419   12 Jun 2027 11:15:40.906            11.487          5527.750
       239   13 Jun 2027 03:26:22.949   13 Jun 2027 03:26:30.338             7.389          3694.500
       240   13 Jun 2027 03:26:37.428   13 Jun 2027 03:26:37.428             0.000             0.000
       241   13 Jun 2027 03:27:21.124   13 Jun 2027 03:27:27.529             6.405          3202.500
       242   13 Jun 2027 03:28:53.493   13 Jun 2027 03:28:56.281             2.788          1394.000
       243   13 Jun 2027 05:02:17.753   13 Jun 2027 05:05:35.736           197.983         98991.500
       244   13 Jun 2027 06:37:13.865   13 Jun 2027 06:38:44.759            90.894         44750.188
       245   13 Jun 2027 06:39:13.892   13 Jun 2027 06:39:15.530             1.638           688.719
       246   13 Jun 2027 06:40:24.663   13 Jun 2027 06:40:27.091             2.428           134.750
       247   13 Jun 2027 06:40:53.052   13 Jun 2027 06:40:56.875             3.823           765.688
       248   13 Jun 2027 06:42:27.678   13 Jun 2027 06:42:31.202             3.524           589.156
       249   13 Jun 2027 06:43:14.915   13 Jun 2027 06:43:14.915             0.000             0.000
       250   13 Jun 2027 06:43:46.074   13 Jun 2027 06:43:48.952             2.878          1083.281
       251   13 Jun 2027 08:13:33.114   13 Jun 2027 08:13:38.404             5.290           955.562
       252   13 Jun 2027 08:14:52.617   13 Jun 2027 08:14:54.596             1.979           335.188
       253   13 Jun 2027 09:51:48.462   13 Jun 2027 09:52:04.193            15.731          6324.187
       254   13 Jun 2027 09:52:29.867   13 Jun 2027 09:52:31.415             1.548           332.625
       255   13 Jun 2027 09:53:19.029   13 Jun 2027 09:53:19.825             0.796           123.938
       256   13 Jun 2027 09:55:01.069   13 Jun 2027 09:55:09.422             8.353          2412.375
       257   13 Jun 2027 09:55:25.509   13 Jun 2027 09:55:29.669             4.160           443.375
       258   13 Jun 2027 11:27:09.023   13 Jun 2027 11:27:24.266            15.243          4244.719
       259   13 Jun 2027 11:29:19.006   13 Jun 2027 11:29:21.170             2.164           423.219
