uniorb/output/strategy_4/Camera/Camera_KinoSat_110807.txt

KinoSat_110807
-------------------------
    Access    *     Start Time (UTCG)     *     Stop Time (UTCG)  *   Duration (s) *   Data (Mbytes)
         1   01 Jun 2027 03:15:54.016   01 Jun 2027 03:17:09.075            75.059         37529.500
         2   01 Jun 2027 04:52:29.373   01 Jun 2027 04:54:30.482           121.109         60554.500
         3   01 Jun 2027 04:55:29.141   01 Jun 2027 04:55:29.141             0.000             0.000
         4   01 Jun 2027 04:55:38.655   01 Jun 2027 04:55:56.995            18.340          9170.000
         5   01 Jun 2027 06:27:39.527   01 Jun 2027 06:29:15.673            96.146         48073.000
         6   01 Jun 2027 06:29:35.995   01 Jun 2027 06:29:45.024             9.029          4514.500
         7   01 Jun 2027 06:29:49.743   01 Jun 2027 06:29:55.202             5.459          2729.500
         8   01 Jun 2027 06:31:48.512   01 Jun 2027 06:31:51.133             2.621          1310.500
         9   01 Jun 2027 06:33:20.536   01 Jun 2027 06:33:23.210             2.674          1337.000
        10   01 Jun 2027 06:33:30.428   01 Jun 2027 06:33:31.191             0.763           381.500
        11   01 Jun 2027 06:33:54.215   01 Jun 2027 06:33:54.507             0.292           146.000
        12   01 Jun 2027 06:34:01.864   01 Jun 2027 06:34:13.749            11.885          5942.500
        13   01 Jun 2027 08:04:00.358   01 Jun 2027 08:06:18.198           137.840         68920.000
        14   01 Jun 2027 08:07:40.538   01 Jun 2027 08:08:14.499            33.961         16980.500
        15   01 Jun 2027 08:08:20.255   01 Jun 2027 08:08:23.542             3.287          1643.500
        16   01 Jun 2027 09:41:17.099   01 Jun 2027 09:43:46.150           149.051         74525.500
        17   01 Jun 2027 09:44:26.934   01 Jun 2027 09:44:30.802             3.868          1934.000
        18   01 Jun 2027 11:17:29.576   01 Jun 2027 11:19:55.437           145.861         72930.500
        19   01 Jun 2027 11:21:06.700   01 Jun 2027 11:21:13.005             6.305          3152.500
        20   02 Jun 2027 03:28:27.119   02 Jun 2027 03:28:30.062             2.943          1471.500
        21   02 Jun 2027 03:29:23.227   02 Jun 2027 03:29:35.751            12.524          6262.000
        22   02 Jun 2027 03:30:54.771   02 Jun 2027 03:30:59.483             4.712          2356.000
        23   02 Jun 2027 05:04:16.914   02 Jun 2027 05:07:18.836           181.922         90961.000
        24   02 Jun 2027 06:39:10.152   02 Jun 2027 06:42:52.595           222.443        111221.500
        25   02 Jun 2027 06:44:28.341   02 Jun 2027 06:45:08.066            39.725         19862.500
        26   02 Jun 2027 06:45:49.470   02 Jun 2027 06:46:15.266            25.796         12898.000
        27   02 Jun 2027 08:15:38.920   02 Jun 2027 08:18:32.542           173.622         85979.499
        28   02 Jun 2027 08:19:55.299   02 Jun 2027 08:19:58.883             3.584          1008.187
        29   02 Jun 2027 08:20:25.566   02 Jun 2027 08:20:28.624             3.058           306.563
        30   02 Jun 2027 09:53:56.725   02 Jun 2027 09:54:24.201            27.476         12842.281
        31   02 Jun 2027 09:55:36.737   02 Jun 2027 09:55:43.787             7.050          1876.906
        32   02 Jun 2027 09:56:06.525   02 Jun 2027 09:56:09.533             3.008           613.469
        33   02 Jun 2027 09:57:07.902   02 Jun 2027 09:57:08.893             0.991           170.844
        34   02 Jun 2027 09:57:28.323   02 Jun 2027 09:57:31.115             2.792           552.250
        35   02 Jun 2027 11:29:23.735   02 Jun 2027 11:29:35.157            11.422          5010.062
        36   02 Jun 2027 11:30:07.440   02 Jun 2027 11:30:11.982             4.542           277.188
        37   02 Jun 2027 11:30:59.668   02 Jun 2027 11:31:00.294             0.626           172.562
        38   03 Jun 2027 03:39:01.522   03 Jun 2027 03:39:12.979            11.457          5728.500
        39   03 Jun 2027 03:41:22.449   03 Jun 2027 03:41:25.557             3.108          1554.000
        40   03 Jun 2027 03:42:55.607   03 Jun 2027 03:43:00.544             4.937          2468.500
        41   03 Jun 2027 03:43:21.517   03 Jun 2027 03:43:32.563            11.046          5523.000
        42   03 Jun 2027 05:14:33.211   03 Jun 2027 05:15:23.953            50.742         25371.000
        43   03 Jun 2027 05:16:02.094   03 Jun 2027 05:17:30.281            88.187         44093.500
        44   03 Jun 2027 05:18:20.783   03 Jun 2027 05:19:25.795            65.012         32506.000
        45   03 Jun 2027 05:20:35.417   03 Jun 2027 05:20:35.417             0.000             0.000
        46   03 Jun 2027 06:50:52.383   03 Jun 2027 06:52:24.360            91.977         45988.500
        47   03 Jun 2027 06:52:42.031   03 Jun 2027 06:52:47.805             5.774          2112.562
        48   03 Jun 2027 06:53:45.401   03 Jun 2027 06:53:47.229             1.828           404.313
        49   03 Jun 2027 06:54:28.189   03 Jun 2027 06:54:31.308             3.119          1070.687
        50   03 Jun 2027 06:54:55.687   03 Jun 2027 06:54:58.862             3.175           761.844
        51   03 Jun 2027 06:56:28.802   03 Jun 2027 06:56:30.548             1.746           577.469
        52   03 Jun 2027 06:57:08.754   03 Jun 2027 06:57:12.626             3.872          1172.656
        53   03 Jun 2027 08:27:59.326   03 Jun 2027 08:28:11.248            11.922          4738.094
        54   03 Jun 2027 08:29:19.592   03 Jun 2027 08:29:21.115             1.523           616.844
        55   03 Jun 2027 08:30:52.057   03 Jun 2027 08:30:54.428             2.371          1003.500
        56   03 Jun 2027 08:31:59.399   03 Jun 2027 08:32:01.241             1.842           695.125
        57   03 Jun 2027 08:32:17.132   03 Jun 2027 08:32:18.190             1.058           442.250
        58   03 Jun 2027 08:33:22.800   03 Jun 2027 08:33:25.994             3.194           139.969
        59   03 Jun 2027 10:05:54.595   03 Jun 2027 10:06:08.160            13.565          6224.031
        60   03 Jun 2027 10:07:18.422   03 Jun 2027 10:07:22.100             3.678          1301.031
        61   03 Jun 2027 10:07:26.949   03 Jun 2027 10:07:30.857             3.908            40.813
        62   03 Jun 2027 10:09:11.798   03 Jun 2027 10:09:13.144             1.346           519.312
        63   03 Jun 2027 10:09:26.141   03 Jun 2027 10:09:30.822             4.681            13.656
        64   03 Jun 2027 10:09:38.649   03 Jun 2027 10:09:40.431             1.782           244.594
        65   03 Jun 2027 11:38:59.624   03 Jun 2027 11:39:12.893            13.269          4909.531
        66   04 Jun 2027 03:50:44.357   04 Jun 2027 03:51:01.135            16.778          8389.000
        67   04 Jun 2027 03:55:09.074   04 Jun 2027 03:55:09.074             0.000             0.000
        68   04 Jun 2027 05:25:42.062   04 Jun 2027 05:27:37.260           115.198         57599.000
        69   04 Jun 2027 05:27:46.083   04 Jun 2027 05:29:00.908            74.825         37412.500
        70   04 Jun 2027 05:31:12.290   04 Jun 2027 05:31:34.931            22.641         11320.500
        71   04 Jun 2027 05:32:11.949   04 Jun 2027 05:32:35.192            23.243         11621.500
        72   04 Jun 2027 07:03:10.738   04 Jun 2027 07:04:18.238            67.500         32491.469
        73   04 Jun 2027 07:04:45.124   04 Jun 2027 07:04:46.556             1.432           645.875
        74   04 Jun 2027 07:05:36.361   04 Jun 2027 07:05:37.452             1.091           138.969
        75   04 Jun 2027 07:05:45.817   04 Jun 2027 07:05:48.147             2.330           184.781
        76   04 Jun 2027 07:05:59.194   04 Jun 2027 07:06:01.547             2.353           292.250
        77   04 Jun 2027 07:06:34.664   04 Jun 2027 07:06:40.067             5.403           146.750
        78   04 Jun 2027 07:08:08.751   04 Jun 2027 07:08:13.160             4.409          2106.281
        79   04 Jun 2027 07:09:04.940   04 Jun 2027 07:09:08.086             3.146          1006.813
        80   04 Jun 2027 07:10:16.430   04 Jun 2027 07:10:28.375            11.945          1376.500
        81   04 Jun 2027 08:39:55.351   04 Jun 2027 08:40:01.509             6.158          2879.219
        82   04 Jun 2027 08:41:47.854   04 Jun 2027 08:41:51.375             3.521          1711.781
        83   04 Jun 2027 08:43:12.189   04 Jun 2027 08:43:19.827             7.638          1648.875
        84   04 Jun 2027 08:43:43.621   04 Jun 2027 08:43:47.526             3.905           595.375
        85   04 Jun 2027 08:43:58.297   04 Jun 2027 08:43:58.967             0.670           216.531
        86   04 Jun 2027 08:44:40.728   04 Jun 2027 08:44:43.422             2.694          1187.188
        87   04 Jun 2027 08:45:47.511   04 Jun 2027 08:45:51.636             4.125          1135.219
        88   04 Jun 2027 08:46:12.674   04 Jun 2027 08:46:21.953             9.279           654.500
        89   04 Jun 2027 10:17:53.835   04 Jun 2027 10:18:12.340            18.505          7119.562
        90   04 Jun 2027 10:21:15.871   04 Jun 2027 10:21:18.271             2.400          1046.688
        91   04 Jun 2027 10:21:36.226   04 Jun 2027 10:21:39.990             3.764           200.562
        92   04 Jun 2027 11:51:31.736   04 Jun 2027 11:51:33.492             1.756           801.156
        93   04 Jun 2027 11:55:12.498   04 Jun 2027 11:55:15.990             3.492          1649.812
        94   05 Jun 2027 04:02:16.721   05 Jun 2027 04:03:04.271            47.550         23775.000
        95   05 Jun 2027 05:37:10.145   05 Jun 2027 05:40:31.401           201.256        100628.000
        96   05 Jun 2027 05:41:00.714   05 Jun 2027 05:41:00.714             0.000             0.000
        97   05 Jun 2027 05:43:07.958   05 Jun 2027 05:43:11.178             3.220          1610.000
        98   05 Jun 2027 05:46:03.717   05 Jun 2027 05:46:17.979            14.262          7131.000
        99   05 Jun 2027 07:15:03.946   05 Jun 2027 07:16:23.979            80.033         39808.250
       100   05 Jun 2027 07:17:29.546   05 Jun 2027 07:17:29.546             0.000             0.000
       101   05 Jun 2027 07:17:49.143   05 Jun 2027 07:17:53.140             3.997          1907.062
       102   05 Jun 2027 07:18:38.036   05 Jun 2027 07:18:40.405             2.369           857.719
       103   05 Jun 2027 07:19:09.687   05 Jun 2027 07:19:13.018             3.331           720.344
       104   05 Jun 2027 07:20:45.051   05 Jun 2027 07:20:51.044             5.993          1855.500
       105   05 Jun 2027 07:22:20.395   05 Jun 2027 07:22:20.866             0.471           139.437
       106   05 Jun 2027 08:51:47.957   05 Jun 2027 08:51:58.902            10.945          5259.562
       107   05 Jun 2027 08:52:51.200   05 Jun 2027 08:52:55.554             4.354           122.906
       108   05 Jun 2027 08:55:05.423   05 Jun 2027 08:55:07.660             2.237           925.656
       109   05 Jun 2027 08:55:29.070   05 Jun 2027 08:55:30.466             1.396            33.656
       110   05 Jun 2027 08:55:38.476   05 Jun 2027 08:55:41.321             2.845            12.500
       111   05 Jun 2027 08:56:17.891   05 Jun 2027 08:56:19.731             1.840           393.187
       112   05 Jun 2027 08:56:45.243   05 Jun 2027 08:56:46.846             1.603           396.563
       113   05 Jun 2027 10:29:53.922   05 Jun 2027 10:30:08.063            14.141          6697.063
       114   05 Jun 2027 10:30:32.423   05 Jun 2027 10:30:34.167             1.744           527.969
       115   05 Jun 2027 10:31:43.104   05 Jun 2027 10:31:45.353             2.249           184.594
       116   05 Jun 2027 10:32:49.020   05 Jun 2027 10:32:49.323             0.303           125.969
       117   05 Jun 2027 10:33:34.178   05 Jun 2027 10:33:35.034             0.856           211.281
       118   05 Jun 2027 10:33:43.953   05 Jun 2027 10:33:45.603             1.650           248.062
       119   05 Jun 2027 10:34:00.518   05 Jun 2027 10:34:03.146             2.628            28.437
       120   06 Jun 2027 04:16:15.126   06 Jun 2027 04:16:44.656            29.530         14765.000
       121   06 Jun 2027 04:17:55.020   06 Jun 2027 04:18:12.476            17.456          8728.000
       122   06 Jun 2027 04:18:25.187   06 Jun 2027 04:18:40.311            15.124          7562.000
       123   06 Jun 2027 05:50:02.828   06 Jun 2027 05:52:20.065           137.237         68618.500
       124   06 Jun 2027 05:55:58.350   06 Jun 2027 05:56:35.167            36.817         18408.500
       125   06 Jun 2027 05:57:09.389   06 Jun 2027 05:57:21.783            12.394          6197.000
       126   06 Jun 2027 05:57:24.749   06 Jun 2027 05:57:27.085             2.336          1168.000
       127   06 Jun 2027 05:58:08.795   06 Jun 2027 05:58:20.505            11.710          5855.000
       128   06 Jun 2027 05:58:33.024   06 Jun 2027 05:58:33.240             0.216           108.000
       129   06 Jun 2027 07:27:11.768   06 Jun 2027 07:28:20.978            69.210         32374.094
       130   06 Jun 2027 07:28:50.971   06 Jun 2027 07:28:53.541             2.570           807.813
       131   06 Jun 2027 07:29:25.014   06 Jun 2027 07:29:27.472             2.458           983.531
       132   06 Jun 2027 07:30:32.527   06 Jun 2027 07:30:36.188             3.661          1780.031
       133   06 Jun 2027 07:31:24.923   06 Jun 2027 07:31:32.811             7.888           715.094
       134   06 Jun 2027 07:32:10.565   06 Jun 2027 07:32:20.234             9.669           243.000
       135   06 Jun 2027 07:33:15.492   06 Jun 2027 07:33:16.420             0.928           378.188
       136   06 Jun 2027 09:04:26.327   06 Jun 2027 09:04:39.391            13.064          5559.281
       137   06 Jun 2027 09:07:20.647   06 Jun 2027 09:07:22.139             1.492           445.219
       138   06 Jun 2027 09:07:58.354   06 Jun 2027 09:07:59.792             1.438           542.625
       139   06 Jun 2027 09:08:32.453   06 Jun 2027 09:08:34.169             1.716           792.906
       140   06 Jun 2027 09:08:53.165   06 Jun 2027 09:08:54.845             1.680           240.656
       141   06 Jun 2027 09:09:59.433   06 Jun 2027 09:10:00.535             1.102            30.750
       142   06 Jun 2027 10:41:07.931   06 Jun 2027 10:41:27.274            19.343          7774.188
       143   06 Jun 2027 10:43:39.765   06 Jun 2027 10:43:47.281             7.516          1505.656
       144   06 Jun 2027 10:45:34.934   06 Jun 2027 10:45:36.170             1.236            27.531
       145   07 Jun 2027 04:28:27.988   07 Jun 2027 04:30:22.567           114.579         57289.500
       146   07 Jun 2027 04:31:28.377   07 Jun 2027 04:31:33.512             5.135          2567.500
       147   07 Jun 2027 06:02:27.899   07 Jun 2027 06:05:21.346           173.447         86723.500
       148   07 Jun 2027 06:07:13.669   07 Jun 2027 06:07:13.669             0.000             0.000
       149   07 Jun 2027 06:08:25.757   07 Jun 2027 06:08:30.850             5.093          2546.500
       150   07 Jun 2027 06:09:08.571   07 Jun 2027 06:09:11.075             2.504          1252.000
       151   07 Jun 2027 06:10:02.151   07 Jun 2027 06:10:09.514             7.363          3681.500
       152   07 Jun 2027 07:39:37.010   07 Jun 2027 07:39:42.944             5.934          2405.593
       153   07 Jun 2027 07:42:39.468   07 Jun 2027 07:42:40.662             1.194            61.688
       154   07 Jun 2027 07:45:18.012   07 Jun 2027 07:45:20.599             2.587           189.250
       155   07 Jun 2027 07:45:56.723   07 Jun 2027 07:46:04.142             7.419          1128.875
       156   07 Jun 2027 07:46:17.116   07 Jun 2027 07:46:19.119             2.003           291.156
       157   07 Jun 2027 09:16:35.905   07 Jun 2027 09:16:47.610            11.705          5452.844
       158   07 Jun 2027 09:19:52.030   07 Jun 2027 09:19:54.349             2.319          1136.313
       159   07 Jun 2027 09:21:33.434   07 Jun 2027 09:21:37.011             3.577          1145.719
       160   07 Jun 2027 10:53:22.730   07 Jun 2027 10:53:37.407            14.677          7091.906
       161   07 Jun 2027 10:57:40.060   07 Jun 2027 10:57:43.529             3.469           158.562
       162   08 Jun 2027 03:04:03.316   08 Jun 2027 03:04:28.272            24.956         12478.000
       163   08 Jun 2027 04:40:33.862   08 Jun 2027 04:43:37.514           183.652         91826.000
       164   08 Jun 2027 04:44:03.691   08 Jun 2027 04:44:06.705             3.014          1507.000
       165   08 Jun 2027 06:15:42.726   08 Jun 2027 06:17:14.109            91.383         45691.500
       166   08 Jun 2027 06:17:35.228   08 Jun 2027 06:17:40.161             4.933          1803.375
       167   08 Jun 2027 06:18:41.100   08 Jun 2027 06:18:48.056             6.956           206.219
       168   08 Jun 2027 06:19:25.462   08 Jun 2027 06:19:27.592             2.130           494.562
       169   08 Jun 2027 06:20:39.359   08 Jun 2027 06:20:43.725             4.366          1688.875
       170   08 Jun 2027 06:21:40.751   08 Jun 2027 06:21:40.751             0.000             0.000
       171   08 Jun 2027 06:21:49.618   08 Jun 2027 06:21:51.277             1.659           534.375
       172   08 Jun 2027 06:22:23.593   08 Jun 2027 06:22:24.604             1.011           460.250
       173   08 Jun 2027 07:52:03.053   08 Jun 2027 07:52:06.307             3.254          1131.937
       174   08 Jun 2027 07:54:15.786   08 Jun 2027 07:54:22.609             6.823           698.094
       175   08 Jun 2027 07:55:18.414   08 Jun 2027 07:55:21.458             3.044          1477.500
       176   08 Jun 2027 07:56:00.387   08 Jun 2027 07:56:02.623             2.236          1061.406
       177   08 Jun 2027 07:57:09.518   08 Jun 2027 07:57:10.485             0.967           117.750
       178   08 Jun 2027 07:57:35.520   08 Jun 2027 07:57:37.343             1.823           168.031
       179   08 Jun 2027 09:29:37.100   08 Jun 2027 09:29:49.825            12.725          5193.938
       180   08 Jun 2027 09:31:20.135   08 Jun 2027 09:31:22.101             1.966           849.875
       181   08 Jun 2027 09:33:19.989   08 Jun 2027 09:33:24.901             4.912          2248.781
       182   08 Jun 2027 09:33:37.388   08 Jun 2027 09:33:39.143             1.755           390.219
       183   08 Jun 2027 11:05:40.288   08 Jun 2027 11:05:51.994            11.706          5578.719
       184   08 Jun 2027 11:09:34.248   08 Jun 2027 11:09:37.452             3.204           790.312
       185   09 Jun 2027 03:16:08.540   09 Jun 2027 03:16:30.440            21.900         10950.000
       186   09 Jun 2027 03:18:37.971   09 Jun 2027 03:18:45.448             7.477          3738.500
       187   09 Jun 2027 04:52:44.203   09 Jun 2027 04:56:11.481           207.278        103639.000
       188   09 Jun 2027 06:27:54.453   09 Jun 2027 06:29:11.634            77.181         34412.907
       189   09 Jun 2027 06:30:24.067   09 Jun 2027 06:30:27.980             3.913          1918.219
       190   09 Jun 2027 06:30:40.275   09 Jun 2027 06:30:42.768             2.493           275.000
       191   09 Jun 2027 06:30:47.598   09 Jun 2027 06:30:48.794             1.196           150.937
       192   09 Jun 2027 06:31:07.945   09 Jun 2027 06:31:08.586             0.641           293.562
       193   09 Jun 2027 06:32:42.445   09 Jun 2027 06:32:47.878             5.433           488.906
       194   09 Jun 2027 06:34:04.741   09 Jun 2027 06:34:07.368             2.627           849.906
       195   09 Jun 2027 06:34:16.361   09 Jun 2027 06:34:16.590             0.229            35.281
       196   09 Jun 2027 08:04:15.014   09 Jun 2027 08:04:17.810             2.796           867.656
       197   09 Jun 2027 08:06:39.447   09 Jun 2027 08:06:41.762             2.315           194.156
       198   09 Jun 2027 08:08:06.040   09 Jun 2027 08:08:09.232             3.192           326.500
       199   09 Jun 2027 08:09:01.493   09 Jun 2027 08:09:04.946             3.453           128.063
       200   09 Jun 2027 08:09:40.454   09 Jun 2027 08:09:43.257             2.803          1070.000
       201   09 Jun 2027 09:41:40.514   09 Jun 2027 09:41:53.685            13.171          4741.469
       202   09 Jun 2027 09:45:40.868   09 Jun 2027 09:45:43.363             2.495           986.031
       203   09 Jun 2027 09:45:46.632   09 Jun 2027 09:45:48.161             1.529            86.406
       204   09 Jun 2027 09:45:48.202   09 Jun 2027 09:45:53.344             5.142             1.281
       205   09 Jun 2027 09:46:10.952   09 Jun 2027 09:46:13.299             2.347           452.969
       206   09 Jun 2027 11:17:44.413   09 Jun 2027 11:17:56.009            11.596          5197.906
       207   09 Jun 2027 11:21:32.603   09 Jun 2027 11:21:37.832             5.229          2254.844
       208   10 Jun 2027 03:28:48.433   10 Jun 2027 03:28:51.508             3.075          1537.500
       209   10 Jun 2027 03:29:44.305   10 Jun 2027 03:29:50.456             6.151          3075.500
       210   10 Jun 2027 05:04:31.115   10 Jun 2027 05:07:49.552           198.437         99218.500
       211   10 Jun 2027 05:08:36.137   10 Jun 2027 05:08:40.788             4.651          2325.500
       212   10 Jun 2027 06:39:24.209   10 Jun 2027 06:40:46.562            82.353         40211.313
       213   10 Jun 2027 06:42:42.537   10 Jun 2027 06:42:46.004             3.467           290.969
       214   10 Jun 2027 06:43:08.660   10 Jun 2027 06:43:10.968             2.308           708.000
       215   10 Jun 2027 06:44:26.563   10 Jun 2027 06:44:31.673             5.110          1957.281
       216   10 Jun 2027 06:45:25.059   10 Jun 2027 06:45:30.523             5.464          1238.281
       217   10 Jun 2027 06:46:06.731   10 Jun 2027 06:46:11.502             4.771          1116.469
       218   10 Jun 2027 06:46:29.921   10 Jun 2027 06:46:35.390             5.469           543.375
       219   10 Jun 2027 08:15:54.188   10 Jun 2027 08:15:58.238             4.050          1195.594
       220   10 Jun 2027 08:18:43.216   10 Jun 2027 08:18:45.551             2.335           271.562
       221   10 Jun 2027 08:20:10.889   10 Jun 2027 08:20:14.016             3.127          1024.969
       222   10 Jun 2027 08:20:40.435   10 Jun 2027 08:20:43.714             3.279           298.125
       223   10 Jun 2027 08:21:21.483   10 Jun 2027 08:21:22.555             1.072           411.187
       224   10 Jun 2027 09:54:11.753   10 Jun 2027 09:54:23.262            11.509          5364.062
       225   10 Jun 2027 09:55:37.633   10 Jun 2027 09:55:41.537             3.904          1911.125
       226   10 Jun 2027 09:56:01.891   10 Jun 2027 09:56:04.893             3.002           417.875
       227   10 Jun 2027 09:57:20.037   10 Jun 2027 09:57:24.792             4.755          1862.688
       228   10 Jun 2027 09:57:43.855   10 Jun 2027 09:57:46.025             2.170           562.375
       229   10 Jun 2027 11:29:37.928   10 Jun 2027 11:29:48.023            10.095          4924.250
       230   10 Jun 2027 11:31:15.725   10 Jun 2027 11:31:19.564             3.839           215.000
       231   11 Jun 2027 03:39:16.593   11 Jun 2027 03:39:29.594            13.001          6500.500
       232   11 Jun 2027 03:43:11.949   11 Jun 2027 03:43:15.559             3.610          1805.000
       233   11 Jun 2027 05:14:47.792   11 Jun 2027 05:15:38.517            50.725         25362.500
       234   11 Jun 2027 05:16:16.466   11 Jun 2027 05:17:44.913            88.447         44223.500
       235   11 Jun 2027 05:18:36.014   11 Jun 2027 05:19:42.148            66.134         33067.000
       236   11 Jun 2027 05:20:38.028   11 Jun 2027 05:20:40.749             2.721          1360.500
       237   11 Jun 2027 05:20:51.270   11 Jun 2027 05:20:55.899             4.629          2314.500
       238   11 Jun 2027 06:51:07.583   11 Jun 2027 06:52:33.473            85.890         42291.063
       239   11 Jun 2027 06:52:59.450   11 Jun 2027 06:53:03.208             3.758           605.781
       240   11 Jun 2027 06:54:01.589   11 Jun 2027 06:54:05.904             4.315           411.844
       241   11 Jun 2027 06:54:21.573   11 Jun 2027 06:54:23.183             1.610           374.562
       242   11 Jun 2027 06:54:49.321   11 Jun 2027 06:54:50.724             1.403           148.531
       243   11 Jun 2027 06:56:25.706   11 Jun 2027 06:56:32.468             6.762          2307.375
       244   11 Jun 2027 06:57:05.959   11 Jun 2027 06:57:08.404             2.445           654.062
       245   11 Jun 2027 06:57:53.778   11 Jun 2027 06:57:56.462             2.684           898.344
       246   11 Jun 2027 06:58:17.692   11 Jun 2027 06:58:19.650             1.958           533.125
       247   11 Jun 2027 08:28:13.939   11 Jun 2027 08:28:18.649             4.710          2017.094
       248   11 Jun 2027 08:29:34.328   11 Jun 2027 08:29:37.143             2.815           603.344
       249   11 Jun 2027 08:31:10.557   11 Jun 2027 08:31:14.224             3.667          1113.125
       250   11 Jun 2027 08:32:17.999   11 Jun 2027 08:32:19.397             1.398            94.906
       251   11 Jun 2027 08:32:54.681   11 Jun 2027 08:32:58.699             4.018           722.875
       252   11 Jun 2027 08:33:35.364   11 Jun 2027 08:33:36.031             0.667           185.625
       253   11 Jun 2027 08:34:06.151   11 Jun 2027 08:34:08.793             2.642           880.313
       254   11 Jun 2027 08:34:31.427   11 Jun 2027 08:34:33.030             1.603           707.313
       255   11 Jun 2027 10:06:09.318   11 Jun 2027 10:06:23.524            14.206          5624.375
       256   11 Jun 2027 10:07:39.864   11 Jun 2027 10:07:45.734             5.870          2136.812
       257   11 Jun 2027 10:09:10.513   11 Jun 2027 10:09:15.192             4.679          2157.000
       258   11 Jun 2027 10:09:41.336   11 Jun 2027 10:09:42.617             1.281           375.937
       259   11 Jun 2027 10:09:46.335   11 Jun 2027 10:09:48.015             1.680           114.813
       260   11 Jun 2027 10:10:00.331   11 Jun 2027 10:10:03.817             3.486           227.625
       261   11 Jun 2027 11:39:14.545   11 Jun 2027 11:39:28.151            13.606          4937.000
       262   12 Jun 2027 03:50:58.985   12 Jun 2027 03:51:15.741            16.756          8378.000
       263   12 Jun 2027 03:55:16.409   12 Jun 2027 03:55:16.409             0.000             0.000
       264   12 Jun 2027 03:55:33.345   12 Jun 2027 03:55:45.953            12.608          6304.000
       265   12 Jun 2027 05:25:56.086   12 Jun 2027 05:27:52.346           116.260         58130.000
       266   12 Jun 2027 05:28:00.812   12 Jun 2027 05:29:16.455            75.643         37821.500
       267   12 Jun 2027 05:31:12.063   12 Jun 2027 05:31:27.952            15.889          7944.500
       268   12 Jun 2027 05:32:28.672   12 Jun 2027 05:32:36.890             8.218          4109.000
       269   12 Jun 2027 05:34:03.425   12 Jun 2027 05:34:19.163            15.738          7869.000
       270   12 Jun 2027 07:03:25.370   12 Jun 2027 07:04:44.696            79.326         37880.344
       271   12 Jun 2027 07:05:47.737   12 Jun 2027 07:05:51.563             3.826          1412.656
       272   12 Jun 2027 07:06:13.982   12 Jun 2027 07:06:17.621             3.639           252.594
       273   12 Jun 2027 07:06:46.331   12 Jun 2027 07:06:48.766             2.435           785.344
       274   12 Jun 2027 07:08:24.110   12 Jun 2027 07:08:34.583            10.473          2857.344
       275   12 Jun 2027 07:09:21.360   12 Jun 2027 07:09:26.108             4.748          1016.750
       276   12 Jun 2027 08:40:09.984   12 Jun 2027 08:40:21.241            11.257          4050.687
       277   12 Jun 2027 08:42:04.617   12 Jun 2027 08:42:12.893             8.276          1758.531
       278   12 Jun 2027 08:42:59.833   12 Jun 2027 08:43:00.334             0.501           250.500
       279   12 Jun 2027 08:43:19.059   12 Jun 2027 08:43:25.363             6.304           648.375
       280   12 Jun 2027 08:43:37.206   12 Jun 2027 08:43:44.267             7.061           215.750
       281   12 Jun 2027 08:44:04.457   12 Jun 2027 08:44:06.021             1.564           384.750
       282   12 Jun 2027 08:44:11.564   12 Jun 2027 08:44:13.117             1.553            33.094
       283   12 Jun 2027 08:44:56.011   12 Jun 2027 08:44:58.642             2.631          1179.313
       284   12 Jun 2027 08:46:03.794   12 Jun 2027 08:46:06.655             2.861          1204.344
       285   12 Jun 2027 08:46:27.418   12 Jun 2027 08:46:28.917             1.499           633.594
       286   12 Jun 2027 10:18:08.599   12 Jun 2027 10:18:23.664            15.065          6848.062
       287   12 Jun 2027 10:21:30.823   12 Jun 2027 10:21:33.423             2.600          1031.000
       288   12 Jun 2027 10:21:53.375   12 Jun 2027 10:21:56.176             2.801           212.687
       289   12 Jun 2027 11:51:46.259   12 Jun 2027 11:51:47.921             1.662           805.375
       290   12 Jun 2027 11:54:34.364   12 Jun 2027 11:54:38.073             3.709           445.812
       291   13 Jun 2027 04:02:30.962   13 Jun 2027 04:03:19.496            48.534         24267.000
       292   13 Jun 2027 05:37:24.683   13 Jun 2027 05:40:30.704           186.021         93010.500
       293   13 Jun 2027 05:41:08.444   13 Jun 2027 05:41:08.444             0.000             0.000
       294   13 Jun 2027 05:41:19.469   13 Jun 2027 05:41:22.028             2.559          1279.500
       295   13 Jun 2027 05:45:04.079   13 Jun 2027 05:45:09.201             5.122          2561.000
       296   13 Jun 2027 05:46:09.415   13 Jun 2027 05:46:31.858            22.443         11221.500
       297   13 Jun 2027 05:46:42.010   13 Jun 2027 05:46:43.122             1.112           556.000
       298   13 Jun 2027 07:15:18.896   13 Jun 2027 07:16:36.697            77.801         38611.625
       299   13 Jun 2027 07:17:05.512   13 Jun 2027 07:17:07.141             1.629           808.656
       300   13 Jun 2027 07:17:46.037   13 Jun 2027 07:17:53.465             7.428           571.313
       301   13 Jun 2027 07:18:47.772   13 Jun 2027 07:18:52.894             5.122          1372.187
       302   13 Jun 2027 07:19:26.115   13 Jun 2027 07:19:31.131             5.016           939.813
       303   13 Jun 2027 07:21:02.035   13 Jun 2027 07:21:07.665             5.630          1935.344
       304   13 Jun 2027 07:22:34.856   13 Jun 2027 07:22:36.512             1.656           134.219
       305   13 Jun 2027 08:52:02.985   13 Jun 2027 08:52:14.883            11.898          5757.437
       306   13 Jun 2027 08:55:20.158   13 Jun 2027 08:55:22.449             2.291           912.094
       307   13 Jun 2027 08:55:45.869   13 Jun 2027 08:55:47.926             2.057            81.594
       308   13 Jun 2027 08:55:59.430   13 Jun 2027 08:56:01.863             2.433           192.000
       309   13 Jun 2027 08:56:33.169   13 Jun 2027 08:56:35.279             2.110           386.062
       310   13 Jun 2027 08:57:00.609   13 Jun 2027 08:57:02.343             1.734           426.781
       311   13 Jun 2027 10:29:56.488   13 Jun 2027 10:30:08.683            12.195          5724.188
       312   13 Jun 2027 10:33:44.793   13 Jun 2027 10:33:47.690             2.897          1269.750
