uniorb/output/strategy_4/Camera/Camera_KinoSat_110704.txt

KinoSat_110704
-------------------------
    Access    *     Start Time (UTCG)     *     Stop Time (UTCG)  *   Duration (s) *   Data (Mbytes)
         1   01 Jun 2027 03:49:16.363   01 Jun 2027 03:50:49.847            93.484         46742.000
         2   01 Jun 2027 03:51:00.027   01 Jun 2027 03:51:08.349             8.322          4161.000
         3   01 Jun 2027 03:51:24.088   01 Jun 2027 03:51:24.088             0.000             0.000
         4   01 Jun 2027 03:51:54.597   01 Jun 2027 03:52:00.395             5.798          2899.000
         5   01 Jun 2027 05:22:49.878   01 Jun 2027 05:24:59.593           129.715         64857.500
         6   01 Jun 2027 05:25:39.051   01 Jun 2027 05:25:40.504             1.453           726.500
         7   01 Jun 2027 05:27:19.929   01 Jun 2027 05:27:19.929             0.000             0.000
         8   01 Jun 2027 05:28:24.151   01 Jun 2027 05:28:25.867             1.716           858.000
         9   01 Jun 2027 05:29:34.787   01 Jun 2027 05:29:44.999            10.212          5106.000
        10   01 Jun 2027 05:30:45.352   01 Jun 2027 05:30:54.886             9.534          4767.000
        11   01 Jun 2027 05:31:22.350   01 Jun 2027 05:31:23.507             1.157           578.500
        12   01 Jun 2027 07:00:16.642   01 Jun 2027 07:00:39.866            23.224         11612.000
        13   01 Jun 2027 07:00:50.615   01 Jun 2027 07:02:20.829            90.214         45107.000
        14   01 Jun 2027 07:03:34.982   01 Jun 2027 07:03:41.125             6.143          3071.500
        15   01 Jun 2027 07:04:22.722   01 Jun 2027 07:04:44.148            21.426         10713.000
        16   01 Jun 2027 08:37:17.175   01 Jun 2027 08:40:08.273           171.098         85549.000
        17   01 Jun 2027 08:40:31.795   01 Jun 2027 08:40:36.133             4.338          2169.000
        18   01 Jun 2027 08:42:03.518   01 Jun 2027 08:42:24.675            21.157         10578.500
        19   01 Jun 2027 08:42:46.723   01 Jun 2027 08:43:03.833            17.110          8555.000
        20   01 Jun 2027 10:14:11.273   01 Jun 2027 10:16:05.598           114.325         57162.500
        21   01 Jun 2027 10:16:16.838   01 Jun 2027 10:16:23.410             6.572          3286.000
        22   01 Jun 2027 10:16:55.650   01 Jun 2027 10:17:08.440            12.790          6395.000
        23   01 Jun 2027 10:18:17.969   01 Jun 2027 10:18:21.856             3.887          1943.500
        24   01 Jun 2027 10:18:44.290   01 Jun 2027 10:18:47.782             3.492          1746.000
        25   01 Jun 2027 11:51:20.254   01 Jun 2027 11:53:01.009           100.755         50377.500
        26   02 Jun 2027 04:01:22.045   02 Jun 2027 04:01:38.716            16.671          8335.500
        27   02 Jun 2027 04:03:46.665   02 Jun 2027 04:03:46.665             0.000             0.000
        28   02 Jun 2027 04:03:53.312   02 Jun 2027 04:04:25.328            32.016         16008.000
        29   02 Jun 2027 05:33:33.222   02 Jun 2027 05:33:41.137             7.915          3957.500
        30   02 Jun 2027 05:35:28.661   02 Jun 2027 05:38:33.463           184.802         92401.000
        31   02 Jun 2027 05:40:27.008   02 Jun 2027 05:40:28.057             1.049           524.500
        32   02 Jun 2027 05:42:30.126   02 Jun 2027 05:42:36.390             6.264          3132.000
        33   02 Jun 2027 05:43:10.301   02 Jun 2027 05:43:17.791             7.490          3745.000
        34   02 Jun 2027 07:12:26.489   02 Jun 2027 07:15:13.524           167.035         83517.500
        35   02 Jun 2027 07:16:22.045   02 Jun 2027 07:16:28.822             6.777          3388.500
        36   02 Jun 2027 07:16:47.200   02 Jun 2027 07:17:42.549            55.349         27674.500
        37   02 Jun 2027 08:49:41.383   02 Jun 2027 08:52:42.189           180.806         90403.000
        38   02 Jun 2027 08:53:22.379   02 Jun 2027 08:53:52.045            29.666         14833.000
        39   02 Jun 2027 08:53:54.370   02 Jun 2027 08:54:07.561            13.191          4611.094
        40   02 Jun 2027 10:26:11.518   02 Jun 2027 10:26:32.032            20.514          9861.625
        41   02 Jun 2027 10:28:33.505   02 Jun 2027 10:28:37.626             4.121           473.812
        42   02 Jun 2027 10:29:42.820   02 Jun 2027 10:29:46.084             3.264           539.781
        43   02 Jun 2027 10:30:09.172   02 Jun 2027 10:30:11.223             2.051           211.219
        44   02 Jun 2027 10:30:43.454   02 Jun 2027 10:30:44.402             0.948           463.937
        45   02 Jun 2027 10:30:56.825   02 Jun 2027 10:30:59.519             2.694             0.312
        46   03 Jun 2027 04:13:30.864   03 Jun 2027 04:13:59.484            28.620         14310.000
        47   03 Jun 2027 04:15:27.059   03 Jun 2027 04:15:27.059             0.000             0.000
        48   03 Jun 2027 04:15:30.575   03 Jun 2027 04:15:45.968            15.393          7696.500
        49   03 Jun 2027 05:48:41.263   03 Jun 2027 05:50:46.807           125.544         62772.000
        50   03 Jun 2027 05:51:10.239   03 Jun 2027 05:51:45.972            35.733         17866.500
        51   03 Jun 2027 05:53:17.994   03 Jun 2027 05:53:57.188            39.194         19597.000
        52   03 Jun 2027 05:55:16.982   03 Jun 2027 05:55:19.774             2.792          1396.000
        53   03 Jun 2027 07:25:00.606   03 Jun 2027 07:26:20.288            79.682         37413.656
        54   03 Jun 2027 07:28:22.934   03 Jun 2027 07:28:25.429             2.495          1247.500
        55   03 Jun 2027 07:28:41.441   03 Jun 2027 07:28:43.114             1.673           558.562
        56   03 Jun 2027 09:02:24.563   03 Jun 2027 09:02:33.360             8.797          4360.500
        57   03 Jun 2027 09:03:27.538   03 Jun 2027 09:03:30.760             3.222            18.062
        58   03 Jun 2027 09:04:22.847   03 Jun 2027 09:04:23.944             1.097            38.031
        59   03 Jun 2027 09:06:36.324   03 Jun 2027 09:06:40.744             4.420           776.125
        60   03 Jun 2027 10:38:36.582   03 Jun 2027 10:38:50.423            13.841          5741.219
        61   03 Jun 2027 10:41:04.772   03 Jun 2027 10:41:07.973             3.201          1206.094
        62   04 Jun 2027 04:25:32.363   04 Jun 2027 04:27:18.827           106.464         53232.000
        63   04 Jun 2027 04:28:32.713   04 Jun 2027 04:28:37.782             5.069          2534.500
        64   04 Jun 2027 04:28:58.389   04 Jun 2027 04:29:00.635             2.246          1123.000
        65   04 Jun 2027 06:00:45.042   04 Jun 2027 06:03:35.150           170.108         85054.000
        66   04 Jun 2027 06:03:50.353   04 Jun 2027 06:03:50.353             0.000             0.000
        67   04 Jun 2027 06:04:56.631   04 Jun 2027 06:05:01.010             4.379          2189.500
        68   04 Jun 2027 06:07:22.773   04 Jun 2027 06:07:25.022             2.249          1124.500
        69   04 Jun 2027 07:36:39.992   04 Jun 2027 07:37:12.728            32.736         15358.562
        70   04 Jun 2027 07:39:14.184   04 Jun 2027 07:39:18.106             3.922          1934.844
        71   04 Jun 2027 07:40:21.619   04 Jun 2027 07:40:28.400             6.781          1984.781
        72   04 Jun 2027 07:41:22.636   04 Jun 2027 07:41:26.654             4.018          1330.531
        73   04 Jun 2027 07:41:59.150   04 Jun 2027 07:42:03.270             4.120          1015.500
        74   04 Jun 2027 07:42:33.928   04 Jun 2027 07:42:36.202             2.274            28.969
        75   04 Jun 2027 09:14:37.049   04 Jun 2027 09:14:49.639            12.590          5680.125
        76   04 Jun 2027 09:15:26.829   04 Jun 2027 09:15:27.901             1.072           123.344
        77   04 Jun 2027 09:16:43.362   04 Jun 2027 09:16:46.550             3.188          1530.406
        78   04 Jun 2027 09:17:30.008   04 Jun 2027 09:17:33.251             3.243          1358.062
        79   04 Jun 2027 09:17:56.272   04 Jun 2027 09:17:58.036             1.764           403.000
        80   04 Jun 2027 09:18:14.937   04 Jun 2027 09:18:20.166             5.229           345.250
        81   04 Jun 2027 10:50:30.349   04 Jun 2027 10:50:43.315            12.966          5480.594
        82   04 Jun 2027 10:52:02.434   04 Jun 2027 10:52:03.220             0.786           160.969
        83   04 Jun 2027 10:52:03.593   04 Jun 2027 10:52:04.972             1.379            11.656
        84   05 Jun 2027 03:01:30.601   05 Jun 2027 03:01:36.507             5.906          2953.000
        85   05 Jun 2027 03:01:42.447   05 Jun 2027 03:01:50.082             7.635          3817.500
        86   05 Jun 2027 03:03:35.903   05 Jun 2027 03:03:35.951             0.048            24.000
        87   05 Jun 2027 03:04:21.639   05 Jun 2027 03:04:24.757             3.118          1559.000
        88   05 Jun 2027 04:37:15.569   05 Jun 2027 04:39:36.817           141.248         70624.000
        89   05 Jun 2027 04:40:48.069   05 Jun 2027 04:41:28.559            40.490         20245.000
        90   05 Jun 2027 06:11:59.407   05 Jun 2027 06:13:42.911           103.504         50273.344
        91   05 Jun 2027 06:14:40.146   05 Jun 2027 06:14:42.437             2.291          1073.062
        92   05 Jun 2027 06:15:10.616   05 Jun 2027 06:15:10.616             0.000             0.000
        93   05 Jun 2027 06:15:15.423   05 Jun 2027 06:15:16.950             1.527           266.281
        94   05 Jun 2027 06:16:58.778   05 Jun 2027 06:17:00.651             1.873           936.500
        95   05 Jun 2027 06:17:08.460   05 Jun 2027 06:17:15.451             6.991          1915.781
        96   05 Jun 2027 06:18:13.028   05 Jun 2027 06:18:18.455             5.427           719.781
        97   05 Jun 2027 06:18:53.055   05 Jun 2027 06:18:55.159             2.104           141.125
        98   05 Jun 2027 07:48:47.243   05 Jun 2027 07:48:50.469             3.226          1351.781
        99   05 Jun 2027 07:50:06.140   05 Jun 2027 07:50:13.384             7.244           212.781
       100   05 Jun 2027 07:50:56.860   05 Jun 2027 07:50:58.373             1.513           571.688
       101   05 Jun 2027 07:52:33.356   05 Jun 2027 07:52:41.399             8.043          2317.687
       102   05 Jun 2027 07:53:01.638   05 Jun 2027 07:53:03.646             2.008           559.031
       103   05 Jun 2027 07:53:35.239   05 Jun 2027 07:53:36.928             1.689           706.000
       104   05 Jun 2027 07:54:02.869   05 Jun 2027 07:54:05.798             2.929           693.094
       105   05 Jun 2027 09:27:02.389   05 Jun 2027 09:27:17.089            14.700          6262.281
       106   05 Jun 2027 09:27:17.289   05 Jun 2027 09:27:18.331             1.042             6.250
       107   05 Jun 2027 09:28:46.354   05 Jun 2027 09:28:51.593             5.239          1416.000
       108   05 Jun 2027 09:29:41.152   05 Jun 2027 09:29:49.260             8.108          1382.687
       109   05 Jun 2027 09:30:17.899   05 Jun 2027 09:30:19.399             1.500           669.406
       110   05 Jun 2027 09:30:26.610   05 Jun 2027 09:30:29.804             3.194           213.625
       111   05 Jun 2027 11:00:19.749   05 Jun 2027 11:00:31.911            12.162          5654.969
       112   06 Jun 2027 03:12:06.314   06 Jun 2027 03:12:20.593            14.279          7139.500
       113   06 Jun 2027 03:13:47.374   06 Jun 2027 03:13:50.231             2.857          1428.500
       114   06 Jun 2027 03:16:18.860   06 Jun 2027 03:16:18.860             0.000             0.000
       115   06 Jun 2027 03:16:44.827   06 Jun 2027 03:16:52.879             8.052          4026.000
       116   06 Jun 2027 04:47:10.129   06 Jun 2027 04:48:27.628            77.499         38749.500
       117   06 Jun 2027 04:48:59.983   06 Jun 2027 04:49:50.628            50.645         25322.500
       118   06 Jun 2027 04:51:34.793   06 Jun 2027 04:52:21.179            46.386         23193.000
       119   06 Jun 2027 04:52:41.332   06 Jun 2027 04:53:01.250            19.918          9959.000
       120   06 Jun 2027 06:24:07.606   06 Jun 2027 06:25:41.057            93.451         46206.937
       121   06 Jun 2027 06:26:42.865   06 Jun 2027 06:26:46.056             3.191           174.031
       122   06 Jun 2027 06:27:08.944   06 Jun 2027 06:27:10.058             1.114           137.812
       123   06 Jun 2027 06:28:59.777   06 Jun 2027 06:29:01.350             1.573           786.500
       124   06 Jun 2027 06:29:11.312   06 Jun 2027 06:29:20.280             8.968          2684.312
       125   06 Jun 2027 06:29:37.261   06 Jun 2027 06:29:39.222             1.961           160.469
       126   06 Jun 2027 06:30:31.636   06 Jun 2027 06:30:31.636             0.000             0.000
       127   06 Jun 2027 06:30:38.550   06 Jun 2027 06:30:43.279             4.729          1506.219
       128   06 Jun 2027 08:01:06.070   06 Jun 2027 08:01:07.203             1.133           387.469
       129   06 Jun 2027 08:02:33.304   06 Jun 2027 08:02:38.896             5.592           796.906
       130   06 Jun 2027 08:03:04.087   06 Jun 2027 08:03:09.552             5.465           419.375
       131   06 Jun 2027 08:03:27.675   06 Jun 2027 08:03:32.837             5.162           259.281
       132   06 Jun 2027 08:03:56.742   06 Jun 2027 08:03:56.742             0.000             0.000
       133   06 Jun 2027 08:04:19.543   06 Jun 2027 08:04:23.042             3.499          1076.844
       134   06 Jun 2027 08:05:15.350   06 Jun 2027 08:05:18.346             2.996          1012.438
       135   06 Jun 2027 08:05:33.606   06 Jun 2027 08:05:35.877             2.271           342.938
       136   06 Jun 2027 08:06:46.588   06 Jun 2027 08:06:52.380             5.792           749.187
       137   06 Jun 2027 09:39:00.509   06 Jun 2027 09:39:12.496            11.987          5506.500
       138   06 Jun 2027 09:40:21.546   06 Jun 2027 09:40:22.585             1.039           458.312
       139   06 Jun 2027 09:41:40.547   06 Jun 2027 09:41:44.280             3.733          1712.000
       140   06 Jun 2027 09:42:20.353   06 Jun 2027 09:42:23.944             3.591           926.281
       141   06 Jun 2027 09:42:39.460   06 Jun 2027 09:42:40.100             0.640           190.031
       142   06 Jun 2027 11:12:19.471   06 Jun 2027 11:12:29.406             9.935          3906.219
       143   07 Jun 2027 03:23:36.151   07 Jun 2027 03:23:53.824            17.673          8836.500
       144   07 Jun 2027 03:28:17.975   07 Jun 2027 03:28:23.411             5.436          2718.000
       145   07 Jun 2027 04:58:35.124   07 Jun 2027 05:02:05.838           210.714        105357.000
       146   07 Jun 2027 05:03:07.710   07 Jun 2027 05:03:17.857            10.147          5073.500
       147   07 Jun 2027 05:06:58.244   07 Jun 2027 05:07:06.895             8.651          4325.500
       148   07 Jun 2027 06:36:11.326   07 Jun 2027 06:37:20.842            69.516         32712.937
       149   07 Jun 2027 06:38:18.848   07 Jun 2027 06:38:24.803             5.955          1635.187
       150   07 Jun 2027 06:38:46.794   07 Jun 2027 06:38:47.852             1.058           502.969
       151   07 Jun 2027 06:39:13.897   07 Jun 2027 06:39:15.841             1.944           545.594
       152   07 Jun 2027 06:39:43.127   07 Jun 2027 06:39:51.084             7.957           661.219
       153   07 Jun 2027 06:40:23.327   07 Jun 2027 06:40:25.009             1.682            64.187
       154   07 Jun 2027 06:41:14.034   07 Jun 2027 06:41:14.034             0.000             0.000
       155   07 Jun 2027 06:41:19.293   07 Jun 2027 06:41:21.557             2.264           470.906
       156   07 Jun 2027 06:41:24.393   07 Jun 2027 06:41:24.917             0.524            88.625
       157   07 Jun 2027 06:42:02.714   07 Jun 2027 06:42:09.033             6.319           523.562
       158   07 Jun 2027 08:12:55.325   07 Jun 2027 08:13:04.568             9.243          1531.406
       159   07 Jun 2027 08:15:47.148   07 Jun 2027 08:15:49.021             1.873           809.719
       160   07 Jun 2027 08:16:18.502   07 Jun 2027 08:16:22.783             4.281           921.281
       161   07 Jun 2027 08:16:52.243   07 Jun 2027 08:16:57.523             5.280           707.750
       162   07 Jun 2027 08:17:08.670   07 Jun 2027 08:17:10.141             1.471           348.344
       163   07 Jun 2027 08:17:39.140   07 Jun 2027 08:17:41.501             2.361           887.406
       164   07 Jun 2027 08:18:05.194   07 Jun 2027 08:18:07.510             2.316           214.594
       165   07 Jun 2027 08:19:16.155   07 Jun 2027 08:19:25.616             9.461          1458.625
       166   07 Jun 2027 09:50:59.913   07 Jun 2027 09:51:10.369            10.456          5175.250
       167   07 Jun 2027 09:52:03.075   07 Jun 2027 09:52:06.151             3.076           276.031
       168   07 Jun 2027 09:52:39.573   07 Jun 2027 09:52:44.295             4.722           923.312
       169   07 Jun 2027 09:54:03.014   07 Jun 2027 09:54:05.080             2.066           122.375
       170   07 Jun 2027 09:54:22.278   07 Jun 2027 09:54:25.201             2.923           226.219
       171   07 Jun 2027 09:54:42.409   07 Jun 2027 09:54:45.044             2.635            78.656
       172   07 Jun 2027 11:24:45.136   07 Jun 2027 11:24:47.763             2.627           456.344
       173   08 Jun 2027 03:35:12.323   08 Jun 2027 03:35:16.337             4.014          2007.000
       174   08 Jun 2027 03:35:20.401   08 Jun 2027 03:35:35.306            14.905          7452.500
       175   08 Jun 2027 03:37:10.964   08 Jun 2027 03:37:17.373             6.409          3204.500
       176   08 Jun 2027 03:41:08.426   08 Jun 2027 03:41:08.426             0.000             0.000
       177   08 Jun 2027 05:10:05.716   08 Jun 2027 05:13:34.148           208.432        104216.000
       178   08 Jun 2027 05:15:29.602   08 Jun 2027 05:15:43.990            14.388          7194.000
       179   08 Jun 2027 05:16:49.201   08 Jun 2027 05:17:09.935            20.734         10367.000
       180   08 Jun 2027 06:48:09.859   08 Jun 2027 06:49:09.682            59.823         27059.531
       181   08 Jun 2027 06:49:29.478   08 Jun 2027 06:49:33.179             3.701           618.625
       182   08 Jun 2027 06:51:12.202   08 Jun 2027 06:51:13.963             1.761           385.250
       183   08 Jun 2027 06:51:22.525   08 Jun 2027 06:51:25.282             2.757           267.562
       184   08 Jun 2027 06:51:50.966   08 Jun 2027 06:51:52.708             1.742           802.625
       185   08 Jun 2027 06:52:55.685   08 Jun 2027 06:53:01.828             6.143          1842.750
       186   08 Jun 2027 06:53:16.586   08 Jun 2027 06:53:16.586             0.000             0.000
       187   08 Jun 2027 06:53:35.195   08 Jun 2027 06:53:42.581             7.386           984.313
       188   08 Jun 2027 06:53:47.067   08 Jun 2027 06:53:49.472             2.405            98.906
       189   08 Jun 2027 08:25:03.036   08 Jun 2027 08:25:12.883             9.847          4506.250
       190   08 Jun 2027 08:27:34.589   08 Jun 2027 08:27:39.625             5.036          1773.750
       191   08 Jun 2027 08:28:00.997   08 Jun 2027 08:28:05.512             4.515           435.562
       192   08 Jun 2027 08:28:12.549   08 Jun 2027 08:28:12.710             0.161            80.500
       193   08 Jun 2027 08:28:49.353   08 Jun 2027 08:28:54.246             4.893          1284.500
       194   08 Jun 2027 08:29:21.579   08 Jun 2027 08:29:24.026             2.447           837.719
       195   08 Jun 2027 08:29:39.982   08 Jun 2027 08:29:41.601             1.619           217.406
       196   08 Jun 2027 08:30:37.655   08 Jun 2027 08:30:38.716             1.061           134.625
       197   08 Jun 2027 10:02:13.088   08 Jun 2027 10:02:23.589            10.501          4666.781
       198   08 Jun 2027 10:04:17.383   08 Jun 2027 10:04:23.343             5.960          1832.625
       199   08 Jun 2027 10:05:35.516   08 Jun 2027 10:05:37.396             1.880           204.406
       200   08 Jun 2027 10:06:23.625   08 Jun 2027 10:06:24.799             1.174           532.969
       201   08 Jun 2027 10:06:52.203   08 Jun 2027 10:06:53.214             1.011           100.031
       202   08 Jun 2027 11:36:59.976   08 Jun 2027 11:37:02.707             2.731          1221.375
       203   09 Jun 2027 03:49:31.142   09 Jun 2027 03:49:42.256            11.114          5557.000
       204   09 Jun 2027 03:50:30.733   09 Jun 2027 03:50:38.501             7.768          3884.000
       205   09 Jun 2027 03:51:00.488   09 Jun 2027 03:51:17.376            16.888          8444.000
       206   09 Jun 2027 05:23:04.559   09 Jun 2027 05:26:12.755           188.196         94098.000
       207   09 Jun 2027 05:30:15.779   09 Jun 2027 05:30:48.093            32.314         16157.000
       208   09 Jun 2027 05:31:17.447   09 Jun 2027 05:31:38.218            20.771         10385.500
       209   09 Jun 2027 07:00:31.836   09 Jun 2027 07:01:10.998            39.162         19082.937
       210   09 Jun 2027 07:02:30.992   09 Jun 2027 07:02:33.973             2.981           457.750
       211   09 Jun 2027 07:03:24.215   09 Jun 2027 07:03:24.987             0.772           340.406
       212   09 Jun 2027 07:04:01.569   09 Jun 2027 07:04:04.407             2.838          1031.187
       213   09 Jun 2027 07:05:02.829   09 Jun 2027 07:05:07.250             4.421           785.719
       214   09 Jun 2027 07:06:27.210   09 Jun 2027 07:06:29.922             2.712          1244.062
       215   09 Jun 2027 08:37:31.770   09 Jun 2027 08:37:38.258             6.488          2424.000
       216   09 Jun 2027 08:39:13.576   09 Jun 2027 08:39:14.754             1.178           271.187
       217   09 Jun 2027 08:39:46.177   09 Jun 2027 08:39:53.687             7.510            17.312
       218   09 Jun 2027 08:40:08.305   09 Jun 2027 08:40:10.235             1.930           456.812
       219   09 Jun 2027 08:40:53.015   09 Jun 2027 08:40:55.796             2.781          1336.875
       220   09 Jun 2027 08:41:48.231   09 Jun 2027 08:41:55.120             6.889          1616.500
       221   09 Jun 2027 08:42:40.566   09 Jun 2027 08:42:44.204             3.638          1185.313
       222   09 Jun 2027 10:14:25.753   09 Jun 2027 10:14:42.664            16.911          7219.438
       223   09 Jun 2027 10:16:38.161   09 Jun 2027 10:16:39.681             1.520           185.313
       224   09 Jun 2027 11:51:35.048   09 Jun 2027 11:51:42.406             7.358           710.781
       225   10 Jun 2027 04:01:36.592   10 Jun 2027 04:01:53.900            17.308          8654.000
       226   10 Jun 2027 04:03:11.029   10 Jun 2027 04:03:12.918             1.889           944.500
       227   10 Jun 2027 04:03:41.588   10 Jun 2027 04:03:41.588             0.000             0.000
       228   10 Jun 2027 05:33:47.298   10 Jun 2027 05:33:55.880             8.582          4291.000
       229   10 Jun 2027 05:35:43.433   10 Jun 2027 05:38:50.082           186.649         93324.500
       230   10 Jun 2027 05:42:51.038   10 Jun 2027 05:43:05.321            14.283          7141.500
       231   10 Jun 2027 07:12:41.375   10 Jun 2027 07:14:10.370            88.995         43559.156
       232   10 Jun 2027 07:15:28.418   10 Jun 2027 07:15:31.588             3.170           823.562
       233   10 Jun 2027 07:15:47.221   10 Jun 2027 07:15:48.290             1.069            83.812
       234   10 Jun 2027 07:16:36.962   10 Jun 2027 07:16:38.749             1.787           420.719
       235   10 Jun 2027 07:17:55.514   10 Jun 2027 07:18:03.310             7.796          1813.281
       236   10 Jun 2027 07:18:26.402   10 Jun 2027 07:18:30.123             3.721            72.344
       237   10 Jun 2027 08:49:58.336   10 Jun 2027 08:50:11.388            13.052          5897.937
       238   10 Jun 2027 08:51:55.073   10 Jun 2027 08:52:03.194             8.121             1.969
       239   10 Jun 2027 08:53:00.722   10 Jun 2027 08:53:05.765             5.043          1797.750
       240   10 Jun 2027 10:26:26.754   10 Jun 2027 10:26:39.349            12.595          5911.969
       241   10 Jun 2027 10:28:33.065   10 Jun 2027 10:28:34.092             1.027           230.000
       242   10 Jun 2027 10:30:24.356   10 Jun 2027 10:30:24.713             0.357           156.000
       243   10 Jun 2027 10:30:58.698   10 Jun 2027 10:31:00.304             1.606           426.938
       244   11 Jun 2027 04:13:45.711   11 Jun 2027 04:14:06.528            20.817         10408.500
       245   11 Jun 2027 04:15:03.067   11 Jun 2027 04:15:39.664            36.597         18298.500
       246   11 Jun 2027 05:48:56.312   11 Jun 2027 05:50:34.328            98.016         49008.000
       247   11 Jun 2027 05:51:01.830   11 Jun 2027 05:51:26.243            24.413         12206.500
       248   11 Jun 2027 05:51:36.185   11 Jun 2027 05:52:00.923            24.738         12369.000
       249   11 Jun 2027 05:54:11.828   11 Jun 2027 05:54:53.219            41.391         20695.500
       250   11 Jun 2027 05:55:31.798   11 Jun 2027 05:55:34.545             2.747          1373.500
       251   11 Jun 2027 07:25:15.432   11 Jun 2027 07:26:35.900            80.468         38457.031
       252   11 Jun 2027 07:28:49.267   11 Jun 2027 07:28:54.248             4.981          1669.906
       253   11 Jun 2027 07:29:48.028   11 Jun 2027 07:29:52.472             4.444          1515.312
       254   11 Jun 2027 07:30:57.285   11 Jun 2027 07:30:58.593             1.308           356.687
       255   11 Jun 2027 09:02:39.099   11 Jun 2027 09:02:50.623            11.524          4274.625
       256   11 Jun 2027 09:03:41.057   11 Jun 2027 09:03:47.180             6.123          1202.969
       257   11 Jun 2027 09:04:58.518   11 Jun 2027 09:05:04.253             5.735          2031.344
       258   11 Jun 2027 09:06:49.827   11 Jun 2027 09:06:51.553             1.726           719.781
       259   11 Jun 2027 10:38:51.546   11 Jun 2027 10:39:02.790            11.244          5027.625
       260   11 Jun 2027 10:40:40.909   11 Jun 2027 10:40:43.236             2.327           561.875
       261   12 Jun 2027 04:25:46.682   12 Jun 2027 04:27:14.406            87.724         43862.000
       262   12 Jun 2027 04:28:46.910   12 Jun 2027 04:29:15.167            28.257         14128.500
       263   12 Jun 2027 06:00:59.450   12 Jun 2027 06:03:49.571           170.121         85060.500
       264   12 Jun 2027 06:04:24.734   12 Jun 2027 06:04:43.096            18.362          9181.000
       265   12 Jun 2027 06:06:21.989   12 Jun 2027 06:06:27.805             5.816          2908.000
       266   12 Jun 2027 06:07:18.926   12 Jun 2027 06:07:31.819            12.893          6029.875
       267   12 Jun 2027 07:36:54.563   12 Jun 2027 07:36:59.113             4.550          1344.813
       268   12 Jun 2027 07:39:58.163   12 Jun 2027 07:39:58.265             0.102            31.500
       269   12 Jun 2027 07:41:01.463   12 Jun 2027 07:41:08.483             7.020          1255.531
       270   12 Jun 2027 07:41:48.548   12 Jun 2027 07:41:50.233             1.685           226.812
       271   12 Jun 2027 07:42:56.387   12 Jun 2027 07:43:02.944             6.557          1256.344
       272   12 Jun 2027 09:14:52.485   12 Jun 2027 09:15:05.451            12.966          6286.781
       273   12 Jun 2027 09:15:41.591   12 Jun 2027 09:15:46.195             4.604           129.187
       274   12 Jun 2027 09:17:01.036   12 Jun 2027 09:17:14.313            13.277          1572.469
       275   12 Jun 2027 09:18:18.813   12 Jun 2027 09:18:21.089             2.276           982.562
       276   12 Jun 2027 09:18:29.988   12 Jun 2027 09:18:35.639             5.651           278.094
       277   12 Jun 2027 10:50:45.081   12 Jun 2027 10:50:57.961            12.880          5175.813
       278   12 Jun 2027 10:52:17.070   12 Jun 2027 10:52:18.949             1.879            60.187
       279   12 Jun 2027 10:52:41.857   12 Jun 2027 10:52:44.587             2.730           708.750
       280   13 Jun 2027 03:01:07.307   13 Jun 2027 03:01:18.463            11.156          5578.000
       281   13 Jun 2027 03:03:33.099   13 Jun 2027 03:03:39.595             6.496          3248.000
       282   13 Jun 2027 03:03:50.795   13 Jun 2027 03:03:50.795             0.000             0.000
       283   13 Jun 2027 04:37:30.225   13 Jun 2027 04:37:41.430            11.205          5602.500
       284   13 Jun 2027 04:37:50.136   13 Jun 2027 04:40:28.632           158.496         79248.000
       285   13 Jun 2027 04:41:42.523   13 Jun 2027 04:41:51.134             8.611          4305.500
       286   13 Jun 2027 06:12:14.118   13 Jun 2027 06:13:57.044           102.926         50515.563
       287   13 Jun 2027 06:14:23.240   13 Jun 2027 06:14:24.397             1.157            64.906
       288   13 Jun 2027 06:15:25.344   13 Jun 2027 06:15:26.724             1.380            73.750
       289   13 Jun 2027 06:17:14.520   13 Jun 2027 06:17:15.826             1.306           653.000
       290   13 Jun 2027 06:17:25.226   13 Jun 2027 06:17:31.050             5.824          2808.344
       291   13 Jun 2027 06:18:04.878   13 Jun 2027 06:18:07.483             2.605           258.688
       292   13 Jun 2027 06:18:12.880   13 Jun 2027 06:18:13.368             0.488            25.625
       293   13 Jun 2027 06:19:07.570   13 Jun 2027 06:19:10.911             3.341           111.469
       294   13 Jun 2027 07:49:02.338   13 Jun 2027 07:49:05.064             2.726           558.594
       295   13 Jun 2027 07:50:14.227   13 Jun 2027 07:50:14.954             0.727           197.969
       296   13 Jun 2027 07:50:53.000   13 Jun 2027 07:50:56.737             3.737           946.281
       297   13 Jun 2027 07:51:20.845   13 Jun 2027 07:51:23.297             2.452           362.156
       298   13 Jun 2027 07:52:48.272   13 Jun 2027 07:52:55.753             7.481          2319.875
       299   13 Jun 2027 07:53:27.376   13 Jun 2027 07:53:29.836             2.460           848.719
       300   13 Jun 2027 07:53:42.363   13 Jun 2027 07:53:45.002             2.639           221.188
       301   13 Jun 2027 07:53:55.113   13 Jun 2027 07:53:58.673             3.560           154.500
       302   13 Jun 2027 09:27:16.990   13 Jun 2027 09:27:31.841            14.851          6998.562
       303   13 Jun 2027 09:28:17.332   13 Jun 2027 09:28:20.783             3.451          1421.594
       304   13 Jun 2027 09:28:49.403   13 Jun 2027 09:28:50.431             1.028           427.156
       305   13 Jun 2027 09:29:58.393   13 Jun 2027 09:30:04.743             6.350          1787.844
       306   13 Jun 2027 11:00:34.167   13 Jun 2027 11:00:45.535            11.368          5477.344
