uniorb/output/strategy_4/Camera/Camera_KinoSat_111302.txt

KinoSat_111302
-------------------------
    Access    *     Start Time (UTCG)     *     Stop Time (UTCG)  *   Duration (s) *   Data (Mbytes)
         1   01 Jun 2027 03:57:06.523   01 Jun 2027 03:59:23.223           136.700         68350.000
         2   01 Jun 2027 03:59:33.022   01 Jun 2027 03:59:33.022             0.000             0.000
         3   01 Jun 2027 04:00:10.216   01 Jun 2027 04:00:30.832            20.616         10308.000
         4   01 Jun 2027 05:20:02.070   01 Jun 2027 05:21:00.502            58.432         29216.000
         5   01 Jun 2027 05:21:10.792   01 Jun 2027 05:21:31.025            20.233         10116.500
         6   01 Jun 2027 06:56:37.080   01 Jun 2027 06:58:44.951           127.871         63935.500
         7   01 Jun 2027 06:59:24.085   01 Jun 2027 06:59:24.085             0.000             0.000
         8   01 Jun 2027 08:31:45.488   01 Jun 2027 08:33:28.263           102.775         51387.500
         9   01 Jun 2027 08:36:50.229   01 Jun 2027 08:37:12.476            22.247         11123.500
        10   01 Jun 2027 08:37:43.015   01 Jun 2027 08:38:13.587            30.572         15286.000
        11   01 Jun 2027 10:08:05.606   01 Jun 2027 10:10:31.773           146.167         73083.500
        12   01 Jun 2027 10:10:37.923   01 Jun 2027 10:10:53.180            15.257          7628.500
        13   01 Jun 2027 11:45:38.560   01 Jun 2027 11:46:24.518            45.958         22979.000
        14   01 Jun 2027 11:47:01.677   01 Jun 2027 11:47:41.800            40.123         20061.500
        15   01 Jun 2027 11:49:40.557   01 Jun 2027 11:49:59.312            18.755          9377.500
        16   02 Jun 2027 04:08:52.092   02 Jun 2027 04:09:25.694            33.602         16801.000
        17   02 Jun 2027 04:09:40.559   02 Jun 2027 04:11:04.550            83.991         41995.500
        18   02 Jun 2027 04:11:38.418   02 Jun 2027 04:12:01.837            23.419         11709.500
        19   02 Jun 2027 05:32:13.130   02 Jun 2027 05:33:31.648            78.518         39259.000
        20   02 Jun 2027 05:35:18.776   02 Jun 2027 05:35:18.776             0.000             0.000
        21   02 Jun 2027 07:08:47.920   02 Jun 2027 07:12:15.115           207.195        103597.500
        22   02 Jun 2027 08:43:57.626   02 Jun 2027 08:46:52.802           175.176         87588.000
        23   02 Jun 2027 08:50:05.210   02 Jun 2027 08:50:05.210             0.000             0.000
        24   02 Jun 2027 08:50:21.094   02 Jun 2027 08:50:33.543            12.449          6224.500
        25   02 Jun 2027 10:20:18.853   02 Jun 2027 10:21:55.915            97.062         44069.687
        26   02 Jun 2027 10:22:35.410   02 Jun 2027 10:22:36.440             1.030           317.000
        27   02 Jun 2027 10:23:31.014   02 Jun 2027 10:23:40.404             9.390          1090.031
        28   02 Jun 2027 10:24:22.104   02 Jun 2027 10:24:28.055             5.951          1002.406
        29   02 Jun 2027 10:25:26.883   02 Jun 2027 10:25:29.406             2.523           962.406
        30   02 Jun 2027 11:57:35.975   02 Jun 2027 11:57:52.675            16.700          6619.875
        31   02 Jun 2027 11:58:55.199   02 Jun 2027 11:59:03.961             8.762          1234.250
        32   02 Jun 2027 11:59:41.583   02 Jun 2027 11:59:44.399             2.816          1116.906
        33   03 Jun 2027 04:20:48.793   03 Jun 2027 04:21:28.674            39.881         19940.500
        34   03 Jun 2027 04:21:47.603   03 Jun 2027 04:22:58.609            71.006         35503.000
        35   03 Jun 2027 04:23:19.153   03 Jun 2027 04:23:40.848            21.695         10847.500
        36   03 Jun 2027 04:24:13.851   03 Jun 2027 04:24:21.790             7.939          3969.500
        37   03 Jun 2027 05:44:44.196   03 Jun 2027 05:45:31.932            47.736         23868.000
        38   03 Jun 2027 05:45:57.754   03 Jun 2027 05:45:57.754             0.000             0.000
        39   03 Jun 2027 07:20:36.626   03 Jun 2027 07:22:54.592           137.966         68983.000
        40   03 Jun 2027 07:23:50.344   03 Jun 2027 07:23:54.647             4.303          2005.469
        41   03 Jun 2027 08:55:30.225   03 Jun 2027 08:55:42.366            12.141          2647.062
        42   03 Jun 2027 08:57:30.282   03 Jun 2027 08:57:37.062             6.780          2867.656
        43   03 Jun 2027 08:58:21.734   03 Jun 2027 08:58:28.113             6.379           990.969
        44   03 Jun 2027 08:58:34.262   03 Jun 2027 08:58:35.433             1.171           192.156
        45   03 Jun 2027 08:59:27.396   03 Jun 2027 08:59:39.238            11.842          1223.156
        46   03 Jun 2027 09:00:05.185   03 Jun 2027 09:00:12.171             6.986           228.969
        47   03 Jun 2027 09:00:48.849   03 Jun 2027 09:00:53.726             4.877          1022.531
        48   03 Jun 2027 09:01:11.689   03 Jun 2027 09:01:12.967             1.278           302.156
        49   03 Jun 2027 09:02:38.638   03 Jun 2027 09:02:42.733             4.095          2047.500
        50   03 Jun 2027 10:31:56.542   03 Jun 2027 10:32:08.773            12.231          4976.937
        51   03 Jun 2027 10:34:35.323   03 Jun 2027 10:34:35.428             0.105            17.188
        52   03 Jun 2027 10:34:38.754   03 Jun 2027 10:34:41.641             2.887           103.937
        53   03 Jun 2027 10:35:00.125   03 Jun 2027 10:35:03.198             3.073           453.375
        54   03 Jun 2027 10:35:41.550   03 Jun 2027 10:35:47.534             5.984          1186.969
        55   03 Jun 2027 10:36:10.319   03 Jun 2027 10:36:10.931             0.612           175.000
        56   03 Jun 2027 10:37:00.460   03 Jun 2027 10:37:03.944             3.484          1439.500
        57   03 Jun 2027 10:37:07.215   03 Jun 2027 10:37:10.725             3.510            74.812
        58   03 Jun 2027 10:37:12.268   03 Jun 2027 10:37:22.497            10.229            48.219
        59   03 Jun 2027 10:38:10.194   03 Jun 2027 10:38:16.582             6.388          1490.531
        60   04 Jun 2027 03:00:00.000   04 Jun 2027 03:00:14.175            14.175          7087.500
        61   04 Jun 2027 03:00:30.916   04 Jun 2027 03:00:44.340            13.424          6712.000
        62   04 Jun 2027 03:02:16.174   04 Jun 2027 03:02:38.315            22.141         11070.500
        63   04 Jun 2027 03:02:47.265   04 Jun 2027 03:03:22.588            35.323         17661.500
        64   04 Jun 2027 04:21:26.051   04 Jun 2027 04:21:58.100            32.049         16024.500
        65   04 Jun 2027 04:32:44.964   04 Jun 2027 04:34:18.668            93.704         46852.000
        66   04 Jun 2027 05:55:20.170   04 Jun 2027 05:56:24.761            64.591         32295.500
        67   04 Jun 2027 05:57:08.435   04 Jun 2027 05:57:27.414            18.979          9489.500
        68   04 Jun 2027 05:59:16.593   04 Jun 2027 05:59:17.731             1.138           569.000
        69   04 Jun 2027 05:59:20.912   04 Jun 2027 05:59:38.814            17.902          8951.000
        70   04 Jun 2027 05:59:55.654   04 Jun 2027 06:00:00.485             4.831          2415.500
        71   04 Jun 2027 07:30:52.614   04 Jun 2027 07:31:42.868            50.254         25127.000
        72   04 Jun 2027 07:32:21.002   04 Jun 2027 07:32:28.370             7.368          3653.687
        73   04 Jun 2027 07:33:54.528   04 Jun 2027 07:34:01.516             6.988          2500.969
        74   04 Jun 2027 07:34:12.417   04 Jun 2027 07:34:15.840             3.423           174.281
        75   04 Jun 2027 07:35:25.305   04 Jun 2027 07:35:28.845             3.540           292.094
        76   04 Jun 2027 07:36:09.113   04 Jun 2027 07:36:12.118             3.005          1254.281
        77   04 Jun 2027 07:36:40.934   04 Jun 2027 07:36:41.605             0.671           335.500
        78   04 Jun 2027 09:07:10.600   04 Jun 2027 09:07:17.788             7.188          3524.625
        79   04 Jun 2027 09:07:36.614   04 Jun 2027 09:07:36.614             0.000             0.000
        80   04 Jun 2027 09:08:09.642   04 Jun 2027 09:08:12.380             2.738          1156.219
        81   04 Jun 2027 09:10:22.828   04 Jun 2027 09:10:26.781             3.953          1632.875
        82   04 Jun 2027 09:10:52.034   04 Jun 2027 09:10:52.034             0.000             0.000
        83   04 Jun 2027 09:11:29.444   04 Jun 2027 09:11:32.639             3.195          1480.312
        84   04 Jun 2027 09:12:07.580   04 Jun 2027 09:12:11.179             3.599          1025.625
        85   04 Jun 2027 09:12:50.921   04 Jun 2027 09:12:52.771             1.850           673.906
        86   04 Jun 2027 09:13:54.518   04 Jun 2027 09:13:57.446             2.928          1372.250
        87   04 Jun 2027 09:14:43.390   04 Jun 2027 09:14:43.568             0.178            89.000
        88   04 Jun 2027 10:44:16.369   04 Jun 2027 10:44:33.681            17.312          7114.812
        89   04 Jun 2027 10:46:15.979   04 Jun 2027 10:46:18.749             2.770            12.125
        90   04 Jun 2027 10:46:29.073   04 Jun 2027 10:46:31.347             2.274           255.625
        91   04 Jun 2027 10:46:57.566   04 Jun 2027 10:46:59.576             2.010           342.531
        92   04 Jun 2027 10:47:36.717   04 Jun 2027 10:47:39.700             2.983           980.062
        93   04 Jun 2027 10:48:21.593   04 Jun 2027 10:48:26.216             4.623          1296.344
        94   04 Jun 2027 10:48:55.992   04 Jun 2027 10:48:59.468             3.476           930.500
        95   04 Jun 2027 10:49:05.901   04 Jun 2027 10:49:08.656             2.755           201.031
        96   04 Jun 2027 10:49:49.361   04 Jun 2027 10:49:54.125             4.764           862.531
        97   04 Jun 2027 10:50:19.164   04 Jun 2027 10:50:24.471             5.307           755.281
        98   05 Jun 2027 03:08:13.810   05 Jun 2027 03:09:13.914            60.104         30052.000
        99   05 Jun 2027 03:10:15.203   05 Jun 2027 03:10:15.203             0.000             0.000
       100   05 Jun 2027 03:10:22.656   05 Jun 2027 03:10:26.016             3.360          1680.000
       101   05 Jun 2027 03:11:22.641   05 Jun 2027 03:11:26.381             3.740          1870.000
       102   05 Jun 2027 03:12:01.478   05 Jun 2027 03:12:05.958             4.480          2240.000
       103   05 Jun 2027 03:12:18.725   05 Jun 2027 03:12:45.061            26.336         13168.000
       104   05 Jun 2027 03:14:02.270   05 Jun 2027 03:14:02.270             0.000             0.000
       105   05 Jun 2027 03:14:23.813   05 Jun 2027 03:14:23.872             0.059            29.500
       106   05 Jun 2027 03:14:27.426   05 Jun 2027 03:14:29.951             2.525          1262.500
       107   05 Jun 2027 03:14:59.446   05 Jun 2027 03:15:22.253            22.807         11403.500
       108   05 Jun 2027 04:33:04.231   05 Jun 2027 04:33:27.713            23.482         11741.000
       109   05 Jun 2027 04:34:10.449   05 Jun 2027 04:34:11.765             1.316           658.000
       110   05 Jun 2027 04:44:48.178   05 Jun 2027 04:45:47.494            59.316         29658.000
       111   05 Jun 2027 06:07:03.444   05 Jun 2027 06:08:09.362            65.918         32959.000
       112   05 Jun 2027 06:09:00.442   05 Jun 2027 06:10:01.158            60.716         29069.406
       113   05 Jun 2027 06:11:39.808   05 Jun 2027 06:11:47.008             7.200          3077.406
       114   05 Jun 2027 07:42:01.264   05 Jun 2027 07:42:07.221             5.957          2378.281
       115   05 Jun 2027 07:43:27.637   05 Jun 2027 07:43:32.680             5.043          1121.469
       116   05 Jun 2027 07:44:04.993   05 Jun 2027 07:44:08.217             3.224           540.875
       117   05 Jun 2027 07:45:03.151   05 Jun 2027 07:45:13.749            10.598          1618.656
       118   05 Jun 2027 07:45:37.473   05 Jun 2027 07:45:46.545             9.072           718.625
       119   05 Jun 2027 07:46:05.551   05 Jun 2027 07:46:16.642            11.091           469.063
       120   05 Jun 2027 07:47:28.570   05 Jun 2027 07:47:31.490             2.920           378.625
       121   05 Jun 2027 07:47:53.845   05 Jun 2027 07:47:54.977             1.132           427.156
       122   05 Jun 2027 07:48:53.583   05 Jun 2027 07:48:58.123             4.540          1762.000
       123   05 Jun 2027 07:49:59.518   05 Jun 2027 07:50:01.420             1.902           698.281
       124   05 Jun 2027 09:19:29.772   05 Jun 2027 09:19:35.144             5.372          2686.000
       125   05 Jun 2027 09:20:12.150   05 Jun 2027 09:20:20.559             8.409          1474.250
       126   05 Jun 2027 09:22:33.758   05 Jun 2027 09:22:38.919             5.161          1983.844
       127   05 Jun 2027 09:23:44.405   05 Jun 2027 09:23:56.934            12.529          1549.781
       128   05 Jun 2027 09:24:38.674   05 Jun 2027 09:24:41.125             2.451          1193.344
       129   05 Jun 2027 09:25:51.478   05 Jun 2027 09:25:56.589             5.111          1874.281
       130   05 Jun 2027 09:26:27.544   05 Jun 2027 09:26:34.511             6.967           886.969
       131   05 Jun 2027 10:56:14.579   05 Jun 2027 10:56:26.734            12.155          5480.906
       132   05 Jun 2027 10:58:55.179   05 Jun 2027 10:59:02.096             6.917          2011.500
       133   05 Jun 2027 11:00:00.883   05 Jun 2027 11:00:02.627             1.744           227.344
       134   05 Jun 2027 11:00:13.064   05 Jun 2027 11:00:14.202             1.138           141.437
       135   05 Jun 2027 11:00:18.978   05 Jun 2027 11:00:19.749             0.771           149.250
       136   05 Jun 2027 11:00:39.146   05 Jun 2027 11:00:50.227            11.081           288.594
       137   05 Jun 2027 11:01:02.285   05 Jun 2027 11:01:04.722             2.437            37.000
       138   05 Jun 2027 11:01:36.224   05 Jun 2027 11:01:40.727             4.503           916.844
       139   05 Jun 2027 11:02:19.772   05 Jun 2027 11:02:23.596             3.824           710.000
       140   06 Jun 2027 03:20:15.865   06 Jun 2027 03:22:41.199           145.334         72667.000
       141   06 Jun 2027 03:22:51.248   06 Jun 2027 03:22:59.988             8.740          4370.000
       142   06 Jun 2027 03:23:53.082   06 Jun 2027 03:24:17.324            24.242         12121.000
       143   06 Jun 2027 03:24:29.247   06 Jun 2027 03:24:48.790            19.543          9771.500
       144   06 Jun 2027 03:25:51.992   06 Jun 2027 03:26:07.872            15.880          7940.000
       145   06 Jun 2027 04:44:37.586   06 Jun 2027 04:45:18.456            40.870         20435.000
       146   06 Jun 2027 04:56:53.705   06 Jun 2027 04:57:21.220            27.515         13757.500
       147   06 Jun 2027 06:18:36.758   06 Jun 2027 06:19:34.715            57.957         28854.938
       148   06 Jun 2027 06:20:29.862   06 Jun 2027 06:20:33.086             3.224          1250.437
       149   06 Jun 2027 06:20:53.892   06 Jun 2027 06:20:56.144             2.252           408.938
       150   06 Jun 2027 06:22:03.136   06 Jun 2027 06:22:07.034             3.898          1912.125
       151   06 Jun 2027 06:23:40.524   06 Jun 2027 06:23:45.678             5.154          2090.438
       152   06 Jun 2027 06:23:57.930   06 Jun 2027 06:23:58.870             0.940           188.188
       153   06 Jun 2027 07:53:29.279   06 Jun 2027 07:53:33.731             4.452          2204.969
       154   06 Jun 2027 07:54:25.853   06 Jun 2027 07:54:29.391             3.538          1163.188
       155   06 Jun 2027 07:55:33.230   06 Jun 2027 07:55:34.883             1.653           685.594
       156   06 Jun 2027 07:56:49.691   06 Jun 2027 07:56:59.787            10.096          2156.656
       157   06 Jun 2027 07:57:01.095   06 Jun 2027 07:57:01.407             0.312            40.875
       158   06 Jun 2027 07:58:06.701   06 Jun 2027 07:58:08.632             1.931           837.875
       159   06 Jun 2027 07:59:31.743   06 Jun 2027 07:59:35.609             3.866           478.719
       160   06 Jun 2027 08:00:19.868   06 Jun 2027 08:00:22.211             2.343           764.844
       161   06 Jun 2027 08:01:07.957   06 Jun 2027 08:01:13.781             5.824          1427.281
       162   06 Jun 2027 09:31:22.973   06 Jun 2027 09:31:33.062            10.089          4969.031
       163   06 Jun 2027 09:34:22.536   06 Jun 2027 09:34:26.525             3.989          1664.344
       164   06 Jun 2027 09:35:35.150   06 Jun 2027 09:35:38.088             2.938          1101.344
       165   06 Jun 2027 09:35:56.231   06 Jun 2027 09:35:58.894             2.663           549.906
       166   06 Jun 2027 09:36:51.137   06 Jun 2027 09:36:53.097             1.960           109.375
       167   06 Jun 2027 09:37:16.128   06 Jun 2027 09:37:18.602             2.474           344.719
       168   06 Jun 2027 09:38:09.766   06 Jun 2027 09:38:12.196             2.430           509.125
       169   06 Jun 2027 09:38:29.892   06 Jun 2027 09:38:39.454             9.562           533.625
       170   06 Jun 2027 11:08:06.918   06 Jun 2027 11:08:22.646            15.728          6900.250
       171   06 Jun 2027 11:08:41.262   06 Jun 2027 11:08:42.487             1.225           393.531
       172   06 Jun 2027 11:09:44.197   06 Jun 2027 11:09:47.139             2.942           729.063
       173   06 Jun 2027 11:11:02.668   06 Jun 2027 11:11:05.958             3.290           241.625
       174   06 Jun 2027 11:12:17.903   06 Jun 2027 11:12:21.006             3.103          1441.063
       175   06 Jun 2027 11:13:08.897   06 Jun 2027 11:13:13.552             4.655           996.250
       176   06 Jun 2027 11:14:17.092   06 Jun 2027 11:14:20.474             3.382          1655.063
       177   06 Jun 2027 11:14:41.890   06 Jun 2027 11:14:45.343             3.453           663.062
       178   07 Jun 2027 03:32:39.768   07 Jun 2027 03:35:25.967           166.199         83099.500
       179   07 Jun 2027 03:36:01.156   07 Jun 2027 03:37:40.536            99.380         49690.000
       180   07 Jun 2027 04:56:33.612   07 Jun 2027 04:56:44.806            11.194          5597.000
       181   07 Jun 2027 06:32:34.512   07 Jun 2027 06:33:47.988            73.476         35112.938
       182   07 Jun 2027 06:34:09.203   07 Jun 2027 06:34:10.154             0.951           134.344
       183   07 Jun 2027 06:35:03.529   07 Jun 2027 06:35:07.540             4.011          1667.969
       184   07 Jun 2027 06:35:24.282   07 Jun 2027 06:35:26.647             2.365           337.531
       185   07 Jun 2027 06:35:29.710   07 Jun 2027 06:35:29.710             0.000             0.000
       186   07 Jun 2027 06:35:31.599   07 Jun 2027 06:35:32.929             1.330           154.750
       187   07 Jun 2027 08:06:21.965   07 Jun 2027 08:06:30.153             8.188          2606.312
       188   07 Jun 2027 08:07:35.739   07 Jun 2027 08:07:36.291             0.552             4.687
       189   07 Jun 2027 08:08:36.890   07 Jun 2027 08:08:38.656             1.766           883.000
       190   07 Jun 2027 08:09:00.624   07 Jun 2027 08:09:03.417             2.793          1037.344
       191   07 Jun 2027 08:09:42.064   07 Jun 2027 08:09:45.412             3.348          1184.656
       192   07 Jun 2027 08:10:59.809   07 Jun 2027 08:11:06.642             6.833          2019.375
       193   07 Jun 2027 08:11:34.800   07 Jun 2027 08:11:36.020             1.220           594.375
       194   07 Jun 2027 08:12:50.607   07 Jun 2027 08:12:54.120             3.513          1683.562
       195   07 Jun 2027 08:13:15.124   07 Jun 2027 08:13:16.699             1.575           322.344
       196   07 Jun 2027 08:13:33.667   07 Jun 2027 08:13:33.667             0.000             0.000
       197   07 Jun 2027 08:14:04.778   07 Jun 2027 08:14:08.142             3.364          1247.969
       198   07 Jun 2027 09:43:30.791   07 Jun 2027 09:43:44.745            13.954          4696.438
       199   07 Jun 2027 09:46:07.131   07 Jun 2027 09:46:11.231             4.100          1240.125
       200   07 Jun 2027 09:47:13.169   07 Jun 2027 09:47:17.986             4.817           279.750
       201   07 Jun 2027 09:48:49.712   07 Jun 2027 09:48:55.452             5.740          2304.406
       202   07 Jun 2027 09:49:01.750   07 Jun 2027 09:49:12.869            11.119           196.813
       203   07 Jun 2027 09:50:15.292   07 Jun 2027 09:50:17.502             2.210           720.500
       204   07 Jun 2027 09:50:28.964   07 Jun 2027 09:50:29.360             0.396           141.031
       205   07 Jun 2027 11:20:45.359   07 Jun 2027 11:21:00.225            14.866          7083.281
       206   07 Jun 2027 11:21:53.680   07 Jun 2027 11:22:04.405            10.725           926.844
       207   07 Jun 2027 11:22:41.069   07 Jun 2027 11:22:41.724             0.655           296.062
       208   07 Jun 2027 11:23:18.471   07 Jun 2027 11:23:19.525             1.054           421.719
       209   07 Jun 2027 11:24:16.548   07 Jun 2027 11:24:17.654             1.106           144.719
       210   07 Jun 2027 11:24:47.763   07 Jun 2027 11:24:49.917             2.154           502.656
       211   07 Jun 2027 11:25:03.569   07 Jun 2027 11:25:04.850             1.281           385.906
       212   07 Jun 2027 11:25:10.062   07 Jun 2027 11:25:10.977             0.915           162.875
       213   07 Jun 2027 11:25:33.617   07 Jun 2027 11:25:36.439             2.822           239.969
       214   07 Jun 2027 11:26:15.938   07 Jun 2027 11:26:19.115             3.177           660.750
       215   08 Jun 2027 03:45:04.483   08 Jun 2027 03:46:44.474            99.991         49995.500
       216   08 Jun 2027 03:47:44.200   08 Jun 2027 03:48:47.885            63.685         31842.500
       217   08 Jun 2027 03:49:29.428   08 Jun 2027 03:49:45.851            16.423          8211.500
       218   08 Jun 2027 05:08:26.662   08 Jun 2027 05:09:23.999            57.337         28668.500
       219   08 Jun 2027 06:44:47.661   08 Jun 2027 06:46:05.517            77.856         37301.594
       220   08 Jun 2027 06:46:50.767   08 Jun 2027 06:46:54.388             3.621          1380.406
       221   08 Jun 2027 06:47:08.727   08 Jun 2027 06:47:09.669             0.942            57.469
       222   08 Jun 2027 06:47:29.918   08 Jun 2027 06:47:29.918             0.000             0.000
       223   08 Jun 2027 06:47:52.809   08 Jun 2027 06:47:54.640             1.831           823.188
       224   08 Jun 2027 08:18:47.051   08 Jun 2027 08:18:53.717             6.666          2324.719
       225   08 Jun 2027 08:19:39.014   08 Jun 2027 08:19:43.460             4.446           100.500
       226   08 Jun 2027 08:20:40.774   08 Jun 2027 08:20:41.565             0.791           333.031
       227   08 Jun 2027 08:20:54.275   08 Jun 2027 08:20:54.275             0.000             0.000
       228   08 Jun 2027 08:21:43.963   08 Jun 2027 08:21:53.393             9.430          1723.469
       229   08 Jun 2027 08:22:48.308   08 Jun 2027 08:22:56.073             7.765          1716.094
       230   08 Jun 2027 08:23:37.717   08 Jun 2027 08:23:39.753             2.036           728.406
       231   08 Jun 2027 08:25:22.481   08 Jun 2027 08:25:28.828             6.347          2645.500
       232   08 Jun 2027 08:26:03.454   08 Jun 2027 08:26:06.846             3.392          1082.062
       233   08 Jun 2027 08:26:41.689   08 Jun 2027 08:26:47.073             5.384           597.156
       234   08 Jun 2027 09:55:56.294   08 Jun 2027 09:56:07.080            10.786          4319.438
       235   08 Jun 2027 09:57:57.523   08 Jun 2027 09:58:00.517             2.994           672.125
       236   08 Jun 2027 09:59:05.205   08 Jun 2027 09:59:06.693             1.488            21.313
       237   08 Jun 2027 10:00:17.362   08 Jun 2027 10:00:20.579             3.217          1277.656
       238   08 Jun 2027 10:01:02.267   08 Jun 2027 10:01:03.798             1.531           474.531
       239   08 Jun 2027 10:02:02.823   08 Jun 2027 10:02:06.627             3.804          1727.969
       240   08 Jun 2027 10:02:13.348   08 Jun 2027 10:02:15.744             2.396           210.031
       241   08 Jun 2027 11:32:55.388   08 Jun 2027 11:33:11.601            16.213          7528.000
       242   08 Jun 2027 11:35:59.122   08 Jun 2027 11:36:02.239             3.117           149.781
       243   08 Jun 2027 11:37:10.290   08 Jun 2027 11:37:15.980             5.690          2126.594
       244   08 Jun 2027 11:38:03.268   08 Jun 2027 11:38:09.141             5.873          1353.875
       245   09 Jun 2027 03:57:22.758   09 Jun 2027 03:58:34.919            72.161         36080.500
       246   09 Jun 2027 03:59:11.688   09 Jun 2027 04:00:48.359            96.671         48335.500
       247   09 Jun 2027 05:20:20.333   09 Jun 2027 05:21:20.412            60.079         30039.500
       248   09 Jun 2027 06:56:53.325   09 Jun 2027 06:58:25.169            91.844         44050.969
       249   09 Jun 2027 06:58:40.895   09 Jun 2027 06:58:40.895             0.000             0.000
       250   09 Jun 2027 06:58:42.551   09 Jun 2027 06:58:43.910             1.359           135.406
       251   09 Jun 2027 06:59:02.350   09 Jun 2027 06:59:02.714             0.364           182.000
       252   09 Jun 2027 06:59:40.295   09 Jun 2027 06:59:43.863             3.568          1568.656
       253   09 Jun 2027 08:32:02.164   09 Jun 2027 08:32:09.782             7.618          3358.281
       254   09 Jun 2027 08:32:40.367   09 Jun 2027 08:32:43.679             3.312           200.781
       255   09 Jun 2027 08:33:15.029   09 Jun 2027 08:33:15.462             0.433           215.062
       256   09 Jun 2027 08:34:25.611   09 Jun 2027 08:34:29.984             4.373          1252.438
       257   09 Jun 2027 08:35:40.451   09 Jun 2027 08:35:44.530             4.079           884.125
       258   09 Jun 2027 08:36:13.924   09 Jun 2027 08:36:18.017             4.093           734.781
       259   09 Jun 2027 08:38:00.473   09 Jun 2027 08:38:06.317             5.844           972.125
       260   09 Jun 2027 08:38:34.515   09 Jun 2027 08:38:38.334             3.819           544.844
       261   09 Jun 2027 08:38:43.703   09 Jun 2027 08:38:46.846             3.143           167.781
       262   09 Jun 2027 10:08:22.492   09 Jun 2027 10:08:32.432             9.940          4968.906
       263   09 Jun 2027 10:10:05.546   09 Jun 2027 10:10:07.229             1.683            58.844
       264   09 Jun 2027 10:10:28.423   09 Jun 2027 10:10:30.715             2.292           617.219
       265   09 Jun 2027 10:10:38.843   09 Jun 2027 10:10:41.028             2.185           254.000
       266   09 Jun 2027 10:10:57.299   09 Jun 2027 10:11:01.793             4.494           395.938
       267   09 Jun 2027 10:11:38.421   09 Jun 2027 10:11:40.247             1.826           871.656
       268   09 Jun 2027 10:12:35.576   09 Jun 2027 10:12:41.547             5.971          1729.031
       269   09 Jun 2027 10:13:08.188   09 Jun 2027 10:13:11.579             3.391           786.000
       270   09 Jun 2027 10:13:54.224   09 Jun 2027 10:13:55.370             1.146           257.219
       271   09 Jun 2027 10:14:07.538   09 Jun 2027 10:14:10.532             2.994           380.250
       272   09 Jun 2027 10:14:28.929   09 Jun 2027 10:14:29.776             0.847           421.281
       273   09 Jun 2027 10:14:31.727   09 Jun 2027 10:14:33.197             1.470            37.563
       274   09 Jun 2027 11:45:56.588   09 Jun 2027 11:46:06.577             9.989          4877.469
       275   09 Jun 2027 11:48:21.971   09 Jun 2027 11:48:30.693             8.722           863.187
       276   09 Jun 2027 11:48:39.526   09 Jun 2027 11:48:42.359             2.833           276.031
       277   09 Jun 2027 11:50:05.256   09 Jun 2027 11:50:13.905             8.649          1897.594
       278   10 Jun 2027 04:09:07.605   10 Jun 2027 04:09:42.087            34.482         17241.000
       279   10 Jun 2027 04:09:56.235   10 Jun 2027 04:11:41.481           105.246         52623.000
       280   10 Jun 2027 04:12:23.138   10 Jun 2027 04:12:23.138             0.000             0.000
       281   10 Jun 2027 05:32:28.319   10 Jun 2027 05:33:23.121            54.802         27401.000
       282   10 Jun 2027 07:09:03.799   10 Jun 2027 07:11:11.603           127.804         63661.844
       283   10 Jun 2027 08:44:14.046   10 Jun 2027 08:44:21.936             7.890          3727.219
       284   10 Jun 2027 08:44:29.404   10 Jun 2027 08:44:30.609             1.205            12.250
       285   10 Jun 2027 08:45:46.722   10 Jun 2027 08:45:47.962             1.240           227.250
       286   10 Jun 2027 08:46:37.430   10 Jun 2027 08:46:40.238             2.808          1396.844
       287   10 Jun 2027 08:47:23.172   10 Jun 2027 08:47:24.749             1.577           447.563
       288   10 Jun 2027 08:48:15.273   10 Jun 2027 08:48:18.591             3.318          1009.031
       289   10 Jun 2027 08:49:40.858   10 Jun 2027 08:49:44.224             3.366          1191.688
       290   10 Jun 2027 08:50:49.353   10 Jun 2027 08:50:49.650             0.297           148.500
       291   10 Jun 2027 10:20:34.519   10 Jun 2027 10:20:46.671            12.152          5762.625
       292   10 Jun 2027 10:22:38.806   10 Jun 2027 10:22:39.632             0.826           377.156
       293   10 Jun 2027 10:22:51.677   10 Jun 2027 10:22:53.119             1.442           237.437
       294   10 Jun 2027 10:23:47.402   10 Jun 2027 10:23:57.504            10.102          1090.875
       295   10 Jun 2027 10:24:37.311   10 Jun 2027 10:24:43.007             5.696           964.594
       296   10 Jun 2027 10:25:42.382   10 Jun 2027 10:25:47.930             5.548           908.969
       297   10 Jun 2027 11:58:00.126   10 Jun 2027 11:58:18.863            18.737          6877.000
       298   11 Jun 2027 04:10:21.178   11 Jun 2027 04:10:22.097             0.919           459.500
       299   11 Jun 2027 04:21:04.475   11 Jun 2027 04:21:44.828            40.353         20176.500
       300   11 Jun 2027 04:22:02.297   11 Jun 2027 04:23:33.990            91.693         45846.500
       301   11 Jun 2027 04:24:10.274   11 Jun 2027 04:24:10.274             0.000             0.000
       302   11 Jun 2027 04:24:29.913   11 Jun 2027 04:24:36.936             7.023          3511.500
       303   11 Jun 2027 04:24:37.636   11 Jun 2027 04:24:40.131             2.495          1247.500
       304   11 Jun 2027 05:45:01.762   11 Jun 2027 05:45:47.617            45.855         22927.500
       305   11 Jun 2027 07:20:50.965   11 Jun 2027 07:23:03.779           132.814         66204.125
       306   11 Jun 2027 07:23:37.101   11 Jun 2027 07:23:37.101             0.000             0.000
       307   11 Jun 2027 07:24:08.192   11 Jun 2027 07:24:12.419             4.227          1750.000
       308   11 Jun 2027 08:55:43.767   11 Jun 2027 08:55:50.135             6.368          3177.062
       309   11 Jun 2027 08:56:27.218   11 Jun 2027 08:56:28.430             1.212           429.781
       310   11 Jun 2027 08:58:07.925   11 Jun 2027 08:58:11.216             3.291           638.938
       311   11 Jun 2027 08:58:46.122   11 Jun 2027 08:58:47.609             1.487           354.594
       312   11 Jun 2027 08:59:04.222   11 Jun 2027 08:59:05.371             1.149           374.281
       313   11 Jun 2027 09:00:11.959   11 Jun 2027 09:00:18.487             6.528          1769.469
       314   11 Jun 2027 09:01:28.727   11 Jun 2027 09:01:34.190             5.463          2174.219
       315   11 Jun 2027 09:02:54.865   11 Jun 2027 09:02:58.773             3.908          1954.000
       316   11 Jun 2027 10:32:13.943   11 Jun 2027 10:32:29.105            15.162          6734.906
       317   11 Jun 2027 10:34:42.800   11 Jun 2027 10:34:44.354             1.554           243.219
       318   11 Jun 2027 10:34:52.817   11 Jun 2027 10:34:54.712             1.895            74.250
       319   11 Jun 2027 10:35:38.955   11 Jun 2027 10:35:42.473             3.518          1382.594
       320   11 Jun 2027 10:36:38.564   11 Jun 2027 10:36:46.030             7.466          1752.844
       321   11 Jun 2027 10:37:20.592   11 Jun 2027 10:37:20.848             0.256            93.094
       322   11 Jun 2027 10:37:47.862   11 Jun 2027 10:37:55.344             7.482           736.156
       323   11 Jun 2027 10:38:15.531   11 Jun 2027 10:38:17.248             1.717           211.656
       324   11 Jun 2027 10:38:36.064   11 Jun 2027 10:38:37.188             1.124           503.031
       325   12 Jun 2027 03:00:00.000   12 Jun 2027 03:00:12.385            12.385          6192.500
       326   12 Jun 2027 03:01:11.635   12 Jun 2027 03:01:39.935            28.300         14150.000
       327   12 Jun 2027 03:02:39.304   12 Jun 2027 03:02:51.979            12.675          6337.500
       328   12 Jun 2027 04:21:39.781   12 Jun 2027 04:21:56.364            16.583          8291.500
       329   12 Jun 2027 04:22:33.195   12 Jun 2027 04:22:46.826            13.631          6815.500
       330   12 Jun 2027 04:33:00.948   12 Jun 2027 04:34:36.089            95.141         47570.500
       331   12 Jun 2027 05:55:36.508   12 Jun 2027 05:56:11.504            34.996         17498.000
       332   12 Jun 2027 05:56:53.523   12 Jun 2027 05:57:25.342            31.819         15909.500
       333   12 Jun 2027 05:57:46.862   12 Jun 2027 05:58:04.788            17.926          8963.000
       334   12 Jun 2027 05:59:35.704   12 Jun 2027 05:59:55.138            19.434          9717.000
       335   12 Jun 2027 06:00:13.481   12 Jun 2027 06:00:16.164             2.683          1341.500
       336   12 Jun 2027 07:31:07.540   12 Jun 2027 07:31:58.321            50.781         25390.500
       337   12 Jun 2027 07:32:36.265   12 Jun 2027 07:32:45.562             9.297          4645.438
       338   12 Jun 2027 07:34:11.739   12 Jun 2027 07:34:18.650             6.911          2470.750
       339   12 Jun 2027 07:34:26.990   12 Jun 2027 07:34:30.314             3.324           107.469
       340   12 Jun 2027 07:35:43.302   12 Jun 2027 07:35:45.326             2.024           344.875
       341   12 Jun 2027 07:36:25.727   12 Jun 2027 07:36:29.018             3.291          1262.531
       342   12 Jun 2027 07:36:57.215   12 Jun 2027 07:36:59.113             1.898           734.250
       343   12 Jun 2027 07:36:59.708   12 Jun 2027 07:36:59.941             0.233            18.594
       344   12 Jun 2027 09:07:27.544   12 Jun 2027 09:07:35.266             7.722          3552.844
       345   12 Jun 2027 09:08:27.448   12 Jun 2027 09:08:31.253             3.805          1132.406
       346   12 Jun 2027 09:09:14.706   12 Jun 2027 09:09:24.696             9.990           470.219
       347   12 Jun 2027 09:11:10.236   12 Jun 2027 09:11:14.039             3.803           913.750
       348   12 Jun 2027 09:12:08.770   12 Jun 2027 09:12:12.708             3.938          1710.344
       349   12 Jun 2027 09:13:27.347   12 Jun 2027 09:13:33.200             5.853          1927.938
       350   12 Jun 2027 09:13:56.168   12 Jun 2027 09:13:56.853             0.685           288.625
       351   12 Jun 2027 09:14:53.965   12 Jun 2027 09:14:59.578             5.613          1784.750
       352   12 Jun 2027 10:44:33.738   12 Jun 2027 10:44:48.837            15.099          6938.687
       353   12 Jun 2027 10:47:33.072   12 Jun 2027 10:47:34.877             1.805           138.062
       354   12 Jun 2027 10:47:59.169   12 Jun 2027 10:48:01.104             1.935           355.219
       355   12 Jun 2027 10:48:36.484   12 Jun 2027 10:48:42.711             6.227           768.938
       356   12 Jun 2027 10:49:08.166   12 Jun 2027 10:49:14.869             6.703           795.469
       357   12 Jun 2027 10:49:21.654   12 Jun 2027 10:49:23.347             1.693           212.031
       358   12 Jun 2027 10:50:06.249   12 Jun 2027 10:50:09.780             3.531           938.063
       359   12 Jun 2027 10:50:36.372   12 Jun 2027 10:50:39.931             3.559           800.250
       360   13 Jun 2027 03:08:30.363   13 Jun 2027 03:09:31.048            60.685         30342.500
       361   13 Jun 2027 03:10:40.964   13 Jun 2027 03:10:40.964             0.000             0.000
       362   13 Jun 2027 03:11:44.534   13 Jun 2027 03:11:46.712             2.178          1089.000
       363   13 Jun 2027 03:12:16.462   13 Jun 2027 03:12:25.184             8.722          4361.000
       364   13 Jun 2027 03:12:41.310   13 Jun 2027 03:12:59.904            18.594          9297.000
       365   13 Jun 2027 03:13:40.510   13 Jun 2027 03:13:40.521             0.011             5.500
       366   13 Jun 2027 03:13:52.282   13 Jun 2027 03:14:16.791            24.509         12254.500
       367   13 Jun 2027 03:14:32.991   13 Jun 2027 03:14:38.563             5.572          2786.000
       368   13 Jun 2027 04:33:20.179   13 Jun 2027 04:33:56.599            36.420         18210.000
       369   13 Jun 2027 04:34:24.426   13 Jun 2027 04:34:25.161             0.735           367.500
       370   13 Jun 2027 04:45:04.620   13 Jun 2027 04:46:02.922            58.302         29151.000
       371   13 Jun 2027 06:07:18.887   13 Jun 2027 06:08:24.989            66.102         33051.000
       372   13 Jun 2027 06:09:12.972   13 Jun 2027 06:10:04.106            51.134         24116.406
       373   13 Jun 2027 06:10:08.426   13 Jun 2027 06:10:09.184             0.758            40.406
       374   13 Jun 2027 06:11:35.741   13 Jun 2027 06:11:38.472             2.731          1365.500
       375   13 Jun 2027 06:11:50.200   13 Jun 2027 06:11:56.116             5.916          1705.906
       376   13 Jun 2027 07:42:15.458   13 Jun 2027 07:42:21.270             5.812          2648.375
       377   13 Jun 2027 07:43:46.097   13 Jun 2027 07:43:49.643             3.546          1132.938
       378   13 Jun 2027 07:44:28.157   13 Jun 2027 07:44:30.572             2.415          1179.719
       379   13 Jun 2027 07:44:59.375   13 Jun 2027 07:44:59.375             0.000             0.000
       380   13 Jun 2027 07:46:12.355   13 Jun 2027 07:46:22.424            10.069          2969.031
       381   13 Jun 2027 07:47:32.733   13 Jun 2027 07:47:38.382             5.649          2197.156
       382   13 Jun 2027 07:48:15.662   13 Jun 2027 07:48:30.014            14.352           909.531
       383   13 Jun 2027 07:48:49.035   13 Jun 2027 07:48:50.042             1.007           246.688
       384   13 Jun 2027 07:50:14.954   13 Jun 2027 07:50:22.719             7.765          1484.594
       385   13 Jun 2027 09:19:45.237   13 Jun 2027 09:19:51.858             6.621          2575.875
       386   13 Jun 2027 09:20:30.180   13 Jun 2027 09:20:32.644             2.464          1153.281
       387   13 Jun 2027 09:22:49.483   13 Jun 2027 09:22:54.127             4.644          1940.875
       388   13 Jun 2027 09:23:31.652   13 Jun 2027 09:23:33.196             1.544           381.562
       389   13 Jun 2027 09:24:34.873   13 Jun 2027 09:24:37.968             3.095          1433.906
       390   13 Jun 2027 09:25:06.936   13 Jun 2027 09:25:09.845             2.909           334.688
       391   13 Jun 2027 09:25:38.189   13 Jun 2027 09:25:42.320             4.131           410.375
       392   13 Jun 2027 09:26:10.651   13 Jun 2027 09:26:11.488             0.837            44.031
       393   13 Jun 2027 09:26:43.023   13 Jun 2027 09:26:45.588             2.565           878.781
       394   13 Jun 2027 09:27:03.524   13 Jun 2027 09:27:03.994             0.470            15.344
       395   13 Jun 2027 10:56:29.922   13 Jun 2027 10:56:42.607            12.685          5546.187
       396   13 Jun 2027 10:59:01.242   13 Jun 2027 10:59:11.297            10.055           466.719
       397   13 Jun 2027 11:00:05.242   13 Jun 2027 11:00:10.499             5.257          1614.187
       398   13 Jun 2027 11:00:14.035   13 Jun 2027 11:00:16.027             1.992            50.625
       399   13 Jun 2027 11:00:52.014   13 Jun 2027 11:00:53.862             1.848           696.219
       400   13 Jun 2027 11:01:22.082   13 Jun 2027 11:01:23.923             1.841           881.875
       401   13 Jun 2027 11:01:53.155   13 Jun 2027 11:01:57.681             4.526           913.500
       402   13 Jun 2027 11:02:12.824   13 Jun 2027 11:02:14.621             1.797           473.219
       403   13 Jun 2027 11:02:33.575   13 Jun 2027 11:02:37.001             3.426           592.313
       404   13 Jun 2027 11:02:58.133   13 Jun 2027 11:03:01.985             3.852           660.375
