uniorb/output/strategy_4/Camera/Camera_KinoSat_110709.txt

KinoSat_110709
-------------------------
    Access    *     Start Time (UTCG)     *     Stop Time (UTCG)  *   Duration (s) *   Data (Mbytes)
         1   01 Jun 2027 03:01:23.349   01 Jun 2027 03:01:31.758             8.409          4204.500
         2   01 Jun 2027 03:01:43.860   01 Jun 2027 03:02:01.530            17.670          8835.000
         3   01 Jun 2027 03:03:27.938   01 Jun 2027 03:03:27.938             0.000             0.000
         4   01 Jun 2027 03:03:51.803   01 Jun 2027 03:04:17.469            25.666         12833.000
         5   01 Jun 2027 04:37:08.283   01 Jun 2027 04:38:53.158           104.875         52437.500
         6   01 Jun 2027 04:38:58.187   01 Jun 2027 04:39:08.451            10.264          5132.000
         7   01 Jun 2027 04:40:40.623   01 Jun 2027 04:40:59.121            18.498          9249.000
         8   01 Jun 2027 06:11:52.090   01 Jun 2027 06:13:43.715           111.625         55812.500
         9   01 Jun 2027 06:15:17.918   01 Jun 2027 06:15:24.193             6.275          3137.500
        10   01 Jun 2027 06:16:23.576   01 Jun 2027 06:16:30.910             7.334          3667.000
        11   01 Jun 2027 06:16:39.829   01 Jun 2027 06:16:40.330             0.501           250.500
        12   01 Jun 2027 06:17:37.511   01 Jun 2027 06:17:48.633            11.122          5561.000
        13   01 Jun 2027 06:18:45.797   01 Jun 2027 06:19:07.149            21.352         10676.000
        14   01 Jun 2027 07:48:39.733   01 Jun 2027 07:49:57.850            78.117         39058.500
        15   01 Jun 2027 07:50:31.349   01 Jun 2027 07:50:59.408            28.059         14029.500
        16   01 Jun 2027 07:51:37.967   01 Jun 2027 07:52:25.893            47.926         23963.000
        17   01 Jun 2027 09:26:55.008   01 Jun 2027 09:30:10.759           195.751         97875.500
        18   01 Jun 2027 11:00:12.534   01 Jun 2027 11:01:44.686            92.152         46076.000
        19   01 Jun 2027 11:02:01.357   01 Jun 2027 11:03:04.229            62.872         31436.000
        20   01 Jun 2027 11:03:28.736   01 Jun 2027 11:03:28.736             0.000             0.000
        21   01 Jun 2027 11:05:11.760   01 Jun 2027 11:05:29.215            17.455          8727.500
        22   02 Jun 2027 03:11:59.146   02 Jun 2027 03:12:46.370            47.224         23612.000
        23   02 Jun 2027 04:47:03.088   02 Jun 2027 04:48:20.128            77.040         38520.000
        24   02 Jun 2027 04:48:52.732   02 Jun 2027 04:49:43.914            51.182         25591.000
        25   02 Jun 2027 04:51:12.421   02 Jun 2027 04:51:23.757            11.336          5668.000
        26   02 Jun 2027 04:52:58.931   02 Jun 2027 04:53:01.297             2.366          1183.000
        27   02 Jun 2027 04:53:05.122   02 Jun 2027 04:53:17.033            11.911          5955.500
        28   02 Jun 2027 04:53:41.781   02 Jun 2027 04:53:43.460             1.679           839.500
        29   02 Jun 2027 06:24:00.222   02 Jun 2027 06:27:02.578           182.356         91178.000
        30   02 Jun 2027 06:27:24.695   02 Jun 2027 06:28:52.195            87.500         43750.000
        31   02 Jun 2027 06:30:31.324   02 Jun 2027 06:30:32.799             1.475           737.500
        32   02 Jun 2027 08:00:58.910   02 Jun 2027 08:04:35.534           216.624        106594.781
        33   02 Jun 2027 08:05:08.021   02 Jun 2027 08:05:12.335             4.314           945.812
        34   02 Jun 2027 08:06:14.611   02 Jun 2027 08:06:19.191             4.580          1848.781
        35   02 Jun 2027 08:06:44.737   02 Jun 2027 08:06:47.336             2.599           154.531
        36   02 Jun 2027 09:38:53.138   02 Jun 2027 09:39:32.807            39.669         10549.750
        37   02 Jun 2027 09:40:08.191   02 Jun 2027 09:40:10.985             2.794           289.875
        38   02 Jun 2027 09:40:47.607   02 Jun 2027 09:40:50.950             3.343           691.781
        39   02 Jun 2027 09:41:42.126   02 Jun 2027 09:41:43.105             0.979           285.750
        40   02 Jun 2027 09:42:08.231   02 Jun 2027 09:42:10.643             2.412           785.187
        41   02 Jun 2027 09:42:12.664   02 Jun 2027 09:42:13.846             1.182            63.156
        42   02 Jun 2027 11:12:12.028   02 Jun 2027 11:12:21.628             9.600          4289.750
        43   03 Jun 2027 03:23:28.980   03 Jun 2027 03:23:41.419            12.439          6219.500
        44   03 Jun 2027 03:25:31.281   03 Jun 2027 03:25:31.550             0.269           134.500
        45   03 Jun 2027 03:27:29.626   03 Jun 2027 03:27:42.805            13.179          6589.500
        46   03 Jun 2027 04:58:28.089   03 Jun 2027 05:01:47.577           199.488         99744.000
        47   03 Jun 2027 05:01:59.873   03 Jun 2027 05:02:07.387             7.514          3757.000
        48   03 Jun 2027 05:02:59.107   03 Jun 2027 05:02:59.107             0.000             0.000
        49   03 Jun 2027 05:03:09.049   03 Jun 2027 05:03:14.458             5.409          2704.500
        50   03 Jun 2027 06:36:04.245   03 Jun 2027 06:37:32.023            87.778         43556.125
        51   03 Jun 2027 06:38:31.343   03 Jun 2027 06:38:33.444             2.101           641.406
        52   03 Jun 2027 06:39:02.692   03 Jun 2027 06:39:05.359             2.667           424.469
        53   03 Jun 2027 06:39:13.098   03 Jun 2027 06:39:13.098             0.000             0.000
        54   03 Jun 2027 06:39:35.151   03 Jun 2027 06:39:37.184             2.033           907.031
        55   03 Jun 2027 06:40:55.105   03 Jun 2027 06:41:05.659            10.554           140.750
        56   03 Jun 2027 06:41:11.340   03 Jun 2027 06:41:11.340             0.000             0.000
        57   03 Jun 2027 06:41:37.908   03 Jun 2027 06:41:41.731             3.823          1007.781
        58   03 Jun 2027 06:42:11.004   03 Jun 2027 06:42:12.039             1.035           497.063
        59   03 Jun 2027 08:12:47.990   03 Jun 2027 08:12:55.513             7.523           299.813
        60   03 Jun 2027 08:15:12.870   03 Jun 2027 08:15:15.266             2.396          1092.875
        61   03 Jun 2027 08:16:08.269   03 Jun 2027 08:16:12.240             3.971           633.562
        62   03 Jun 2027 08:16:22.102   03 Jun 2027 08:16:25.134             3.032           308.188
        63   03 Jun 2027 08:16:50.396   03 Jun 2027 08:16:50.945             0.549           181.125
        64   03 Jun 2027 08:17:25.197   03 Jun 2027 08:17:27.619             2.422          1070.375
        65   03 Jun 2027 08:17:54.302   03 Jun 2027 08:17:57.221             2.919           833.844
        66   03 Jun 2027 08:19:08.838   03 Jun 2027 08:19:16.256             7.418          1479.437
        67   03 Jun 2027 09:50:52.513   03 Jun 2027 09:51:00.247             7.734          2775.125
        68   03 Jun 2027 09:52:36.895   03 Jun 2027 09:52:42.328             5.433          1016.688
        69   03 Jun 2027 09:53:55.609   03 Jun 2027 09:53:57.282             1.673           157.969
        70   03 Jun 2027 09:54:14.653   03 Jun 2027 09:54:17.755             3.102           209.844
        71   03 Jun 2027 09:54:34.907   03 Jun 2027 09:54:37.125             2.218            85.250
        72   03 Jun 2027 11:24:37.493   03 Jun 2027 11:24:39.444             1.951           481.031
        73   04 Jun 2027 03:35:05.078   04 Jun 2027 03:35:08.609             3.531          1765.500
        74   04 Jun 2027 03:35:13.050   04 Jun 2027 03:35:27.771            14.721          7360.500
        75   04 Jun 2027 03:38:30.571   04 Jun 2027 03:38:30.571             0.000             0.000
        76   04 Jun 2027 03:40:30.361   04 Jun 2027 03:41:00.087            29.726         14863.000
        77   04 Jun 2027 05:09:58.739   04 Jun 2027 05:13:19.123           200.384        100192.000
        78   04 Jun 2027 05:14:13.076   04 Jun 2027 05:14:29.331            16.255          8127.500
        79   04 Jun 2027 05:18:35.241   04 Jun 2027 05:19:00.769            25.528         12764.000
        80   04 Jun 2027 06:48:02.305   04 Jun 2027 06:48:47.442            45.137         21100.625
        81   04 Jun 2027 06:50:03.386   04 Jun 2027 06:50:04.406             1.020           339.719
        82   04 Jun 2027 06:50:51.972   04 Jun 2027 06:50:53.468             1.496           426.031
        83   04 Jun 2027 06:51:16.414   04 Jun 2027 06:51:17.975             1.561           382.281
        84   04 Jun 2027 06:51:38.529   04 Jun 2027 06:51:41.630             3.101           297.031
        85   04 Jun 2027 06:51:48.884   04 Jun 2027 06:51:56.927             8.043           185.844
        86   04 Jun 2027 06:52:55.665   04 Jun 2027 06:52:58.200             2.535           235.469
        87   04 Jun 2027 06:53:08.219   04 Jun 2027 06:53:09.627             1.408           313.094
        88   04 Jun 2027 06:53:35.788   04 Jun 2027 06:53:38.174             2.386           258.750
        89   04 Jun 2027 08:24:55.543   04 Jun 2027 08:25:01.490             5.947          1339.625
        90   04 Jun 2027 08:28:05.284   04 Jun 2027 08:28:08.007             2.723           189.938
        91   04 Jun 2027 08:28:54.820   04 Jun 2027 08:28:59.461             4.641           842.094
        92   04 Jun 2027 08:29:43.192   04 Jun 2027 08:29:45.137             1.945           842.438
        93   04 Jun 2027 08:31:02.514   04 Jun 2027 08:31:05.762             3.248          1094.969
        94   04 Jun 2027 10:02:05.730   04 Jun 2027 10:02:20.487            14.757          5813.594
        95   04 Jun 2027 10:03:32.229   04 Jun 2027 10:03:35.691             3.462           725.406
        96   04 Jun 2027 10:04:34.438   04 Jun 2027 10:04:37.991             3.553           786.281
        97   04 Jun 2027 10:05:22.053   04 Jun 2027 10:05:24.376             2.323           407.937
        98   04 Jun 2027 10:05:58.051   04 Jun 2027 10:06:01.466             3.415           938.344
        99   04 Jun 2027 11:36:52.433   04 Jun 2027 11:36:56.062             3.629          1701.875
       100   05 Jun 2027 03:49:23.748   05 Jun 2027 03:49:34.513            10.765          5382.500
       101   05 Jun 2027 03:50:13.342   05 Jun 2027 03:50:23.198             9.856          4928.000
       102   05 Jun 2027 05:22:57.222   05 Jun 2027 05:26:05.394           188.172         94086.000
       103   05 Jun 2027 05:30:08.604   05 Jun 2027 05:30:11.814             3.210          1605.000
       104   05 Jun 2027 05:31:10.023   05 Jun 2027 05:31:30.865            20.842         10421.000
       105   05 Jun 2027 07:00:24.194   05 Jun 2027 07:01:56.511            92.317         45467.750
       106   05 Jun 2027 07:03:05.312   05 Jun 2027 07:03:09.699             4.387          1795.063
       107   05 Jun 2027 07:03:19.707   05 Jun 2027 07:03:19.707             0.000             0.000
       108   05 Jun 2027 07:03:53.485   05 Jun 2027 07:03:57.022             3.537          1163.219
       109   05 Jun 2027 07:05:55.029   05 Jun 2027 07:06:00.764             5.735          1987.875
       110   05 Jun 2027 07:06:24.460   05 Jun 2027 07:06:25.242             0.782           232.875
       111   05 Jun 2027 08:37:24.470   05 Jun 2027 08:37:35.752            11.282          3960.312
       112   05 Jun 2027 08:40:10.289   05 Jun 2027 08:40:12.325             2.036           585.219
       113   05 Jun 2027 08:41:01.781   05 Jun 2027 08:41:02.886             1.105           403.000
       114   05 Jun 2027 08:42:32.624   05 Jun 2027 08:42:35.051             2.427          1174.531
       115   05 Jun 2027 08:43:11.166   05 Jun 2027 08:43:15.868             4.702          1023.031
       116   05 Jun 2027 10:14:18.489   05 Jun 2027 10:14:34.889            16.400          6170.656
       117   05 Jun 2027 10:16:13.695   05 Jun 2027 10:16:16.890             3.195          1405.594
       118   05 Jun 2027 10:18:04.792   05 Jun 2027 10:18:08.763             3.971          1384.687
       119   05 Jun 2027 11:51:27.652   05 Jun 2027 11:51:35.091             7.439           668.906
       120   06 Jun 2027 04:01:29.304   06 Jun 2027 04:01:46.309            17.005          8502.500
       121   06 Jun 2027 04:02:20.402   06 Jun 2027 04:02:27.183             6.781          3390.500
       122   06 Jun 2027 04:03:33.561   06 Jun 2027 04:03:37.445             3.884          1942.000
       123   06 Jun 2027 04:05:02.389   06 Jun 2027 04:05:04.365             1.976           988.000
       124   06 Jun 2027 05:33:40.320   06 Jun 2027 05:33:48.530             8.210          4105.000
       125   06 Jun 2027 05:35:36.047   06 Jun 2027 05:38:19.202           163.155         81577.500
       126   06 Jun 2027 05:39:07.621   06 Jun 2027 05:39:07.621             0.000             0.000
       127   06 Jun 2027 05:39:15.295   06 Jun 2027 05:39:28.111            12.816          6408.000
       128   06 Jun 2027 07:12:33.933   06 Jun 2027 07:14:24.035           110.102         53715.688
       129   06 Jun 2027 07:15:45.571   06 Jun 2027 07:15:47.455             1.884           236.906
       130   06 Jun 2027 07:16:14.514   06 Jun 2027 07:16:16.114             1.600           677.531
       131   06 Jun 2027 07:16:48.435   06 Jun 2027 07:16:52.717             4.282           286.219
       132   06 Jun 2027 07:18:59.947   06 Jun 2027 07:19:01.735             1.788           726.906
       133   06 Jun 2027 07:19:13.102   06 Jun 2027 07:19:14.435             1.333             3.031
       134   06 Jun 2027 08:49:49.811   06 Jun 2027 08:49:59.267             9.456          4248.031
       135   06 Jun 2027 08:53:31.926   06 Jun 2027 08:53:36.600             4.674          1316.531
       136   06 Jun 2027 08:54:29.582   06 Jun 2027 08:54:30.825             1.243           126.187
       137   06 Jun 2027 08:54:36.984   06 Jun 2027 08:54:39.402             2.418           192.469
       138   06 Jun 2027 10:26:19.274   06 Jun 2027 10:26:31.527            12.253          6091.875
       139   06 Jun 2027 10:30:51.077   06 Jun 2027 10:30:52.354             1.277           445.469
       140   07 Jun 2027 04:13:38.284   07 Jun 2027 04:13:58.059            19.775          9887.500
       141   07 Jun 2027 04:15:53.374   07 Jun 2027 04:15:53.374             0.000             0.000
       142   07 Jun 2027 04:16:06.118   07 Jun 2027 04:16:37.640            31.522         15761.000
       143   07 Jun 2027 04:17:08.990   07 Jun 2027 04:17:17.146             8.156          4078.000
       144   07 Jun 2027 05:48:48.806   07 Jun 2027 05:50:15.581            86.775         43387.500
       145   07 Jun 2027 05:50:27.162   07 Jun 2027 05:50:54.319            27.157         13578.500
       146   07 Jun 2027 05:51:53.477   07 Jun 2027 05:52:23.236            29.759         14879.500
       147   07 Jun 2027 05:54:20.359   07 Jun 2027 05:54:38.966            18.607          9303.500
       148   07 Jun 2027 05:54:54.484   07 Jun 2027 05:55:04.933            10.449          5224.500
       149   07 Jun 2027 05:55:24.391   07 Jun 2027 05:55:27.157             2.766          1383.000
       150   07 Jun 2027 07:25:08.019   07 Jun 2027 07:26:44.829            96.810         48121.281
       151   07 Jun 2027 07:27:35.974   07 Jun 2027 07:27:39.691             3.717           293.906
       152   07 Jun 2027 07:28:05.243   07 Jun 2027 07:28:08.338             3.095           253.437
       153   07 Jun 2027 07:28:33.675   07 Jun 2027 07:28:38.640             4.965           215.719
       154   07 Jun 2027 07:29:40.715   07 Jun 2027 07:29:44.158             3.443          1569.531
       155   07 Jun 2027 09:02:31.832   07 Jun 2027 09:02:44.207            12.375          5604.062
       156   07 Jun 2027 09:02:57.580   07 Jun 2027 09:03:06.744             9.164            63.469
       157   07 Jun 2027 09:03:48.384   07 Jun 2027 09:03:51.668             3.284           441.406
       158   07 Jun 2027 09:04:54.264   07 Jun 2027 09:04:56.944             2.680          1253.781
       159   07 Jun 2027 09:06:26.991   07 Jun 2027 09:06:29.040             2.049          1020.344
       160   07 Jun 2027 09:06:58.335   07 Jun 2027 09:07:01.076             2.741           456.344
       161   07 Jun 2027 10:38:44.052   07 Jun 2027 10:38:54.898            10.846          5301.969
       162   08 Jun 2027 04:25:39.524   08 Jun 2027 04:26:29.658            50.134         25067.000
       163   08 Jun 2027 04:26:46.666   08 Jun 2027 04:27:06.336            19.670          9835.000
       164   08 Jun 2027 04:27:27.497   08 Jun 2027 04:27:36.659             9.162          4581.000
       165   08 Jun 2027 04:28:23.584   08 Jun 2027 04:28:26.914             3.330          1665.000
       166   08 Jun 2027 04:28:36.264   08 Jun 2027 04:28:39.813             3.549          1774.500
       167   08 Jun 2027 06:00:52.248   08 Jun 2027 06:04:00.471           188.223         94111.500
       168   08 Jun 2027 06:05:51.265   08 Jun 2027 06:06:17.248            25.983         12991.500
       169   08 Jun 2027 06:07:30.174   08 Jun 2027 06:07:32.513             2.339          1169.500
       170   08 Jun 2027 07:36:47.279   08 Jun 2027 07:37:06.817            19.538          9690.781
       171   08 Jun 2027 07:38:05.746   08 Jun 2027 07:38:06.850             1.104           145.406
       172   08 Jun 2027 07:39:21.302   08 Jun 2027 07:39:25.539             4.237          1925.750
       173   08 Jun 2027 07:39:45.932   08 Jun 2027 07:39:47.486             1.554           589.781
       174   08 Jun 2027 07:40:02.957   08 Jun 2027 07:40:08.381             5.424           199.625
       175   08 Jun 2027 07:40:32.225   08 Jun 2027 07:40:35.839             3.614           568.688
       176   08 Jun 2027 07:41:02.710   08 Jun 2027 07:41:06.853             4.143           491.312
       177   08 Jun 2027 07:41:52.891   08 Jun 2027 07:41:55.308             2.417          1120.000
       178   08 Jun 2027 07:42:27.016   08 Jun 2027 07:42:30.280             3.264           575.219
       179   08 Jun 2027 07:42:40.332   08 Jun 2027 07:42:40.660             0.328            66.594
       180   08 Jun 2027 07:42:58.524   08 Jun 2027 07:42:59.957             1.433           528.750
       181   08 Jun 2027 09:14:44.651   08 Jun 2027 09:14:57.418            12.767          6239.156
       182   08 Jun 2027 09:15:34.211   08 Jun 2027 09:15:37.047             2.836           126.250
       183   08 Jun 2027 09:16:53.616   08 Jun 2027 09:17:07.194            13.578          1595.687
       184   08 Jun 2027 09:18:08.925   08 Jun 2027 09:18:11.351             2.426           944.781
       185   08 Jun 2027 09:18:22.529   08 Jun 2027 09:18:27.905             5.376           349.313
       186   08 Jun 2027 10:50:37.716   08 Jun 2027 10:50:50.640            12.924          5214.750
       187   09 Jun 2027 03:00:59.938   09 Jun 2027 03:01:10.690            10.752          5376.000
       188   09 Jun 2027 03:01:21.629   09 Jun 2027 03:01:25.255             3.626          1813.000
       189   09 Jun 2027 03:01:26.839   09 Jun 2027 03:01:29.000             2.161          1080.500
       190   09 Jun 2027 03:04:06.654   09 Jun 2027 03:04:29.423            22.769         11384.500
       191   09 Jun 2027 04:37:22.886   09 Jun 2027 04:39:09.299           106.413         53206.500
       192   09 Jun 2027 04:39:25.917   09 Jun 2027 04:39:44.244            18.327          9163.500
       193   09 Jun 2027 04:40:55.513   09 Jun 2027 04:41:09.435            13.922          6961.000
       194   09 Jun 2027 06:12:06.762   09 Jun 2027 06:14:28.542           141.780         68548.750
       195   09 Jun 2027 06:15:14.945   09 Jun 2027 06:15:17.391             2.446           840.656
       196   09 Jun 2027 06:15:43.191   09 Jun 2027 06:15:45.258             2.067           787.813
       197   09 Jun 2027 06:18:04.251   09 Jun 2027 06:18:10.048             5.797          1799.281
       198   09 Jun 2027 06:19:00.315   09 Jun 2027 06:19:03.036             2.721           126.375
       199   09 Jun 2027 07:48:54.760   09 Jun 2027 07:48:57.756             2.996           364.000
       200   09 Jun 2027 07:52:52.555   09 Jun 2027 07:52:54.205             1.650           366.906
       201   09 Jun 2027 07:53:42.704   09 Jun 2027 07:53:44.133             1.429           709.094
       202   09 Jun 2027 07:54:22.749   09 Jun 2027 07:54:26.587             3.838          1088.938
       203   09 Jun 2027 09:27:09.800   09 Jun 2027 09:27:24.566            14.766          6815.188
       204   09 Jun 2027 09:28:53.769   09 Jun 2027 09:28:58.591             4.822          1393.094
       205   09 Jun 2027 09:30:03.991   09 Jun 2027 09:30:06.701             2.710           444.281
       206   09 Jun 2027 11:00:26.959   09 Jun 2027 11:00:38.145            11.186          5480.313
       207   10 Jun 2027 03:12:13.474   10 Jun 2027 03:12:27.889            14.415          7207.500
       208   10 Jun 2027 03:13:03.192   10 Jun 2027 03:13:03.457             0.265           132.500
       209   10 Jun 2027 03:13:54.797   10 Jun 2027 03:13:57.542             2.745          1372.500
       210   10 Jun 2027 03:16:26.610   10 Jun 2027 03:16:26.610             0.000             0.000
       211   10 Jun 2027 03:17:00.620   10 Jun 2027 03:17:00.663             0.043            21.500
       212   10 Jun 2027 04:47:17.167   10 Jun 2027 04:48:35.080            77.913         38956.500
       213   10 Jun 2027 04:49:07.223   10 Jun 2027 04:49:58.011            50.788         25394.000
       214   10 Jun 2027 04:51:10.759   10 Jun 2027 04:52:28.531            77.772         38886.000
       215   10 Jun 2027 06:24:14.956   10 Jun 2027 06:25:40.535            85.579         41323.343
       216   10 Jun 2027 06:26:50.634   10 Jun 2027 06:26:52.979             2.345           175.562
       217   10 Jun 2027 06:27:07.416   10 Jun 2027 06:27:07.676             0.260            92.781
       218   10 Jun 2027 06:27:27.542   10 Jun 2027 06:27:30.026             2.484           489.406
       219   10 Jun 2027 06:29:07.355   10 Jun 2027 06:29:10.457             3.102          1551.000
       220   10 Jun 2027 06:29:44.777   10 Jun 2027 06:29:52.211             7.434          2067.781
       221   10 Jun 2027 06:30:39.191   10 Jun 2027 06:30:42.577             3.386          1276.594
       222   10 Jun 2027 08:01:13.237   10 Jun 2027 08:01:13.701             0.464            99.969
       223   10 Jun 2027 08:03:36.745   10 Jun 2027 08:03:41.169             4.424           311.031
       224   10 Jun 2027 08:04:50.369   10 Jun 2027 08:04:55.180             4.811          1447.719
       225   10 Jun 2027 08:05:22.677   10 Jun 2027 08:05:27.273             4.596           839.844
       226   10 Jun 2027 08:05:38.838   10 Jun 2027 08:05:40.043             1.205           282.125
       227   10 Jun 2027 08:06:30.615   10 Jun 2027 08:06:34.621             4.006          1547.188
       228   10 Jun 2027 08:07:00.023   10 Jun 2027 08:07:01.865             1.842           207.250
       229   10 Jun 2027 09:39:07.914   10 Jun 2027 09:39:20.909            12.995          5832.219
       230   10 Jun 2027 09:40:22.346   10 Jun 2027 09:40:25.753             3.407           223.937
       231   10 Jun 2027 09:41:48.111   10 Jun 2027 09:41:51.830             3.719          1716.937
       232   10 Jun 2027 09:42:27.984   10 Jun 2027 09:42:31.954             3.970           896.687
       233   10 Jun 2027 11:12:26.912   10 Jun 2027 11:12:37.139            10.227          4240.375
       234   11 Jun 2027 03:23:43.379   11 Jun 2027 03:23:55.976            12.597          6298.500
       235   11 Jun 2027 03:25:45.507   11 Jun 2027 03:25:47.037             1.530           765.000
       236   11 Jun 2027 03:27:45.669   11 Jun 2027 03:27:58.503            12.834          6417.000
       237   11 Jun 2027 04:58:42.160   11 Jun 2027 05:02:02.732           200.572        100286.000
       238   11 Jun 2027 05:02:31.250   11 Jun 2027 05:03:15.107            43.857         21928.500
       239   11 Jun 2027 05:07:05.692   11 Jun 2027 05:07:05.787             0.095            47.500
       240   11 Jun 2027 06:36:18.408   11 Jun 2027 06:37:09.520            51.112         25044.406
       241   11 Jun 2027 06:37:35.069   11 Jun 2027 06:37:40.172             5.103           537.844
       242   11 Jun 2027 06:38:47.052   11 Jun 2027 06:38:50.120             3.068           577.625
       243   11 Jun 2027 06:39:21.669   11 Jun 2027 06:39:23.310             1.641            91.219
       244   11 Jun 2027 06:39:51.102   11 Jun 2027 06:39:58.437             7.335           633.344
       245   11 Jun 2027 06:41:13.339   11 Jun 2027 06:41:20.398             7.059           237.562
       246   11 Jun 2027 06:41:27.249   11 Jun 2027 06:41:28.830             1.581           151.344
       247   11 Jun 2027 06:42:25.338   11 Jun 2027 06:42:28.870             3.532           979.063
       248   11 Jun 2027 08:13:02.659   11 Jun 2027 08:13:03.328             0.669           296.094
       249   11 Jun 2027 08:15:57.888   11 Jun 2027 08:16:02.599             4.711           996.563
       250   11 Jun 2027 08:17:18.075   11 Jun 2027 08:17:20.052             1.977           652.500
       251   11 Jun 2027 08:18:08.294   11 Jun 2027 08:18:10.740             2.446           800.062
       252   11 Jun 2027 08:18:26.083   11 Jun 2027 08:18:27.091             1.008           405.156
       253   11 Jun 2027 08:19:23.469   11 Jun 2027 08:19:26.464             2.995          1437.812
       254   11 Jun 2027 09:51:07.318   11 Jun 2027 09:51:18.337            11.019          4780.156
       255   11 Jun 2027 09:54:22.133   11 Jun 2027 09:54:24.758             2.625           365.937
       256   11 Jun 2027 09:54:26.739   11 Jun 2027 09:54:29.899             3.160            19.062
       257   11 Jun 2027 09:55:10.850   11 Jun 2027 09:55:16.040             5.190          1279.719
       258   11 Jun 2027 11:24:52.823   11 Jun 2027 11:24:54.367             1.544           670.656
       259   12 Jun 2027 03:35:19.570   12 Jun 2027 03:35:23.614             4.044          2022.000
       260   12 Jun 2027 03:35:25.023   12 Jun 2027 03:35:25.023             0.000             0.000
       261   12 Jun 2027 03:35:27.750   12 Jun 2027 03:35:42.839            15.089          7544.500
       262   12 Jun 2027 03:35:56.573   12 Jun 2027 03:36:02.672             6.099          3049.500
       263   12 Jun 2027 03:36:37.804   12 Jun 2027 03:36:37.804             0.000             0.000
       264   12 Jun 2027 05:10:12.704   12 Jun 2027 05:13:35.654           202.950        101475.000
       265   12 Jun 2027 05:14:04.316   12 Jun 2027 05:14:04.316             0.000             0.000
       266   12 Jun 2027 05:15:36.946   12 Jun 2027 05:15:42.709             5.763          2881.500
       267   12 Jun 2027 05:18:01.828   12 Jun 2027 05:18:01.828             0.000             0.000
       268   12 Jun 2027 05:19:09.547   12 Jun 2027 05:19:46.146            36.599         18299.500
       269   12 Jun 2027 06:48:17.343   12 Jun 2027 06:49:17.381            60.038         27584.219
       270   12 Jun 2027 06:49:38.019   12 Jun 2027 06:49:40.978             2.959           644.937
       271   12 Jun 2027 06:50:19.582   12 Jun 2027 06:50:20.691             1.109           350.781
       272   12 Jun 2027 06:51:07.774   12 Jun 2027 06:51:11.589             3.815           463.781
       273   12 Jun 2027 06:51:58.994   12 Jun 2027 06:52:02.690             3.696           776.563
       274   12 Jun 2027 06:53:03.236   12 Jun 2027 06:53:08.704             5.468          1833.937
       275   12 Jun 2027 06:53:24.951   12 Jun 2027 06:53:28.021             3.070           413.188
       276   12 Jun 2027 06:53:54.111   12 Jun 2027 06:53:54.886             0.775           350.781
       277   12 Jun 2027 08:25:10.564   12 Jun 2027 08:25:14.388             3.824          1588.406
       278   12 Jun 2027 08:27:42.880   12 Jun 2027 08:27:46.641             3.761          1805.813
       279   12 Jun 2027 08:29:28.729   12 Jun 2027 08:29:31.819             3.090           822.781
       280   12 Jun 2027 08:29:47.552   12 Jun 2027 08:29:48.144             0.592           217.875
       281   12 Jun 2027 08:31:17.114   12 Jun 2027 08:31:20.896             3.782          1053.531
       282   12 Jun 2027 10:02:20.446   12 Jun 2027 10:02:31.558            11.112          4428.531
       283   12 Jun 2027 10:03:12.604   12 Jun 2027 10:03:14.407             1.803            69.688
       284   12 Jun 2027 10:03:33.349   12 Jun 2027 10:03:35.669             2.320           147.344
       285   12 Jun 2027 10:04:25.485   12 Jun 2027 10:04:28.682             3.197          1187.750
       286   12 Jun 2027 10:05:43.009   12 Jun 2027 10:05:45.783             2.774           222.562
       287   12 Jun 2027 11:37:07.526   12 Jun 2027 11:37:10.994             3.468          1702.062
       288   13 Jun 2027 03:49:38.536   13 Jun 2027 03:49:43.363             4.827          2413.500
       289   13 Jun 2027 03:49:49.997   13 Jun 2027 03:50:14.260            24.263         12131.500
       290   13 Jun 2027 03:50:28.703   13 Jun 2027 03:50:28.703             0.000             0.000
       291   13 Jun 2027 05:23:11.896   13 Jun 2027 05:26:10.284           178.388         89194.000
       292   13 Jun 2027 05:26:51.114   13 Jun 2027 05:27:20.997            29.883         14941.500
       293   13 Jun 2027 05:31:44.328   13 Jun 2027 05:31:45.570             1.242           621.000
       294   13 Jun 2027 07:00:39.541   13 Jun 2027 07:02:12.149            92.608         43847.625
       295   13 Jun 2027 07:03:32.167   13 Jun 2027 07:03:32.167             0.000             0.000
       296   13 Jun 2027 07:03:37.433   13 Jun 2027 07:03:43.333             5.900           503.250
       297   13 Jun 2027 07:04:45.169   13 Jun 2027 07:04:51.141             5.972          1327.062
       298   13 Jun 2027 07:06:10.562   13 Jun 2027 07:06:17.525             6.963          2012.000
       299   13 Jun 2027 07:06:49.462   13 Jun 2027 07:06:53.931             4.469           266.875
       300   13 Jun 2027 08:37:39.071   13 Jun 2027 08:37:51.052            11.981          3880.625
       301   13 Jun 2027 08:40:27.642   13 Jun 2027 08:40:29.765             2.123           651.750
       302   13 Jun 2027 08:41:21.832   13 Jun 2027 08:41:23.651             1.819           553.500
       303   13 Jun 2027 08:42:48.513   13 Jun 2027 08:42:52.387             3.874          1196.219
       304   13 Jun 2027 10:14:33.057   13 Jun 2027 10:14:44.216            11.159          5138.563
       305   13 Jun 2027 10:16:29.873   13 Jun 2027 10:16:33.768             3.895          1321.469
       306   13 Jun 2027 11:51:42.473   13 Jun 2027 11:51:44.001             1.528           752.531
