uniorb/output/strategy_4/Camera/Camera_KinoSat_111503.txt

KinoSat_111503
-------------------------
    Access    *     Start Time (UTCG)     *     Stop Time (UTCG)  *   Duration (s) *   Data (Mbytes)
         1   01 Jun 2027 03:38:28.787   01 Jun 2027 03:40:41.920           133.133         66566.500
         2   01 Jun 2027 03:40:52.186   01 Jun 2027 03:40:58.388             6.202          3101.000
         3   01 Jun 2027 03:42:12.838   01 Jun 2027 03:42:12.838             0.000             0.000
         4   01 Jun 2027 03:42:23.669   01 Jun 2027 03:42:27.642             3.973          1986.500
         5   01 Jun 2027 03:42:59.399   01 Jun 2027 03:43:02.225             2.826          1413.000
         6   01 Jun 2027 03:44:00.331   01 Jun 2027 03:44:00.331             0.000             0.000
         7   01 Jun 2027 03:44:03.912   01 Jun 2027 03:44:05.851             1.939           969.500
         8   01 Jun 2027 03:44:42.004   01 Jun 2027 03:44:46.906             4.902          2451.000
         9   01 Jun 2027 03:45:07.387   01 Jun 2027 03:45:12.404             5.017          2508.500
        10   01 Jun 2027 05:04:36.496   01 Jun 2027 05:05:05.046            28.550         14275.000
        11   01 Jun 2027 05:15:32.658   01 Jun 2027 05:16:48.634            75.976         37988.000
        12   01 Jun 2027 05:17:41.177   01 Jun 2027 05:17:50.073             8.896          4448.000
        13   01 Jun 2027 06:39:29.647   01 Jun 2027 06:40:29.544            59.897         29948.500
        14   01 Jun 2027 08:15:15.289   01 Jun 2027 08:16:30.985            75.696         37848.000
        15   01 Jun 2027 08:17:35.685   01 Jun 2027 08:18:30.170            54.485         27242.500
        16   01 Jun 2027 08:19:02.550   01 Jun 2027 08:19:26.705            24.155         12077.500
        17   01 Jun 2027 09:49:59.157   01 Jun 2027 09:52:07.507           128.350         64175.000
        18   01 Jun 2027 09:56:53.419   01 Jun 2027 09:57:31.897            38.478         19239.000
        19   01 Jun 2027 11:26:48.892   01 Jun 2027 11:29:25.253           156.361         78180.500
        20   01 Jun 2027 11:31:13.987   01 Jun 2027 11:31:18.451             4.464          2232.000
        21   01 Jun 2027 11:31:49.339   01 Jun 2027 11:31:55.397             6.058          3029.000
        22   02 Jun 2027 03:50:51.099   02 Jun 2027 03:53:19.623           148.524         74262.000
        23   02 Jun 2027 03:55:48.822   02 Jun 2027 03:55:48.822             0.000             0.000
        24   02 Jun 2027 03:56:09.469   02 Jun 2027 03:56:38.761            29.292         14646.000
        25   02 Jun 2027 05:15:53.962   02 Jun 2027 05:16:25.035            31.073         15536.500
        26   02 Jun 2027 05:27:33.809   02 Jun 2027 05:28:54.100            80.291         40145.500
        27   02 Jun 2027 06:49:50.929   02 Jun 2027 06:51:06.087            75.158         37579.000
        28   02 Jun 2027 06:51:47.009   02 Jun 2027 06:53:08.361            81.352         40676.000
        29   02 Jun 2027 08:25:05.721   02 Jun 2027 08:26:27.401            81.680         40840.000
        30   02 Jun 2027 08:26:58.903   02 Jun 2027 08:29:36.668           157.765         78476.999
        31   02 Jun 2027 10:02:07.054   02 Jun 2027 10:02:21.209            14.155          7044.438
        32   02 Jun 2027 10:06:38.226   02 Jun 2027 10:06:48.536            10.310          4702.063
        33   02 Jun 2027 10:07:52.505   02 Jun 2027 10:07:57.285             4.780          1904.063
        34   02 Jun 2027 10:08:14.385   02 Jun 2027 10:08:19.825             5.440           492.969
        35   02 Jun 2027 10:08:54.239   02 Jun 2027 10:08:56.385             2.146           593.937
        36   02 Jun 2027 10:09:31.797   02 Jun 2027 10:09:31.966             0.169            84.500
        37   02 Jun 2027 11:39:05.037   02 Jun 2027 11:39:14.423             9.386          4672.063
        38   02 Jun 2027 11:41:44.641   02 Jun 2027 11:41:51.319             6.678          2179.781
        39   02 Jun 2027 11:42:39.974   02 Jun 2027 11:42:41.744             1.770           384.937
        40   02 Jun 2027 11:43:14.537   02 Jun 2027 11:43:19.893             5.356           748.031
        41   02 Jun 2027 11:43:41.008   02 Jun 2027 11:43:44.672             3.664           564.781
        42   02 Jun 2027 11:44:19.427   02 Jun 2027 11:44:26.951             7.524           995.625
        43   02 Jun 2027 11:44:46.467   02 Jun 2027 11:44:46.968             0.501           209.094
        44   02 Jun 2027 11:44:53.695   02 Jun 2027 11:44:56.225             2.530           210.219
        45   03 Jun 2027 04:03:10.512   03 Jun 2027 04:05:59.173           168.661         84330.500
        46   03 Jun 2027 04:06:22.809   03 Jun 2027 04:06:25.406             2.597          1298.500
        47   03 Jun 2027 04:08:00.793   03 Jun 2027 04:08:18.816            18.023          9011.500
        48   03 Jun 2027 04:09:09.947   03 Jun 2027 04:09:23.284            13.337          6668.500
        49   03 Jun 2027 05:27:15.098   03 Jun 2027 05:27:16.696             1.598           799.000
        50   03 Jun 2027 05:28:03.357   03 Jun 2027 05:28:26.599            23.242         11621.000
        51   03 Jun 2027 05:29:07.280   03 Jun 2027 05:29:16.090             8.810          4405.000
        52   03 Jun 2027 05:39:31.118   03 Jun 2027 05:40:10.876            39.758         19879.000
        53   03 Jun 2027 07:01:30.022   03 Jun 2027 07:02:22.795            52.773         26350.563
        54   03 Jun 2027 07:03:41.895   03 Jun 2027 07:03:47.139             5.244          2030.406
        55   03 Jun 2027 07:04:08.189   03 Jun 2027 07:04:11.045             2.856           130.969
        56   03 Jun 2027 07:06:27.683   03 Jun 2027 07:06:37.392             9.709          4148.031
        57   03 Jun 2027 07:07:00.067   03 Jun 2027 07:07:04.253             4.186           630.906
        58   03 Jun 2027 08:36:30.544   03 Jun 2027 08:36:37.589             7.045          2820.594
        59   03 Jun 2027 08:37:12.038   03 Jun 2027 08:37:14.581             2.543           187.406
        60   03 Jun 2027 08:38:20.253   03 Jun 2027 08:38:21.687             1.434           658.844
        61   03 Jun 2027 08:38:58.450   03 Jun 2027 08:39:01.330             2.880          1004.312
        62   03 Jun 2027 08:39:46.102   03 Jun 2027 08:39:48.798             2.696          1319.906
        63   03 Jun 2027 08:40:17.280   03 Jun 2027 08:40:21.637             4.357            66.437
        64   03 Jun 2027 08:41:59.095   03 Jun 2027 08:42:11.161            12.066          2701.969
        65   03 Jun 2027 08:43:24.762   03 Jun 2027 08:43:34.779            10.017          1897.250
        66   03 Jun 2027 08:44:07.859   03 Jun 2027 08:44:12.119             4.260           113.250
        67   03 Jun 2027 10:14:09.139   03 Jun 2027 10:14:19.143            10.004          3911.688
        68   03 Jun 2027 10:15:09.202   03 Jun 2027 10:15:10.768             1.566            16.219
        69   03 Jun 2027 10:16:05.491   03 Jun 2027 10:16:07.393             1.902           156.844
        70   03 Jun 2027 10:18:32.796   03 Jun 2027 10:18:37.715             4.919           153.375
        71   03 Jun 2027 10:19:06.223   03 Jun 2027 10:19:10.602             4.379           652.687
        72   03 Jun 2027 10:19:23.245   03 Jun 2027 10:19:24.354             1.109           395.094
        73   03 Jun 2027 10:19:30.670   03 Jun 2027 10:19:31.566             0.896           197.375
        74   03 Jun 2027 10:20:43.449   03 Jun 2027 10:20:52.850             9.401          2162.063
        75   03 Jun 2027 10:20:53.364   03 Jun 2027 10:20:58.429             5.065            16.063
        76   03 Jun 2027 10:21:12.520   03 Jun 2027 10:21:13.544             1.024           439.094
        77   03 Jun 2027 11:50:55.425   03 Jun 2027 11:51:10.153            14.728          4949.563
        78   03 Jun 2027 11:51:55.051   03 Jun 2027 11:51:57.719             2.668          1330.875
        79   03 Jun 2027 11:53:43.463   03 Jun 2027 11:53:49.264             5.801          2208.000
        80   03 Jun 2027 11:54:40.916   03 Jun 2027 11:54:44.280             3.364           577.875
        81   03 Jun 2027 11:55:01.054   03 Jun 2027 11:55:06.867             5.813            42.719
        82   03 Jun 2027 11:55:11.548   03 Jun 2027 11:55:12.410             0.862            13.031
        83   03 Jun 2027 11:55:48.177   03 Jun 2027 11:55:50.196             2.019           920.312
        84   03 Jun 2027 11:56:25.171   03 Jun 2027 11:56:28.398             3.227          1092.969
        85   03 Jun 2027 11:56:46.728   03 Jun 2027 11:56:47.171             0.443           149.063
        86   03 Jun 2027 11:57:08.363   03 Jun 2027 11:57:09.377             1.014           355.156
        87   04 Jun 2027 04:15:15.049   04 Jun 2027 04:16:43.995            88.946         44473.000
        88   04 Jun 2027 04:17:01.408   04 Jun 2027 04:17:47.733            46.325         23162.500
        89   04 Jun 2027 04:19:31.452   04 Jun 2027 04:20:23.740            52.288         26144.000
        90   04 Jun 2027 05:39:23.042   04 Jun 2027 05:40:03.283            40.241         20120.500
        91   04 Jun 2027 07:13:12.194   04 Jun 2027 07:14:53.368           101.174         50344.938
        92   04 Jun 2027 07:16:40.796   04 Jun 2027 07:16:49.608             8.812          2574.375
        93   04 Jun 2027 07:17:18.770   04 Jun 2027 07:17:23.460             4.690           511.969
        94   04 Jun 2027 07:17:54.710   04 Jun 2027 07:17:55.981             1.271           417.844
        95   04 Jun 2027 07:18:36.103   04 Jun 2027 07:18:36.103             0.000             0.000
        96   04 Jun 2027 07:18:37.928   04 Jun 2027 07:18:47.234             9.306           862.063
        97   04 Jun 2027 08:48:04.210   04 Jun 2027 08:48:08.536             4.326          1947.719
        98   04 Jun 2027 08:48:19.844   04 Jun 2027 08:48:20.779             0.935           353.375
        99   04 Jun 2027 08:49:02.268   04 Jun 2027 08:49:03.547             1.279            91.688
       100   04 Jun 2027 08:50:46.653   04 Jun 2027 08:50:53.114             6.461           704.219
       101   04 Jun 2027 08:52:32.871   04 Jun 2027 08:52:39.617             6.746          3117.406
       102   04 Jun 2027 08:54:03.729   04 Jun 2027 08:54:12.564             8.835          2293.500
       103   04 Jun 2027 08:55:08.804   04 Jun 2027 08:55:15.285             6.481           469.094
       104   04 Jun 2027 08:56:17.890   04 Jun 2027 08:56:20.456             2.566          1283.000
       105   04 Jun 2027 08:56:38.899   04 Jun 2027 08:56:41.340             2.441           673.406
       106   04 Jun 2027 08:57:38.395   04 Jun 2027 08:57:39.107             0.712           356.000
       107   04 Jun 2027 10:26:10.414   04 Jun 2027 10:26:21.299            10.885          4195.563
       108   04 Jun 2027 10:29:03.543   04 Jun 2027 10:29:08.557             5.014          1788.969
       109   04 Jun 2027 10:29:49.363   04 Jun 2027 10:29:52.734             3.371          1219.688
       110   04 Jun 2027 10:30:23.661   04 Jun 2027 10:30:24.974             1.313           465.000
       111   04 Jun 2027 10:31:10.310   04 Jun 2027 10:31:12.098             1.788           802.094
       112   04 Jun 2027 10:31:32.067   04 Jun 2027 10:31:34.958             2.891           605.844
       113   04 Jun 2027 10:31:45.855   04 Jun 2027 10:31:46.346             0.491           245.500
       114   04 Jun 2027 10:31:46.618   04 Jun 2027 10:31:48.397             1.779           103.531
       115   04 Jun 2027 10:33:02.218   04 Jun 2027 10:33:06.787             4.569           970.531
       116   04 Jun 2027 10:33:16.473   04 Jun 2027 10:33:20.566             4.093           302.688
       117   05 Jun 2027 04:27:51.645   05 Jun 2027 04:29:33.590           101.945         50972.500
       118   05 Jun 2027 04:30:51.838   05 Jun 2027 04:31:09.457            17.619          8809.500
       119   05 Jun 2027 04:31:48.206   05 Jun 2027 04:32:14.580            26.374         13187.000
       120   05 Jun 2027 05:51:19.134   05 Jun 2027 05:52:12.492            53.358         26679.000
       121   05 Jun 2027 07:27:32.227   05 Jun 2027 07:29:19.135           106.908         53104.312
       122   05 Jun 2027 07:30:28.653   05 Jun 2027 07:30:34.390             5.737          1921.500
       123   05 Jun 2027 09:01:05.360   05 Jun 2027 09:01:10.265             4.905          2220.813
       124   05 Jun 2027 09:02:33.809   05 Jun 2027 09:02:38.168             4.359           372.156
       125   05 Jun 2027 09:03:32.588   05 Jun 2027 09:03:36.026             3.438          1200.906
       126   05 Jun 2027 09:03:44.303   05 Jun 2027 09:03:44.303             0.000             0.000
       127   05 Jun 2027 09:04:19.823   05 Jun 2027 09:04:22.497             2.674          1332.281
       128   05 Jun 2027 09:07:45.039   05 Jun 2027 09:08:00.155            15.116          6013.781
       129   05 Jun 2027 09:08:07.354   05 Jun 2027 09:08:10.765             3.411           124.031
       130   05 Jun 2027 09:09:01.480   05 Jun 2027 09:09:05.802             4.322          1579.812
       131   05 Jun 2027 10:38:37.774   05 Jun 2027 10:38:48.982            11.208          5016.031
       132   05 Jun 2027 10:40:45.432   05 Jun 2027 10:40:48.254             2.822           503.031
       133   05 Jun 2027 10:42:42.040   05 Jun 2027 10:42:44.623             2.583           608.000
       134   05 Jun 2027 10:42:46.258   05 Jun 2027 10:42:47.448             1.190            41.250
       135   05 Jun 2027 10:43:10.389   05 Jun 2027 10:43:11.440             1.051           219.625
       136   05 Jun 2027 10:43:41.753   05 Jun 2027 10:43:42.472             0.719           204.344
       137   05 Jun 2027 10:43:42.572   05 Jun 2027 10:43:45.110             2.538             3.125
       138   05 Jun 2027 10:44:55.339   05 Jun 2027 10:44:58.129             2.790          1294.281
       139   05 Jun 2027 10:44:59.118   05 Jun 2027 10:45:01.911             2.793            30.906
       140   05 Jun 2027 10:45:20.511   05 Jun 2027 10:45:22.543             2.032           469.844
       141   06 Jun 2027 03:01:29.060   06 Jun 2027 03:01:52.346            23.286         11643.000
       142   06 Jun 2027 03:02:10.210   06 Jun 2027 03:02:11.026             0.816           408.000
       143   06 Jun 2027 03:02:21.743   06 Jun 2027 03:02:28.489             6.746          3373.000
       144   06 Jun 2027 03:03:44.948   06 Jun 2027 03:03:48.100             3.152          1576.000
       145   06 Jun 2027 03:05:22.320   06 Jun 2027 03:05:43.649            21.329         10664.500
       146   06 Jun 2027 03:06:23.640   06 Jun 2027 03:06:41.628            17.988          8994.000
       147   06 Jun 2027 04:39:31.235   06 Jun 2027 04:42:22.285           171.050         85525.000
       148   06 Jun 2027 06:03:10.298   06 Jun 2027 06:04:08.987            58.689         29344.500
       149   06 Jun 2027 07:39:37.382   06 Jun 2027 07:40:00.077            22.695         10554.250
       150   06 Jun 2027 07:40:18.220   06 Jun 2027 07:40:20.602             2.382           335.781
       151   06 Jun 2027 07:41:06.184   06 Jun 2027 07:41:09.914             3.730          1074.656
       152   06 Jun 2027 07:41:33.509   06 Jun 2027 07:41:33.784             0.275           123.594
       153   06 Jun 2027 07:42:28.480   06 Jun 2027 07:42:34.811             6.331          1583.906
       154   06 Jun 2027 09:11:45.219   06 Jun 2027 09:11:52.839             7.620          2956.750
       155   06 Jun 2027 09:13:44.299   06 Jun 2027 09:13:45.848             1.549           297.000
       156   06 Jun 2027 09:15:29.039   06 Jun 2027 09:15:33.918             4.879          2096.188
       157   06 Jun 2027 09:16:21.744   06 Jun 2027 09:16:28.120             6.376           937.625
       158   06 Jun 2027 09:17:02.478   06 Jun 2027 09:17:06.402             3.924            76.531
       159   06 Jun 2027 09:18:43.991   06 Jun 2027 09:18:47.672             3.681          1337.844
       160   06 Jun 2027 09:19:50.855   06 Jun 2027 09:19:54.569             3.714           454.500
       161   06 Jun 2027 09:20:39.674   06 Jun 2027 09:20:47.003             7.329           889.687
       162   06 Jun 2027 09:21:15.702   06 Jun 2027 09:21:17.550             1.848           541.031
       163   06 Jun 2027 09:21:33.838   06 Jun 2027 09:21:33.950             0.112            56.000
       164   06 Jun 2027 10:50:42.803   06 Jun 2027 10:50:58.029            15.226          6684.719
       165   06 Jun 2027 10:52:20.774   06 Jun 2027 10:52:28.430             7.656           474.844
       166   06 Jun 2027 10:52:54.044   06 Jun 2027 10:52:54.627             0.583           124.312
       167   06 Jun 2027 10:54:46.968   06 Jun 2027 10:54:49.894             2.926          1221.406
       168   06 Jun 2027 10:55:24.114   06 Jun 2027 10:55:25.548             1.434           415.625
       169   06 Jun 2027 10:55:47.134   06 Jun 2027 10:55:52.362             5.228           674.562
       170   06 Jun 2027 10:56:48.110   06 Jun 2027 10:56:50.430             2.320          1037.781
       171   06 Jun 2027 10:56:52.280   06 Jun 2027 10:56:52.614             0.334            36.125
       172   06 Jun 2027 10:57:14.220   06 Jun 2027 10:57:15.691             1.471           492.344
       173   07 Jun 2027 03:13:36.365   07 Jun 2027 03:14:37.689            61.324         30662.000
       174   07 Jun 2027 03:14:45.527   07 Jun 2027 03:15:23.938            38.411         19205.500
       175   07 Jun 2027 03:15:45.786   07 Jun 2027 03:16:03.441            17.655          8827.500
       176   07 Jun 2027 03:16:46.759   07 Jun 2027 03:17:04.158            17.399          8699.500
       177   07 Jun 2027 03:17:17.554   07 Jun 2027 03:17:54.440            36.886         18443.000
       178   07 Jun 2027 03:18:27.215   07 Jun 2027 03:18:35.100             7.885          3942.500
       179   07 Jun 2027 04:52:44.413   07 Jun 2027 04:54:50.560           126.147         62299.094
       180   07 Jun 2027 06:15:18.676   07 Jun 2027 06:15:32.537            13.861          6637.094
       181   07 Jun 2027 06:16:49.416   07 Jun 2027 06:16:49.416             0.000             0.000
       182   07 Jun 2027 06:17:24.813   07 Jun 2027 06:17:34.357             9.544          3344.687
       183   07 Jun 2027 07:51:47.392   07 Jun 2027 07:51:54.341             6.949          2746.938
       184   07 Jun 2027 07:52:46.047   07 Jun 2027 07:52:51.890             5.843          1347.625
       185   07 Jun 2027 07:53:50.764   07 Jun 2027 07:53:55.536             4.772          1630.906
       186   07 Jun 2027 07:55:11.529   07 Jun 2027 07:55:16.373             4.844          1708.969
       187   07 Jun 2027 09:26:58.455   07 Jun 2027 09:27:06.330             7.875          3283.469
       188   07 Jun 2027 09:28:09.678   07 Jun 2027 09:28:12.940             3.262          1527.156
       189   07 Jun 2027 09:28:23.321   07 Jun 2027 09:28:29.727             6.406           278.750
       190   07 Jun 2027 09:29:58.543   07 Jun 2027 09:30:04.564             6.021          1434.500
       191   07 Jun 2027 09:30:44.224   07 Jun 2027 09:30:49.069             4.845           639.156
       192   07 Jun 2027 09:31:13.335   07 Jun 2027 09:31:18.576             5.241           693.531
       193   07 Jun 2027 09:31:25.020   07 Jun 2027 09:31:26.250             1.230           151.312
       194   07 Jun 2027 09:31:39.981   07 Jun 2027 09:31:43.068             3.087           272.844
       195   07 Jun 2027 09:33:00.591   07 Jun 2027 09:33:05.645             5.054          1547.938
       196   07 Jun 2027 09:33:32.827   07 Jun 2027 09:33:36.061             3.234           123.531
       197   07 Jun 2027 11:03:17.475   07 Jun 2027 11:03:26.987             9.512          4641.687
       198   07 Jun 2027 11:05:14.167   07 Jun 2027 11:05:22.150             7.983          1237.031
       199   07 Jun 2027 11:05:59.191   07 Jun 2027 11:06:12.141            12.950           930.031
       200   07 Jun 2027 11:07:08.559   07 Jun 2027 11:07:11.547             2.988          1198.469
       201   07 Jun 2027 11:07:33.880   07 Jun 2027 11:07:37.116             3.236           697.906
       202   07 Jun 2027 11:07:46.990   07 Jun 2027 11:07:49.044             2.054           308.563
       203   07 Jun 2027 11:08:35.367   07 Jun 2027 11:08:38.631             3.264          1328.469
       204   07 Jun 2027 11:09:18.009   07 Jun 2027 11:09:23.377             5.368          1230.563
       205   08 Jun 2027 03:25:41.364   08 Jun 2027 03:26:01.991            20.627         10313.500
       206   08 Jun 2027 03:26:44.197   08 Jun 2027 03:29:10.601           146.404         73202.000
       207   08 Jun 2027 03:29:11.513   08 Jun 2027 03:29:22.891            11.378          5689.000
       208   08 Jun 2027 03:30:34.533   08 Jun 2027 03:31:03.899            29.366         14683.000
       209   08 Jun 2027 03:34:00.140   08 Jun 2027 03:34:23.118            22.978         11489.000
       210   08 Jun 2027 05:03:53.300   08 Jun 2027 05:04:29.845            36.545         18272.500
       211   08 Jun 2027 05:04:58.434   08 Jun 2027 05:05:48.414            49.980         24743.031
       212   08 Jun 2027 05:06:11.650   08 Jun 2027 05:06:13.203             1.553           711.531
       213   08 Jun 2027 05:07:03.204   08 Jun 2027 05:07:05.425             2.221           622.906
       214   08 Jun 2027 06:28:01.245   08 Jun 2027 06:28:16.334            15.089          7533.875
       215   08 Jun 2027 06:28:38.277   08 Jun 2027 06:28:42.496             4.219           685.719
       216   08 Jun 2027 06:30:01.238   08 Jun 2027 06:30:07.887             6.649          2460.688
       217   08 Jun 2027 08:03:45.798   08 Jun 2027 08:03:54.586             8.788          2979.281
       218   08 Jun 2027 08:04:24.579   08 Jun 2027 08:04:28.640             4.061           533.875
       219   08 Jun 2027 08:05:24.966   08 Jun 2027 08:05:27.423             2.457          1170.281
       220   08 Jun 2027 08:06:06.165   08 Jun 2027 08:06:10.445             4.280          1162.969
       221   08 Jun 2027 08:06:55.067   08 Jun 2027 08:06:58.359             3.292          1144.625
       222   08 Jun 2027 09:38:50.205   08 Jun 2027 09:38:57.633             7.428          2904.313
       223   08 Jun 2027 09:40:24.503   08 Jun 2027 09:40:31.654             7.151          2388.625
       224   08 Jun 2027 09:40:57.616   08 Jun 2027 09:40:59.431             1.815           521.594
       225   08 Jun 2027 09:41:52.716   08 Jun 2027 09:41:54.729             2.013           843.938
       226   08 Jun 2027 09:42:45.870   08 Jun 2027 09:42:49.864             3.994          1598.156
       227   08 Jun 2027 09:43:42.879   08 Jun 2027 09:43:44.704             1.825           876.969
       228   08 Jun 2027 09:45:19.968   08 Jun 2027 09:45:24.730             4.762          2118.531
       229   08 Jun 2027 09:45:38.916   08 Jun 2027 09:45:40.257             1.341           440.406
       230   08 Jun 2027 11:14:55.321   08 Jun 2027 11:15:07.862            12.541          5056.031
       231   08 Jun 2027 11:16:56.566   08 Jun 2027 11:17:00.603             4.037          1078.406
       232   08 Jun 2027 11:17:38.958   08 Jun 2027 11:17:44.390             5.432          1058.031
       233   08 Jun 2027 11:18:00.864   08 Jun 2027 11:18:02.011             1.147           514.813
       234   08 Jun 2027 11:18:51.125   08 Jun 2027 11:18:54.689             3.564           928.656
       235   08 Jun 2027 11:19:23.755   08 Jun 2027 11:19:31.712             7.957           508.781
       236   08 Jun 2027 11:20:12.079   08 Jun 2027 11:20:17.009             4.930          1105.281
       237   08 Jun 2027 11:20:19.175   08 Jun 2027 11:20:20.839             1.664            66.031
       238   08 Jun 2027 11:20:51.951   08 Jun 2027 11:21:00.894             8.943           847.438
       239   08 Jun 2027 11:21:13.346   08 Jun 2027 11:21:15.369             2.023           389.125
       240   09 Jun 2027 03:38:45.834   09 Jun 2027 03:40:47.942           122.108         61054.000
       241   09 Jun 2027 03:41:19.505   09 Jun 2027 03:42:31.122            71.617         35808.500
       242   09 Jun 2027 03:42:43.045   09 Jun 2027 03:42:52.614             9.569          4784.500
       243   09 Jun 2027 03:43:37.823   09 Jun 2027 03:43:51.966            14.143          7071.500
       244   09 Jun 2027 03:45:00.113   09 Jun 2027 03:45:27.553            27.440         13720.000
       245   09 Jun 2027 05:04:50.536   09 Jun 2027 05:04:56.747             6.211          3105.500
       246   09 Jun 2027 05:15:49.030   09 Jun 2027 05:17:04.094            75.064         37160.813
       247   09 Jun 2027 05:18:05.420   09 Jun 2027 05:18:09.905             4.485           365.500
       248   09 Jun 2027 05:18:33.909   09 Jun 2027 05:18:36.645             2.736           522.813
       249   09 Jun 2027 05:19:01.049   09 Jun 2027 05:19:03.847             2.798           486.469
       250   09 Jun 2027 06:39:08.070   09 Jun 2027 06:39:20.129            12.059          3303.719
       251   09 Jun 2027 06:40:32.192   09 Jun 2027 06:40:36.148             3.956          1749.781
       252   09 Jun 2027 06:40:45.215   09 Jun 2027 06:40:45.215             0.000             0.000
       253   09 Jun 2027 06:42:01.120   09 Jun 2027 06:42:06.705             5.585          2450.156
       254   09 Jun 2027 08:15:30.426   09 Jun 2027 08:15:36.921             6.495          2347.156
       255   09 Jun 2027 08:17:10.207   09 Jun 2027 08:17:15.112             4.905          1875.594
       256   09 Jun 2027 08:18:16.868   09 Jun 2027 08:18:19.007             2.139           692.281
       257   09 Jun 2027 08:19:06.065   09 Jun 2027 08:19:20.929            14.864          1449.875
       258   09 Jun 2027 09:50:16.036   09 Jun 2027 09:50:22.673             6.637          2452.562
       259   09 Jun 2027 09:52:25.233   09 Jun 2027 09:52:31.299             6.066          2965.594
       260   09 Jun 2027 09:53:49.439   09 Jun 2027 09:53:49.439             0.000             0.000
       261   09 Jun 2027 09:53:55.894   09 Jun 2027 09:54:00.174             4.280          1379.437
       262   09 Jun 2027 09:55:01.492   09 Jun 2027 09:55:03.729             2.237           899.844
       263   09 Jun 2027 09:55:32.729   09 Jun 2027 09:55:33.778             1.049           357.312
       264   09 Jun 2027 09:55:44.984   09 Jun 2027 09:55:45.974             0.990            24.625
       265   09 Jun 2027 09:55:54.816   09 Jun 2027 09:55:57.822             3.006           276.312
       266   09 Jun 2027 09:57:05.743   09 Jun 2027 09:57:11.371             5.628          1923.375
       267   09 Jun 2027 09:57:19.103   09 Jun 2027 09:57:19.893             0.790           182.844
       268   09 Jun 2027 09:57:42.251   09 Jun 2027 09:57:43.637             1.386           628.031
       269   09 Jun 2027 11:27:05.587   09 Jun 2027 11:27:18.769            13.182          6221.625
       270   09 Jun 2027 11:28:03.226   09 Jun 2027 11:28:05.238             2.012           634.281
       271   09 Jun 2027 11:28:45.896   09 Jun 2027 11:28:47.849             1.953           228.094
       272   09 Jun 2027 11:28:57.513   09 Jun 2027 11:29:03.552             6.039           154.594
       273   09 Jun 2027 11:29:56.471   09 Jun 2027 11:30:01.650             5.179           889.656
       274   09 Jun 2027 11:30:09.060   09 Jun 2027 11:30:12.612             3.552           231.562
       275   09 Jun 2027 11:30:53.196   09 Jun 2027 11:30:55.726             2.530           165.062
       276   09 Jun 2027 11:31:28.271   09 Jun 2027 11:31:30.450             2.179           727.219
       277   09 Jun 2027 11:31:49.076   09 Jun 2027 11:31:50.970             1.894           247.344
       278   09 Jun 2027 11:32:11.271   09 Jun 2027 11:32:14.693             3.422           634.406
       279   10 Jun 2027 03:51:09.101   10 Jun 2027 03:54:19.471           190.370         95185.000
       280   10 Jun 2027 03:55:14.170   10 Jun 2027 03:55:21.651             7.481          3740.500
       281   10 Jun 2027 03:55:32.176   10 Jun 2027 03:55:58.931            26.755         13377.500
       282   10 Jun 2027 03:56:28.927   10 Jun 2027 03:56:53.068            24.141         12070.500
       283   10 Jun 2027 05:16:09.906   10 Jun 2027 05:16:10.644             0.738           369.000
       284   10 Jun 2027 05:27:50.260   10 Jun 2027 05:29:11.047            80.787         40393.500
       285   10 Jun 2027 06:50:06.057   10 Jun 2027 06:50:14.280             8.223          4111.500
       286   10 Jun 2027 06:50:37.118   10 Jun 2027 06:50:42.215             5.097           996.157
       287   10 Jun 2027 06:52:31.945   10 Jun 2027 06:52:39.950             8.005          2658.406
       288   10 Jun 2027 06:54:00.259   10 Jun 2027 06:54:06.633             6.374          2339.031
       289   10 Jun 2027 06:54:44.034   10 Jun 2027 06:54:46.327             2.293           687.438
       290   10 Jun 2027 08:25:18.290   10 Jun 2027 08:25:27.103             8.813          3814.219
       291   10 Jun 2027 08:26:11.707   10 Jun 2027 08:26:15.911             4.204          1174.906
       292   10 Jun 2027 08:27:14.559   10 Jun 2027 08:27:18.608             4.049          1103.125
       293   10 Jun 2027 08:28:49.727   10 Jun 2027 08:28:58.353             8.626          2383.531
       294   10 Jun 2027 08:30:20.483   10 Jun 2027 08:30:27.536             7.053          2335.031
       295   10 Jun 2027 08:30:44.809   10 Jun 2027 08:30:47.389             2.580           519.562
       296   10 Jun 2027 10:02:23.081   10 Jun 2027 10:02:28.725             5.644          2622.625
       297   10 Jun 2027 10:03:13.216   10 Jun 2027 10:03:15.552             2.336           108.969
       298   10 Jun 2027 10:04:28.814   10 Jun 2027 10:04:33.054             4.240           892.813
       299   10 Jun 2027 10:05:47.540   10 Jun 2027 10:05:56.049             8.509           165.031
       300   10 Jun 2027 10:05:57.903   10 Jun 2027 10:05:59.328             1.425            53.281
       301   10 Jun 2027 10:06:56.891   10 Jun 2027 10:07:01.797             4.906          1737.844
       302   10 Jun 2027 10:08:09.760   10 Jun 2027 10:08:13.702             3.942          1779.656
       303   10 Jun 2027 10:08:27.362   10 Jun 2027 10:08:28.856             1.494           426.875
       304   10 Jun 2027 10:09:11.333   10 Jun 2027 10:09:17.420             6.087          1274.813
       305   10 Jun 2027 10:09:39.073   10 Jun 2027 10:09:48.015             8.942           534.312
       306   10 Jun 2027 11:39:21.258   10 Jun 2027 11:39:40.118            18.860          7814.594
       307   10 Jun 2027 11:41:17.894   10 Jun 2027 11:41:22.539             4.645           590.906
       308   10 Jun 2027 11:42:02.793   10 Jun 2027 11:42:05.947             3.154           622.125
       309   10 Jun 2027 11:42:55.222   10 Jun 2027 11:43:01.118             5.896          1435.563
       310   10 Jun 2027 11:43:30.872   10 Jun 2027 11:43:32.303             1.431           705.469
       311   10 Jun 2027 11:43:49.522   10 Jun 2027 11:43:55.376             5.854           538.094
       312   10 Jun 2027 11:44:56.159   10 Jun 2027 11:45:01.945             5.786          1857.156
       313   10 Jun 2027 11:45:02.589   10 Jun 2027 11:45:03.393             0.804            20.125
       314   10 Jun 2027 11:45:13.978   10 Jun 2027 11:45:15.991             2.013           143.594
       315   11 Jun 2027 04:03:27.435   11 Jun 2027 04:05:53.126           145.691         72845.500
       316   11 Jun 2027 04:06:15.973   11 Jun 2027 04:06:22.120             6.147          3073.500
       317   11 Jun 2027 04:07:52.416   11 Jun 2027 04:08:15.477            23.061         11530.500
       318   11 Jun 2027 04:09:38.287   11 Jun 2027 04:10:16.057            37.770         18885.000
       319   11 Jun 2027 05:27:35.561   11 Jun 2027 05:28:16.756            41.195         20597.500
       320   11 Jun 2027 05:39:47.411   11 Jun 2027 05:40:27.150            39.739         19869.500
       321   11 Jun 2027 07:01:48.411   11 Jun 2027 07:02:33.204            44.793         20010.375
       322   11 Jun 2027 07:03:59.728   11 Jun 2027 07:04:04.018             4.290          2049.187
       323   11 Jun 2027 07:04:26.201   11 Jun 2027 07:04:27.584             1.383           182.375
       324   11 Jun 2027 07:06:44.599   11 Jun 2027 07:06:56.268            11.669          4170.625
       325   11 Jun 2027 08:36:45.648   11 Jun 2027 08:36:52.934             7.286          2143.531
       326   11 Jun 2027 08:38:15.849   11 Jun 2027 08:38:18.987             3.138          1517.813
       327   11 Jun 2027 08:39:21.521   11 Jun 2027 08:39:24.428             2.907          1375.531
       328   11 Jun 2027 08:40:31.836   11 Jun 2027 08:40:36.778             4.942           926.438
       329   11 Jun 2027 08:42:20.806   11 Jun 2027 08:42:26.360             5.554          2348.000
       330   11 Jun 2027 08:43:43.945   11 Jun 2027 08:43:49.316             5.371          1978.469
       331   11 Jun 2027 08:44:25.452   11 Jun 2027 08:44:29.702             4.250           104.031
       332   11 Jun 2027 10:14:25.336   11 Jun 2027 10:14:34.175             8.839          3495.688
       333   11 Jun 2027 10:16:54.916   11 Jun 2027 10:16:59.258             4.342           655.156
       334   11 Jun 2027 10:18:01.776   11 Jun 2027 10:18:05.599             3.823           930.000
       335   11 Jun 2027 10:18:48.130   11 Jun 2027 10:18:52.644             4.514           125.344
       336   11 Jun 2027 10:19:46.643   11 Jun 2027 10:19:48.980             2.337           127.219
       337   11 Jun 2027 10:20:33.432   11 Jun 2027 10:20:35.871             2.439           820.563
       338   11 Jun 2027 10:21:14.643   11 Jun 2027 10:21:21.430             6.787          1201.031
       339   11 Jun 2027 11:51:12.448   11 Jun 2027 11:51:24.917            12.469          5296.063
       340   11 Jun 2027 11:51:33.473   11 Jun 2027 11:51:34.506             1.033            99.875
       341   11 Jun 2027 11:52:50.216   11 Jun 2027 11:52:58.735             8.519          1159.375
       342   11 Jun 2027 11:53:23.033   11 Jun 2027 11:53:23.612             0.579            16.250
       343   11 Jun 2027 11:53:31.246   11 Jun 2027 11:53:31.846             0.600           189.344
       344   11 Jun 2027 11:54:40.298   11 Jun 2027 11:54:45.501             5.203          1252.875
       345   11 Jun 2027 11:55:15.591   11 Jun 2027 11:55:16.986             1.395           575.594
       346   11 Jun 2027 11:55:43.855   11 Jun 2027 11:55:45.868             2.013           839.656
       347   11 Jun 2027 11:57:28.163   11 Jun 2027 11:57:32.707             4.544          2137.656
       348   11 Jun 2027 11:57:45.593   11 Jun 2027 11:57:47.915             2.322           115.281
       349   12 Jun 2027 04:15:32.414   12 Jun 2027 04:17:12.547           100.133         50066.500
       350   12 Jun 2027 04:17:23.946   12 Jun 2027 04:18:18.690            54.744         27372.000
       351   12 Jun 2027 04:19:08.991   12 Jun 2027 04:19:24.706            15.715          7857.500
       352   12 Jun 2027 04:20:05.907   12 Jun 2027 04:20:09.589             3.682          1841.000
       353   12 Jun 2027 05:39:39.576   12 Jun 2027 05:40:22.400            42.824         21412.000
       354   12 Jun 2027 07:13:27.399   12 Jun 2027 07:15:21.542           114.143         51629.625
       355   12 Jun 2027 07:16:15.088   12 Jun 2027 07:16:20.260             5.172          1532.625
       356   12 Jun 2027 07:16:58.566   12 Jun 2027 07:17:06.215             7.649          1146.531
       357   12 Jun 2027 07:17:36.814   12 Jun 2027 07:17:36.814             0.000             0.000
       358   12 Jun 2027 07:18:45.246   12 Jun 2027 07:18:50.381             5.135          2567.500
       359   12 Jun 2027 07:18:54.462   12 Jun 2027 07:18:55.663             1.201           313.844
       360   12 Jun 2027 08:48:19.626   12 Jun 2027 08:48:24.233             4.607          1942.969
       361   12 Jun 2027 08:48:38.038   12 Jun 2027 08:48:41.475             3.437           407.812
       362   12 Jun 2027 08:49:19.738   12 Jun 2027 08:49:31.973            12.235           166.438
       363   12 Jun 2027 08:50:41.884   12 Jun 2027 08:50:46.979             5.095           105.000
       364   12 Jun 2027 08:52:50.536   12 Jun 2027 08:52:57.245             6.709          3040.781
       365   12 Jun 2027 08:54:20.554   12 Jun 2027 08:54:27.254             6.700          2265.219
       366   12 Jun 2027 08:55:24.335   12 Jun 2027 08:55:31.380             7.045           414.156
       367   12 Jun 2027 08:55:58.843   12 Jun 2027 08:56:07.081             8.238           743.844
       368   12 Jun 2027 10:26:27.940   12 Jun 2027 10:26:40.046            12.106          6032.500
       369   12 Jun 2027 10:30:24.393   12 Jun 2027 10:30:32.531             8.138           557.687
       370   12 Jun 2027 10:31:27.479   12 Jun 2027 10:31:29.310             1.831           857.594
       371   12 Jun 2027 10:31:49.665   12 Jun 2027 10:31:51.113             1.448            57.687
       372   12 Jun 2027 10:32:47.155   12 Jun 2027 10:32:57.237            10.082          1751.313
       373   12 Jun 2027 10:33:01.874   12 Jun 2027 10:33:07.768             5.894            52.844
       374   12 Jun 2027 10:33:25.769   12 Jun 2027 10:33:26.810             1.041           486.062
       375   12 Jun 2027 10:33:53.380   12 Jun 2027 10:33:53.938             0.558           279.000
       376   13 Jun 2027 04:28:09.238   13 Jun 2027 04:30:13.890           124.652         62326.000
       377   13 Jun 2027 04:30:58.310   13 Jun 2027 04:31:55.553            57.243         28621.500
       378   13 Jun 2027 05:51:34.795   13 Jun 2027 05:52:15.462            40.667         20333.500
       379   13 Jun 2027 07:27:49.909   13 Jun 2027 07:29:24.939            95.030         47228.937
       380   13 Jun 2027 07:30:45.513   13 Jun 2027 07:30:51.195             5.682          1878.906
       381   13 Jun 2027 09:01:22.429   13 Jun 2027 09:01:30.095             7.666          2198.187
       382   13 Jun 2027 09:02:44.144   13 Jun 2027 09:02:45.026             0.882           158.312
       383   13 Jun 2027 09:03:50.664   13 Jun 2027 09:03:53.115             2.451          1203.062
       384   13 Jun 2027 09:04:02.550   13 Jun 2027 09:04:04.304             1.754           294.844
       385   13 Jun 2027 09:04:50.206   13 Jun 2027 09:04:50.206             0.000             0.000
       386   13 Jun 2027 09:05:58.901   13 Jun 2027 09:06:05.645             6.744          3140.781
       387   13 Jun 2027 09:07:05.755   13 Jun 2027 09:07:09.218             3.463          1441.438
       388   13 Jun 2027 09:08:21.530   13 Jun 2027 09:08:28.451             6.921          2120.219
       389   13 Jun 2027 09:09:19.609   13 Jun 2027 09:09:29.646            10.037          1598.687
       390   13 Jun 2027 10:38:54.992   13 Jun 2027 10:39:05.403            10.411          5085.469
       391   13 Jun 2027 10:41:41.882   13 Jun 2027 10:41:47.007             5.125          1398.125
       392   13 Jun 2027 10:43:18.794   13 Jun 2027 10:43:22.292             3.498           565.281
       393   13 Jun 2027 10:44:22.366   13 Jun 2027 10:44:28.515             6.149          1800.844
       394   13 Jun 2027 10:45:11.821   13 Jun 2027 10:45:17.224             5.403          1353.313
