uniorb/output/strategy_4/Camera/Camera_KinoSat_111005.txt

KinoSat_111005
-------------------------
    Access    *     Start Time (UTCG)     *     Stop Time (UTCG)  *   Duration (s) *   Data (Mbytes)
         1   01 Jun 2027 03:27:16.157   01 Jun 2027 03:28:29.002            72.845         36422.500
         2   01 Jun 2027 03:39:32.066   01 Jun 2027 03:39:59.617            27.551         13775.500
         3   01 Jun 2027 05:01:12.965   01 Jun 2027 05:02:32.554            79.589         39794.500
         4   01 Jun 2027 05:03:20.746   01 Jun 2027 05:03:29.125             8.379          4189.500
         5   01 Jun 2027 05:04:18.701   01 Jun 2027 05:04:23.419             4.718          2359.000
         6   01 Jun 2027 05:04:43.307   01 Jun 2027 05:04:52.072             8.765          4382.500
         7   01 Jun 2027 05:06:09.064   01 Jun 2027 05:06:09.064             0.000             0.000
         8   01 Jun 2027 06:36:06.414   01 Jun 2027 06:37:58.030           111.616         55808.000
         9   01 Jun 2027 06:38:28.452   01 Jun 2027 06:38:29.649             1.197           598.500
        10   01 Jun 2027 06:39:18.686   01 Jun 2027 06:39:33.506            14.820          7410.000
        11   01 Jun 2027 06:42:47.786   01 Jun 2027 06:42:50.744             2.958          1479.000
        12   01 Jun 2027 06:43:22.453   01 Jun 2027 06:43:28.787             6.334          3167.000
        13   01 Jun 2027 06:43:46.511   01 Jun 2027 06:43:46.511             0.000             0.000
        14   01 Jun 2027 06:44:05.726   01 Jun 2027 06:44:11.000             5.274          2637.000
        15   01 Jun 2027 06:44:43.313   01 Jun 2027 06:44:45.557             2.244          1122.000
        16   01 Jun 2027 08:14:01.597   01 Jun 2027 08:16:51.127           169.530         84765.000
        17   01 Jun 2027 08:19:51.125   01 Jun 2027 08:19:54.138             3.013          1506.500
        18   01 Jun 2027 08:20:58.491   01 Jun 2027 08:21:02.679             4.188          2094.000
        19   01 Jun 2027 09:50:46.857   01 Jun 2027 09:50:56.502             9.645          4822.500
        20   01 Jun 2027 09:51:21.082   01 Jun 2027 09:53:21.378           120.296         60148.000
        21   01 Jun 2027 09:54:34.637   01 Jun 2027 09:54:45.637            11.000          5500.000
        22   01 Jun 2027 09:56:04.574   01 Jun 2027 09:56:29.675            25.101         12550.500
        23   01 Jun 2027 09:56:32.486   01 Jun 2027 09:56:34.681             2.195          1097.500
        24   01 Jun 2027 09:57:15.720   01 Jun 2027 09:57:17.767             2.047          1023.500
        25   01 Jun 2027 11:28:39.096   01 Jun 2027 11:31:11.089           151.993         75996.500
        26   01 Jun 2027 11:31:55.397   01 Jun 2027 11:31:59.634             4.237          2118.500
        27   02 Jun 2027 03:39:11.695   02 Jun 2027 03:39:39.730            28.035         14017.500
        28   02 Jun 2027 05:15:11.490   02 Jun 2027 05:18:29.369           197.879         98939.500
        29   02 Jun 2027 06:48:59.663   02 Jun 2027 06:52:29.250           209.587        104793.500
        30   02 Jun 2027 06:53:44.194   02 Jun 2027 06:54:04.954            20.760         10380.000
        31   02 Jun 2027 06:57:30.329   02 Jun 2027 06:57:30.739             0.410           205.000
        32   02 Jun 2027 08:26:11.691   02 Jun 2027 08:29:55.941           224.250        111726.188
        33   02 Jun 2027 08:31:04.473   02 Jun 2027 08:31:10.594             6.121          1903.125
        34   02 Jun 2027 08:32:13.986   02 Jun 2027 08:32:19.302             5.316          1979.781
        35   02 Jun 2027 10:03:25.248   02 Jun 2027 10:03:51.302            26.054          9446.594
        36   02 Jun 2027 10:05:38.896   02 Jun 2027 10:05:42.116             3.220           546.594
        37   02 Jun 2027 10:06:35.215   02 Jun 2027 10:06:39.347             4.132          1604.781
        38   02 Jun 2027 10:06:56.665   02 Jun 2027 10:06:58.470             1.805           387.312
        39   02 Jun 2027 10:07:14.397   02 Jun 2027 10:07:16.064             1.667           440.906
        40   02 Jun 2027 10:07:26.406   02 Jun 2027 10:07:28.611             2.205           302.094
        41   02 Jun 2027 10:07:44.845   02 Jun 2027 10:07:47.278             2.433           456.219
        42   02 Jun 2027 10:08:12.274   02 Jun 2027 10:08:13.222             0.948           468.406
        43   02 Jun 2027 10:08:56.385   02 Jun 2027 10:09:01.172             4.787          1312.500
        44   02 Jun 2027 11:40:05.769   02 Jun 2027 11:40:17.033            11.264          5254.281
        45   02 Jun 2027 11:41:26.794   02 Jun 2027 11:41:28.127             1.333           413.531
        46   02 Jun 2027 11:42:46.020   02 Jun 2027 11:42:50.600             4.580          1861.500
        47   02 Jun 2027 11:43:15.158   02 Jun 2027 11:43:19.893             4.735           606.344
        48   02 Jun 2027 11:43:50.386   02 Jun 2027 11:44:01.367            10.981           519.219
        49   02 Jun 2027 11:44:40.860   02 Jun 2027 11:44:46.467             5.607           361.125
        50   03 Jun 2027 03:51:03.706   03 Jun 2027 03:51:47.066            43.360         21680.000
        51   03 Jun 2027 05:27:25.012   03 Jun 2027 05:29:55.151           150.139         75069.500
        52   03 Jun 2027 05:30:23.497   03 Jun 2027 05:30:56.928            33.431         16715.500
        53   03 Jun 2027 07:01:28.174   03 Jun 2027 07:03:04.832            96.658         47575.687
        54   03 Jun 2027 07:03:20.500   03 Jun 2027 07:03:22.626             2.126           254.312
        55   03 Jun 2027 07:03:35.401   03 Jun 2027 07:03:37.619             2.218            97.594
        56   03 Jun 2027 07:04:08.189   03 Jun 2027 07:04:11.045             2.856           130.969
        57   03 Jun 2027 07:05:43.594   03 Jun 2027 07:05:48.315             4.721          2163.094
        58   03 Jun 2027 07:06:10.413   03 Jun 2027 07:06:11.680             1.267            83.750
        59   03 Jun 2027 07:07:04.253   03 Jun 2027 07:07:06.649             2.396          1142.813
        60   03 Jun 2027 07:07:51.733   03 Jun 2027 07:07:59.523             7.790           665.625
        61   03 Jun 2027 07:08:03.691   03 Jun 2027 07:08:05.058             1.367            49.188
        62   03 Jun 2027 07:08:41.651   03 Jun 2027 07:08:44.724             3.073           979.875
        63   03 Jun 2027 07:09:05.794   03 Jun 2027 07:09:08.781             2.987           148.844
        64   03 Jun 2027 08:38:34.766   03 Jun 2027 08:38:45.817            11.051          3526.625
        65   03 Jun 2027 08:40:53.186   03 Jun 2027 08:41:02.190             9.004          1221.813
        66   03 Jun 2027 08:41:36.305   03 Jun 2027 08:41:37.653             1.348           327.750
        67   03 Jun 2027 08:42:18.466   03 Jun 2027 08:42:23.173             4.707          1267.406
        68   03 Jun 2027 08:43:20.600   03 Jun 2027 08:43:22.327             1.727           190.031
        69   03 Jun 2027 08:44:30.352   03 Jun 2027 08:44:39.997             9.645          1319.781
        70   03 Jun 2027 10:15:32.353   03 Jun 2027 10:15:46.300            13.947          6893.000
        71   03 Jun 2027 10:18:56.092   03 Jun 2027 10:18:56.529             0.437           105.219
        72   03 Jun 2027 10:19:06.887   03 Jun 2027 10:19:10.602             3.715           323.687
        73   03 Jun 2027 10:19:34.263   03 Jun 2027 10:19:36.973             2.710           344.312
        74   03 Jun 2027 10:20:17.465   03 Jun 2027 10:20:19.941             2.476           948.781
        75   03 Jun 2027 11:52:19.675   03 Jun 2027 11:52:38.019            18.344          8034.250
        76   03 Jun 2027 11:53:14.918   03 Jun 2027 11:53:17.250             2.332           237.969
        77   03 Jun 2027 11:55:26.670   03 Jun 2027 11:55:31.061             4.391           800.500
        78   04 Jun 2027 04:03:05.927   04 Jun 2027 04:03:56.445            50.518         25259.000
        79   04 Jun 2027 05:39:31.505   04 Jun 2027 05:42:23.993           172.488         86244.000
        80   04 Jun 2027 07:14:39.691   04 Jun 2027 07:16:20.191           100.500         49669.500
        81   04 Jun 2027 07:17:41.339   04 Jun 2027 07:17:46.060             4.721          1849.250
        82   04 Jun 2027 07:18:10.342   04 Jun 2027 07:18:14.636             4.294           488.500
        83   04 Jun 2027 07:18:37.928   04 Jun 2027 07:18:37.928             0.000             0.000
        84   04 Jun 2027 07:19:49.404   04 Jun 2027 07:19:57.485             8.081          2290.656
        85   04 Jun 2027 07:20:40.343   04 Jun 2027 07:20:43.524             3.181          1044.562
        86   04 Jun 2027 07:21:09.632   04 Jun 2027 07:21:11.046             1.414           416.844
        87   04 Jun 2027 07:21:20.849   04 Jun 2027 07:21:21.705             0.856           306.344
        88   04 Jun 2027 08:51:00.425   04 Jun 2027 08:51:11.421            10.996          5042.844
        89   04 Jun 2027 08:52:43.722   04 Jun 2027 08:52:45.321             1.599           505.000
        90   04 Jun 2027 08:54:18.538   04 Jun 2027 08:54:19.096             0.558           127.062
        91   04 Jun 2027 08:54:57.439   04 Jun 2027 08:54:58.201             0.762           135.844
        92   04 Jun 2027 08:55:42.856   04 Jun 2027 08:55:44.677             1.821           506.219
        93   04 Jun 2027 08:56:20.888   04 Jun 2027 08:56:25.777             4.889            22.469
        94   04 Jun 2027 08:56:33.388   04 Jun 2027 08:56:35.678             2.290           237.844
        95   04 Jun 2027 10:28:34.308   04 Jun 2027 10:28:50.312            16.004          5754.969
        96   04 Jun 2027 10:31:00.262   04 Jun 2027 10:31:03.472             3.210           987.656
        97   04 Jun 2027 10:31:43.846   04 Jun 2027 10:31:46.346             2.500          1107.656
        98   04 Jun 2027 10:32:31.161   04 Jun 2027 10:32:40.737             9.576          1119.656
        99   04 Jun 2027 10:32:55.191   04 Jun 2027 10:32:57.426             2.235           324.156
       100   05 Jun 2027 04:15:04.999   05 Jun 2027 04:15:53.103            48.104         24052.000
       101   05 Jun 2027 04:17:56.206   05 Jun 2027 04:18:02.492             6.286          3143.000
       102   05 Jun 2027 05:51:41.642   05 Jun 2027 05:53:58.807           137.165         68582.500
       103   05 Jun 2027 05:54:12.930   05 Jun 2027 05:54:15.427             2.497          1248.500
       104   05 Jun 2027 07:26:51.784   05 Jun 2027 07:28:41.830           110.046         54270.625
       105   05 Jun 2027 07:28:59.379   05 Jun 2027 07:29:05.146             5.767           208.281
       106   05 Jun 2027 07:30:34.390   05 Jun 2027 07:30:38.390             4.000          2000.000
       107   05 Jun 2027 07:31:49.456   05 Jun 2027 07:32:00.869            11.413          2572.531
       108   05 Jun 2027 07:32:49.067   05 Jun 2027 07:32:53.732             4.665          1219.375
       109   05 Jun 2027 07:33:16.208   05 Jun 2027 07:33:16.208             0.000             0.000
       110   05 Jun 2027 09:03:09.072   05 Jun 2027 09:03:24.257            15.185          5702.562
       111   05 Jun 2027 09:07:02.489   05 Jun 2027 09:07:04.991             2.502          1156.031
       112   05 Jun 2027 09:08:13.716   05 Jun 2027 09:08:16.410             2.694          1188.781
       113   05 Jun 2027 09:08:34.120   05 Jun 2027 09:08:36.397             2.277           553.437
       114   05 Jun 2027 09:09:03.746   05 Jun 2027 09:09:05.802             2.056           456.781
       115   05 Jun 2027 10:40:39.071   05 Jun 2027 10:40:54.486            15.415          6508.875
       116   05 Jun 2027 10:43:03.361   05 Jun 2027 10:43:04.792             1.431           534.469
       117   05 Jun 2027 10:43:09.290   05 Jun 2027 10:43:10.389             1.099            70.250
       118   05 Jun 2027 10:43:35.214   05 Jun 2027 10:43:40.544             5.330           775.781
       119   05 Jun 2027 10:44:13.922   05 Jun 2027 10:44:23.186             9.264          1043.063
       120   05 Jun 2027 10:44:56.894   05 Jun 2027 10:44:59.118             2.224           747.875
       121   05 Jun 2027 10:45:05.476   05 Jun 2027 10:45:07.283             1.807           198.687
       122   06 Jun 2027 03:03:42.414   06 Jun 2027 03:04:13.181            30.767         15383.500
       123   06 Jun 2027 03:04:40.114   06 Jun 2027 03:04:52.670            12.556          6278.000
       124   06 Jun 2027 03:05:43.649   06 Jun 2027 03:06:23.640            39.991         19995.500
       125   06 Jun 2027 04:27:41.081   06 Jun 2027 04:28:28.374            47.293         23646.500
       126   06 Jun 2027 04:29:07.526   06 Jun 2027 04:29:47.942            40.416         20208.000
       127   06 Jun 2027 06:03:25.828   06 Jun 2027 06:05:34.154           128.326         64163.000
       128   06 Jun 2027 06:06:51.709   06 Jun 2027 06:06:52.275             0.566           283.000
       129   06 Jun 2027 07:38:20.496   06 Jun 2027 07:38:46.273            25.777         11559.812
       130   06 Jun 2027 07:40:07.475   06 Jun 2027 07:40:13.076             5.601          2190.062
       131   06 Jun 2027 07:42:14.929   06 Jun 2027 07:42:17.036             2.107           573.625
       132   06 Jun 2027 07:42:49.646   06 Jun 2027 07:42:50.613             0.967            66.406
       133   06 Jun 2027 07:43:50.287   06 Jun 2027 07:43:52.599             2.312           972.500
       134   06 Jun 2027 07:45:16.844   06 Jun 2027 07:45:22.762             5.918          2100.969
       135   06 Jun 2027 09:14:51.524   06 Jun 2027 09:15:07.848            16.324          6867.438
       136   06 Jun 2027 09:17:24.159   06 Jun 2027 09:17:27.978             3.819           494.125
       137   06 Jun 2027 09:18:29.755   06 Jun 2027 09:18:35.930             6.175          1481.281
       138   06 Jun 2027 09:18:46.114   06 Jun 2027 09:18:47.672             1.558           300.062
       139   06 Jun 2027 09:19:36.311   06 Jun 2027 09:19:39.025             2.714           319.812
       140   06 Jun 2027 09:20:11.204   06 Jun 2027 09:20:14.275             3.071           635.906
       141   06 Jun 2027 10:53:09.680   06 Jun 2027 10:53:23.205            13.525          5956.469
       142   06 Jun 2027 10:55:09.497   06 Jun 2027 10:55:14.520             5.023          2319.187
       143   06 Jun 2027 10:55:34.906   06 Jun 2027 10:55:37.878             2.972           337.250
       144   06 Jun 2027 10:55:54.833   06 Jun 2027 10:55:56.553             1.720           500.500
       145   06 Jun 2027 10:56:42.462   06 Jun 2027 10:56:45.522             3.060           647.500
       146   07 Jun 2027 03:04:13.890   07 Jun 2027 03:04:44.657            30.767         15383.500
       147   07 Jun 2027 03:15:38.767   07 Jun 2027 03:18:09.808           151.041         75520.500
       148   07 Jun 2027 04:38:15.512   07 Jun 2027 04:38:33.815            18.303          9151.500
       149   07 Jun 2027 04:38:55.713   07 Jun 2027 04:38:58.923             3.210          1605.000
       150   07 Jun 2027 04:39:31.106   07 Jun 2027 04:39:38.916             7.810          3905.000
       151   07 Jun 2027 04:41:01.210   07 Jun 2027 04:41:11.017             9.807          4903.500
       152   07 Jun 2027 04:41:41.387   07 Jun 2027 04:42:01.664            20.277         10138.500
       153   07 Jun 2027 06:13:41.279   07 Jun 2027 06:14:35.824            54.545         27272.500
       154   07 Jun 2027 06:15:11.795   07 Jun 2027 06:15:53.172            41.377         20115.125
       155   07 Jun 2027 06:16:18.820   07 Jun 2027 06:16:18.820             0.000             0.000
       156   07 Jun 2027 06:16:44.675   07 Jun 2027 06:16:47.356             2.681          1099.500
       157   07 Jun 2027 06:17:46.431   07 Jun 2027 06:17:50.475             4.044          1781.719
       158   07 Jun 2027 06:18:13.027   07 Jun 2027 06:18:13.027             0.000             0.000
       159   07 Jun 2027 06:19:04.121   07 Jun 2027 06:19:08.915             4.794          1977.375
       160   07 Jun 2027 06:19:26.370   07 Jun 2027 06:19:35.759             9.389           545.469
       161   07 Jun 2027 07:50:05.830   07 Jun 2027 07:50:16.551            10.721          2557.437
       162   07 Jun 2027 07:50:57.102   07 Jun 2027 07:51:03.700             6.598           848.875
       163   07 Jun 2027 07:53:01.412   07 Jun 2027 07:53:02.694             1.282           177.344
       164   07 Jun 2027 07:53:27.364   07 Jun 2027 07:53:29.792             2.428           144.406
       165   07 Jun 2027 07:54:41.688   07 Jun 2027 07:54:45.991             4.303          2128.156
       166   07 Jun 2027 07:55:02.222   07 Jun 2027 07:55:04.638             2.416           507.031
       167   07 Jun 2027 07:55:47.668   07 Jun 2027 07:55:50.395             2.727          1129.344
       168   07 Jun 2027 07:57:30.097   07 Jun 2027 07:57:36.203             6.106          2492.219
       169   07 Jun 2027 09:27:11.860   07 Jun 2027 09:27:24.514            12.654          4653.125
       170   07 Jun 2027 09:28:40.966   07 Jun 2027 09:28:45.658             4.692           253.031
       171   07 Jun 2027 09:30:51.142   07 Jun 2027 09:30:52.004             0.862             3.187
       172   07 Jun 2027 09:31:20.178   07 Jun 2027 09:31:21.140             0.962           213.844
       173   07 Jun 2027 09:31:31.250   07 Jun 2027 09:31:32.942             1.692           194.687
       174   07 Jun 2027 09:32:11.057   07 Jun 2027 09:32:14.838             3.781           971.125
       175   07 Jun 2027 09:32:42.618   07 Jun 2027 09:32:45.428             2.810           359.188
       176   07 Jun 2027 11:05:07.259   07 Jun 2027 11:05:22.150            14.891          4916.156
       177   07 Jun 2027 11:05:52.809   07 Jun 2027 11:05:58.559             5.750           934.500
       178   07 Jun 2027 11:06:36.306   07 Jun 2027 11:06:43.736             7.430           361.219
       179   07 Jun 2027 11:07:11.547   07 Jun 2027 11:07:16.436             4.889           703.250
       180   07 Jun 2027 11:08:29.474   07 Jun 2027 11:08:35.367             5.893          2210.781
       181   07 Jun 2027 11:08:40.391   07 Jun 2027 11:08:40.729             0.338           155.187
       182   07 Jun 2027 11:08:50.180   07 Jun 2027 11:08:50.468             0.288             6.406
       183   08 Jun 2027 03:15:58.566   08 Jun 2027 03:16:06.686             8.120          4060.000
       184   08 Jun 2027 03:16:22.008   08 Jun 2027 03:16:44.825            22.817         11408.500
       185   08 Jun 2027 03:27:42.176   08 Jun 2027 03:28:40.658            58.482         29241.000
       186   08 Jun 2027 04:49:55.711   08 Jun 2027 04:51:01.912            66.201         33100.500
       187   08 Jun 2027 04:51:49.605   08 Jun 2027 04:53:01.138            71.533         35766.500
       188   08 Jun 2027 06:24:51.000   08 Jun 2027 06:26:18.614            87.614         43220.500
       189   08 Jun 2027 06:26:26.665   08 Jun 2027 06:26:29.893             3.228           251.594
       190   08 Jun 2027 06:27:48.018   08 Jun 2027 06:27:52.072             4.054          1651.375
       191   08 Jun 2027 06:28:06.676   08 Jun 2027 06:28:06.676             0.000             0.000
       192   08 Jun 2027 06:28:14.156   08 Jun 2027 06:28:16.334             2.178           344.094
       193   08 Jun 2027 06:28:38.277   08 Jun 2027 06:28:42.496             4.219           685.719
       194   08 Jun 2027 06:30:01.238   08 Jun 2027 06:30:01.238             0.000             0.000
       195   08 Jun 2027 06:30:16.125   08 Jun 2027 06:30:20.962             4.837          2418.500
       196   08 Jun 2027 06:31:31.434   08 Jun 2027 06:31:37.934             6.500          2709.656
       197   08 Jun 2027 06:33:11.453   08 Jun 2027 06:33:16.972             5.519          2345.813
       198   08 Jun 2027 08:02:21.945   08 Jun 2027 08:02:23.525             1.580           548.969
       199   08 Jun 2027 08:04:07.495   08 Jun 2027 08:04:19.228            11.733          2131.594
       200   08 Jun 2027 08:06:37.349   08 Jun 2027 08:06:37.610             0.261           110.687
       201   08 Jun 2027 08:07:12.868   08 Jun 2027 08:07:17.393             4.525           829.719
       202   08 Jun 2027 08:08:02.932   08 Jun 2027 08:08:04.766             1.834           729.688
       203   08 Jun 2027 08:08:28.576   08 Jun 2027 08:08:30.665             2.089           575.750
       204   08 Jun 2027 08:09:40.164   08 Jun 2027 08:09:41.424             1.260           630.000
       205   08 Jun 2027 09:39:07.521   08 Jun 2027 09:39:21.162            13.641          5476.187
       206   08 Jun 2027 09:40:28.361   08 Jun 2027 09:40:31.654             3.293           353.969
       207   08 Jun 2027 09:41:42.380   08 Jun 2027 09:41:45.509             3.129            18.781
       208   08 Jun 2027 09:43:07.731   08 Jun 2027 09:43:09.640             1.909           358.500
       209   08 Jun 2027 09:43:14.816   08 Jun 2027 09:43:16.061             1.245           161.750
       210   08 Jun 2027 09:44:12.712   08 Jun 2027 09:44:21.114             8.402           932.281
       211   08 Jun 2027 09:45:05.276   08 Jun 2027 09:45:08.056             2.780          1380.062
       212   08 Jun 2027 11:17:06.743   08 Jun 2027 11:17:22.032            15.289          7289.406
       213   08 Jun 2027 11:18:01.537   08 Jun 2027 11:18:02.592             1.055           261.156
       214   08 Jun 2027 11:19:31.899   08 Jun 2027 11:19:34.847             2.948           604.500
       215   08 Jun 2027 11:20:35.778   08 Jun 2027 11:20:43.117             7.339           518.844
       216   08 Jun 2027 11:21:00.894   08 Jun 2027 11:21:01.728             0.834           279.469
       217   08 Jun 2027 11:21:08.506   08 Jun 2027 11:21:11.509             3.003           169.219
       218   09 Jun 2027 03:27:31.415   09 Jun 2027 03:27:53.823            22.408         11204.000
       219   09 Jun 2027 03:39:47.163   09 Jun 2027 03:40:14.807            27.644         13822.000
       220   09 Jun 2027 05:01:27.610   09 Jun 2027 05:02:47.522            79.912         39956.000
       221   09 Jun 2027 05:03:35.755   09 Jun 2027 05:05:25.837           110.082         55041.000
       222   09 Jun 2027 05:05:49.109   09 Jun 2027 05:05:49.109             0.000             0.000
       223   09 Jun 2027 05:05:57.726   09 Jun 2027 05:06:06.661             8.935          4467.500
       224   09 Jun 2027 05:06:45.241   09 Jun 2027 05:06:46.258             1.017           508.500
       225   09 Jun 2027 06:36:21.126   09 Jun 2027 06:37:28.711            67.585         32892.031
       226   09 Jun 2027 06:37:43.550   09 Jun 2027 06:37:43.550             0.000             0.000
       227   09 Jun 2027 06:38:13.760   09 Jun 2027 06:38:17.033             3.273          1346.250
       228   09 Jun 2027 06:38:44.054   09 Jun 2027 06:38:48.051             3.997           442.344
       229   09 Jun 2027 06:39:36.199   09 Jun 2027 06:39:41.041             4.842          1223.437
       230   09 Jun 2027 06:40:02.727   09 Jun 2027 06:40:03.924             1.197           412.656
       231   09 Jun 2027 06:40:16.466   09 Jun 2027 06:40:16.466             0.000             0.000
       232   09 Jun 2027 06:40:19.547   09 Jun 2027 06:40:21.636             2.089           216.719
       233   09 Jun 2027 06:40:52.967   09 Jun 2027 06:40:52.967             0.000             0.000
       234   09 Jun 2027 06:41:23.737   09 Jun 2027 06:41:27.706             3.969          1610.781
       235   09 Jun 2027 06:42:42.435   09 Jun 2027 06:42:50.366             7.931          1551.937
       236   09 Jun 2027 06:42:59.943   09 Jun 2027 06:43:03.534             3.591           299.281
       237   09 Jun 2027 06:43:06.858   09 Jun 2027 06:43:08.978             2.120           103.875
       238   09 Jun 2027 06:43:45.081   09 Jun 2027 06:43:51.432             6.351           442.844
       239   09 Jun 2027 06:44:14.840   09 Jun 2027 06:44:14.840             0.000             0.000
       240   09 Jun 2027 06:44:21.318   09 Jun 2027 06:44:23.151             1.833           586.187
       241   09 Jun 2027 06:45:40.570   09 Jun 2027 06:45:43.396             2.826          1413.000
       242   09 Jun 2027 08:14:16.701   09 Jun 2027 08:14:21.935             5.234          1495.343
       243   09 Jun 2027 08:16:06.568   09 Jun 2027 08:16:12.842             6.274          1954.937
       244   09 Jun 2027 08:18:06.052   09 Jun 2027 08:18:09.706             3.654          1806.125
       245   09 Jun 2027 08:18:24.834   09 Jun 2027 08:18:30.233             5.399           161.406
       246   09 Jun 2027 08:19:40.501   09 Jun 2027 08:19:43.536             3.035          1076.125
       247   09 Jun 2027 08:20:45.109   09 Jun 2027 08:20:47.597             2.488          1130.250
       248   09 Jun 2027 08:21:13.524   09 Jun 2027 08:21:16.511             2.987           810.219
       249   09 Jun 2027 09:51:04.029   09 Jun 2027 09:51:18.079            14.050          5547.969
       250   09 Jun 2027 09:53:33.993   09 Jun 2027 09:53:39.887             5.894          2094.000
       251   09 Jun 2027 09:55:03.729   09 Jun 2027 09:55:05.218             1.489           294.375
       252   09 Jun 2027 09:55:45.974   09 Jun 2027 09:55:50.193             4.219           882.187
       253   09 Jun 2027 09:56:57.705   09 Jun 2027 09:57:02.618             4.913          2109.750
       254   09 Jun 2027 09:57:22.154   09 Jun 2027 09:57:30.441             8.287           550.000
       255   09 Jun 2027 11:28:54.442   09 Jun 2027 11:29:08.648            14.206          6945.375
       256   09 Jun 2027 11:31:37.656   09 Jun 2027 11:31:41.161             3.505           282.344
       257   09 Jun 2027 11:32:11.592   09 Jun 2027 11:32:14.693             3.101            10.031
       258   09 Jun 2027 11:32:42.709   09 Jun 2027 11:32:43.856             1.147           100.156
       259   09 Jun 2027 11:33:01.639   09 Jun 2027 11:33:05.909             4.270           238.031
       260   09 Jun 2027 11:33:15.394   09 Jun 2027 11:33:15.993             0.599            69.781
       261   10 Jun 2027 03:39:27.064   10 Jun 2027 03:39:54.292            27.228         13614.000
       262   10 Jun 2027 05:15:26.682   10 Jun 2027 05:18:44.585           197.903         98951.500
       263   10 Jun 2027 06:49:14.529   10 Jun 2027 06:50:42.215            87.686         42264.437
       264   10 Jun 2027 06:51:38.014   10 Jun 2027 06:51:38.617             0.603           301.500
       265   10 Jun 2027 06:52:31.945   10 Jun 2027 06:52:36.244             4.299          1937.187
       266   10 Jun 2027 06:54:00.259   10 Jun 2027 06:54:06.633             6.374          2339.031
       267   10 Jun 2027 06:54:44.034   10 Jun 2027 06:54:46.327             2.293           687.438
       268   10 Jun 2027 06:55:31.244   10 Jun 2027 06:55:35.902             4.658           963.250
       269   10 Jun 2027 06:55:52.062   10 Jun 2027 06:55:57.534             5.472           505.000
       270   10 Jun 2027 06:56:03.902   10 Jun 2027 06:56:03.902             0.000             0.000
       271   10 Jun 2027 06:56:18.144   10 Jun 2027 06:56:27.655             9.511           557.063
       272   10 Jun 2027 06:56:47.271   10 Jun 2027 06:56:48.625             1.354           348.531
       273   10 Jun 2027 06:57:18.269   10 Jun 2027 06:57:20.211             1.942           697.063
       274   10 Jun 2027 08:26:28.243   10 Jun 2027 08:26:41.986            13.743          4589.750
       275   10 Jun 2027 08:29:05.762   10 Jun 2027 08:29:08.468             2.706           394.531
       276   10 Jun 2027 08:31:11.574   10 Jun 2027 08:31:13.273             1.699           183.094
       277   10 Jun 2027 08:32:30.537   10 Jun 2027 08:32:37.197             6.660          2043.125
       278   10 Jun 2027 08:33:11.574   10 Jun 2027 08:33:16.746             5.172          1057.625
       279   10 Jun 2027 10:03:40.840   10 Jun 2027 10:03:52.799            11.959          5138.812
       280   10 Jun 2027 10:07:01.797   10 Jun 2027 10:07:05.505             3.708           436.219
       281   10 Jun 2027 10:07:20.327   10 Jun 2027 10:07:23.578             3.251           265.000
       282   10 Jun 2027 10:07:31.711   10 Jun 2027 10:07:32.075             0.364           103.125
       283   10 Jun 2027 10:07:46.265   10 Jun 2027 10:07:47.379             1.114           422.812
       284   10 Jun 2027 10:08:19.375   10 Jun 2027 10:08:27.202             7.827           682.531
       285   10 Jun 2027 10:08:58.628   10 Jun 2027 10:09:02.323             3.695           977.062
       286   10 Jun 2027 10:09:21.975   10 Jun 2027 10:09:23.092             1.117           483.750
       287   10 Jun 2027 11:40:23.510   10 Jun 2027 11:40:34.772            11.262          5617.313
       288   10 Jun 2027 11:43:01.303   10 Jun 2027 11:43:06.988             5.685          1828.437
       289   10 Jun 2027 11:43:32.303   10 Jun 2027 11:43:33.816             1.513           710.000
       290   10 Jun 2027 11:43:56.730   10 Jun 2027 11:43:59.745             3.015           522.219
       291   11 Jun 2027 03:51:18.893   11 Jun 2027 03:52:02.268            43.375         21687.500
       292   11 Jun 2027 05:27:40.463   11 Jun 2027 05:30:46.371           185.908         92954.000
       293   11 Jun 2027 07:01:45.735   11 Jun 2027 07:03:18.178            92.443         45789.750
       294   11 Jun 2027 07:03:36.536   11 Jun 2027 07:03:39.430             2.894           317.344
       295   11 Jun 2027 07:03:50.203   11 Jun 2027 07:03:53.607             3.404            66.125
       296   11 Jun 2027 07:04:26.201   11 Jun 2027 07:04:27.584             1.383           182.375
       297   11 Jun 2027 07:05:58.961   11 Jun 2027 07:06:04.819             5.858          2134.562
       298   11 Jun 2027 07:06:26.484   11 Jun 2027 07:06:26.718             0.234            52.562
       299   11 Jun 2027 07:07:47.904   11 Jun 2027 07:07:52.939             5.035          1978.281
       300   11 Jun 2027 07:08:21.420   11 Jun 2027 07:08:24.756             3.336           517.469
       301   11 Jun 2027 07:08:57.865   11 Jun 2027 07:09:06.597             8.732           988.125
       302   11 Jun 2027 07:09:13.148   11 Jun 2027 07:09:13.885             0.737           204.719
       303   11 Jun 2027 07:09:21.258   11 Jun 2027 07:09:21.658             0.400           176.813
       304   11 Jun 2027 08:38:49.958   11 Jun 2027 08:39:03.048            13.090          3443.125
       305   11 Jun 2027 08:41:09.065   11 Jun 2027 08:41:18.250             9.185          1182.500
       306   11 Jun 2027 08:42:33.251   11 Jun 2027 08:42:38.017             4.766          1269.844
       307   11 Jun 2027 08:43:36.894   11 Jun 2027 08:43:37.606             0.712           218.781
       308   11 Jun 2027 08:44:45.624   11 Jun 2027 08:44:54.783             9.159          1336.156
       309   11 Jun 2027 10:15:47.613   11 Jun 2027 10:16:00.227            12.614          5947.312
       310   11 Jun 2027 10:19:10.852   11 Jun 2027 10:19:10.998             0.146            21.156
       311   11 Jun 2027 10:19:22.382   11 Jun 2027 10:19:23.462             1.080           355.750
       312   11 Jun 2027 10:20:02.484   11 Jun 2027 10:20:07.141             4.657           911.094
       313   11 Jun 2027 10:20:42.473   11 Jun 2027 10:20:43.320             0.847           235.500
       314   11 Jun 2027 11:52:33.649   11 Jun 2027 11:52:50.216            16.567          7670.031
       315   11 Jun 2027 11:54:00.057   11 Jun 2027 11:54:04.603             4.546          1157.000
       316   11 Jun 2027 11:54:56.141   11 Jun 2027 11:55:01.929             5.788           541.938
       317   11 Jun 2027 11:56:04.710   11 Jun 2027 11:56:07.814             3.104           902.250
       318   11 Jun 2027 11:57:01.687   11 Jun 2027 11:57:04.976             3.289           104.625
       319   12 Jun 2027 04:03:22.041   12 Jun 2027 04:04:12.897            50.856         25428.000
       320   12 Jun 2027 05:39:47.206   12 Jun 2027 05:42:20.633           153.427         76713.500
       321   12 Jun 2027 05:42:40.741   12 Jun 2027 05:42:51.332            10.591          5295.500
       322   12 Jun 2027 05:43:16.292   12 Jun 2027 05:43:19.845             3.553          1776.500
       323   12 Jun 2027 07:14:55.117   12 Jun 2027 07:16:35.037            99.920         49956.844
       324   12 Jun 2027 07:17:56.669   12 Jun 2027 07:18:00.687             4.018          1815.719
       325   12 Jun 2027 07:18:50.381   12 Jun 2027 07:18:53.234             2.853          1232.313
       326   12 Jun 2027 07:20:05.391   12 Jun 2027 07:20:11.079             5.688          2216.531
       327   12 Jun 2027 07:20:56.413   12 Jun 2027 07:20:59.392             2.979           993.187
       328   12 Jun 2027 07:21:32.206   12 Jun 2027 07:21:33.871             1.665           642.375
       329   12 Jun 2027 08:51:16.124   12 Jun 2027 08:51:26.277            10.153          4854.937
       330   12 Jun 2027 08:53:21.260   12 Jun 2027 08:53:23.101             1.841            34.375
       331   12 Jun 2027 08:56:34.317   12 Jun 2027 08:56:40.633             6.316          2539.094
       332   12 Jun 2027 08:56:49.789   12 Jun 2027 08:56:52.190             2.401           286.125
       333   12 Jun 2027 08:57:18.169   12 Jun 2027 08:57:23.741             5.572           767.500
       334   12 Jun 2027 10:28:49.347   12 Jun 2027 10:29:05.373            16.026          6879.344
       335   12 Jun 2027 10:31:23.874   12 Jun 2027 10:31:24.774             0.900           194.375
       336   12 Jun 2027 10:31:47.819   12 Jun 2027 10:31:49.665             1.846           624.906
       337   12 Jun 2027 10:32:02.412   12 Jun 2027 10:32:03.398             0.986           398.344
       338   12 Jun 2027 10:32:49.659   12 Jun 2027 10:32:57.237             7.578          1214.469
       339   13 Jun 2027 04:15:19.750   13 Jun 2027 04:16:07.952            48.202         24101.000
       340   13 Jun 2027 05:51:56.829   13 Jun 2027 05:54:23.211           146.382         73191.000
       341   13 Jun 2027 05:54:53.086   13 Jun 2027 05:54:57.575             4.489          2244.500
       342   13 Jun 2027 07:27:06.822   13 Jun 2027 07:28:53.175           106.353         52320.281
       343   13 Jun 2027 07:29:15.511   13 Jun 2027 07:29:19.516             4.005           195.750
       344   13 Jun 2027 07:29:57.478   13 Jun 2027 07:29:59.246             1.768           129.000
       345   13 Jun 2027 07:30:29.788   13 Jun 2027 07:30:31.688             1.900           595.062
       346   13 Jun 2027 07:32:05.414   13 Jun 2027 07:32:15.822            10.408          2198.187
       347   13 Jun 2027 07:32:35.723   13 Jun 2027 07:32:42.586             6.863           320.906
       348   13 Jun 2027 07:33:20.279   13 Jun 2027 07:33:28.434             8.155          1016.375
       349   13 Jun 2027 09:03:24.087   13 Jun 2027 09:03:36.732            12.645          6023.656
       350   13 Jun 2027 09:05:54.033   13 Jun 2027 09:05:56.457             2.424           734.281
       351   13 Jun 2027 09:06:29.332   13 Jun 2027 09:06:30.528             1.196           300.594
       352   13 Jun 2027 09:07:48.085   13 Jun 2027 09:07:52.726             4.641          2090.313
       353   13 Jun 2027 09:08:30.009   13 Jun 2027 09:08:30.996             0.987            37.594
       354   13 Jun 2027 09:08:48.803   13 Jun 2027 09:08:53.726             4.923           556.469
       355   13 Jun 2027 09:09:19.291   13 Jun 2027 09:09:21.048             1.757           428.219
       356   13 Jun 2027 10:40:55.695   13 Jun 2027 10:41:09.107            13.412          6493.906
       357   13 Jun 2027 10:43:24.382   13 Jun 2027 10:43:28.771             4.389          2033.719
       358   13 Jun 2027 10:43:57.654   13 Jun 2027 10:43:58.380             0.726           241.969
       359   13 Jun 2027 10:43:58.386   13 Jun 2027 10:43:58.573             0.187             0.188
       360   13 Jun 2027 10:44:28.515   13 Jun 2027 10:44:38.980            10.465           935.687
       361   13 Jun 2027 10:44:48.654   13 Jun 2027 10:44:58.989            10.335           302.312
       362   13 Jun 2027 10:45:13.674   13 Jun 2027 10:45:14.516             0.842           400.563
