uniorb/output/strategy_4/Camera/Camera_KinoSat_111709.txt

KinoSat_111709
-------------------------
    Access    *     Start Time (UTCG)     *     Stop Time (UTCG)  *   Duration (s) *   Data (Mbytes)
         1   01 Jun 2027 04:08:14.426   01 Jun 2027 04:09:15.652            61.226         30613.000
         2   01 Jun 2027 04:09:22.339   01 Jun 2027 04:10:50.835            88.496         44248.000
         3   01 Jun 2027 04:11:36.993   01 Jun 2027 04:11:49.777            12.784          6392.000
         4   01 Jun 2027 04:13:04.118   01 Jun 2027 04:13:04.118             0.000             0.000
         5   01 Jun 2027 04:13:53.393   01 Jun 2027 04:13:58.769             5.376          2688.000
         6   01 Jun 2027 05:46:31.810   01 Jun 2027 05:47:06.283            34.473         17236.500
         7   01 Jun 2027 05:47:20.512   01 Jun 2027 05:48:24.567            64.055         32027.500
         8   01 Jun 2027 05:48:52.112   01 Jun 2027 05:49:10.108            17.996          8998.000
         9   01 Jun 2027 07:09:54.516   01 Jun 2027 07:11:45.918           111.402         55701.000
        10   01 Jun 2027 08:46:27.833   01 Jun 2027 08:48:51.312           143.479         71739.500
        11   01 Jun 2027 10:21:37.955   01 Jun 2027 10:22:57.023            79.068         39534.000
        12   01 Jun 2027 10:23:09.762   01 Jun 2027 10:23:34.345            24.583         12291.500
        13   01 Jun 2027 10:27:56.304   01 Jun 2027 10:28:14.037            17.733          8866.500
        14   01 Jun 2027 11:57:59.303   01 Jun 2027 12:00:00.000           120.697         60348.500
        15   02 Jun 2027 04:21:21.099   02 Jun 2027 04:22:44.116            83.017         41508.500
        16   02 Jun 2027 04:23:05.865   02 Jun 2027 04:23:32.029            26.164         13082.000
        17   02 Jun 2027 04:24:52.335   02 Jun 2027 04:25:03.570            11.235          5617.500
        18   02 Jun 2027 04:25:50.379   02 Jun 2027 04:25:52.860             2.481          1240.500
        19   02 Jun 2027 04:28:17.783   02 Jun 2027 04:28:54.757            36.974         18487.000
        20   02 Jun 2027 05:58:28.754   02 Jun 2027 05:59:09.208            40.454         20227.000
        21   02 Jun 2027 05:59:26.758   02 Jun 2027 06:01:18.298           111.540         55770.000
        22   02 Jun 2027 06:01:54.212   02 Jun 2027 06:02:04.582            10.370          5185.000
        23   02 Jun 2027 07:21:56.340   02 Jun 2027 07:24:14.442           138.102         69051.000
        24   02 Jun 2027 07:24:23.363   02 Jun 2027 07:24:29.104             5.741          2870.500
        25   02 Jun 2027 08:58:18.943   02 Jun 2027 09:00:52.899           153.956         76978.000
        26   02 Jun 2027 10:33:12.121   02 Jun 2027 10:34:54.867           102.746         51288.157
        27   02 Jun 2027 10:35:47.625   02 Jun 2027 10:35:49.091             1.466           704.000
        28   02 Jun 2027 10:36:27.386   02 Jun 2027 10:36:29.426             2.040           791.781
        29   02 Jun 2027 10:38:40.867   02 Jun 2027 10:38:42.830             1.963           575.406
        30   02 Jun 2027 10:39:43.146   02 Jun 2027 10:39:46.848             3.702          1592.406
        31   02 Jun 2027 10:40:18.601   02 Jun 2027 10:40:20.568             1.967           918.031
        32   03 Jun 2027 03:00:00.000   03 Jun 2027 03:00:14.780            14.780          7390.000
        33   03 Jun 2027 03:00:18.443   03 Jun 2027 03:00:19.113             0.670           335.000
        34   03 Jun 2027 03:01:02.149   03 Jun 2027 03:01:08.672             6.523          3261.500
        35   03 Jun 2027 04:33:25.217   03 Jun 2027 04:35:21.218           116.001         58000.500
        36   03 Jun 2027 04:36:36.340   03 Jun 2027 04:36:58.539            22.199         11099.500
        37   03 Jun 2027 04:38:23.033   03 Jun 2027 04:39:02.207            39.174         19587.000
        38   03 Jun 2027 04:39:49.274   03 Jun 2027 04:39:56.153             6.879          3439.500
        39   03 Jun 2027 04:40:59.222   03 Jun 2027 04:41:02.937             3.715          1857.500
        40   03 Jun 2027 05:59:10.253   03 Jun 2027 05:59:49.650            39.397         19698.500
        41   03 Jun 2027 06:10:25.479   03 Jun 2027 06:12:01.392            95.913         47703.001
        42   03 Jun 2027 07:33:01.676   03 Jun 2027 07:33:15.080            13.404          4937.406
        43   03 Jun 2027 07:34:13.655   03 Jun 2027 07:34:19.266             5.611          1488.875
        44   03 Jun 2027 07:34:19.824   03 Jun 2027 07:34:20.158             0.334            17.437
        45   03 Jun 2027 07:35:22.245   03 Jun 2027 07:35:23.865             1.620           803.219
        46   03 Jun 2027 07:36:22.866   03 Jun 2027 07:36:27.268             4.402          1179.656
        47   03 Jun 2027 07:36:53.964   03 Jun 2027 07:36:55.690             1.726           669.813
        48   03 Jun 2027 07:37:40.731   03 Jun 2027 07:37:41.365             0.634           317.000
        49   03 Jun 2027 09:08:36.613   03 Jun 2027 09:08:43.423             6.810          2486.719
        50   03 Jun 2027 09:10:21.242   03 Jun 2027 09:10:25.997             4.755          2068.844
        51   03 Jun 2027 09:11:29.412   03 Jun 2027 09:11:32.468             3.056          1379.688
        52   03 Jun 2027 09:12:54.099   03 Jun 2027 09:13:05.376            11.277          2423.937
        53   03 Jun 2027 09:13:49.343   03 Jun 2027 09:13:58.365             9.022          1255.938
        54   03 Jun 2027 09:14:27.307   03 Jun 2027 09:14:29.181             1.874           237.594
        55   03 Jun 2027 10:44:50.028   03 Jun 2027 10:45:00.608            10.580          3640.625
        56   03 Jun 2027 10:47:57.685   03 Jun 2027 10:48:08.259            10.574          4943.281
        57   03 Jun 2027 10:48:25.883   03 Jun 2027 10:48:30.515             4.632           474.219
        58   03 Jun 2027 10:48:48.325   03 Jun 2027 10:48:55.677             7.352           460.375
        59   03 Jun 2027 10:49:33.669   03 Jun 2027 10:49:33.669             0.000             0.000
        60   03 Jun 2027 10:50:32.831   03 Jun 2027 10:50:38.570             5.739          2673.781
        61   03 Jun 2027 10:51:43.397   03 Jun 2027 10:51:46.304             2.907          1354.375
        62   04 Jun 2027 03:06:50.519   04 Jun 2027 03:07:51.113            60.594         30297.000
        63   04 Jun 2027 03:09:36.099   04 Jun 2027 03:09:43.071             6.972          3486.000
        64   04 Jun 2027 03:10:19.452   04 Jun 2027 03:10:35.143            15.691          7845.500
        65   04 Jun 2027 03:10:40.915   04 Jun 2027 03:10:44.077             3.162          1581.000
        66   04 Jun 2027 03:11:06.344   04 Jun 2027 03:11:09.243             2.899          1449.500
        67   04 Jun 2027 03:11:25.806   04 Jun 2027 03:11:38.780            12.974          6487.000
        68   04 Jun 2027 03:11:57.886   04 Jun 2027 03:11:58.068             0.182            91.000
        69   04 Jun 2027 03:12:06.258   04 Jun 2027 03:12:06.539             0.281           140.500
        70   04 Jun 2027 03:12:14.908   04 Jun 2027 03:12:16.017             1.109           554.500
        71   04 Jun 2027 03:12:27.613   04 Jun 2027 03:12:33.419             5.806          2903.000
        72   04 Jun 2027 04:45:55.291   04 Jun 2027 04:48:43.966           168.675         84337.500
        73   04 Jun 2027 04:49:43.478   04 Jun 2027 04:49:50.324             6.846          3423.000
        74   04 Jun 2027 04:50:02.034   04 Jun 2027 04:50:27.289            25.255         12016.500
        75   04 Jun 2027 04:50:53.781   04 Jun 2027 04:50:55.143             1.362           406.250
        76   04 Jun 2027 04:51:17.825   04 Jun 2027 04:51:20.870             3.045           650.656
        77   04 Jun 2027 04:51:42.625   04 Jun 2027 04:51:44.876             2.251           249.344
        78   04 Jun 2027 04:51:54.909   04 Jun 2027 04:51:59.416             4.507           313.531
        79   04 Jun 2027 04:53:02.026   04 Jun 2027 04:53:03.027             1.001           500.500
        80   04 Jun 2027 06:10:45.416   04 Jun 2027 06:11:04.757            19.341          9367.438
        81   04 Jun 2027 06:22:26.479   04 Jun 2027 06:22:35.389             8.910          2478.156
        82   04 Jun 2027 07:44:44.421   04 Jun 2027 07:44:58.220            13.799          4256.969
        83   04 Jun 2027 07:45:26.699   04 Jun 2027 07:45:28.090             1.391           616.156
        84   04 Jun 2027 07:47:11.218   04 Jun 2027 07:47:15.583             4.365          1631.562
        85   04 Jun 2027 07:48:31.732   04 Jun 2027 07:48:37.952             6.220          2048.875
        86   04 Jun 2027 07:49:04.598   04 Jun 2027 07:49:06.314             1.716           239.469
        87   04 Jun 2027 09:19:43.077   04 Jun 2027 09:19:49.914             6.837          2443.344
        88   04 Jun 2027 09:21:13.853   04 Jun 2027 09:21:18.876             5.023          1348.719
        89   04 Jun 2027 09:22:23.443   04 Jun 2027 09:22:25.917             2.474          1084.875
        90   04 Jun 2027 09:23:20.271   04 Jun 2027 09:23:24.801             4.530          1157.031
        91   04 Jun 2027 09:24:54.859   04 Jun 2027 09:25:03.195             8.336          2742.969
        92   04 Jun 2027 09:25:35.812   04 Jun 2027 09:25:39.762             3.950           307.594
        93   04 Jun 2027 09:26:14.829   04 Jun 2027 09:26:14.829             0.000             0.000
        94   04 Jun 2027 09:26:44.899   04 Jun 2027 09:26:51.286             6.387          1271.844
        95   04 Jun 2027 10:57:10.255   04 Jun 2027 10:57:20.427            10.172          2418.187
        96   04 Jun 2027 11:00:32.144   04 Jun 2027 11:00:33.682             1.538           434.094
        97   04 Jun 2027 11:01:31.928   04 Jun 2027 11:01:35.390             3.462           620.156
        98   04 Jun 2027 11:01:54.242   04 Jun 2027 11:01:56.619             2.377           589.125
        99   04 Jun 2027 11:02:04.959   04 Jun 2027 11:02:07.685             2.726           260.625
       100   04 Jun 2027 11:02:29.198   04 Jun 2027 11:02:31.269             2.071           121.281
       101   04 Jun 2027 11:02:42.567   04 Jun 2027 11:02:44.060             1.493           353.062
       102   04 Jun 2027 11:03:22.956   04 Jun 2027 11:03:25.479             2.523          1169.000
       103   04 Jun 2027 11:04:11.912   04 Jun 2027 11:04:14.197             2.285          1138.750
       104   05 Jun 2027 03:19:10.623   05 Jun 2027 03:19:37.289            26.666         13333.000
       105   05 Jun 2027 03:19:42.604   05 Jun 2027 03:20:16.553            33.949         16974.500
       106   05 Jun 2027 03:20:20.423   05 Jun 2027 03:20:26.820             6.397          3198.500
       107   05 Jun 2027 03:20:39.363   05 Jun 2027 03:21:15.712            36.349         18174.500
       108   05 Jun 2027 03:21:16.579   05 Jun 2027 03:22:18.115            61.536         30768.000
       109   05 Jun 2027 03:23:47.450   05 Jun 2027 03:23:58.416            10.966          5483.000
       110   05 Jun 2027 04:57:57.485   05 Jun 2027 05:00:03.053           125.568         62784.000
       111   05 Jun 2027 05:00:17.514   05 Jun 2027 05:00:19.624             2.110           822.219
       112   05 Jun 2027 05:00:51.861   05 Jun 2027 05:00:53.995             2.134           994.094
       113   05 Jun 2027 05:02:37.445   05 Jun 2027 05:02:38.071             0.626           313.000
       114   05 Jun 2027 05:02:43.276   05 Jun 2027 05:02:51.981             8.705          1882.063
       115   05 Jun 2027 05:04:20.931   05 Jun 2027 05:04:24.736             3.805           832.781
       116   05 Jun 2027 05:04:51.223   05 Jun 2027 05:04:52.171             0.948           364.125
       117   05 Jun 2027 06:22:18.153   05 Jun 2027 06:22:29.558            11.405          5559.750
       118   05 Jun 2027 06:23:23.016   05 Jun 2027 06:23:23.016             0.000             0.000
       119   05 Jun 2027 06:24:07.215   05 Jun 2027 06:24:13.908             6.693          2638.469
       120   05 Jun 2027 06:34:34.208   05 Jun 2027 06:34:43.164             8.956          3775.406
       121   05 Jun 2027 07:56:21.973   05 Jun 2027 07:56:32.966            10.993          3932.500
       122   05 Jun 2027 07:58:26.916   05 Jun 2027 07:58:30.430             3.514          1710.125
       123   05 Jun 2027 07:59:10.225   05 Jun 2027 07:59:12.445             2.220           975.094
       124   05 Jun 2027 08:00:30.186   05 Jun 2027 08:00:34.239             4.053          1796.250
       125   05 Jun 2027 08:00:47.162   05 Jun 2027 08:00:52.052             4.890           376.531
       126   05 Jun 2027 08:01:27.695   05 Jun 2027 08:01:31.416             3.721           872.969
       127   05 Jun 2027 09:31:10.933   05 Jun 2027 09:31:16.811             5.878          2182.625
       128   05 Jun 2027 09:33:06.504   05 Jun 2027 09:33:11.809             5.305          2093.750
       129   05 Jun 2027 09:33:40.464   05 Jun 2027 09:33:42.652             2.188           654.813
       130   05 Jun 2027 09:34:40.195   05 Jun 2027 09:34:42.725             2.530          1257.188
       131   05 Jun 2027 09:35:27.171   05 Jun 2027 09:35:32.022             4.851           950.750
       132   05 Jun 2027 09:38:00.143   05 Jun 2027 09:38:06.108             5.965          2032.469
       133   05 Jun 2027 09:38:23.331   05 Jun 2027 09:38:25.131             1.800           472.750
       134   05 Jun 2027 09:39:00.071   05 Jun 2027 09:39:12.336            12.265           459.938
       135   05 Jun 2027 09:39:34.145   05 Jun 2027 09:39:39.838             5.693           476.938
       136   05 Jun 2027 09:39:57.271   05 Jun 2027 09:40:03.345             6.074           264.406
       137   05 Jun 2027 09:40:05.587   05 Jun 2027 09:40:07.747             2.160            17.094
       138   05 Jun 2027 11:09:04.187   05 Jun 2027 11:09:25.233            21.046          3620.469
       139   05 Jun 2027 11:12:37.560   05 Jun 2027 11:12:40.087             2.527          1105.063
       140   05 Jun 2027 11:14:28.729   05 Jun 2027 11:14:35.098             6.369          3182.281
       141   05 Jun 2027 11:15:35.500   05 Jun 2027 11:15:39.685             4.185          1186.562
       142   05 Jun 2027 11:16:02.957   05 Jun 2027 11:16:05.493             2.536           727.250
       143   06 Jun 2027 03:31:53.505   06 Jun 2027 03:32:08.418            14.913          7456.500
       144   06 Jun 2027 03:32:17.331   06 Jun 2027 03:33:29.217            71.886         35943.000
       145   06 Jun 2027 03:33:58.385   06 Jun 2027 03:35:42.179           103.794         51897.000
       146   06 Jun 2027 05:10:22.964   06 Jun 2027 05:12:20.909           117.945         58081.438
       147   06 Jun 2027 05:14:05.341   06 Jun 2027 05:14:13.661             8.320          3021.469
       148   06 Jun 2027 06:34:15.158   06 Jun 2027 06:34:31.048            15.890          7386.344
       149   06 Jun 2027 06:35:18.968   06 Jun 2027 06:35:23.392             4.424          1219.563
       150   06 Jun 2027 08:10:14.276   06 Jun 2027 08:10:28.796            14.520          6419.906
       151   06 Jun 2027 08:10:40.737   06 Jun 2027 08:10:41.520             0.783           197.250
       152   06 Jun 2027 08:11:43.980   06 Jun 2027 08:11:48.086             4.106          1519.125
       153   06 Jun 2027 08:13:19.866   06 Jun 2027 08:13:28.400             8.534          2536.938
       154   06 Jun 2027 09:44:02.703   06 Jun 2027 09:44:12.111             9.408          2257.188
       155   06 Jun 2027 09:45:35.027   06 Jun 2027 09:45:37.554             2.527           859.344
       156   06 Jun 2027 09:46:14.167   06 Jun 2027 09:46:17.161             2.994           391.844
       157   06 Jun 2027 09:48:40.500   06 Jun 2027 09:48:50.284             9.784          4479.344
       158   06 Jun 2027 09:48:53.015   06 Jun 2027 09:48:53.590             0.575            85.344
       159   06 Jun 2027 09:49:59.278   06 Jun 2027 09:50:04.633             5.355          2017.062
       160   06 Jun 2027 09:50:45.404   06 Jun 2027 09:50:48.746             3.342           171.406
       161   06 Jun 2027 09:51:39.217   06 Jun 2027 09:51:43.379             4.162          1577.219
       162   06 Jun 2027 09:51:52.745   06 Jun 2027 09:51:54.288             1.543            50.500
       163   06 Jun 2027 09:52:11.382   06 Jun 2027 09:52:12.724             1.342           534.187
       164   06 Jun 2027 09:52:33.013   06 Jun 2027 09:52:33.893             0.880           440.000
       165   06 Jun 2027 11:21:11.555   06 Jun 2027 11:21:28.214            16.659          7261.469
       166   06 Jun 2027 11:23:48.389   06 Jun 2027 11:23:55.225             6.836          2744.594
       167   06 Jun 2027 11:24:44.798   06 Jun 2027 11:24:47.454             2.656            81.812
       168   06 Jun 2027 11:25:09.024   06 Jun 2027 11:25:09.860             0.836           313.750
       169   06 Jun 2027 11:26:12.609   06 Jun 2027 11:26:17.481             4.872          1830.125
       170   06 Jun 2027 11:27:10.697   06 Jun 2027 11:27:17.112             6.415          1446.844
       171   06 Jun 2027 11:27:41.262   06 Jun 2027 11:27:45.310             4.048           450.094
       172   06 Jun 2027 11:27:50.243   06 Jun 2027 11:27:50.756             0.513           118.094
       173   06 Jun 2027 11:28:01.353   06 Jun 2027 11:28:04.984             3.631            84.625
       174   06 Jun 2027 11:28:06.879   06 Jun 2027 11:28:09.506             2.627            17.906
       175   07 Jun 2027 03:44:37.526   07 Jun 2027 03:44:44.328             6.802          3401.000
       176   07 Jun 2027 03:46:26.709   07 Jun 2027 03:48:04.321            97.612         48806.000
       177   07 Jun 2027 03:48:47.599   07 Jun 2027 03:49:46.658            59.059         29529.500
       178   07 Jun 2027 03:50:07.895   07 Jun 2027 03:50:32.324            24.429         12214.500
       179   07 Jun 2027 05:22:45.107   07 Jun 2027 05:24:38.444           113.337         56668.500
       180   07 Jun 2027 05:25:23.495   07 Jun 2027 05:25:35.008            11.513          4683.156
       181   07 Jun 2027 05:25:56.974   07 Jun 2027 05:25:58.415             1.441           165.812
       182   07 Jun 2027 06:46:08.417   07 Jun 2027 06:46:29.330            20.913          7164.656
       183   07 Jun 2027 06:47:25.859   07 Jun 2027 06:47:30.686             4.827          1642.031
       184   07 Jun 2027 06:47:47.161   07 Jun 2027 06:47:54.607             7.446           262.500
       185   07 Jun 2027 06:48:11.345   07 Jun 2027 06:48:13.007             1.662           357.469
       186   07 Jun 2027 06:48:29.878   07 Jun 2027 06:48:33.961             4.083           227.344
       187   07 Jun 2027 08:22:31.175   07 Jun 2027 08:22:48.224            17.049          8478.813
       188   07 Jun 2027 08:23:02.971   07 Jun 2027 08:23:03.255             0.284           113.312
       189   07 Jun 2027 08:23:14.274   07 Jun 2027 08:23:15.065             0.791           267.031
       190   07 Jun 2027 08:23:54.063   07 Jun 2027 08:23:57.412             3.349           834.313
       191   07 Jun 2027 08:25:20.087   07 Jun 2027 08:25:28.998             8.911          2270.188
       192   07 Jun 2027 09:56:26.241   07 Jun 2027 09:56:35.262             9.021          3551.594
       193   07 Jun 2027 09:58:07.649   07 Jun 2027 09:58:13.278             5.629          1861.844
       194   07 Jun 2027 09:58:31.517   07 Jun 2027 09:58:35.241             3.724            50.187
       195   07 Jun 2027 09:59:34.912   07 Jun 2027 09:59:37.392             2.480           920.281
       196   07 Jun 2027 10:01:47.177   07 Jun 2027 10:01:50.821             3.644          1672.969
       197   07 Jun 2027 10:03:11.276   07 Jun 2027 10:03:14.040             2.764           660.719
       198   07 Jun 2027 10:03:51.438   07 Jun 2027 10:03:53.278             1.840           773.125
       199   07 Jun 2027 10:04:16.110   07 Jun 2027 10:04:21.500             5.390            92.406
       200   07 Jun 2027 10:04:27.538   07 Jun 2027 10:04:30.962             3.424           188.687
       201   07 Jun 2027 11:33:37.449   07 Jun 2027 11:33:49.817            12.368          5425.063
       202   07 Jun 2027 11:36:24.560   07 Jun 2027 11:36:45.560            21.000          1210.438
       203   07 Jun 2027 11:37:17.719   07 Jun 2027 11:37:20.032             2.313           398.344
       204   07 Jun 2027 11:37:34.458   07 Jun 2027 11:37:37.709             3.251            27.063
       205   07 Jun 2027 11:37:45.323   07 Jun 2027 11:37:47.518             2.195           230.219
       206   07 Jun 2027 11:38:31.553   07 Jun 2027 11:38:36.145             4.592          1100.875
       207   07 Jun 2027 11:39:22.367   07 Jun 2027 11:39:26.897             4.530          1043.500
       208   07 Jun 2027 11:39:43.020   07 Jun 2027 11:39:44.388             1.368           448.469
       209   07 Jun 2027 11:40:01.771   07 Jun 2027 11:40:04.335             2.564           543.219
       210   08 Jun 2027 03:56:41.340   08 Jun 2027 03:57:37.478            56.138         28069.000
       211   08 Jun 2027 03:57:43.183   08 Jun 2027 03:59:54.195           131.012         65506.000
       212   08 Jun 2027 04:01:46.137   08 Jun 2027 04:01:46.189             0.052            26.000
       213   08 Jun 2027 04:02:08.028   08 Jun 2027 04:02:09.167             1.139           569.500
       214   08 Jun 2027 05:35:07.545   08 Jun 2027 05:36:43.407            95.862         47931.000
       215   08 Jun 2027 05:37:03.079   08 Jun 2027 05:37:43.913            40.834         19360.062
       216   08 Jun 2027 06:57:59.782   08 Jun 2027 06:58:20.387            20.605          8432.438
       217   08 Jun 2027 07:00:06.610   08 Jun 2027 07:00:14.052             7.442          3201.938
       218   08 Jun 2027 08:34:34.550   08 Jun 2027 08:34:42.422             7.872          3922.313
       219   08 Jun 2027 08:35:36.073   08 Jun 2027 08:35:41.412             5.339          1072.719
       220   08 Jun 2027 08:36:23.760   08 Jun 2027 08:36:27.108             3.348           516.625
       221   08 Jun 2027 10:09:43.424   08 Jun 2027 10:09:49.871             6.447          3017.875
       222   08 Jun 2027 10:10:45.550   08 Jun 2027 10:10:51.309             5.759           740.094
       223   08 Jun 2027 10:11:42.751   08 Jun 2027 10:11:46.196             3.445          1578.656
       224   08 Jun 2027 10:12:51.688   08 Jun 2027 10:12:51.688             0.000             0.000
       225   08 Jun 2027 10:13:30.399   08 Jun 2027 10:13:34.490             4.091          1679.625
       226   08 Jun 2027 10:13:50.752   08 Jun 2027 10:13:55.278             4.526           268.344
       227   08 Jun 2027 10:15:02.843   08 Jun 2027 10:15:09.558             6.715           867.312
       228   08 Jun 2027 10:15:52.278   08 Jun 2027 10:15:54.208             1.930           534.688
       229   08 Jun 2027 10:16:23.198   08 Jun 2027 10:16:26.014             2.816           516.156
       230   08 Jun 2027 11:46:03.456   08 Jun 2027 11:46:17.696            14.240          7035.594
       231   08 Jun 2027 11:47:58.741   08 Jun 2027 11:48:01.793             3.052           438.000
       232   08 Jun 2027 11:48:49.082   08 Jun 2027 11:48:59.123            10.041          1297.906
       233   08 Jun 2027 11:49:40.112   08 Jun 2027 11:49:44.100             3.988           716.125
       234   08 Jun 2027 11:49:54.275   08 Jun 2027 11:49:56.672             2.397           276.438
       235   08 Jun 2027 11:50:05.353   08 Jun 2027 11:50:06.576             1.223           263.062
       236   08 Jun 2027 11:50:24.319   08 Jun 2027 11:50:26.712             2.393           175.219
       237   08 Jun 2027 11:51:29.123   08 Jun 2027 11:51:34.339             5.216          1945.906
       238   08 Jun 2027 11:52:00.949   08 Jun 2027 11:52:03.295             2.346           500.562
       239   08 Jun 2027 11:52:08.225   08 Jun 2027 11:52:11.032             2.807           120.250
       240   09 Jun 2027 04:08:31.996   09 Jun 2027 04:09:30.816            58.820         29410.000
       241   09 Jun 2027 04:09:39.310   09 Jun 2027 04:10:46.496            67.186         33593.000
       242   09 Jun 2027 04:12:55.351   09 Jun 2027 04:13:07.399            12.048          6024.000
       243   09 Jun 2027 04:13:47.212   09 Jun 2027 04:13:49.339             2.127          1063.500
       244   09 Jun 2027 04:14:05.525   09 Jun 2027 04:14:10.705             5.180          2590.000
       245   09 Jun 2027 05:46:48.808   09 Jun 2027 05:48:33.854           105.046         52523.000
       246   09 Jun 2027 05:48:57.585   09 Jun 2027 05:50:08.116            70.531         32875.031
       247   09 Jun 2027 07:10:10.555   09 Jun 2027 07:10:26.522            15.967          7686.375
       248   09 Jun 2027 07:11:03.180   09 Jun 2027 07:11:05.056             1.876           675.969
       249   09 Jun 2027 07:11:38.327   09 Jun 2027 07:11:43.293             4.966           924.469
       250   09 Jun 2027 07:13:20.976   09 Jun 2027 07:13:21.229             0.253           126.500
       251   09 Jun 2027 08:46:45.467   09 Jun 2027 08:46:56.054            10.587          4245.188
       252   09 Jun 2027 08:47:58.224   09 Jun 2027 08:48:00.776             2.552          1276.000
       253   09 Jun 2027 08:48:31.822   09 Jun 2027 08:48:35.164             3.342          1397.188
       254   09 Jun 2027 08:49:36.961   09 Jun 2027 08:49:39.440             2.479           877.094
       255   09 Jun 2027 10:21:55.481   09 Jun 2027 10:22:02.456             6.975          2884.156
       256   09 Jun 2027 10:23:16.613   09 Jun 2027 10:23:21.594             4.981          2051.125
       257   09 Jun 2027 10:23:53.375   09 Jun 2027 10:23:55.847             2.472           733.156
       258   09 Jun 2027 10:25:05.859   09 Jun 2027 10:25:07.635             1.776           536.594
       259   09 Jun 2027 10:25:33.865   09 Jun 2027 10:25:36.574             2.709             8.031
       260   09 Jun 2027 10:26:17.126   09 Jun 2027 10:26:19.496             2.370          1176.781
       261   09 Jun 2027 10:28:16.293   09 Jun 2027 10:28:25.139             8.846          2648.031
       262   09 Jun 2027 11:58:16.403   09 Jun 2027 11:58:27.180            10.777          4666.688
       263   09 Jun 2027 11:59:54.924   09 Jun 2027 11:59:55.913             0.989           428.750
       264   10 Jun 2027 04:21:38.348   10 Jun 2027 04:23:01.961            83.613         41806.500
       265   10 Jun 2027 04:23:20.422   10 Jun 2027 04:23:47.984            27.562         13781.000
       266   10 Jun 2027 04:26:05.013   10 Jun 2027 04:26:07.327             2.314          1157.000
       267   10 Jun 2027 04:28:16.907   10 Jun 2027 04:29:10.604            53.697         26848.500
       268   10 Jun 2027 05:58:45.241   10 Jun 2027 05:59:26.695            41.454         20727.000
       269   10 Jun 2027 05:59:34.863   10 Jun 2027 06:00:25.020            50.157         25078.500
       270   10 Jun 2027 06:00:50.959   10 Jun 2027 06:01:21.853            30.894         15447.000
       271   10 Jun 2027 06:02:11.526   10 Jun 2027 06:02:20.535             9.009          4504.500
       272   10 Jun 2027 07:22:42.225   10 Jun 2027 07:23:11.261            29.036         14518.000
       273   10 Jun 2027 07:23:21.013   10 Jun 2027 07:23:23.078             2.065           815.437
       274   10 Jun 2027 07:24:44.805   10 Jun 2027 07:24:44.805             0.000             0.000
       275   10 Jun 2027 07:25:19.813   10 Jun 2027 07:25:25.766             5.953          2976.500
       276   10 Jun 2027 08:58:33.757   10 Jun 2027 08:58:39.027             5.270          1617.719
       277   10 Jun 2027 08:59:51.463   10 Jun 2027 08:59:57.354             5.891          1507.219
       278   10 Jun 2027 09:00:41.333   10 Jun 2027 09:00:47.649             6.316          1172.406
       279   10 Jun 2027 09:00:50.653   10 Jun 2027 09:00:50.653             0.000             0.000
       280   10 Jun 2027 09:01:17.195   10 Jun 2027 09:01:19.251             2.056           923.312
       281   10 Jun 2027 10:33:26.220   10 Jun 2027 10:33:44.376            18.156          5563.156
       282   10 Jun 2027 10:35:45.037   10 Jun 2027 10:35:53.658             8.621          3407.188
       283   10 Jun 2027 10:36:22.899   10 Jun 2027 10:36:24.693             1.794           498.781
       284   10 Jun 2027 10:36:44.391   10 Jun 2027 10:36:48.560             4.169           615.563
       285   10 Jun 2027 10:37:53.187   10 Jun 2027 10:37:53.764             0.577           147.875
       286   10 Jun 2027 10:38:18.347   10 Jun 2027 10:38:20.490             2.143           500.906
       287   10 Jun 2027 10:38:55.316   10 Jun 2027 10:38:57.411             2.095           504.562
       288   10 Jun 2027 10:39:56.932   10 Jun 2027 10:40:02.098             5.166          1504.250
       289   10 Jun 2027 10:40:36.190   10 Jun 2027 10:40:38.433             2.243           983.531
       290   11 Jun 2027 03:00:00.000   11 Jun 2027 03:00:28.471            28.471         14235.500
       291   11 Jun 2027 03:01:02.637   11 Jun 2027 03:01:12.642            10.005          5002.500
       292   11 Jun 2027 04:33:43.242   11 Jun 2027 04:34:46.450            63.208         31604.000
       293   11 Jun 2027 04:35:32.681   11 Jun 2027 04:36:43.420            70.739         35369.500
       294   11 Jun 2027 04:37:52.740   11 Jun 2027 04:37:54.694             1.954           977.000
       295   11 Jun 2027 04:38:14.345   11 Jun 2027 04:38:51.324            36.979         18489.500
       296   11 Jun 2027 04:39:23.280   11 Jun 2027 04:39:42.407            19.127          9563.500
       297   11 Jun 2027 04:39:53.142   11 Jun 2027 04:40:03.677            10.535          5267.500
       298   11 Jun 2027 05:59:23.835   11 Jun 2027 06:00:06.632            42.797         21398.500
       299   11 Jun 2027 06:10:42.820   11 Jun 2027 06:11:55.777            72.957         35338.000
       300   11 Jun 2027 07:33:18.089   11 Jun 2027 07:33:29.581            11.492          4804.875
       301   11 Jun 2027 07:34:53.311   11 Jun 2027 07:34:58.542             5.231          1503.062
       302   11 Jun 2027 07:35:38.987   11 Jun 2027 07:35:40.599             1.612           794.250
       303   11 Jun 2027 07:37:34.572   11 Jun 2027 07:37:40.876             6.304          2856.156
       304   11 Jun 2027 09:08:49.642   11 Jun 2027 09:08:55.816             6.174          2555.844
       305   11 Jun 2027 09:11:02.013   11 Jun 2027 09:11:06.086             4.073          1989.937
       306   11 Jun 2027 09:11:51.840   11 Jun 2027 09:11:54.459             2.619           151.250
       307   11 Jun 2027 09:13:14.771   11 Jun 2027 09:13:21.165             6.394            98.750
       308   11 Jun 2027 09:14:07.558   11 Jun 2027 09:14:13.171             5.613          1253.500
       309   11 Jun 2027 10:45:09.315   11 Jun 2027 10:45:19.035             9.720          3746.375
       310   11 Jun 2027 10:45:55.202   11 Jun 2027 10:45:57.647             2.445           644.875
       311   11 Jun 2027 10:48:38.462   11 Jun 2027 10:48:40.101             1.639           638.656
       312   11 Jun 2027 10:49:02.836   11 Jun 2027 10:49:03.484             0.648           238.812
       313   11 Jun 2027 10:49:50.797   11 Jun 2027 10:49:50.797             0.000             0.000
       314   11 Jun 2027 10:50:50.612   11 Jun 2027 10:50:56.435             5.823          2539.906
       315   11 Jun 2027 10:51:16.846   11 Jun 2027 10:51:17.522             0.676            79.969
       316   11 Jun 2027 10:52:17.121   11 Jun 2027 10:52:22.207             5.086           719.188
       317   12 Jun 2027 03:07:08.125   12 Jun 2027 03:07:52.812            44.687         22343.500
       318   12 Jun 2027 03:08:59.382   12 Jun 2027 03:09:11.976            12.594          6297.000
       319   12 Jun 2027 03:09:28.044   12 Jun 2027 03:09:47.569            19.525          9762.500
       320   12 Jun 2027 03:11:06.869   12 Jun 2027 03:11:10.616             3.747          1873.500
       321   12 Jun 2027 03:11:33.361   12 Jun 2027 03:11:37.361             4.000          2000.000
       322   12 Jun 2027 03:12:30.990   12 Jun 2027 03:12:45.526            14.536          7268.000
       323   12 Jun 2027 04:46:12.734   12 Jun 2027 04:48:59.297           166.563         83281.500
       324   12 Jun 2027 04:50:01.829   12 Jun 2027 04:50:04.967             3.138          1569.000
       325   12 Jun 2027 04:50:18.494   12 Jun 2027 04:50:56.040            37.546         17653.625
       326   12 Jun 2027 04:51:23.908   12 Jun 2027 04:51:27.475             3.567           810.469
       327   12 Jun 2027 04:51:57.841   12 Jun 2027 04:52:00.289             2.448           244.156
       328   12 Jun 2027 04:52:11.884   12 Jun 2027 04:52:15.881             3.997           362.344
       329   12 Jun 2027 04:53:15.479   12 Jun 2027 04:53:20.070             4.591          1623.875
       330   12 Jun 2027 06:11:02.240   12 Jun 2027 06:11:21.648            19.408          9526.531
       331   12 Jun 2027 06:22:42.410   12 Jun 2027 06:22:52.684            10.274          4425.250
       332   12 Jun 2027 07:45:01.115   12 Jun 2027 07:45:12.988            11.873          5511.375
       333   12 Jun 2027 07:46:57.338   12 Jun 2027 07:47:00.106             2.768           892.500
       334   12 Jun 2027 07:47:23.209   12 Jun 2027 07:47:24.248             1.039           236.781
       335   12 Jun 2027 07:48:05.840   12 Jun 2027 07:48:05.840             0.000             0.000
       336   12 Jun 2027 07:48:29.668   12 Jun 2027 07:48:34.309             4.641          1926.375
       337   12 Jun 2027 07:49:14.619   12 Jun 2027 07:49:20.349             5.730           842.937
       338   12 Jun 2027 07:49:52.825   12 Jun 2027 07:49:57.384             4.559          1001.469
       339   12 Jun 2027 09:19:57.824   12 Jun 2027 09:20:03.657             5.833          2765.000
       340   12 Jun 2027 09:21:01.241   12 Jun 2027 09:21:03.080             1.839           494.125
       341   12 Jun 2027 09:22:06.979   12 Jun 2027 09:22:10.129             3.150          1377.594
       342   12 Jun 2027 09:22:59.929   12 Jun 2027 09:23:10.129            10.200           499.750
       343   12 Jun 2027 09:23:44.896   12 Jun 2027 09:23:47.105             2.209           299.469
       344   12 Jun 2027 09:25:44.480   12 Jun 2027 09:25:48.213             3.733          1004.719
       345   12 Jun 2027 09:26:23.025   12 Jun 2027 09:26:26.258             3.233          1087.875
       346   12 Jun 2027 09:27:03.017   12 Jun 2027 09:27:14.075            11.058           999.594
       347   12 Jun 2027 09:27:58.013   12 Jun 2027 09:27:58.930             0.917           118.344
       348   12 Jun 2027 10:57:27.398   12 Jun 2027 10:57:36.288             8.890          2300.625
       349   12 Jun 2027 10:59:26.339   12 Jun 2027 10:59:31.412             5.073           894.031
       350   12 Jun 2027 11:00:32.427   12 Jun 2027 11:00:33.869             1.442           293.969
       351   12 Jun 2027 11:00:56.347   12 Jun 2027 11:00:59.364             3.017           398.437
       352   12 Jun 2027 11:01:50.602   12 Jun 2027 11:01:55.323             4.721           267.875
       353   12 Jun 2027 11:02:41.921   12 Jun 2027 11:02:45.075             3.154           898.500
       354   12 Jun 2027 11:03:50.792   12 Jun 2027 11:03:55.269             4.477          2020.562
       355   12 Jun 2027 11:04:17.707   12 Jun 2027 11:04:19.196             1.489           701.188
       356   12 Jun 2027 11:04:39.848   12 Jun 2027 11:04:41.821             1.973           321.500
       357   13 Jun 2027 03:19:28.625   13 Jun 2027 03:19:54.696            26.071         13035.500
       358   13 Jun 2027 03:20:01.588   13 Jun 2027 03:20:33.235            31.647         15823.500
       359   13 Jun 2027 03:20:37.316   13 Jun 2027 03:21:30.615            53.299         26649.500
       360   13 Jun 2027 03:21:33.308   13 Jun 2027 03:22:05.408            32.100         16050.000
       361   13 Jun 2027 03:22:59.479   13 Jun 2027 03:23:35.575            36.096         18048.000
       362   13 Jun 2027 04:58:15.915   13 Jun 2027 05:00:31.661           135.746         67873.000
       363   13 Jun 2027 05:02:06.990   13 Jun 2027 05:02:17.538            10.548          3169.000
       364   13 Jun 2027 05:03:01.084   13 Jun 2027 05:03:02.649             1.565           290.500
       365   13 Jun 2027 05:05:05.342   13 Jun 2027 05:05:09.888             4.546          1746.406
       366   13 Jun 2027 06:22:35.794   13 Jun 2027 06:22:45.561             9.767          4845.781
       367   13 Jun 2027 06:23:13.361   13 Jun 2027 06:23:14.246             0.885           438.219
       368   13 Jun 2027 06:24:08.843   13 Jun 2027 06:24:13.367             4.524          1706.156
       369   13 Jun 2027 06:24:20.907   13 Jun 2027 06:24:21.393             0.486            12.938
       370   13 Jun 2027 06:34:51.533   13 Jun 2027 06:34:58.003             6.470          3104.406
       371   13 Jun 2027 07:56:33.165   13 Jun 2027 07:56:43.630            10.465          4132.969
       372   13 Jun 2027 07:58:27.807   13 Jun 2027 07:58:32.972             5.165          1674.500
       373   13 Jun 2027 08:00:10.535   13 Jun 2027 08:00:15.216             4.681          2276.031
       374   13 Jun 2027 08:01:36.722   13 Jun 2027 08:01:42.390             5.668          2483.719
       375   13 Jun 2027 08:01:49.941   13 Jun 2027 08:01:59.392             9.451           235.969
       376   13 Jun 2027 09:31:26.720   13 Jun 2027 09:31:32.519             5.799          2895.094
       377   13 Jun 2027 09:33:25.585   13 Jun 2027 09:33:26.076             0.491            40.375
       378   13 Jun 2027 09:35:06.094   13 Jun 2027 09:35:11.325             5.231          2222.781
       379   13 Jun 2027 09:35:45.212   13 Jun 2027 09:35:48.854             3.642          1058.969
       380   13 Jun 2027 09:38:18.967   13 Jun 2027 09:38:23.902             4.935          2076.437
       381   13 Jun 2027 09:39:05.069   13 Jun 2027 09:39:11.375             6.306          1274.625
       382   13 Jun 2027 09:40:03.732   13 Jun 2027 09:40:09.639             5.907           943.063
       383   13 Jun 2027 09:40:20.958   13 Jun 2027 09:40:22.929             1.971           330.125
       384   13 Jun 2027 11:09:21.388   13 Jun 2027 11:09:45.626            24.238          4776.219
       385   13 Jun 2027 11:11:42.381   13 Jun 2027 11:11:45.432             3.051           282.812
       386   13 Jun 2027 11:12:55.415   13 Jun 2027 11:12:59.988             4.573          1172.781
       387   13 Jun 2027 11:14:46.320   13 Jun 2027 11:14:52.774             6.454          3098.094
       388   13 Jun 2027 11:15:50.439   13 Jun 2027 11:15:53.673             3.234          1048.375
       389   13 Jun 2027 11:16:19.694   13 Jun 2027 11:16:21.163             1.469           719.750
