uniorb/output/strategy_4/Camera/Camera_KinoSat_111606.txt

KinoSat_111606
-------------------------
    Access    *     Start Time (UTCG)     *     Stop Time (UTCG)  *   Duration (s) *   Data (Mbytes)
         1   01 Jun 2027 03:04:16.053   01 Jun 2027 03:04:39.945            23.892         11946.000
         2   01 Jun 2027 03:04:43.060   01 Jun 2027 03:05:17.472            34.412         17206.000
         3   01 Jun 2027 03:05:27.290   01 Jun 2027 03:05:38.131            10.841          5420.500
         4   01 Jun 2027 03:05:50.583   01 Jun 2027 03:05:58.373             7.790          3895.000
         5   01 Jun 2027 03:07:33.994   01 Jun 2027 03:07:46.605            12.611          6305.500
         6   01 Jun 2027 03:09:22.119   01 Jun 2027 03:09:22.474             0.355           177.500
         7   01 Jun 2027 03:09:35.336   01 Jun 2027 03:09:35.336             0.000             0.000
         8   01 Jun 2027 04:42:38.855   01 Jun 2027 04:44:20.593           101.738         50869.000
         9   01 Jun 2027 04:46:27.377   01 Jun 2027 04:46:53.942            26.565         13282.500
        10   01 Jun 2027 06:06:41.830   01 Jun 2027 06:07:51.896            70.066         35033.000
        11   01 Jun 2027 07:42:39.200   01 Jun 2027 07:45:06.277           147.077         73538.500
        12   01 Jun 2027 09:16:28.778   01 Jun 2027 09:18:25.550           116.772         58386.000
        13   01 Jun 2027 09:24:19.271   01 Jun 2027 09:24:58.844            39.573         19786.500
        14   01 Jun 2027 10:53:32.818   01 Jun 2027 10:54:20.651            47.833         23916.500
        15   01 Jun 2027 10:55:14.983   01 Jun 2027 10:55:14.983             0.000             0.000
        16   01 Jun 2027 10:57:45.829   01 Jun 2027 10:58:26.824            40.995         20497.500
        17   01 Jun 2027 10:58:56.372   01 Jun 2027 11:00:52.954           116.582         58291.000
        18   02 Jun 2027 03:16:51.041   02 Jun 2027 03:17:38.544            47.503         23751.500
        19   02 Jun 2027 03:17:47.678   02 Jun 2027 03:18:30.989            43.311         21655.500
        20   02 Jun 2027 03:18:32.197   02 Jun 2027 03:19:10.690            38.493         19246.500
        21   02 Jun 2027 03:19:57.485   02 Jun 2027 03:20:02.190             4.705          2352.500
        22   02 Jun 2027 03:20:26.187   02 Jun 2027 03:20:33.233             7.046          3523.000
        23   02 Jun 2027 03:21:29.641   02 Jun 2027 03:22:00.407            30.766         15383.000
        24   02 Jun 2027 04:55:13.550   02 Jun 2027 04:55:47.995            34.445         17222.500
        25   02 Jun 2027 04:56:18.678   02 Jun 2027 04:59:51.597           212.919        106459.500
        26   02 Jun 2027 06:18:36.023   02 Jun 2027 06:19:07.565            31.542         15771.000
        27   02 Jun 2027 07:54:58.143   02 Jun 2027 07:57:46.854           168.711         84355.500
        28   02 Jun 2027 09:28:27.062   02 Jun 2027 09:29:57.685            90.623         43763.875
        29   02 Jun 2027 09:30:54.204   02 Jun 2027 09:30:54.204             0.000             0.000
        30   02 Jun 2027 09:31:12.177   02 Jun 2027 09:31:12.177             0.000             0.000
        31   02 Jun 2027 09:31:28.338   02 Jun 2027 09:31:33.507             5.169          2090.469
        32   02 Jun 2027 09:31:46.754   02 Jun 2027 09:31:47.928             1.174           413.969
        33   02 Jun 2027 09:35:23.629   02 Jun 2027 09:35:28.312             4.683          2341.500
        34   02 Jun 2027 09:35:45.697   02 Jun 2027 09:35:56.913            11.216          4312.125
        35   02 Jun 2027 09:36:56.802   02 Jun 2027 09:36:58.384             1.582           791.000
        36   02 Jun 2027 11:05:59.556   02 Jun 2027 11:06:15.766            16.210          5850.469
        37   02 Jun 2027 11:07:25.257   02 Jun 2027 11:07:29.910             4.653           524.281
        38   02 Jun 2027 11:08:59.356   02 Jun 2027 11:09:02.159             2.803          1385.938
        39   02 Jun 2027 11:09:55.135   02 Jun 2027 11:09:59.521             4.386          1575.938
        40   02 Jun 2027 11:10:07.104   02 Jun 2027 11:10:11.185             4.081           148.531
        41   02 Jun 2027 11:10:26.134   02 Jun 2027 11:10:26.173             0.039            19.500
        42   02 Jun 2027 11:11:07.389   02 Jun 2027 11:11:10.491             3.102          1289.844
        43   02 Jun 2027 11:11:55.518   02 Jun 2027 11:12:00.076             4.558          1192.813
        44   02 Jun 2027 11:12:13.640   02 Jun 2027 11:12:21.628             7.988           373.219
        45   02 Jun 2027 11:12:33.531   02 Jun 2027 11:12:43.130             9.599           303.344
        46   03 Jun 2027 03:28:47.468   03 Jun 2027 03:28:53.368             5.900          2950.000
        47   03 Jun 2027 03:29:04.866   03 Jun 2027 03:31:56.262           171.396         85698.000
        48   03 Jun 2027 03:32:18.959   03 Jun 2027 03:32:32.902            13.943          6971.500
        49   03 Jun 2027 03:33:04.062   03 Jun 2027 03:33:40.046            35.984         17992.000
        50   03 Jun 2027 03:34:18.330   03 Jun 2027 03:34:19.553             1.223           611.500
        51   03 Jun 2027 05:06:51.591   03 Jun 2027 05:08:14.304            82.713         40460.344
        52   03 Jun 2027 05:09:15.694   03 Jun 2027 05:09:25.486             9.792          1586.812
        53   03 Jun 2027 05:09:55.282   03 Jun 2027 05:09:58.831             3.549           661.281
        54   03 Jun 2027 05:10:38.151   03 Jun 2027 05:10:40.944             2.793          1228.750
        55   03 Jun 2027 06:30:26.830   03 Jun 2027 06:30:34.525             7.695          3771.562
        56   03 Jun 2027 06:30:58.451   03 Jun 2027 06:30:58.451             0.000             0.000
        57   03 Jun 2027 06:31:50.467   03 Jun 2027 06:31:56.302             5.835          2320.531
        58   03 Jun 2027 06:32:32.816   03 Jun 2027 06:32:32.816             0.000             0.000
        59   03 Jun 2027 06:32:40.431   03 Jun 2027 06:32:43.694             3.263          1379.031
        60   03 Jun 2027 06:32:53.265   03 Jun 2027 06:32:53.265             0.000             0.000
        61   03 Jun 2027 08:07:00.366   03 Jun 2027 08:07:07.540             7.174          3346.562
        62   03 Jun 2027 08:07:27.288   03 Jun 2027 08:07:29.378             2.090            20.906
        63   03 Jun 2027 08:07:57.771   03 Jun 2027 08:08:02.680             4.909           616.312
        64   03 Jun 2027 08:08:47.384   03 Jun 2027 08:08:51.246             3.862           595.406
        65   03 Jun 2027 09:41:30.725   03 Jun 2027 09:41:39.755             9.030          3771.969
        66   03 Jun 2027 09:42:57.630   03 Jun 2027 09:43:01.590             3.960           296.563
        67   03 Jun 2027 09:43:30.307   03 Jun 2027 09:43:38.040             7.733           506.969
        68   03 Jun 2027 09:44:32.825   03 Jun 2027 09:44:33.983             1.158           534.313
        69   03 Jun 2027 09:45:38.573   03 Jun 2027 09:45:43.676             5.103          1309.563
        70   03 Jun 2027 09:47:24.580   03 Jun 2027 09:47:33.577             8.997          2658.875
        71   03 Jun 2027 09:48:25.653   03 Jun 2027 09:48:27.515             1.862           877.750
        72   03 Jun 2027 09:48:33.866   03 Jun 2027 09:48:36.661             2.795           139.156
        73   03 Jun 2027 09:48:46.755   03 Jun 2027 09:48:48.199             1.444           147.719
        74   03 Jun 2027 11:18:06.830   03 Jun 2027 11:18:15.167             8.337          4139.500
        75   03 Jun 2027 11:20:42.122   03 Jun 2027 11:20:47.087             4.965           788.938
        76   03 Jun 2027 11:20:57.084   03 Jun 2027 11:21:06.785             9.701           312.406
        77   03 Jun 2027 11:21:45.082   03 Jun 2027 11:21:56.718            11.636           929.781
        78   03 Jun 2027 11:22:26.652   03 Jun 2027 11:22:28.280             1.628           694.094
        79   03 Jun 2027 11:22:58.554   03 Jun 2027 11:23:00.036             1.482           463.875
        80   03 Jun 2027 11:24:00.117   03 Jun 2027 11:24:04.304             4.187          1875.750
        81   03 Jun 2027 11:24:08.203   03 Jun 2027 11:24:08.920             0.717           121.844
        82   03 Jun 2027 11:24:39.444   03 Jun 2027 11:24:41.406             1.962           521.563
        83   04 Jun 2027 03:40:56.230   04 Jun 2027 03:41:55.959            59.729         29864.500
        84   04 Jun 2027 03:42:05.369   04 Jun 2027 03:43:42.981            97.612         48806.000
        85   04 Jun 2027 03:44:18.955   04 Jun 2027 03:44:25.362             6.407          3203.500
        86   04 Jun 2027 03:44:52.491   04 Jun 2027 03:45:37.822            45.331         22665.500
        87   04 Jun 2027 03:47:11.080   04 Jun 2027 03:47:15.295             4.215          2107.500
        88   04 Jun 2027 05:19:14.635   04 Jun 2027 05:19:45.386            30.751         15375.500
        89   04 Jun 2027 05:20:03.882   04 Jun 2027 05:21:02.888            59.006         28964.969
        90   04 Jun 2027 05:22:00.018   04 Jun 2027 05:22:01.614             1.596           798.000
        91   04 Jun 2027 05:22:41.195   04 Jun 2027 05:22:44.907             3.712          1677.562
        92   04 Jun 2027 06:42:37.623   04 Jun 2027 06:42:45.358             7.735          3859.125
        93   04 Jun 2027 06:43:15.690   04 Jun 2027 06:43:15.694             0.004             2.000
        94   04 Jun 2027 06:43:21.532   04 Jun 2027 06:43:29.806             8.274          1120.062
        95   04 Jun 2027 06:43:33.636   04 Jun 2027 06:43:33.636             0.000             0.000
        96   04 Jun 2027 06:44:02.908   04 Jun 2027 06:44:07.204             4.296           970.250
        97   04 Jun 2027 06:45:15.205   04 Jun 2027 06:45:16.978             1.773           886.500
        98   04 Jun 2027 06:45:28.603   04 Jun 2027 06:45:31.366             2.763          1358.594
        99   04 Jun 2027 08:19:09.315   04 Jun 2027 08:19:16.247             6.932          2314.531
       100   04 Jun 2027 08:19:54.681   04 Jun 2027 08:19:57.379             2.698          1035.656
       101   04 Jun 2027 08:21:04.419   04 Jun 2027 08:21:09.255             4.836          1510.000
       102   04 Jun 2027 08:22:07.940   04 Jun 2027 08:22:10.212             2.272          1019.594
       103   04 Jun 2027 09:54:18.560   04 Jun 2027 09:54:23.762             5.202          2211.375
       104   04 Jun 2027 09:55:31.937   04 Jun 2027 09:55:31.937             0.000             0.000
       105   04 Jun 2027 09:55:37.554   04 Jun 2027 09:55:41.465             3.911          1857.031
       106   04 Jun 2027 09:57:16.163   04 Jun 2027 09:57:21.693             5.530          1563.531
       107   04 Jun 2027 09:59:25.035   04 Jun 2027 09:59:33.080             8.045          3356.219
       108   04 Jun 2027 10:00:39.421   04 Jun 2027 10:00:42.964             3.543           908.063
       109   04 Jun 2027 11:30:42.639   04 Jun 2027 11:30:58.091            15.452          4406.312
       110   04 Jun 2027 11:31:47.245   04 Jun 2027 11:31:58.099            10.854          1265.281
       111   04 Jun 2027 11:32:51.010   04 Jun 2027 11:32:53.137             2.127           188.719
       112   04 Jun 2027 11:34:18.993   04 Jun 2027 11:34:21.359             2.366           862.563
       113   04 Jun 2027 11:34:29.070   04 Jun 2027 11:34:29.778             0.708            49.812
       114   04 Jun 2027 11:35:05.810   04 Jun 2027 11:35:07.974             2.164           837.563
       115   04 Jun 2027 11:36:05.716   04 Jun 2027 11:36:10.148             4.432          1082.562
       116   04 Jun 2027 11:36:22.139   04 Jun 2027 11:36:24.477             2.338           374.719
       117   04 Jun 2027 11:36:29.760   04 Jun 2027 11:36:39.598             9.838           165.094
       118   05 Jun 2027 03:53:01.521   05 Jun 2027 03:53:10.086             8.565          4282.500
       119   05 Jun 2027 03:54:02.896   05 Jun 2027 03:57:32.392           209.496        104748.000
       120   05 Jun 2027 03:59:07.389   05 Jun 2027 03:59:07.389             0.000             0.000
       121   05 Jun 2027 04:00:49.416   05 Jun 2027 04:00:53.457             4.041          2020.500
       122   05 Jun 2027 05:31:11.532   05 Jun 2027 05:31:50.516            38.984         19492.000
       123   05 Jun 2027 05:32:14.468   05 Jun 2027 05:32:58.834            44.366         21891.625
       124   05 Jun 2027 05:34:01.840   05 Jun 2027 05:34:04.096             2.256          1039.313
       125   05 Jun 2027 05:34:45.348   05 Jun 2027 05:34:47.840             2.492          1146.750
       126   05 Jun 2027 06:55:14.312   05 Jun 2027 06:55:24.376            10.064          4865.312
       127   05 Jun 2027 06:55:34.377   05 Jun 2027 06:55:37.088             2.711           303.500
       128   05 Jun 2027 06:55:56.945   05 Jun 2027 06:55:59.709             2.764           288.625
       129   05 Jun 2027 06:57:12.670   05 Jun 2027 06:57:18.243             5.573          2280.031
       130   05 Jun 2027 08:31:02.510   05 Jun 2027 08:31:08.606             6.096          2448.500
       131   05 Jun 2027 08:32:59.247   05 Jun 2027 08:33:06.291             7.044          3278.063
       132   05 Jun 2027 08:33:36.899   05 Jun 2027 08:33:44.267             7.368           956.500
       133   05 Jun 2027 08:34:23.910   05 Jun 2027 08:34:26.516             2.606          1238.844
       134   05 Jun 2027 10:05:59.741   05 Jun 2027 10:06:07.355             7.614          3379.844
       135   05 Jun 2027 10:07:33.173   05 Jun 2027 10:07:38.551             5.378          2146.719
       136   05 Jun 2027 10:08:29.925   05 Jun 2027 10:08:29.925             0.000             0.000
       137   05 Jun 2027 10:08:39.458   05 Jun 2027 10:08:41.731             2.273          1078.000
       138   05 Jun 2027 10:09:12.135   05 Jun 2027 10:09:14.811             2.676           284.969
       139   05 Jun 2027 10:10:20.366   05 Jun 2027 10:10:23.535             3.169           593.250
       140   05 Jun 2027 10:11:01.230   05 Jun 2027 10:11:04.879             3.649           948.313
       141   05 Jun 2027 10:12:37.479   05 Jun 2027 10:12:42.153             4.674          2267.750
       142   05 Jun 2027 11:42:14.968   05 Jun 2027 11:42:24.785             9.817          4453.375
       143   05 Jun 2027 11:43:37.864   05 Jun 2027 11:43:42.495             4.631           492.219
       144   05 Jun 2027 11:44:08.753   05 Jun 2027 11:44:10.744             1.991           162.625
       145   05 Jun 2027 11:44:14.370   05 Jun 2027 11:44:16.305             1.935            51.906
       146   05 Jun 2027 11:44:45.853   05 Jun 2027 11:44:47.638             1.785           760.063
       147   05 Jun 2027 11:46:08.708   05 Jun 2027 11:46:17.444             8.736          2257.937
       148   05 Jun 2027 11:46:26.594   05 Jun 2027 11:46:27.508             0.914           154.219
       149   05 Jun 2027 11:46:28.572   05 Jun 2027 11:46:30.798             2.226            33.250
       150   05 Jun 2027 11:47:10.727   05 Jun 2027 11:47:15.244             4.517          1196.250
       151   05 Jun 2027 11:47:40.812   05 Jun 2027 11:47:45.320             4.508           799.000
       152   05 Jun 2027 11:48:13.847   05 Jun 2027 11:48:21.514             7.667           850.187
       153   05 Jun 2027 11:48:31.354   05 Jun 2027 11:48:35.065             3.711           307.500
       154   06 Jun 2027 04:06:06.711   06 Jun 2027 04:09:39.880           213.169        106584.500
       155   06 Jun 2027 04:12:37.523   06 Jun 2027 04:12:40.505             2.982          1491.000
       156   06 Jun 2027 04:13:06.570   06 Jun 2027 04:13:44.398            37.828         18914.000
       157   06 Jun 2027 05:32:00.677   06 Jun 2027 05:32:09.574             8.897          4448.500
       158   06 Jun 2027 05:32:28.536   06 Jun 2027 05:32:45.912            17.376          8688.000
       159   06 Jun 2027 05:43:08.039   06 Jun 2027 05:44:40.579            92.540         42657.656
       160   06 Jun 2027 05:45:45.015   06 Jun 2027 05:45:50.841             5.826           347.062
       161   06 Jun 2027 07:06:05.065   06 Jun 2027 07:06:18.562            13.497          5615.000
       162   06 Jun 2027 07:06:34.143   06 Jun 2027 07:06:34.961             0.818           393.219
       163   06 Jun 2027 07:07:52.086   06 Jun 2027 07:08:01.579             9.493          1741.406
       164   06 Jun 2027 07:09:06.699   06 Jun 2027 07:09:11.270             4.571          2035.000
       165   06 Jun 2027 07:09:37.816   06 Jun 2027 07:09:37.816             0.000             0.000
       166   06 Jun 2027 07:10:14.805   06 Jun 2027 07:10:14.893             0.088            44.000
       167   06 Jun 2027 07:10:18.380   06 Jun 2027 07:10:20.479             2.099          1049.500
       168   06 Jun 2027 08:41:21.746   06 Jun 2027 08:41:27.244             5.498          1585.750
       169   06 Jun 2027 08:41:50.514   06 Jun 2027 08:41:51.700             1.186           548.156
       170   06 Jun 2027 08:43:04.276   06 Jun 2027 08:43:10.461             6.185          1936.250
       171   06 Jun 2027 08:43:36.125   06 Jun 2027 08:43:40.702             4.577           312.813
       172   06 Jun 2027 08:44:49.939   06 Jun 2027 08:44:56.722             6.783          1638.906
       173   06 Jun 2027 08:45:38.105   06 Jun 2027 08:45:38.251             0.146            73.000
       174   06 Jun 2027 08:45:41.789   06 Jun 2027 08:45:43.677             1.888           271.750
       175   06 Jun 2027 08:46:28.545   06 Jun 2027 08:46:31.505             2.960          1394.094
       176   06 Jun 2027 08:47:16.034   06 Jun 2027 08:47:17.493             1.459           475.219
       177   06 Jun 2027 10:17:32.805   06 Jun 2027 10:17:38.152             5.347          2545.188
       178   06 Jun 2027 10:18:25.795   06 Jun 2027 10:18:30.355             4.560           641.813
       179   06 Jun 2027 10:20:36.793   06 Jun 2027 10:20:42.320             5.527          1963.563
       180   06 Jun 2027 10:21:06.562   06 Jun 2027 10:21:08.460             1.898           333.937
       181   06 Jun 2027 10:23:24.105   06 Jun 2027 10:23:31.191             7.086          3519.344
       182   06 Jun 2027 10:25:04.692   06 Jun 2027 10:25:08.670             3.978          1093.219
       183   06 Jun 2027 11:54:36.134   06 Jun 2027 11:54:46.677            10.543          5207.813
       184   06 Jun 2027 11:56:09.257   06 Jun 2027 11:56:14.291             5.034          2164.781
       185   06 Jun 2027 11:56:39.418   06 Jun 2027 11:56:40.840             1.422           668.625
       186   06 Jun 2027 11:57:16.571   06 Jun 2027 11:57:19.924             3.353           884.656
       187   06 Jun 2027 11:57:35.386   06 Jun 2027 11:57:39.778             4.392           483.187
       188   06 Jun 2027 11:58:24.804   06 Jun 2027 11:58:27.274             2.470           436.719
       189   06 Jun 2027 11:58:56.220   06 Jun 2027 11:58:58.725             2.505           821.906
       190   06 Jun 2027 11:59:22.336   06 Jun 2027 11:59:27.277             4.941           737.844
       191   07 Jun 2027 04:18:36.474   07 Jun 2027 04:21:32.231           175.757         87878.500
       192   07 Jun 2027 04:24:06.727   07 Jun 2027 04:24:21.883            15.156          7578.000
       193   07 Jun 2027 04:25:21.692   07 Jun 2027 04:25:42.929            21.237         10618.500
       194   07 Jun 2027 05:43:28.197   07 Jun 2027 05:44:01.586            33.389         16694.500
       195   07 Jun 2027 05:55:10.918   07 Jun 2027 05:56:23.874            72.956         36478.000
       196   07 Jun 2027 07:17:23.868   07 Jun 2027 07:17:52.624            28.756         13252.500
       197   07 Jun 2027 07:18:14.925   07 Jun 2027 07:18:16.386             1.461           400.969
       198   07 Jun 2027 07:19:51.775   07 Jun 2027 07:19:55.780             4.005          1986.219
       199   07 Jun 2027 07:20:39.063   07 Jun 2027 07:20:39.063             0.000             0.000
       200   07 Jun 2027 07:20:58.432   07 Jun 2027 07:21:02.526             4.094          1716.531
       201   07 Jun 2027 07:21:40.752   07 Jun 2027 07:21:45.220             4.468           813.031
       202   07 Jun 2027 07:22:18.765   07 Jun 2027 07:22:25.706             6.941           728.531
       203   07 Jun 2027 08:52:28.963   07 Jun 2027 08:52:37.071             8.108          2525.281
       204   07 Jun 2027 08:53:20.038   07 Jun 2027 08:53:23.172             3.134           511.250
       205   07 Jun 2027 08:54:31.546   07 Jun 2027 08:54:36.848             5.302          1224.344
       206   07 Jun 2027 08:55:58.511   07 Jun 2027 08:56:05.994             7.483          2148.500
       207   07 Jun 2027 08:56:18.422   07 Jun 2027 08:56:19.734             1.312           388.375
       208   07 Jun 2027 08:57:53.689   07 Jun 2027 08:57:58.972             5.283          2595.969
       209   07 Jun 2027 08:58:28.268   07 Jun 2027 08:58:30.925             2.657           915.500
       210   07 Jun 2027 08:58:43.253   07 Jun 2027 08:58:43.879             0.626           191.781
       211   07 Jun 2027 10:29:47.316   07 Jun 2027 10:29:54.773             7.457          3559.969
       212   07 Jun 2027 10:30:21.256   07 Jun 2027 10:30:24.146             2.890           121.031
       213   07 Jun 2027 10:32:58.990   07 Jun 2027 10:33:08.204             9.214          2649.281
       214   07 Jun 2027 10:33:15.600   07 Jun 2027 10:33:16.438             0.838            57.781
       215   07 Jun 2027 10:34:25.975   07 Jun 2027 10:34:27.775             1.800           535.781
       216   07 Jun 2027 10:35:05.467   07 Jun 2027 10:35:07.905             2.438           606.344
       217   07 Jun 2027 10:35:49.826   07 Jun 2027 10:35:56.014             6.188          1188.625
       218   07 Jun 2027 10:37:09.038   07 Jun 2027 10:37:09.591             0.553           276.500
       219   08 Jun 2027 04:30:36.795   08 Jun 2027 04:33:02.681           145.886         72943.000
       220   08 Jun 2027 04:33:43.092   08 Jun 2027 04:34:24.618            41.526         20763.000
       221   08 Jun 2027 04:37:24.825   08 Jun 2027 04:37:31.548             6.723          3361.500
       222   08 Jun 2027 05:54:57.540   08 Jun 2027 05:55:30.189            32.649         16324.500
       223   08 Jun 2027 05:56:47.973   08 Jun 2027 05:56:48.903             0.930           465.000
       224   08 Jun 2027 06:07:12.104   08 Jun 2027 06:07:43.790            31.686         15843.000
       225   08 Jun 2027 07:29:08.796   08 Jun 2027 07:30:13.728            64.932         29698.625
       226   08 Jun 2027 07:30:25.793   08 Jun 2027 07:30:27.043             1.250           291.281
       227   08 Jun 2027 07:31:34.695   08 Jun 2027 07:31:40.143             5.448          1473.281
       228   08 Jun 2027 07:33:13.272   08 Jun 2027 07:33:19.714             6.442          2896.219
       229   08 Jun 2027 07:33:43.545   08 Jun 2027 07:33:48.211             4.666           171.437
       230   08 Jun 2027 09:03:57.237   08 Jun 2027 09:04:06.201             8.964          3286.094
       231   08 Jun 2027 09:04:42.836   08 Jun 2027 09:04:43.765             0.929           333.594
       232   08 Jun 2027 09:05:53.702   08 Jun 2027 09:05:54.588             0.886           383.656
       233   08 Jun 2027 09:06:27.385   08 Jun 2027 09:06:32.496             5.111          1024.906
       234   08 Jun 2027 09:07:41.724   08 Jun 2027 09:07:43.917             2.193          1096.500
       235   08 Jun 2027 09:08:18.544   08 Jun 2027 09:08:22.473             3.929          1844.750
       236   08 Jun 2027 09:10:31.912   08 Jun 2027 09:10:32.395             0.483           241.500
       237   08 Jun 2027 09:11:49.409   08 Jun 2027 09:11:52.041             2.632          1316.000
       238   08 Jun 2027 09:12:16.730   08 Jun 2027 09:12:22.286             5.556          2497.844
       239   08 Jun 2027 10:41:45.551   08 Jun 2027 10:41:59.952            14.401          3509.594
       240   08 Jun 2027 10:42:55.203   08 Jun 2027 10:42:56.806             1.603           456.750
       241   08 Jun 2027 10:43:24.683   08 Jun 2027 10:43:32.791             8.108            53.063
       242   08 Jun 2027 10:44:48.737   08 Jun 2027 10:44:56.947             8.210          2340.344
       243   08 Jun 2027 10:45:59.038   08 Jun 2027 10:46:02.450             3.412          1188.438
       244   08 Jun 2027 10:46:55.866   08 Jun 2027 10:47:00.373             4.507          1669.250
       245   08 Jun 2027 10:47:45.974   08 Jun 2027 10:47:49.650             3.676          1258.719
       246   08 Jun 2027 10:48:29.041   08 Jun 2027 10:48:34.465             5.424          1230.969
       247   08 Jun 2027 10:49:07.168   08 Jun 2027 10:49:10.904             3.736          1021.969
       248   09 Jun 2027 03:04:33.356   09 Jun 2027 03:04:56.381            23.025         11512.500
       249   09 Jun 2027 03:04:59.918   09 Jun 2027 03:05:43.535            43.617         21808.500
       250   09 Jun 2027 03:05:58.598   09 Jun 2027 03:06:00.261             1.663           831.500
       251   09 Jun 2027 03:06:47.813   09 Jun 2027 03:06:52.085             4.272          2136.000
       252   09 Jun 2027 03:09:42.562   09 Jun 2027 03:09:52.611            10.049          5024.500
       253   09 Jun 2027 04:42:56.237   09 Jun 2027 04:44:35.461            99.224         49612.000
       254   09 Jun 2027 04:45:41.576   09 Jun 2027 04:47:44.931           123.355         61677.500
       255   09 Jun 2027 06:06:57.920   09 Jun 2027 06:07:29.197            31.277         15638.500
       256   09 Jun 2027 07:42:55.532   09 Jun 2027 07:43:10.608            15.076          5518.437
       257   09 Jun 2027 07:43:29.826   09 Jun 2027 07:43:32.822             2.996           513.219
       258   09 Jun 2027 07:43:49.244   09 Jun 2027 07:43:55.203             5.959           386.781
       259   09 Jun 2027 07:44:50.192   09 Jun 2027 07:44:53.681             3.489          1337.781
       260   09 Jun 2027 07:45:22.686   09 Jun 2027 07:45:26.728             4.042           367.156
       261   09 Jun 2027 07:45:57.733   09 Jun 2027 07:46:03.767             6.034           361.844
       262   09 Jun 2027 09:16:45.461   09 Jun 2027 09:16:52.746             7.285          2607.875
       263   09 Jun 2027 09:20:30.597   09 Jun 2027 09:20:38.162             7.565          3250.188
       264   09 Jun 2027 09:22:41.623   09 Jun 2027 09:22:45.632             4.009          1962.375
       265   09 Jun 2027 09:23:16.332   09 Jun 2027 09:23:22.427             6.095           824.188
       266   09 Jun 2027 09:23:40.081   09 Jun 2027 09:23:41.977             1.896           551.687
       267   09 Jun 2027 09:24:34.624   09 Jun 2027 09:24:37.656             3.032          1456.406
       268   09 Jun 2027 10:53:52.079   09 Jun 2027 10:54:03.986            11.907          5571.281
       269   09 Jun 2027 10:55:10.994   09 Jun 2027 10:55:19.520             8.526           597.969
       270   09 Jun 2027 10:56:34.676   09 Jun 2027 10:56:39.277             4.601          1935.563
       271   09 Jun 2027 10:57:35.559   09 Jun 2027 10:57:41.192             5.633           308.594
       272   09 Jun 2027 10:57:56.828   09 Jun 2027 10:57:59.190             2.362           315.406
       273   09 Jun 2027 10:59:04.386   09 Jun 2027 10:59:09.280             4.894          2037.375
       274   09 Jun 2027 11:00:02.888   09 Jun 2027 11:00:07.451             4.563          1346.094
       275   09 Jun 2027 11:00:27.440   09 Jun 2027 11:00:32.438             4.998           149.250
       276   09 Jun 2027 11:00:46.938   09 Jun 2027 11:00:58.359            11.421           274.781
       277   10 Jun 2027 03:17:10.884   10 Jun 2027 03:17:54.533            43.649         21824.500
       278   10 Jun 2027 03:18:00.543   10 Jun 2027 03:18:46.916            46.373         23186.500
       279   10 Jun 2027 03:18:48.826   10 Jun 2027 03:20:03.465            74.639         37319.500
       280   10 Jun 2027 03:22:44.644   10 Jun 2027 03:22:49.428             4.784          2392.000
       281   10 Jun 2027 04:55:30.675   10 Jun 2027 04:57:29.167           118.492         59179.281
       282   10 Jun 2027 04:58:05.451   10 Jun 2027 04:58:10.201             4.750          1133.875
       283   10 Jun 2027 04:59:04.408   10 Jun 2027 04:59:10.819             6.411          1569.094
       284   10 Jun 2027 04:59:41.573   10 Jun 2027 04:59:42.756             1.183           569.500
       285   10 Jun 2027 05:00:00.691   10 Jun 2027 05:00:02.789             2.098           116.406
       286   10 Jun 2027 06:18:52.710   10 Jun 2027 06:19:04.697            11.987          5384.688
       287   10 Jun 2027 06:20:48.995   10 Jun 2027 06:20:59.773            10.778          2702.125
       288   10 Jun 2027 06:21:10.489   10 Jun 2027 06:21:10.489             0.000             0.000
       289   10 Jun 2027 07:55:16.275   10 Jun 2027 07:55:32.842            16.567          6558.094
       290   10 Jun 2027 07:55:41.509   10 Jun 2027 07:55:43.196             1.687           121.781
       291   10 Jun 2027 07:55:49.897   10 Jun 2027 07:55:52.312             2.415           100.062
       292   10 Jun 2027 07:56:02.845   10 Jun 2027 07:56:02.845             0.000             0.000
       293   10 Jun 2027 07:56:09.272   10 Jun 2027 07:56:10.147             0.875           433.969
       294   10 Jun 2027 07:56:31.119   10 Jun 2027 07:56:33.189             2.070           461.625
       295   10 Jun 2027 07:58:04.000   10 Jun 2027 07:58:04.000             0.000             0.000
       296   10 Jun 2027 09:28:44.145   10 Jun 2027 09:28:55.219            11.074          4279.500
       297   10 Jun 2027 09:29:14.176   10 Jun 2027 09:29:16.483             2.307           479.125
       298   10 Jun 2027 09:31:11.724   10 Jun 2027 09:31:14.304             2.580           989.156
       299   10 Jun 2027 09:31:46.442   10 Jun 2027 09:31:53.834             7.392           473.031
       300   10 Jun 2027 09:33:15.206   10 Jun 2027 09:33:23.417             8.211          2479.313
       301   10 Jun 2027 09:34:30.306   10 Jun 2027 09:34:33.953             3.647          1640.844
       302   10 Jun 2027 09:35:42.784   10 Jun 2027 09:35:45.724             2.940          1081.563
       303   10 Jun 2027 09:36:05.981   10 Jun 2027 09:36:11.726             5.745           633.031
       304   10 Jun 2027 09:37:13.389   10 Jun 2027 09:37:15.193             1.804           902.000
       305   10 Jun 2027 11:06:18.102   10 Jun 2027 11:06:32.137            14.035          6020.812
       306   10 Jun 2027 11:08:30.283   10 Jun 2027 11:08:35.488             5.205           411.688
       307   10 Jun 2027 11:09:01.325   10 Jun 2027 11:09:02.897             1.572           706.687
       308   10 Jun 2027 11:09:29.584   10 Jun 2027 11:09:32.948             3.364           443.500
       309   10 Jun 2027 11:10:39.286   10 Jun 2027 11:10:43.612             4.326          2041.156
       310   10 Jun 2027 11:10:44.643   10 Jun 2027 11:10:46.879             2.236            32.219
       311   10 Jun 2027 11:11:11.828   10 Jun 2027 11:11:14.035             2.207           275.812
       312   10 Jun 2027 11:12:17.919   10 Jun 2027 11:12:23.069             5.150          1933.281
       313   10 Jun 2027 11:12:41.630   10 Jun 2027 11:12:45.587             3.957           580.031
       314   11 Jun 2027 03:29:04.329   11 Jun 2027 03:29:09.578             5.249          2624.500
       315   11 Jun 2027 03:29:34.251   11 Jun 2027 03:32:13.706           159.455         79727.500
       316   11 Jun 2027 03:32:44.369   11 Jun 2027 03:33:08.141            23.772         11886.000
       317   11 Jun 2027 03:33:13.143   11 Jun 2027 03:33:19.144             6.001          3000.500
       318   11 Jun 2027 05:07:45.482   11 Jun 2027 05:08:02.732            17.250          8625.000
       319   11 Jun 2027 05:08:41.905   11 Jun 2027 05:10:05.433            83.528         41361.187
       320   11 Jun 2027 05:11:18.718   11 Jun 2027 05:11:24.859             6.141          2110.313
       321   11 Jun 2027 06:30:40.364   11 Jun 2027 06:30:49.732             9.368          4683.344
       322   11 Jun 2027 06:31:13.331   11 Jun 2027 06:31:14.627             1.296           615.000
       323   11 Jun 2027 06:32:06.692   11 Jun 2027 06:32:07.094             0.402           201.000
       324   11 Jun 2027 06:32:49.665   11 Jun 2027 06:32:57.770             8.105          2194.312
       325   11 Jun 2027 08:07:42.963   11 Jun 2027 08:07:50.883             7.920          3113.656
       326   11 Jun 2027 08:08:11.065   11 Jun 2027 08:08:11.065             0.000             0.000
       327   11 Jun 2027 08:08:16.641   11 Jun 2027 08:08:19.520             2.879           619.438
       328   11 Jun 2027 08:08:58.238   11 Jun 2027 08:08:58.238             0.000             0.000
       329   11 Jun 2027 08:09:02.848   11 Jun 2027 08:09:08.657             5.809           543.750
       330   11 Jun 2027 08:10:03.740   11 Jun 2027 08:10:12.764             9.024          1679.281
       331   11 Jun 2027 09:42:13.072   11 Jun 2027 09:42:22.401             9.329          2726.906
       332   11 Jun 2027 09:43:16.592   11 Jun 2027 09:43:18.424             1.832           388.563
       333   11 Jun 2027 09:44:34.221   11 Jun 2027 09:44:39.864             5.643          1916.625
       334   11 Jun 2027 09:45:35.935   11 Jun 2027 09:45:41.091             5.156          1324.656
       335   11 Jun 2027 09:46:03.547   11 Jun 2027 09:46:03.937             0.390            19.187
       336   11 Jun 2027 09:47:42.322   11 Jun 2027 09:47:51.600             9.278          2736.344
       337   11 Jun 2027 09:48:38.648   11 Jun 2027 09:48:41.434             2.786           689.969
       338   11 Jun 2027 09:48:52.656   11 Jun 2027 09:48:54.289             1.633           118.688
       339   11 Jun 2027 09:49:04.146   11 Jun 2027 09:49:07.272             3.126           211.063
       340   11 Jun 2027 11:18:25.767   11 Jun 2027 11:18:36.385            10.618          4343.813
       341   11 Jun 2027 11:20:34.163   11 Jun 2027 11:20:35.532             1.369           496.219
       342   11 Jun 2027 11:21:03.859   11 Jun 2027 11:21:08.594             4.735           740.031
       343   11 Jun 2027 11:22:03.164   11 Jun 2027 11:22:12.090             8.926          1611.969
       344   11 Jun 2027 11:22:43.459   11 Jun 2027 11:22:48.042             4.583           717.156
       345   11 Jun 2027 11:23:48.329   11 Jun 2027 11:23:58.350            10.021          1826.594
       346   11 Jun 2027 11:24:06.950   11 Jun 2027 11:24:07.540             0.590           268.750
       347   11 Jun 2027 11:24:23.796   11 Jun 2027 11:24:24.891             1.095           288.594
       348   11 Jun 2027 11:24:40.600   11 Jun 2027 11:24:43.998             3.398           490.906
       349   12 Jun 2027 03:41:13.112   12 Jun 2027 03:42:15.258            62.146         31073.000
       350   12 Jun 2027 03:42:22.044   12 Jun 2027 03:44:46.261           144.217         72108.500
       351   12 Jun 2027 03:45:58.657   12 Jun 2027 03:46:02.137             3.480          1740.000
       352   12 Jun 2027 05:19:31.696   12 Jun 2027 05:20:03.040            31.344         15672.000
       353   12 Jun 2027 05:20:21.301   12 Jun 2027 05:21:18.596            57.295         26358.782
       354   12 Jun 2027 05:22:17.302   12 Jun 2027 05:22:22.926             5.624          1209.281
       355   12 Jun 2027 05:22:55.931   12 Jun 2027 05:22:58.220             2.289          1031.406
       356   12 Jun 2027 06:42:54.179   12 Jun 2027 06:43:06.716            12.537          5354.594
       357   12 Jun 2027 06:43:39.767   12 Jun 2027 06:43:44.334             4.567           279.500
       358   12 Jun 2027 06:43:49.576   12 Jun 2027 06:43:52.095             2.519            30.406
       359   12 Jun 2027 06:45:14.829   12 Jun 2027 06:45:20.880             6.051          2089.906
       360   12 Jun 2027 06:45:45.959   12 Jun 2027 06:45:47.680             1.721           783.719
       361   12 Jun 2027 08:19:26.089   12 Jun 2027 08:19:31.398             5.309          2448.344
       362   12 Jun 2027 08:20:12.732   12 Jun 2027 08:20:15.686             2.954          1094.719
       363   12 Jun 2027 08:21:23.393   12 Jun 2027 08:21:27.314             3.921          1507.500
       364   12 Jun 2027 08:22:25.578   12 Jun 2027 08:22:34.342             8.764          1030.281
       365   12 Jun 2027 09:54:36.043   12 Jun 2027 09:54:41.346             5.303          2318.719
       366   12 Jun 2027 09:55:49.976   12 Jun 2027 09:55:53.489             3.513          1750.594
       367   12 Jun 2027 09:55:59.243   12 Jun 2027 09:56:02.144             2.901            81.250
       368   12 Jun 2027 09:57:33.051   12 Jun 2027 09:57:39.140             6.089          1505.500
       369   12 Jun 2027 09:59:42.726   12 Jun 2027 09:59:50.261             7.535          3446.937
       370   12 Jun 2027 10:01:02.293   12 Jun 2027 10:01:04.775             2.482           372.062
       371   12 Jun 2027 11:31:01.478   12 Jun 2027 11:31:12.053            10.575          4334.781
       372   12 Jun 2027 11:32:41.842   12 Jun 2027 11:32:44.640             2.798           481.531
       373   12 Jun 2027 11:32:55.544   12 Jun 2027 11:32:57.923             2.379           340.750
       374   12 Jun 2027 11:33:07.870   12 Jun 2027 11:33:13.032             5.162           265.281
       375   12 Jun 2027 11:34:08.821   12 Jun 2027 11:34:12.864             4.043          1056.062
       376   12 Jun 2027 11:34:43.860   12 Jun 2027 11:34:53.463             9.603           663.125
       377   12 Jun 2027 11:35:23.978   12 Jun 2027 11:35:28.181             4.203           906.563
       378   12 Jun 2027 11:35:46.557   12 Jun 2027 11:35:48.393             1.836           175.531
       379   12 Jun 2027 11:36:02.395   12 Jun 2027 11:36:04.368             1.973           254.156
       380   12 Jun 2027 11:36:32.280   12 Jun 2027 11:36:40.023             7.743           784.469
       381   12 Jun 2027 11:37:03.681   12 Jun 2027 11:37:07.526             3.845           739.313
       382   13 Jun 2027 03:53:19.340   13 Jun 2027 03:53:21.606             2.266          1133.000
       383   13 Jun 2027 03:54:19.833   13 Jun 2027 03:57:46.962           207.129        103564.500
       384   13 Jun 2027 04:00:52.646   13 Jun 2027 04:00:56.732             4.086          2043.000
       385   13 Jun 2027 05:31:28.582   13 Jun 2027 05:32:07.603            39.021         19510.500
       386   13 Jun 2027 05:32:29.735   13 Jun 2027 05:33:29.230            59.495         28417.219
       387   13 Jun 2027 05:35:01.248   13 Jun 2027 05:35:01.481             0.233           116.500
       388   13 Jun 2027 06:55:29.592   13 Jun 2027 06:55:42.906            13.314          6205.406
       389   13 Jun 2027 06:55:51.105   13 Jun 2027 06:55:51.105             0.000             0.000
       390   13 Jun 2027 06:56:03.118   13 Jun 2027 06:56:05.532             2.414           631.625
       391   13 Jun 2027 06:57:28.138   13 Jun 2027 06:57:31.296             3.158          1579.000
       392   13 Jun 2027 06:57:52.177   13 Jun 2027 06:57:56.032             3.855          1562.500
       393   13 Jun 2027 08:31:19.264   13 Jun 2027 08:31:24.348             5.084          1798.937
       394   13 Jun 2027 08:33:08.175   13 Jun 2027 08:33:16.800             8.625          3056.781
       395   13 Jun 2027 08:33:23.766   13 Jun 2027 08:33:24.334             0.568           217.688
       396   13 Jun 2027 08:34:01.250   13 Jun 2027 08:34:03.021             1.771           687.875
       397   13 Jun 2027 08:35:20.211   13 Jun 2027 08:35:20.678             0.467           233.500
       398   13 Jun 2027 10:06:15.286   13 Jun 2027 10:06:22.270             6.984          2363.969
       399   13 Jun 2027 10:07:51.168   13 Jun 2027 10:07:59.083             7.915          2223.156
       400   13 Jun 2027 10:08:58.467   13 Jun 2027 10:09:01.865             3.398          1065.750
       401   13 Jun 2027 10:11:42.543   13 Jun 2027 10:11:55.015            12.472          4556.937
       402   13 Jun 2027 10:12:50.667   13 Jun 2027 10:12:52.093             1.426           258.344
       403   13 Jun 2027 11:42:34.276   13 Jun 2027 11:42:48.628            14.352          5755.406
       404   13 Jun 2027 11:44:33.961   13 Jun 2027 11:44:37.600             3.639          1684.438
       405   13 Jun 2027 11:45:02.591   13 Jun 2027 11:45:03.491             0.900           450.000
       406   13 Jun 2027 11:45:21.752   13 Jun 2027 11:45:25.918             4.166           901.625
       407   13 Jun 2027 11:46:04.593   13 Jun 2027 11:46:08.494             3.901           877.406
       408   13 Jun 2027 11:46:48.293   13 Jun 2027 11:46:50.346             2.053           918.656
       409   13 Jun 2027 11:47:31.149   13 Jun 2027 11:47:34.487             3.338           593.281
       410   13 Jun 2027 11:47:52.935   13 Jun 2027 11:47:54.497             1.562           494.188
       411   13 Jun 2027 11:48:22.073   13 Jun 2027 11:48:23.848             1.775           777.813
       412   13 Jun 2027 11:48:28.904   13 Jun 2027 11:48:29.982             1.078           158.000
       413   13 Jun 2027 11:48:39.867   13 Jun 2027 11:48:42.334             2.467           305.375
