uniorb/output/strategy_4/Camera/Camera_KinoSat_111104.txt

KinoSat_111104
-------------------------
    Access    *     Start Time (UTCG)     *     Stop Time (UTCG)  *   Duration (s) *   Data (Mbytes)
         1   01 Jun 2027 03:33:33.071   01 Jun 2027 03:34:44.165            71.094         35547.000
         2   01 Jun 2027 03:45:07.447   01 Jun 2027 03:46:22.875            75.428         37714.000
         3   01 Jun 2027 05:07:44.926   01 Jun 2027 05:08:43.256            58.330         29165.000
         4   01 Jun 2027 05:09:30.696   01 Jun 2027 05:09:42.649            11.953          5976.500
         5   01 Jun 2027 05:09:47.412   01 Jun 2027 05:09:47.412             0.000             0.000
         6   01 Jun 2027 05:09:50.519   01 Jun 2027 05:10:00.197             9.678          4839.000
         7   01 Jun 2027 05:12:17.982   01 Jun 2027 05:12:19.017             1.035           517.500
         8   01 Jun 2027 06:42:53.890   01 Jun 2027 06:44:07.564            73.674         36837.000
         9   01 Jun 2027 06:44:36.534   01 Jun 2027 06:45:00.546            24.012         12006.000
        10   01 Jun 2027 06:46:08.845   01 Jun 2027 06:46:19.931            11.086          5543.000
        11   01 Jun 2027 06:46:27.301   01 Jun 2027 06:46:28.817             1.516           758.000
        12   01 Jun 2027 06:47:46.887   01 Jun 2027 06:47:49.283             2.396          1198.000
        13   01 Jun 2027 06:48:26.148   01 Jun 2027 06:48:26.148             0.000             0.000
        14   01 Jun 2027 06:48:35.213   01 Jun 2027 06:48:42.291             7.078          3539.000
        15   01 Jun 2027 06:49:03.621   01 Jun 2027 06:49:12.117             8.496          4248.000
        16   01 Jun 2027 08:19:40.819   01 Jun 2027 08:21:28.571           107.752         53876.000
        17   01 Jun 2027 08:22:10.137   01 Jun 2027 08:22:24.085            13.948          6974.000
        18   01 Jun 2027 08:22:46.120   01 Jun 2027 08:22:47.912             1.792           896.000
        19   01 Jun 2027 08:25:23.490   01 Jun 2027 08:25:46.128            22.638         11319.000
        20   01 Jun 2027 08:26:16.189   01 Jun 2027 08:26:27.538            11.349          5674.500
        21   01 Jun 2027 08:27:00.153   01 Jun 2027 08:27:07.285             7.132          3566.000
        22   01 Jun 2027 09:56:41.840   01 Jun 2027 09:59:12.263           150.423         75211.500
        23   01 Jun 2027 10:00:22.682   01 Jun 2027 10:00:32.591             9.909          4954.500
        24   01 Jun 2027 10:00:37.276   01 Jun 2027 10:00:40.523             3.247          1623.500
        25   01 Jun 2027 10:02:32.096   01 Jun 2027 10:02:32.282             0.186            93.000
        26   01 Jun 2027 11:34:35.593   01 Jun 2027 11:37:03.736           148.143         74071.500
        27   02 Jun 2027 03:44:52.888   02 Jun 2027 03:45:13.638            20.750         10375.000
        28   02 Jun 2027 03:46:23.140   02 Jun 2027 03:46:32.481             9.341          4670.500
        29   02 Jun 2027 03:57:06.549   02 Jun 2027 03:58:04.779            58.230         29115.000
        30   02 Jun 2027 05:19:20.808   02 Jun 2027 05:20:28.266            67.458         33729.000
        31   02 Jun 2027 05:21:16.784   02 Jun 2027 05:22:07.311            50.527         25263.500
        32   02 Jun 2027 06:54:13.947   02 Jun 2027 06:56:21.675           127.728         63864.000
        33   02 Jun 2027 06:56:24.564   02 Jun 2027 06:57:24.698            60.134         30067.000
        34   02 Jun 2027 06:58:07.774   02 Jun 2027 06:58:18.724            10.950          5475.000
        35   02 Jun 2027 06:59:33.341   02 Jun 2027 06:59:46.744            13.403          6701.500
        36   02 Jun 2027 07:01:05.060   02 Jun 2027 07:01:11.508             6.448          3224.000
        37   02 Jun 2027 07:01:38.016   02 Jun 2027 07:01:38.016             0.000             0.000
        38   02 Jun 2027 08:31:48.590   02 Jun 2027 08:34:48.619           180.029         90014.500
        39   02 Jun 2027 08:36:35.888   02 Jun 2027 08:37:21.096            45.208         22604.000
        40   02 Jun 2027 08:37:56.695   02 Jun 2027 08:38:13.136            16.441          8220.500
        41   02 Jun 2027 08:38:56.505   02 Jun 2027 08:39:10.904            14.399          7199.500
        42   02 Jun 2027 10:08:31.499   02 Jun 2027 10:09:05.976            34.477         15678.906
        43   02 Jun 2027 10:11:40.924   02 Jun 2027 10:11:42.590             1.666           641.969
        44   02 Jun 2027 10:12:20.388   02 Jun 2027 10:12:26.065             5.677           685.281
        45   02 Jun 2027 10:12:42.172   02 Jun 2027 10:12:43.704             1.532            52.188
        46   02 Jun 2027 10:13:20.229   02 Jun 2027 10:13:23.692             3.463          1077.813
        47   02 Jun 2027 10:14:12.084   02 Jun 2027 10:14:16.116             4.032          1512.250
        48   02 Jun 2027 10:14:34.321   02 Jun 2027 10:14:38.931             4.610           239.344
        49   02 Jun 2027 10:14:54.894   02 Jun 2027 10:14:59.343             4.449           498.844
        50   02 Jun 2027 11:46:35.491   02 Jun 2027 11:46:48.012            12.521          5431.281
        51   02 Jun 2027 11:47:22.615   02 Jun 2027 11:47:26.631             4.016           591.719
        52   02 Jun 2027 11:48:45.166   02 Jun 2027 11:48:46.380             1.214           576.719
        53   02 Jun 2027 11:49:36.666   02 Jun 2027 11:49:38.127             1.461           646.875
        54   02 Jun 2027 11:50:01.722   02 Jun 2027 11:50:07.234             5.512           737.344
        55   02 Jun 2027 11:50:29.950   02 Jun 2027 11:50:33.458             3.508           155.188
        56   02 Jun 2027 11:50:38.769   02 Jun 2027 11:50:39.413             0.644           151.281
        57   03 Jun 2027 03:56:58.664   03 Jun 2027 03:57:07.827             9.163          4581.500
        58   03 Jun 2027 03:57:48.716   03 Jun 2027 03:57:48.716             0.000             0.000
        59   03 Jun 2027 03:57:50.742   03 Jun 2027 03:58:12.762            22.020         11010.000
        60   03 Jun 2027 04:09:22.083   03 Jun 2027 04:09:39.253            17.170          8585.000
        61   03 Jun 2027 05:30:49.587   03 Jun 2027 05:33:21.365           151.778         75889.000
        62   03 Jun 2027 05:35:52.431   03 Jun 2027 05:36:11.643            19.212          9606.000
        63   03 Jun 2027 07:05:43.846   03 Jun 2027 07:07:41.557           117.711         57647.594
        64   03 Jun 2027 07:08:03.692   03 Jun 2027 07:08:05.058             1.366           463.812
        65   03 Jun 2027 07:08:41.651   03 Jun 2027 07:08:44.724             3.073           979.875
        66   03 Jun 2027 07:10:09.446   03 Jun 2027 07:10:14.460             5.014          1694.563
        67   03 Jun 2027 07:11:23.104   03 Jun 2027 07:11:28.562             5.458          2012.031
        68   03 Jun 2027 07:12:28.414   03 Jun 2027 07:12:37.108             8.694          1728.094
        69   03 Jun 2027 07:12:43.941   03 Jun 2027 07:12:43.941             0.000             0.000
        70   03 Jun 2027 07:13:28.053   03 Jun 2027 07:13:31.803             3.750          1592.031
        71   03 Jun 2027 08:43:43.683   03 Jun 2027 08:43:54.460            10.777          5015.813
        72   03 Jun 2027 08:44:07.859   03 Jun 2027 08:44:12.119             4.260           113.250
        73   03 Jun 2027 08:45:53.439   03 Jun 2027 08:45:55.310             1.871           319.281
        74   03 Jun 2027 08:47:52.857   03 Jun 2027 08:47:58.404             5.547          2367.531
        75   03 Jun 2027 08:49:27.620   03 Jun 2027 08:49:30.166             2.546           813.531
        76   03 Jun 2027 08:50:30.476   03 Jun 2027 08:50:35.444             4.968           949.094
        77   03 Jun 2027 08:50:50.785   03 Jun 2027 08:50:52.317             1.532           259.844
        78   03 Jun 2027 10:20:39.420   03 Jun 2027 10:20:39.961             0.541           270.500
        79   03 Jun 2027 10:21:09.219   03 Jun 2027 10:21:24.848            15.629          6520.063
        80   03 Jun 2027 10:24:53.592   03 Jun 2027 10:24:56.380             2.788           621.500
        81   03 Jun 2027 10:25:08.212   03 Jun 2027 10:25:08.739             0.527            61.531
        82   03 Jun 2027 10:26:28.993   03 Jun 2027 10:26:35.143             6.150          2091.281
        83   03 Jun 2027 10:26:53.116   03 Jun 2027 10:26:58.003             4.887           284.781
        84   03 Jun 2027 11:58:13.005   03 Jun 2027 11:58:30.002            16.997          7627.781
        85   04 Jun 2027 04:08:54.918   04 Jun 2027 04:09:27.339            32.421         16210.500
        86   04 Jun 2027 04:09:46.109   04 Jun 2027 04:09:46.109             0.000             0.000
        87   04 Jun 2027 05:45:07.810   04 Jun 2027 05:47:41.568           153.758         76879.000
        88   04 Jun 2027 05:47:46.883   04 Jun 2027 05:47:57.512            10.629          5314.500
        89   04 Jun 2027 07:18:39.626   04 Jun 2027 07:20:50.043           130.417         63286.687
        90   04 Jun 2027 07:21:09.632   04 Jun 2027 07:21:11.046             1.414           416.844
        91   04 Jun 2027 07:21:20.849   04 Jun 2027 07:21:20.849             0.000             0.000
        92   04 Jun 2027 07:21:48.668   04 Jun 2027 07:21:56.487             7.819          1175.688
        93   04 Jun 2027 07:22:23.686   04 Jun 2027 07:22:28.733             5.047           849.969
        94   04 Jun 2027 07:23:14.323   04 Jun 2027 07:23:14.323             0.000             0.000
        95   04 Jun 2027 07:24:19.501   04 Jun 2027 07:24:25.936             6.435          2591.000
        96   04 Jun 2027 07:25:33.526   04 Jun 2027 07:25:39.843             6.317          1821.656
        97   04 Jun 2027 07:25:48.446   04 Jun 2027 07:25:52.661             4.215           236.813
        98   04 Jun 2027 07:26:17.846   04 Jun 2027 07:26:20.114             2.268            42.125
        99   04 Jun 2027 07:27:13.275   04 Jun 2027 07:27:14.253             0.978           489.000
       100   04 Jun 2027 08:56:05.655   04 Jun 2027 08:56:17.890            12.235          4162.875
       101   04 Jun 2027 08:57:56.308   04 Jun 2027 08:57:57.329             1.021           472.156
       102   04 Jun 2027 08:58:35.196   04 Jun 2027 08:58:36.648             1.452           466.562
       103   04 Jun 2027 08:59:24.977   04 Jun 2027 08:59:25.352             0.375           100.406
       104   04 Jun 2027 08:59:57.239   04 Jun 2027 09:00:00.419             3.180           996.469
       105   04 Jun 2027 09:01:25.337   04 Jun 2027 09:01:28.187             2.850           450.656
       106   04 Jun 2027 09:02:28.093   04 Jun 2027 09:02:31.092             2.999           421.781
       107   04 Jun 2027 09:02:33.420   04 Jun 2027 09:02:36.486             3.066            72.750
       108   04 Jun 2027 10:33:08.432   04 Jun 2027 10:33:26.543            18.111          6893.656
       109   04 Jun 2027 10:35:18.440   04 Jun 2027 10:35:22.097             3.657           335.000
       110   04 Jun 2027 10:36:29.673   04 Jun 2027 10:36:30.549             0.876           340.188
       111   04 Jun 2027 10:36:42.973   04 Jun 2027 10:36:43.797             0.824            89.219
       112   04 Jun 2027 10:37:04.939   04 Jun 2027 10:37:05.703             0.764           371.781
       113   04 Jun 2027 10:37:08.204   04 Jun 2027 10:37:10.272             2.068            78.156
       114   04 Jun 2027 10:37:44.542   04 Jun 2027 10:37:45.545             1.003           431.969
       115   04 Jun 2027 10:38:30.637   04 Jun 2027 10:38:35.684             5.047          1373.812
       116   05 Jun 2027 03:00:00.000   05 Jun 2027 03:00:42.581            42.581         21290.500
       117   05 Jun 2027 03:01:22.481   05 Jun 2027 03:01:28.763             6.282          3141.000
       118   05 Jun 2027 04:20:46.678   05 Jun 2027 04:21:23.900            37.222         18611.000
       119   05 Jun 2027 04:21:42.586   05 Jun 2027 04:21:48.283             5.697          2848.500
       120   05 Jun 2027 04:21:50.405   05 Jun 2027 04:21:53.968             3.563          1781.500
       121   05 Jun 2027 05:57:13.338   05 Jun 2027 05:59:53.800           160.462         80231.000
       122   05 Jun 2027 07:29:22.848   05 Jun 2027 07:29:32.801             9.953          4976.500
       123   05 Jun 2027 07:31:17.987   05 Jun 2027 07:32:33.081            75.094         35413.094
       124   05 Jun 2027 07:33:01.139   05 Jun 2027 07:33:02.090             0.951           377.250
       125   05 Jun 2027 07:33:15.249   05 Jun 2027 07:33:15.850             0.601            53.125
       126   05 Jun 2027 07:33:58.245   05 Jun 2027 07:34:04.330             6.085           192.781
       127   05 Jun 2027 07:35:30.640   05 Jun 2027 07:35:35.819             5.179          1894.187
       128   05 Jun 2027 07:36:01.132   05 Jun 2027 07:36:07.762             6.630           275.562
       129   05 Jun 2027 07:37:34.819   05 Jun 2027 07:37:41.726             6.907          2325.406
       130   05 Jun 2027 07:37:51.764   05 Jun 2027 07:37:52.824             1.060           313.688
       131   05 Jun 2027 07:38:14.039   05 Jun 2027 07:38:17.401             3.362           429.500
       132   05 Jun 2027 07:39:06.031   05 Jun 2027 07:39:09.008             2.977           888.938
       133   05 Jun 2027 09:08:16.934   05 Jun 2027 09:08:29.875            12.941          5782.187
       134   05 Jun 2027 09:13:15.809   05 Jun 2027 09:13:16.793             0.984           288.281
       135   05 Jun 2027 09:14:16.796   05 Jun 2027 09:14:20.627             3.831          1721.156
       136   05 Jun 2027 09:14:56.267   05 Jun 2027 09:15:00.890             4.623           234.219
       137   05 Jun 2027 10:45:20.782   05 Jun 2027 10:45:35.914            15.132          7560.594
       138   05 Jun 2027 10:48:06.644   05 Jun 2027 10:48:11.323             4.679          2039.156
       139   05 Jun 2027 10:48:18.912   05 Jun 2027 10:48:20.256             1.344           220.219
       140   05 Jun 2027 10:48:48.221   05 Jun 2027 10:48:51.027             2.806           384.969
       141   05 Jun 2027 10:48:54.998   05 Jun 2027 10:48:57.139             2.141           124.094
       142   05 Jun 2027 10:49:13.443   05 Jun 2027 10:49:14.265             0.822           369.719
       143   05 Jun 2027 10:49:23.125   05 Jun 2027 10:49:32.333             9.208           276.875
       144   05 Jun 2027 10:50:08.943   05 Jun 2027 10:50:11.406             2.463          1144.062
       145   06 Jun 2027 03:09:55.643   06 Jun 2027 03:11:20.809            85.166         42583.000
       146   06 Jun 2027 03:11:57.871   06 Jun 2027 03:12:25.600            27.729         13864.500
       147   06 Jun 2027 03:13:22.055   06 Jun 2027 03:13:29.368             7.313          3656.500
       148   06 Jun 2027 04:32:52.228   06 Jun 2027 04:33:32.530            40.302         20151.000
       149   06 Jun 2027 04:33:50.778   06 Jun 2027 04:33:56.418             5.640          2820.000
       150   06 Jun 2027 04:35:22.636   06 Jun 2027 04:35:41.738            19.102          9551.000
       151   06 Jun 2027 04:35:53.633   06 Jun 2027 04:35:54.311             0.678           339.000
       152   06 Jun 2027 06:09:21.005   06 Jun 2027 06:11:24.643           123.638         61819.000
       153   06 Jun 2027 06:11:56.515   06 Jun 2027 06:12:03.893             7.378          1333.937
       154   06 Jun 2027 06:12:20.303   06 Jun 2027 06:12:20.303             0.000             0.000
       155   06 Jun 2027 06:12:26.875   06 Jun 2027 06:12:27.424             0.549           274.500
       156   06 Jun 2027 07:44:28.634   06 Jun 2027 07:44:35.212             6.578          3276.594
       157   06 Jun 2027 07:45:35.303   06 Jun 2027 07:45:45.971            10.668           984.312
       158   06 Jun 2027 07:45:55.954   06 Jun 2027 07:45:56.773             0.819            14.281
       159   06 Jun 2027 07:46:39.066   06 Jun 2027 07:46:41.750             2.684          1230.906
       160   06 Jun 2027 07:47:37.280   06 Jun 2027 07:47:37.854             0.574           286.125
       161   06 Jun 2027 07:48:10.428   06 Jun 2027 07:48:16.039             5.611           209.938
       162   06 Jun 2027 07:49:42.121   06 Jun 2027 07:49:46.873             4.752          2213.969
       163   06 Jun 2027 07:50:31.417   06 Jun 2027 07:50:34.707             3.290          1137.625
       164   06 Jun 2027 07:50:56.229   06 Jun 2027 07:50:58.038             1.809            85.406
       165   06 Jun 2027 09:20:50.271   06 Jun 2027 09:21:05.045            14.774          4933.562
       166   06 Jun 2027 09:22:40.661   06 Jun 2027 09:22:48.164             7.503          1719.375
       167   06 Jun 2027 09:22:57.643   06 Jun 2027 09:22:58.305             0.662           209.344
       168   06 Jun 2027 09:23:50.426   06 Jun 2027 09:23:53.381             2.955          1053.688
       169   06 Jun 2027 09:25:41.504   06 Jun 2027 09:25:53.677            12.173          1716.188
       170   06 Jun 2027 09:26:29.327   06 Jun 2027 09:26:32.699             3.372           709.500
       171   06 Jun 2027 10:58:15.986   06 Jun 2027 10:58:28.527            12.541          5752.094
       172   06 Jun 2027 10:59:48.939   06 Jun 2027 10:59:54.097             5.158           168.938
       173   06 Jun 2027 11:00:09.711   06 Jun 2027 11:00:15.025             5.314           333.500
       174   06 Jun 2027 11:01:22.155   06 Jun 2027 11:01:28.962             6.807          2061.219
       175   06 Jun 2027 11:02:29.656   06 Jun 2027 11:02:34.423             4.767          1669.594
       176   06 Jun 2027 11:02:39.050   06 Jun 2027 11:02:40.479             1.429           144.594
       177   07 Jun 2027 03:21:27.264   07 Jun 2027 03:22:04.976            37.712         18856.000
       178   07 Jun 2027 03:22:17.399   07 Jun 2027 03:24:07.471           110.072         55036.000
       179   07 Jun 2027 03:24:31.553   07 Jun 2027 03:25:01.931            30.378         15189.000
       180   07 Jun 2027 04:44:55.189   07 Jun 2027 04:45:30.946            35.757         17878.500
       181   07 Jun 2027 04:46:40.006   07 Jun 2027 04:46:48.742             8.736          4368.000
       182   07 Jun 2027 04:47:16.543   07 Jun 2027 04:47:32.126            15.583          7791.500
       183   07 Jun 2027 04:47:46.524   07 Jun 2027 04:47:58.219            11.695          5847.500
       184   07 Jun 2027 06:21:24.019   07 Jun 2027 06:22:23.562            59.543         29771.500
       185   07 Jun 2027 06:22:29.953   07 Jun 2027 06:22:30.693             0.740           347.438
       186   07 Jun 2027 06:22:45.264   07 Jun 2027 06:22:52.221             6.957           179.188
       187   07 Jun 2027 06:23:18.518   07 Jun 2027 06:23:22.058             3.540           101.781
       188   07 Jun 2027 06:23:55.087   07 Jun 2027 06:23:57.377             2.290           761.219
       189   07 Jun 2027 06:24:27.782   07 Jun 2027 06:24:29.223             1.441           720.500
       190   07 Jun 2027 07:56:35.629   07 Jun 2027 07:56:42.450             6.821          2730.687
       191   07 Jun 2027 07:57:58.887   07 Jun 2027 07:58:03.516             4.629          2123.250
       192   07 Jun 2027 07:59:09.215   07 Jun 2027 07:59:12.420             3.205          1375.406
       193   07 Jun 2027 07:59:24.518   07 Jun 2027 07:59:26.265             1.747             5.656
       194   07 Jun 2027 08:00:06.080   07 Jun 2027 08:00:09.854             3.774          1069.844
       195   07 Jun 2027 08:01:41.977   07 Jun 2027 08:01:53.253            11.276          2157.500
       196   07 Jun 2027 08:02:48.643   07 Jun 2027 08:02:52.244             3.601          1577.469
       197   07 Jun 2027 09:32:31.531   07 Jun 2027 09:32:42.618            11.087          5486.969
       198   07 Jun 2027 09:35:10.205   07 Jun 2027 09:35:12.345             2.140           987.656
       199   07 Jun 2027 09:35:46.882   07 Jun 2027 09:35:49.938             3.056           548.688
       200   07 Jun 2027 09:35:51.719   07 Jun 2027 09:35:54.686             2.967            42.594
       201   07 Jun 2027 09:36:11.592   07 Jun 2027 09:36:13.283             1.691           447.656
       202   07 Jun 2027 09:37:26.483   07 Jun 2027 09:37:27.800             1.317           533.438
       203   07 Jun 2027 09:37:55.678   07 Jun 2027 09:37:58.522             2.844           533.812
       204   07 Jun 2027 11:10:23.408   07 Jun 2027 11:10:33.750            10.342          4913.156
       205   07 Jun 2027 11:12:41.953   07 Jun 2027 11:12:43.944             1.991           173.313
       206   07 Jun 2027 11:13:53.600   07 Jun 2027 11:13:55.907             2.307           194.625
       207   07 Jun 2027 11:14:32.886   07 Jun 2027 11:14:36.164             3.278             4.031
       208   08 Jun 2027 03:33:24.700   08 Jun 2027 03:36:59.695           214.995        107497.500
       209   08 Jun 2027 04:57:21.879   08 Jun 2027 04:57:39.857            17.978          8989.000
       210   08 Jun 2027 06:33:08.075   08 Jun 2027 06:34:30.836            82.761         40820.125
       211   08 Jun 2027 06:35:12.869   08 Jun 2027 06:35:14.085             1.216           608.000
       212   08 Jun 2027 06:36:27.031   08 Jun 2027 06:36:33.532             6.501          2965.562
       213   08 Jun 2027 08:07:51.117   08 Jun 2027 08:07:54.608             3.491          1745.500
       214   08 Jun 2027 08:08:18.665   08 Jun 2027 08:08:21.409             2.744          1154.031
       215   08 Jun 2027 08:08:49.356   08 Jun 2027 08:09:04.616            15.260           529.656
       216   08 Jun 2027 08:10:29.255   08 Jun 2027 08:10:35.273             6.018           872.594
       217   08 Jun 2027 08:11:13.536   08 Jun 2027 08:11:13.536             0.000             0.000
       218   08 Jun 2027 08:11:42.684   08 Jun 2027 08:11:47.531             4.847          1151.875
       219   08 Jun 2027 08:12:37.131   08 Jun 2027 08:12:41.400             4.269           904.156
       220   08 Jun 2027 08:14:01.192   08 Jun 2027 08:14:06.188             4.996           624.969
       221   08 Jun 2027 08:14:45.117   08 Jun 2027 08:14:49.673             4.556            56.000
       222   08 Jun 2027 09:44:37.285   08 Jun 2027 09:44:50.112            12.827          5108.063
       223   08 Jun 2027 09:47:24.032   08 Jun 2027 09:47:25.190             1.158           368.594
       224   08 Jun 2027 09:48:23.224   08 Jun 2027 09:48:23.673             0.449           134.625
       225   08 Jun 2027 09:48:59.900   08 Jun 2027 09:49:03.642             3.742          1114.000
       226   08 Jun 2027 09:49:34.718   08 Jun 2027 09:49:35.664             0.946           127.594
       227   08 Jun 2027 09:49:49.100   08 Jun 2027 09:49:52.175             3.075            52.656
       228   08 Jun 2027 11:22:53.016   08 Jun 2027 11:23:06.124            13.108          6304.469
       229   08 Jun 2027 11:23:46.472   08 Jun 2027 11:23:48.884             2.412           652.031
       230   08 Jun 2027 11:25:05.517   08 Jun 2027 11:25:07.972             2.455            92.000
       231   08 Jun 2027 11:26:09.388   08 Jun 2027 11:26:13.881             4.493          1919.250
       232   08 Jun 2027 11:26:23.827   08 Jun 2027 11:26:25.172             1.345            31.938
       233   08 Jun 2027 11:26:42.180   08 Jun 2027 11:26:44.218             2.038           395.656
       234   09 Jun 2027 03:33:46.801   09 Jun 2027 03:33:58.457            11.656          5828.000
       235   09 Jun 2027 03:34:55.753   09 Jun 2027 03:34:59.185             3.432          1716.000
       236   09 Jun 2027 03:45:23.003   09 Jun 2027 03:46:51.021            88.018         44009.000
       237   09 Jun 2027 05:07:59.183   09 Jun 2027 05:08:58.127            58.944         29472.000
       238   09 Jun 2027 05:09:37.624   09 Jun 2027 05:10:02.664            25.040         12520.000
       239   09 Jun 2027 05:11:50.112   09 Jun 2027 05:12:03.344            13.232          6616.000
       240   09 Jun 2027 06:43:08.978   09 Jun 2027 06:44:23.151            74.173         37086.500
       241   09 Jun 2027 06:44:51.507   09 Jun 2027 06:45:34.905            43.398         20064.688
       242   09 Jun 2027 06:45:57.089   09 Jun 2027 06:46:01.061             3.972           274.156
       243   09 Jun 2027 06:46:36.085   09 Jun 2027 06:46:39.425             3.340           926.906
       244   09 Jun 2027 06:46:58.340   09 Jun 2027 06:46:58.340             0.000             0.000
       245   09 Jun 2027 06:48:06.708   09 Jun 2027 06:48:13.216             6.508          2628.781
       246   09 Jun 2027 06:49:18.732   09 Jun 2027 06:49:18.732             0.000             0.000
       247   09 Jun 2027 08:19:56.853   09 Jun 2027 08:20:05.382             8.529          2930.156
       248   09 Jun 2027 08:20:21.176   09 Jun 2027 08:20:22.677             1.501           493.563
       249   09 Jun 2027 08:22:01.428   09 Jun 2027 08:22:08.837             7.409          2226.031
       250   09 Jun 2027 08:23:23.879   09 Jun 2027 08:23:26.633             2.754           653.281
       251   09 Jun 2027 08:24:55.184   09 Jun 2027 08:24:57.269             2.085           864.313
       252   09 Jun 2027 08:25:43.884   09 Jun 2027 08:25:48.030             4.146          1382.844
       253   09 Jun 2027 08:26:31.059   09 Jun 2027 08:26:40.341             9.282           843.281
       254   09 Jun 2027 09:56:57.774   09 Jun 2027 09:57:06.874             9.100          4502.187
       255   09 Jun 2027 09:59:30.104   09 Jun 2027 09:59:34.424             4.320          2092.562
       256   09 Jun 2027 09:59:44.757   09 Jun 2027 09:59:45.416             0.659           322.906
       257   09 Jun 2027 10:00:03.189   09 Jun 2027 10:00:04.864             1.675           522.187
       258   09 Jun 2027 10:00:26.128   09 Jun 2027 10:00:31.946             5.818           655.938
       259   09 Jun 2027 10:00:43.916   09 Jun 2027 10:00:46.213             2.297           163.469
       260   09 Jun 2027 10:00:49.316   09 Jun 2027 10:00:49.685             0.369            64.312
       261   09 Jun 2027 10:01:16.633   09 Jun 2027 10:01:18.761             2.128           591.312
       262   09 Jun 2027 10:01:28.700   09 Jun 2027 10:01:30.209             1.509            72.219
       263   09 Jun 2027 10:02:02.577   09 Jun 2027 10:02:05.205             2.628           892.437
       264   09 Jun 2027 10:02:26.006   09 Jun 2027 10:02:28.601             2.595           148.219
       265   09 Jun 2027 11:34:51.176   09 Jun 2027 11:35:04.518            13.342          5143.250
       266   09 Jun 2027 11:35:38.105   09 Jun 2027 11:35:42.229             4.124           640.406
       267   09 Jun 2027 11:36:11.490   09 Jun 2027 11:36:17.157             5.667           818.469
       268   09 Jun 2027 11:37:13.350   09 Jun 2027 11:37:17.637             4.287           532.406
       269   09 Jun 2027 11:38:01.514   09 Jun 2027 11:38:05.918             4.404          1009.531
       270   09 Jun 2027 11:38:17.823   09 Jun 2027 11:38:21.756             3.933           263.469
       271   09 Jun 2027 11:38:41.234   09 Jun 2027 11:38:44.574             3.340           383.344
       272   10 Jun 2027 03:45:08.327   10 Jun 2027 03:45:28.351            20.024         10012.000
       273   10 Jun 2027 03:45:59.993   10 Jun 2027 03:45:59.993             0.000             0.000
       274   10 Jun 2027 03:57:22.078   10 Jun 2027 03:58:19.694            57.616         28808.000
       275   10 Jun 2027 05:19:34.868   10 Jun 2027 05:20:43.853            68.985         34492.500
       276   10 Jun 2027 05:21:31.738   10 Jun 2027 05:22:44.345            72.607         36303.500
       277   10 Jun 2027 06:54:28.664   10 Jun 2027 06:56:10.318           101.654         50736.781
       278   10 Jun 2027 06:56:46.374   10 Jun 2027 06:56:54.095             7.721          1126.750
       279   10 Jun 2027 06:57:23.770   10 Jun 2027 06:57:26.618             2.848           919.875
       280   10 Jun 2027 06:57:49.258   10 Jun 2027 06:57:53.900             4.642           119.813
       281   10 Jun 2027 06:58:08.895   10 Jun 2027 06:58:10.770             1.875           269.906
       282   10 Jun 2027 06:58:19.551   10 Jun 2027 06:58:19.551             0.000             0.000
       283   10 Jun 2027 06:59:49.036   10 Jun 2027 06:59:56.607             7.571          2916.750
       284   10 Jun 2027 07:01:04.735   10 Jun 2027 07:01:08.682             3.947          1715.750
       285   10 Jun 2027 07:01:26.321   10 Jun 2027 07:01:27.802             1.481           347.219
       286   10 Jun 2027 07:02:32.481   10 Jun 2027 07:02:36.023             3.542          1080.188
       287   10 Jun 2027 08:32:03.636   10 Jun 2027 08:32:12.840             9.204          3760.281
       288   10 Jun 2027 08:32:53.549   10 Jun 2027 08:32:58.033             4.484           940.719
       289   10 Jun 2027 08:33:46.610   10 Jun 2027 08:33:50.431             3.821           314.188
       290   10 Jun 2027 08:34:33.896   10 Jun 2027 08:34:36.563             2.667          1125.156
       291   10 Jun 2027 08:35:03.887   10 Jun 2027 08:35:04.830             0.943           166.188
       292   10 Jun 2027 08:35:40.328   10 Jun 2027 08:35:41.963             1.635           322.531
       293   10 Jun 2027 08:36:11.529   10 Jun 2027 08:36:16.387             4.858           817.781
       294   10 Jun 2027 08:36:26.754   10 Jun 2027 08:36:27.886             1.132           223.469
       295   10 Jun 2027 08:36:55.409   10 Jun 2027 08:36:58.825             3.416           492.594
       296   10 Jun 2027 08:37:43.738   10 Jun 2027 08:37:48.186             4.448          1065.062
       297   10 Jun 2027 08:38:11.323   10 Jun 2027 08:38:13.252             1.929           142.375
       298   10 Jun 2027 08:39:11.541   10 Jun 2027 08:39:15.070             3.529          1254.875
       299   10 Jun 2027 08:39:25.932   10 Jun 2027 08:39:26.406             0.474           237.000
       300   10 Jun 2027 10:08:46.844   10 Jun 2027 10:08:58.628            11.784          5309.750
       301   10 Jun 2027 10:09:48.630   10 Jun 2027 10:09:51.405             2.775          1165.531
       302   10 Jun 2027 10:10:20.067   10 Jun 2027 10:10:28.767             8.700           631.781
       303   10 Jun 2027 10:11:29.072   10 Jun 2027 10:11:37.785             8.713          1566.625
       304   10 Jun 2027 10:11:54.038   10 Jun 2027 10:11:55.124             1.086           496.844
       305   10 Jun 2027 10:12:21.415   10 Jun 2027 10:12:22.076             0.661           240.375
       306   10 Jun 2027 10:12:58.316   10 Jun 2027 10:13:01.005             2.689           875.125
       307   10 Jun 2027 10:13:36.623   10 Jun 2027 10:13:39.082             2.459          1091.437
       308   10 Jun 2027 10:14:26.466   10 Jun 2027 10:14:31.602             5.136          1480.750
       309   10 Jun 2027 10:14:50.948   10 Jun 2027 10:14:52.930             1.982           282.469
       310   10 Jun 2027 10:15:09.860   10 Jun 2027 10:15:11.397             1.537           448.438
       311   10 Jun 2027 11:46:50.527   10 Jun 2027 11:47:12.826            22.299          6772.281
       312   10 Jun 2027 11:48:54.597   10 Jun 2027 11:48:59.930             5.333          2112.156
       313   10 Jun 2027 11:49:34.411   10 Jun 2027 11:49:37.777             3.366           506.406
       314   10 Jun 2027 11:50:08.828   10 Jun 2027 11:50:10.049             1.221           551.594
       315   10 Jun 2027 11:50:52.696   10 Jun 2027 11:50:56.696             4.000          1183.094
       316   11 Jun 2027 03:57:13.702   11 Jun 2027 03:57:22.655             8.953          4476.500
       317   11 Jun 2027 03:58:01.127   11 Jun 2027 03:58:01.127             0.000             0.000
       318   11 Jun 2027 03:58:35.430   11 Jun 2027 03:58:48.102            12.672          6336.000
       319   11 Jun 2027 04:09:42.859   11 Jun 2027 04:09:54.057            11.198          5599.000
       320   11 Jun 2027 05:31:04.267   11 Jun 2027 05:33:51.762           167.495         83747.500
       321   11 Jun 2027 05:34:03.949   11 Jun 2027 05:34:05.573             1.624           812.000
       322   11 Jun 2027 05:35:45.568   11 Jun 2027 05:36:04.994            19.426          9713.000
       323   11 Jun 2027 07:05:59.095   11 Jun 2027 07:07:47.904           108.809         53671.062
       324   11 Jun 2027 07:08:21.420   11 Jun 2027 07:08:24.756             3.336           517.469
       325   11 Jun 2027 07:08:57.865   11 Jun 2027 07:09:06.597             8.732           988.125
       326   11 Jun 2027 07:10:25.991   11 Jun 2027 07:10:30.012             4.021          1650.531
       327   11 Jun 2027 07:11:48.782   11 Jun 2027 07:12:00.638            11.856          2263.094
       328   11 Jun 2027 07:12:44.336   11 Jun 2027 07:12:54.819            10.483           983.719
       329   11 Jun 2027 07:13:01.340   11 Jun 2027 07:13:01.765             0.425           203.781
       330   11 Jun 2027 07:13:26.767   11 Jun 2027 07:13:26.767             0.000             0.000
       331   11 Jun 2027 07:13:54.072   11 Jun 2027 07:13:55.968             1.896           948.000
       332   11 Jun 2027 07:14:31.129   11 Jun 2027 07:14:32.487             1.358           679.000
       333   11 Jun 2027 07:14:55.462   11 Jun 2027 07:14:58.479             3.017          1338.281
       334   11 Jun 2027 08:43:59.398   11 Jun 2027 08:44:11.131            11.733          5141.781
       335   11 Jun 2027 08:44:59.494   11 Jun 2027 08:45:08.576             9.082          1063.813
       336   11 Jun 2027 08:46:11.635   11 Jun 2027 08:46:14.946             3.311           373.406
       337   11 Jun 2027 08:48:01.808   11 Jun 2027 08:48:03.229             1.421           430.031
       338   11 Jun 2027 08:48:28.370   11 Jun 2027 08:48:30.214             1.844           491.781
       339   11 Jun 2027 08:50:13.248   11 Jun 2027 08:50:16.387             3.139           958.469
       340   11 Jun 2027 08:50:58.251   11 Jun 2027 08:51:00.573             2.322           926.719
       341   11 Jun 2027 10:20:53.910   11 Jun 2027 10:21:07.984            14.074          5643.406
       342   11 Jun 2027 10:23:45.147   11 Jun 2027 10:23:46.427             1.280           572.406
       343   11 Jun 2027 10:24:49.873   11 Jun 2027 10:24:55.761             5.888          1341.750
       344   11 Jun 2027 10:25:39.119   11 Jun 2027 10:25:41.368             2.249           843.375
       345   11 Jun 2027 10:25:51.568   11 Jun 2027 10:25:55.564             3.996            28.594
       346   11 Jun 2027 10:26:45.499   11 Jun 2027 10:26:51.780             6.281           956.375
       347   11 Jun 2027 10:27:08.058   11 Jun 2027 10:27:14.668             6.610           234.625
       348   11 Jun 2027 11:58:28.043   11 Jun 2027 11:58:37.505             9.462          4470.937
       349   12 Jun 2027 04:09:10.536   12 Jun 2027 04:09:42.212            31.676         15838.000
       350   12 Jun 2027 04:10:02.867   12 Jun 2027 04:10:06.673             3.806          1903.000
       351   12 Jun 2027 05:45:22.332   12 Jun 2027 05:47:57.354           155.022         77511.000
       352   12 Jun 2027 05:48:02.151   12 Jun 2027 05:48:08.065             5.914          2957.000
       353   12 Jun 2027 07:18:55.663   12 Jun 2027 07:21:06.270           130.607         62492.875
       354   12 Jun 2027 07:21:26.078   12 Jun 2027 07:21:28.133             2.055           420.406
       355   12 Jun 2027 07:22:06.923   12 Jun 2027 07:22:12.257             5.334           970.750
       356   12 Jun 2027 07:22:40.232   12 Jun 2027 07:22:40.232             0.000             0.000
       357   12 Jun 2027 07:23:13.374   12 Jun 2027 07:23:14.621             1.247           623.500
       358   12 Jun 2027 07:23:29.569   12 Jun 2027 07:23:34.325             4.756          1724.719
       359   12 Jun 2027 07:24:15.753   12 Jun 2027 07:24:15.753             0.000             0.000
       360   12 Jun 2027 07:24:25.469   12 Jun 2027 07:24:28.910             3.441          1174.344
       361   12 Jun 2027 07:25:23.426   12 Jun 2027 07:25:29.629             6.203          1459.219
       362   12 Jun 2027 07:26:02.199   12 Jun 2027 07:26:02.199             0.000             0.000
       363   12 Jun 2027 07:26:32.249   12 Jun 2027 07:26:35.120             2.871          1389.750
       364   12 Jun 2027 07:27:28.574   12 Jun 2027 07:27:29.582             1.008           504.000
       365   12 Jun 2027 08:56:21.523   12 Jun 2027 08:56:34.317            12.794          5508.406
       366   12 Jun 2027 08:58:14.482   12 Jun 2027 08:58:15.841             1.359           507.219
       367   12 Jun 2027 09:00:51.029   12 Jun 2027 09:00:54.537             3.508           402.812
       368   12 Jun 2027 09:01:24.821   12 Jun 2027 09:01:25.858             1.037           352.094
       369   12 Jun 2027 09:01:40.264   12 Jun 2027 09:01:47.451             7.187           450.187
       370   12 Jun 2027 09:02:43.487   12 Jun 2027 09:02:46.028             2.541           464.156
       371   12 Jun 2027 10:33:23.335   12 Jun 2027 10:33:42.464            19.129          6518.656
       372   12 Jun 2027 10:35:32.469   12 Jun 2027 10:35:34.122             1.653           288.625
       373   12 Jun 2027 10:36:53.431   12 Jun 2027 10:36:54.267             0.836           384.344
       374   12 Jun 2027 10:37:08.829   12 Jun 2027 10:37:10.153             1.324           339.562
       375   12 Jun 2027 10:37:18.414   12 Jun 2027 10:37:18.944             0.530            95.750
       376   12 Jun 2027 10:37:42.060   12 Jun 2027 10:37:48.089             6.029           695.500
       377   12 Jun 2027 10:38:26.348   12 Jun 2027 10:38:34.357             8.009          1073.156
       378   12 Jun 2027 10:38:52.873   12 Jun 2027 10:38:54.350             1.477           218.594
       379   12 Jun 2027 10:39:05.182   12 Jun 2027 10:39:10.209             5.027             3.125
       380   13 Jun 2027 03:00:00.000   13 Jun 2027 03:00:03.266             3.266          1633.000
       381   13 Jun 2027 03:00:08.137   13 Jun 2027 03:00:25.676            17.539          8769.500
       382   13 Jun 2027 03:02:12.857   13 Jun 2027 03:02:14.945             2.088          1044.000
       383   13 Jun 2027 04:21:01.344   13 Jun 2027 04:21:56.921            55.577         27788.500
       384   13 Jun 2027 05:57:28.880   13 Jun 2027 05:59:59.371           150.491         75245.500
       385   13 Jun 2027 06:00:11.236   13 Jun 2027 06:00:12.937             1.701           850.500
       386   13 Jun 2027 06:00:42.917   13 Jun 2027 06:00:58.010            15.093          7546.500
       387   13 Jun 2027 07:29:39.350   13 Jun 2027 07:29:46.295             6.945          3472.500
       388   13 Jun 2027 07:31:34.268   13 Jun 2027 07:32:46.033            71.765         35840.938
       389   13 Jun 2027 07:33:17.752   13 Jun 2027 07:33:19.860             2.108           398.594
       390   13 Jun 2027 07:33:31.462   13 Jun 2027 07:33:32.103             0.641            92.625
       391   13 Jun 2027 07:34:14.918   13 Jun 2027 07:34:19.362             4.444           143.437
       392   13 Jun 2027 07:35:46.241   13 Jun 2027 07:35:52.418             6.177          1860.281
       393   13 Jun 2027 07:36:18.504   13 Jun 2027 07:36:18.504             0.000             0.000
       394   13 Jun 2027 07:36:48.668   13 Jun 2027 07:36:52.521             3.853          1252.719
       395   13 Jun 2027 07:37:58.027   13 Jun 2027 07:38:00.180             2.153          1068.156
       396   13 Jun 2027 07:38:16.674   13 Jun 2027 07:38:18.081             1.407           216.125
       397   13 Jun 2027 07:38:54.227   13 Jun 2027 07:38:56.710             2.483           952.469
       398   13 Jun 2027 07:39:24.260   13 Jun 2027 07:39:25.459             1.199            52.563
       399   13 Jun 2027 09:08:32.252   13 Jun 2027 09:08:44.550            12.298          4806.750
       400   13 Jun 2027 09:12:33.382   13 Jun 2027 09:12:38.563             5.181           591.219
       401   13 Jun 2027 09:13:19.750   13 Jun 2027 09:13:24.492             4.742          1165.937
       402   13 Jun 2027 09:13:36.609   13 Jun 2027 09:13:40.067             3.458           130.750
       403   13 Jun 2027 09:15:03.609   13 Jun 2027 09:15:08.202             4.593           977.469
       404   13 Jun 2027 10:45:41.752   13 Jun 2027 10:45:55.045            13.293          5249.031
       405   13 Jun 2027 10:48:22.346   13 Jun 2027 10:48:26.801             4.455          2001.750
       406   13 Jun 2027 10:48:35.501   13 Jun 2027 10:48:36.647             1.146           253.562
       407   13 Jun 2027 10:48:50.986   13 Jun 2027 10:48:53.352             2.366           369.000
       408   13 Jun 2027 10:49:06.532   13 Jun 2027 10:49:10.754             4.222            16.937
       409   13 Jun 2027 10:49:29.474   13 Jun 2027 10:49:31.391             1.917           359.938
       410   13 Jun 2027 10:49:39.369   13 Jun 2027 10:49:45.478             6.109           206.656
       411   13 Jun 2027 10:50:27.942   13 Jun 2027 10:50:31.057             3.115          1247.906
