uniorb/output/strategy_4/Camera/Camera_KinoSat_111903.txt

KinoSat_111903
-------------------------
    Access    *     Start Time (UTCG)     *     Stop Time (UTCG)  *   Duration (s) *   Data (Mbytes)
         1   01 Jun 2027 03:20:00.432   01 Jun 2027 03:22:12.552           132.120         66060.000
         2   01 Jun 2027 03:23:45.783   01 Jun 2027 03:23:49.250             3.467          1733.500
         3   01 Jun 2027 03:24:31.186   01 Jun 2027 03:24:32.517             1.331           665.500
         4   01 Jun 2027 03:25:47.434   01 Jun 2027 03:26:13.193            25.759         12879.500
         5   01 Jun 2027 04:58:08.455   01 Jun 2027 04:59:10.388            61.933         30966.500
         6   01 Jun 2027 04:59:16.876   01 Jun 2027 04:59:41.370            24.494         12247.000
         7   01 Jun 2027 05:03:09.118   01 Jun 2027 05:03:19.710            10.592          5296.000
         8   01 Jun 2027 06:36:27.026   01 Jun 2027 06:36:59.241            32.215         16107.500
         9   01 Jun 2027 06:37:16.080   01 Jun 2027 06:38:17.602            61.522         30761.000
        10   01 Jun 2027 06:38:47.278   01 Jun 2027 06:38:54.661             7.383          3691.500
        11   01 Jun 2027 07:59:49.511   01 Jun 2027 08:02:19.292           149.781         74890.500
        12   01 Jun 2027 09:36:21.440   01 Jun 2027 09:36:39.703            18.263          9131.500
        13   01 Jun 2027 09:38:37.476   01 Jun 2027 09:39:20.672            43.196         21598.000
        14   01 Jun 2027 11:11:31.326   01 Jun 2027 11:11:54.896            23.570         11785.000
        15   01 Jun 2027 11:17:58.175   01 Jun 2027 11:18:07.675             9.500          4750.000
        16   02 Jun 2027 03:31:57.786   02 Jun 2027 03:34:26.280           148.494         74247.000
        17   02 Jun 2027 03:34:51.633   02 Jun 2027 03:35:07.567            15.934          7967.000
        18   02 Jun 2027 03:35:31.479   02 Jun 2027 03:35:41.285             9.806          4903.000
        19   02 Jun 2027 03:38:42.152   02 Jun 2027 03:38:53.421            11.269          5634.500
        20   02 Jun 2027 05:11:15.141   02 Jun 2027 05:14:40.194           205.053        102526.500
        21   02 Jun 2027 05:18:14.690   02 Jun 2027 05:19:12.465            57.775         28887.500
        22   02 Jun 2027 06:48:23.427   02 Jun 2027 06:49:03.043            39.616         19808.000
        23   02 Jun 2027 06:49:23.244   02 Jun 2027 06:51:47.388           144.144         72072.000
        24   02 Jun 2027 08:12:25.318   02 Jun 2027 08:14:32.567           127.249         63624.500
        25   02 Jun 2027 09:48:14.649   02 Jun 2027 09:49:00.439            45.790         20189.500
        26   02 Jun 2027 09:50:28.504   02 Jun 2027 09:50:30.323             1.819           909.500
        27   02 Jun 2027 09:50:35.921   02 Jun 2027 09:50:39.717             3.796           543.594
        28   02 Jun 2027 11:23:10.673   02 Jun 2027 11:23:17.896             7.223          3414.531
        29   02 Jun 2027 11:25:03.719   02 Jun 2027 11:25:03.719             0.000             0.000
        30   02 Jun 2027 11:26:01.494   02 Jun 2027 11:26:11.165             9.671          4409.125
        31   02 Jun 2027 11:29:31.657   02 Jun 2027 11:29:45.152            13.495          6265.375
        32   02 Jun 2027 11:29:49.888   02 Jun 2027 11:29:58.570             8.682           108.656
        33   03 Jun 2027 03:44:38.171   03 Jun 2027 03:46:19.139           100.968         50484.000
        34   03 Jun 2027 03:46:50.857   03 Jun 2027 03:46:55.976             5.119          2559.500
        35   03 Jun 2027 03:50:59.897   03 Jun 2027 03:51:09.312             9.415          4707.500
        36   03 Jun 2027 05:23:19.250   03 Jun 2027 05:25:34.573           135.323         67661.500
        37   03 Jun 2027 05:27:03.672   03 Jun 2027 05:27:10.770             7.098          3549.000
        38   03 Jun 2027 05:29:31.452   03 Jun 2027 05:30:49.587            78.135         34815.032
        39   03 Jun 2027 06:49:10.941   03 Jun 2027 06:49:22.409            11.468          5401.625
        40   03 Jun 2027 06:49:53.035   03 Jun 2027 06:49:53.035             0.000             0.000
        41   03 Jun 2027 07:00:19.653   03 Jun 2027 07:00:26.333             6.680          2378.438
        42   03 Jun 2027 07:01:26.846   03 Jun 2027 07:01:28.174             1.328           396.219
        43   03 Jun 2027 08:22:58.391   03 Jun 2027 08:23:08.755            10.364          4928.844
        44   03 Jun 2027 08:24:10.046   03 Jun 2027 08:24:16.317             6.271           771.406
        45   03 Jun 2027 08:24:56.006   03 Jun 2027 08:24:58.169             2.163           906.031
        46   03 Jun 2027 08:26:26.296   03 Jun 2027 08:26:32.489             6.193          2341.219
        47   03 Jun 2027 08:26:40.173   03 Jun 2027 08:26:40.173             0.000             0.000
        48   03 Jun 2027 09:58:33.473   03 Jun 2027 09:58:39.560             6.087          2441.156
        49   03 Jun 2027 09:59:58.890   03 Jun 2027 10:00:03.346             4.456           946.250
        50   03 Jun 2027 10:01:39.335   03 Jun 2027 10:01:48.610             9.275          1698.250
        51   03 Jun 2027 10:03:01.643   03 Jun 2027 10:03:04.163             2.520           641.219
        52   03 Jun 2027 10:03:41.989   03 Jun 2027 10:03:43.886             1.897           785.375
        53   03 Jun 2027 10:04:28.306   03 Jun 2027 10:04:30.807             2.501           180.000
        54   03 Jun 2027 11:34:44.208   03 Jun 2027 11:34:55.949            11.741          3164.062
        55   03 Jun 2027 11:38:11.070   03 Jun 2027 11:38:22.957            11.887          5355.906
        56   03 Jun 2027 11:39:29.755   03 Jun 2027 11:39:33.536             3.781          1427.375
        57   03 Jun 2027 11:40:29.908   03 Jun 2027 11:40:33.097             3.189            81.500
        58   03 Jun 2027 11:41:16.643   03 Jun 2027 11:41:18.942             2.299          1091.281
        59   03 Jun 2027 11:42:03.402   03 Jun 2027 11:42:08.111             4.709           815.906
        60   04 Jun 2027 03:56:44.226   04 Jun 2027 04:00:00.247           196.021         98010.500
        61   04 Jun 2027 04:00:24.515   04 Jun 2027 04:00:49.868            25.353         12676.500
        62   04 Jun 2027 04:01:37.101   04 Jun 2027 04:01:38.717             1.616           808.000
        63   04 Jun 2027 04:01:59.163   04 Jun 2027 04:02:09.919            10.756          5378.000
        64   04 Jun 2027 04:02:23.963   04 Jun 2027 04:02:25.850             1.887           943.500
        65   04 Jun 2027 05:35:48.546   04 Jun 2027 05:37:31.786           103.240         51407.250
        66   04 Jun 2027 05:37:50.557   04 Jun 2027 05:37:51.697             1.140           517.031
        67   04 Jun 2027 05:41:15.283   04 Jun 2027 05:41:36.016            20.733          3990.000
        68   04 Jun 2027 07:00:40.620   04 Jun 2027 07:00:53.276            12.656          6328.000
        69   04 Jun 2027 07:01:25.532   04 Jun 2027 07:01:27.993             2.461          1142.062
        70   04 Jun 2027 07:12:22.976   04 Jun 2027 07:12:29.887             6.911          3452.969
        71   04 Jun 2027 08:34:36.522   04 Jun 2027 08:35:00.079            23.557          9762.344
        72   04 Jun 2027 08:35:26.402   04 Jun 2027 08:35:33.773             7.371           350.281
        73   04 Jun 2027 08:37:11.115   04 Jun 2027 08:37:20.553             9.438          1994.250
        74   04 Jun 2027 08:38:35.323   04 Jun 2027 08:38:43.281             7.958          2055.781
        75   04 Jun 2027 08:39:30.831   04 Jun 2027 08:39:35.052             4.221          1485.937
        76   04 Jun 2027 10:09:39.635   04 Jun 2027 10:09:45.172             5.537          2075.781
        77   04 Jun 2027 10:10:35.719   04 Jun 2027 10:10:42.593             6.874           686.187
        78   04 Jun 2027 10:11:43.623   04 Jun 2027 10:11:49.104             5.481          1586.687
        79   04 Jun 2027 10:12:43.077   04 Jun 2027 10:12:44.502             1.425           557.375
        80   04 Jun 2027 10:13:01.231   04 Jun 2027 10:13:07.222             5.991           386.813
        81   04 Jun 2027 10:14:42.110   04 Jun 2027 10:14:49.669             7.559          2480.438
        82   04 Jun 2027 10:15:57.097   04 Jun 2027 10:15:59.868             2.771           797.781
        83   04 Jun 2027 10:16:17.660   04 Jun 2027 10:16:17.660             0.000             0.000
        84   04 Jun 2027 11:49:16.049   04 Jun 2027 11:49:37.943            21.894         10865.125
        85   04 Jun 2027 11:53:14.084   04 Jun 2027 11:53:29.153            15.069          5940.906
        86   04 Jun 2027 11:53:37.841   04 Jun 2027 11:53:39.356             1.515            85.906
        87   05 Jun 2027 04:09:04.695   05 Jun 2027 04:09:19.859            15.164          7582.000
        88   05 Jun 2027 04:12:48.842   05 Jun 2027 04:14:12.786            83.944         41972.000
        89   05 Jun 2027 05:47:50.811   05 Jun 2027 05:49:47.461           116.650         58325.000
        90   05 Jun 2027 05:51:14.238   05 Jun 2027 05:51:34.273            20.035         10017.500
        91   05 Jun 2027 05:52:41.000   05 Jun 2027 05:54:12.930            91.930         45829.750
        92   05 Jun 2027 07:12:11.311   05 Jun 2027 07:12:26.958            15.647          7009.938
        93   05 Jun 2027 07:13:22.752   05 Jun 2027 07:13:22.752             0.000             0.000
        94   05 Jun 2027 07:14:11.147   05 Jun 2027 07:14:22.201            11.054          3255.906
        95   05 Jun 2027 07:24:25.352   05 Jun 2027 07:24:34.502             9.150          2980.500
        96   05 Jun 2027 08:46:20.285   05 Jun 2027 08:46:40.971            20.686         10116.531
        97   05 Jun 2027 08:48:23.453   05 Jun 2027 08:48:27.794             4.341          1698.187
        98   05 Jun 2027 08:49:27.806   05 Jun 2027 08:49:30.539             2.733           865.844
        99   05 Jun 2027 08:51:06.540   05 Jun 2027 08:51:13.192             6.652          2944.844
       100   05 Jun 2027 08:51:27.550   05 Jun 2027 08:51:29.721             2.171           180.344
       101   05 Jun 2027 10:21:08.210   05 Jun 2027 10:21:13.342             5.132          2206.469
       102   05 Jun 2027 10:23:19.835   05 Jun 2027 10:23:25.435             5.600           406.875
       103   05 Jun 2027 10:24:40.126   05 Jun 2027 10:24:44.772             4.646          1758.406
       104   05 Jun 2027 10:26:42.597   05 Jun 2027 10:26:51.033             8.436          3252.500
       105   05 Jun 2027 10:28:15.407   05 Jun 2027 10:28:15.407             0.000             0.000
       106   05 Jun 2027 10:29:29.350   05 Jun 2027 10:29:34.295             4.945          2471.437
       107   05 Jun 2027 11:58:58.025   05 Jun 2027 11:59:04.575             6.550          3275.000
       108   06 Jun 2027 04:21:47.289   06 Jun 2027 04:23:01.004            73.715         36857.500
       109   06 Jun 2027 04:24:00.147   06 Jun 2027 04:24:51.557            51.410         25705.000
       110   06 Jun 2027 04:25:57.696   06 Jun 2027 04:26:00.094             2.398          1199.000
       111   06 Jun 2027 04:26:10.916   06 Jun 2027 04:26:10.916             0.000             0.000
       112   06 Jun 2027 04:26:54.380   06 Jun 2027 04:27:02.343             7.963          3981.500
       113   06 Jun 2027 06:00:14.682   06 Jun 2027 06:03:03.196           168.514         84257.000
       114   06 Jun 2027 06:03:43.378   06 Jun 2027 06:03:56.376            12.998          6499.000
       115   06 Jun 2027 06:04:03.334   06 Jun 2027 06:04:23.074            19.740          9241.218
       116   06 Jun 2027 06:05:03.250   06 Jun 2027 06:05:06.404             3.154          1182.062
       117   06 Jun 2027 07:24:10.364   06 Jun 2027 07:24:28.025            17.661          8124.125
       118   06 Jun 2027 07:25:10.944   06 Jun 2027 07:25:15.689             4.745          1062.125
       119   06 Jun 2027 07:26:23.626   06 Jun 2027 07:26:23.626             0.000             0.000
       120   06 Jun 2027 09:00:07.055   06 Jun 2027 09:00:29.696            22.641         11194.594
       121   06 Jun 2027 09:00:40.245   06 Jun 2027 09:00:42.585             2.340           246.187
       122   06 Jun 2027 09:01:46.645   06 Jun 2027 09:01:51.920             5.275          2001.875
       123   06 Jun 2027 09:03:02.848   06 Jun 2027 09:03:06.414             3.566           983.062
       124   06 Jun 2027 09:03:31.304   06 Jun 2027 09:03:33.538             2.234           748.063
       125   06 Jun 2027 10:33:56.724   06 Jun 2027 10:34:02.250             5.526          2211.156
       126   06 Jun 2027 10:35:57.279   06 Jun 2027 10:35:59.928             2.649           694.188
       127   06 Jun 2027 10:36:18.174   06 Jun 2027 10:36:20.776             2.602           178.344
       128   06 Jun 2027 10:38:42.504   06 Jun 2027 10:38:51.107             8.603          3956.687
       129   06 Jun 2027 10:39:56.972   06 Jun 2027 10:40:01.954             4.982           216.531
       130   06 Jun 2027 10:40:37.165   06 Jun 2027 10:40:44.394             7.229          1100.344
       131   06 Jun 2027 10:40:50.374   06 Jun 2027 10:40:51.620             1.246           186.875
       132   06 Jun 2027 10:41:52.255   06 Jun 2027 10:41:53.404             1.149             9.344
       133   06 Jun 2027 10:42:14.362   06 Jun 2027 10:42:19.583             5.221           455.000
       134   07 Jun 2027 03:00:00.000   07 Jun 2027 03:00:26.280            26.280         13140.000
       135   07 Jun 2027 03:01:09.563   07 Jun 2027 03:01:22.120            12.557          6278.500
       136   07 Jun 2027 04:34:32.128   07 Jun 2027 04:34:51.838            19.710          9855.000
       137   07 Jun 2027 04:35:07.135   07 Jun 2027 04:36:00.043            52.908         26454.000
       138   07 Jun 2027 04:36:01.838   07 Jun 2027 04:36:36.161            34.323         17161.500
       139   07 Jun 2027 04:37:44.870   07 Jun 2027 04:37:48.013             3.143          1571.500
       140   07 Jun 2027 04:39:56.751   07 Jun 2027 04:40:29.859            33.108         16554.000
       141   07 Jun 2027 06:12:40.264   07 Jun 2027 06:15:16.003           155.739         77326.969
       142   07 Jun 2027 06:16:56.303   07 Jun 2027 06:16:59.020             2.717           794.000
       143   07 Jun 2027 07:36:04.969   07 Jun 2027 07:36:22.244            17.275          6849.656
       144   07 Jun 2027 07:37:49.845   07 Jun 2027 07:37:54.871             5.026          2474.281
       145   07 Jun 2027 07:38:13.457   07 Jun 2027 07:38:14.787             1.330           390.125
       146   07 Jun 2027 09:12:29.070   07 Jun 2027 09:12:49.990            20.920          9216.313
       147   07 Jun 2027 09:13:18.299   07 Jun 2027 09:13:21.010             2.711           395.281
       148   07 Jun 2027 09:15:02.217   07 Jun 2027 09:15:07.805             5.588          2794.000
       149   07 Jun 2027 09:15:20.710   07 Jun 2027 09:15:26.901             6.191           420.844
       150   07 Jun 2027 10:46:17.182   07 Jun 2027 10:46:31.914            14.732          3490.531
       151   07 Jun 2027 10:48:30.042   07 Jun 2027 10:48:31.768             1.726           693.437
       152   07 Jun 2027 10:50:41.725   07 Jun 2027 10:50:48.353             6.628          2607.344
       153   07 Jun 2027 10:51:28.677   07 Jun 2027 10:51:33.102             4.425           874.156
       154   07 Jun 2027 10:52:08.838   07 Jun 2027 10:52:10.738             1.900           725.156
       155   07 Jun 2027 10:52:53.419   07 Jun 2027 10:52:56.659             3.240           656.844
       156   07 Jun 2027 10:54:26.264   07 Jun 2027 10:54:28.100             1.836           918.000
       157   08 Jun 2027 03:08:17.000   08 Jun 2027 03:08:31.363            14.363          7181.500
       158   08 Jun 2027 03:09:46.174   08 Jun 2027 03:10:33.967            47.793         23896.500
       159   08 Jun 2027 03:11:46.042   08 Jun 2027 03:12:01.242            15.200          7600.000
       160   08 Jun 2027 03:13:17.849   08 Jun 2027 03:13:25.097             7.248          3624.000
       161   08 Jun 2027 03:13:51.719   08 Jun 2027 03:13:59.560             7.841          3920.500
       162   08 Jun 2027 03:15:35.900   08 Jun 2027 03:15:42.183             6.283          3141.500
       163   08 Jun 2027 04:46:40.318   08 Jun 2027 04:47:31.744            51.426         25713.000
       164   08 Jun 2027 04:47:37.875   08 Jun 2027 04:48:18.183            40.308         20154.000
       165   08 Jun 2027 04:49:10.735   08 Jun 2027 04:51:25.191           134.456         67228.000
       166   08 Jun 2027 06:24:58.447   08 Jun 2027 06:25:27.888            29.441         14621.501
       167   08 Jun 2027 06:28:34.049   08 Jun 2027 06:28:35.828             1.779           396.594
       168   08 Jun 2027 06:28:36.330   08 Jun 2027 06:28:36.948             0.618            15.687
       169   08 Jun 2027 07:47:52.337   08 Jun 2027 07:48:06.003            13.666          6446.938
       170   08 Jun 2027 07:49:27.030   08 Jun 2027 07:49:36.374             9.344          2034.031
       171   08 Jun 2027 07:49:49.990   08 Jun 2027 07:49:50.362             0.372           174.719
       172   08 Jun 2027 09:24:32.554   08 Jun 2027 09:24:41.821             9.267          3323.563
       173   08 Jun 2027 09:25:35.224   08 Jun 2027 09:25:40.820             5.596           988.375
       174   08 Jun 2027 09:26:13.609   08 Jun 2027 09:26:15.306             1.697           848.500
       175   08 Jun 2027 09:27:07.766   08 Jun 2027 09:27:13.066             5.300          1777.469
       176   08 Jun 2027 10:59:31.837   08 Jun 2027 10:59:38.947             7.110          3478.469
       177   08 Jun 2027 11:00:45.937   08 Jun 2027 11:00:51.419             5.482           745.375
       178   08 Jun 2027 11:01:42.993   08 Jun 2027 11:01:45.936             2.943           289.906
       179   08 Jun 2027 11:02:55.689   08 Jun 2027 11:02:56.963             1.274           486.563
       180   08 Jun 2027 11:03:32.500   08 Jun 2027 11:03:32.500             0.000             0.000
       181   08 Jun 2027 11:05:32.383   08 Jun 2027 11:05:44.278            11.895          4689.812
       182   08 Jun 2027 11:06:17.302   08 Jun 2027 11:06:18.288             0.986           144.281
       183   09 Jun 2027 03:20:17.888   09 Jun 2027 03:21:05.714            47.826         23913.000
       184   09 Jun 2027 03:21:14.773   09 Jun 2027 03:23:26.749           131.976         65988.000
       185   09 Jun 2027 03:24:02.569   09 Jun 2027 03:24:24.216            21.647         10823.500
       186   09 Jun 2027 04:58:26.198   09 Jun 2027 04:59:27.355            61.157         30578.500
       187   09 Jun 2027 04:59:34.071   09 Jun 2027 05:00:41.298            67.227         33309.874
       188   09 Jun 2027 05:01:57.794   09 Jun 2027 05:02:09.772            11.978          1839.906
       189   09 Jun 2027 05:03:57.777   09 Jun 2027 05:04:01.869             4.092          1730.094
       190   09 Jun 2027 06:36:43.571   09 Jun 2027 06:36:54.033            10.462          4296.875
       191   09 Jun 2027 06:40:07.176   09 Jun 2027 06:40:09.062             1.886            51.469
       192   09 Jun 2027 06:40:28.282   09 Jun 2027 06:40:32.192             3.910           600.625
       193   09 Jun 2027 08:00:06.940   09 Jun 2027 08:00:20.900            13.960          6918.812
       194   09 Jun 2027 08:00:43.916   09 Jun 2027 08:00:45.656             1.740           181.031
       195   09 Jun 2027 08:01:08.595   09 Jun 2027 08:01:08.595             0.000             0.000
       196   09 Jun 2027 08:01:35.045   09 Jun 2027 08:01:38.608             3.563          1240.625
       197   09 Jun 2027 08:02:51.879   09 Jun 2027 08:02:53.357             1.478           739.000
       198   09 Jun 2027 09:36:39.183   09 Jun 2027 09:36:48.435             9.252          2249.813
       199   09 Jun 2027 09:38:09.553   09 Jun 2027 09:38:15.004             5.451          2054.313
       200   09 Jun 2027 09:38:32.680   09 Jun 2027 09:38:35.918             3.238           513.563
       201   09 Jun 2027 09:39:07.139   09 Jun 2027 09:39:18.517            11.378           434.781
       202   09 Jun 2027 09:39:39.067   09 Jun 2027 09:39:41.753             2.686           454.438
       203   09 Jun 2027 11:11:49.768   09 Jun 2027 11:11:55.554             5.786          2477.469
       204   09 Jun 2027 11:12:57.036   09 Jun 2027 11:12:57.036             0.000             0.000
       205   09 Jun 2027 11:13:30.508   09 Jun 2027 11:13:40.123             9.615          2476.031
       206   09 Jun 2027 11:15:12.694   09 Jun 2027 11:15:17.191             4.497          1220.219
       207   09 Jun 2027 11:18:06.837   09 Jun 2027 11:18:15.184             8.347          3907.750
       208   10 Jun 2027 03:32:15.174   10 Jun 2027 03:35:20.873           185.699         92849.500
       209   10 Jun 2027 03:36:52.493   10 Jun 2027 03:37:05.797            13.304          6652.000
       210   10 Jun 2027 03:37:52.758   10 Jun 2027 03:38:13.289            20.531         10265.500
       211   10 Jun 2027 05:11:32.925   10 Jun 2027 05:13:05.944            93.019         46057.844
       212   10 Jun 2027 05:15:12.829   10 Jun 2027 05:15:19.623             6.794          2314.875
       213   10 Jun 2027 05:18:02.868   10 Jun 2027 05:18:11.339             8.471          4235.500
       214   10 Jun 2027 05:18:30.035   10 Jun 2027 05:18:31.770             1.735           839.313
       215   10 Jun 2027 05:19:29.417   10 Jun 2027 05:19:29.787             0.370           185.000
       216   10 Jun 2027 06:48:40.545   10 Jun 2027 06:48:51.232            10.687          4746.625
       217   10 Jun 2027 06:50:25.568   10 Jun 2027 06:50:31.626             6.058           927.687
       218   10 Jun 2027 06:51:41.284   10 Jun 2027 06:51:43.930             2.646          1030.656
       219   10 Jun 2027 06:52:06.014   10 Jun 2027 06:52:07.430             1.416           125.875
       220   10 Jun 2027 08:12:08.556   10 Jun 2027 08:12:27.583            19.027          8501.500
       221   10 Jun 2027 08:12:40.027   10 Jun 2027 08:12:40.924             0.897           136.750
       222   10 Jun 2027 08:13:40.836   10 Jun 2027 08:13:47.199             6.363           925.469
       223   10 Jun 2027 09:48:31.517   10 Jun 2027 09:48:36.732             5.215          2524.906
       224   10 Jun 2027 09:50:49.513   10 Jun 2027 09:50:54.890             5.377          1321.250
       225   10 Jun 2027 09:50:57.773   10 Jun 2027 09:51:01.015             3.242            90.094
       226   10 Jun 2027 11:23:25.336   10 Jun 2027 11:23:34.293             8.957          2501.875
       227   10 Jun 2027 11:25:24.378   10 Jun 2027 11:25:32.164             7.786          2750.312
       228   10 Jun 2027 11:28:50.402   10 Jun 2027 11:29:00.537            10.135          4583.937
       229   10 Jun 2027 11:29:30.570   10 Jun 2027 11:29:33.075             2.505           746.031
       230   10 Jun 2027 11:30:05.680   10 Jun 2027 11:30:06.766             1.086           387.500
       231   11 Jun 2027 03:44:56.503   11 Jun 2027 03:46:34.280            97.777         48888.500
       232   11 Jun 2027 03:47:05.368   11 Jun 2027 03:47:10.055             4.687          2343.500
       233   11 Jun 2027 03:50:09.073   11 Jun 2027 03:51:20.575            71.502         35751.000
       234   11 Jun 2027 05:23:37.157   11 Jun 2027 05:25:49.434           132.277         66138.500
       235   11 Jun 2027 05:27:18.434   11 Jun 2027 05:27:25.727             7.293          3646.500
       236   11 Jun 2027 05:29:02.488   11 Jun 2027 05:29:15.575            13.087          6543.500
       237   11 Jun 2027 05:29:24.263   11 Jun 2027 05:29:26.886             2.623          1311.500
       238   11 Jun 2027 05:29:30.499   11 Jun 2027 05:29:31.510             1.011           183.281
       239   11 Jun 2027 05:29:49.183   11 Jun 2027 05:29:51.927             2.744           115.344
       240   11 Jun 2027 06:49:24.474   11 Jun 2027 06:49:33.500             9.026          4381.219
       241   11 Jun 2027 06:49:58.920   11 Jun 2027 06:50:05.294             6.374           691.250
       242   11 Jun 2027 07:00:37.389   11 Jun 2027 07:00:42.639             5.250          2071.250
       243   11 Jun 2027 08:23:14.218   11 Jun 2027 08:23:26.249            12.031          5900.813
       244   11 Jun 2027 08:24:16.861   11 Jun 2027 08:24:20.029             3.168          1462.656
       245   11 Jun 2027 08:24:32.085   11 Jun 2027 08:24:33.273             1.188           165.219
       246   11 Jun 2027 08:25:13.636   11 Jun 2027 08:25:24.200            10.564          1019.125
       247   11 Jun 2027 08:26:42.377   11 Jun 2027 08:26:47.831             5.454          2299.438
       248   11 Jun 2027 08:26:58.393   11 Jun 2027 08:27:00.906             2.513           180.781
       249   11 Jun 2027 09:58:48.749   11 Jun 2027 09:58:55.197             6.448          2017.094
       250   11 Jun 2027 10:01:55.014   11 Jun 2027 10:01:58.422             3.408          1647.625
       251   11 Jun 2027 10:03:20.914   11 Jun 2027 10:03:22.304             1.390           680.437
       252   11 Jun 2027 10:04:00.889   11 Jun 2027 10:04:04.848             3.959           760.781
       253   11 Jun 2027 11:35:01.449   11 Jun 2027 11:35:11.237             9.788          4118.531
       254   11 Jun 2027 11:37:14.645   11 Jun 2027 11:37:19.632             4.987           617.594
       255   11 Jun 2027 11:38:28.376   11 Jun 2027 11:38:30.438             2.062          1007.875
       256   11 Jun 2027 11:38:58.869   11 Jun 2027 11:39:01.238             2.369           888.469
       257   11 Jun 2027 11:41:54.542   11 Jun 2027 11:42:06.864            12.322          4501.281
       258   11 Jun 2027 11:42:29.724   11 Jun 2027 11:42:32.704             2.980           286.063
       259   12 Jun 2027 03:57:02.601   12 Jun 2027 03:59:39.250           156.649         78324.500
       260   12 Jun 2027 05:36:07.367   12 Jun 2027 05:38:00.805           113.438         56719.000
       261   12 Jun 2027 05:39:22.973   12 Jun 2027 05:39:38.550            15.577          7788.500
       262   12 Jun 2027 05:41:30.119   12 Jun 2027 05:42:15.723            45.604         21983.125
       263   12 Jun 2027 07:00:57.701   12 Jun 2027 07:01:10.421            12.720          6265.750
       264   12 Jun 2027 07:02:19.027   12 Jun 2027 07:02:25.802             6.775          2125.687
       265   12 Jun 2027 07:12:38.050   12 Jun 2027 07:12:44.706             6.656          2284.750
       266   12 Jun 2027 08:34:56.456   12 Jun 2027 08:35:17.655            21.199          9626.031
       267   12 Jun 2027 08:35:37.090   12 Jun 2027 08:35:38.784             1.694           252.875
       268   12 Jun 2027 08:37:28.482   12 Jun 2027 08:37:35.421             6.939          3210.375
       269   12 Jun 2027 08:38:51.816   12 Jun 2027 08:38:59.657             7.841          2021.625
       270   12 Jun 2027 08:39:48.131   12 Jun 2027 08:39:51.741             3.610          1457.719
       271   12 Jun 2027 10:09:55.595   12 Jun 2027 10:10:04.429             8.834          3884.344
       272   12 Jun 2027 10:11:01.878   12 Jun 2027 10:11:06.105             4.227           202.937
       273   12 Jun 2027 10:12:48.145   12 Jun 2027 10:12:56.542             8.397          1750.187
       274   12 Jun 2027 10:15:00.079   12 Jun 2027 10:15:10.973            10.894          3743.250
       275   12 Jun 2027 10:16:16.269   12 Jun 2027 10:16:19.448             3.179           870.500
       276   12 Jun 2027 11:50:32.967   12 Jun 2027 11:50:57.861            24.894         10909.687
       277   12 Jun 2027 11:51:41.496   12 Jun 2027 11:51:42.123             0.627           102.812
       278   12 Jun 2027 11:52:08.704   12 Jun 2027 11:52:10.728             2.024           477.219
       279   12 Jun 2027 11:52:39.817   12 Jun 2027 11:52:41.929             2.112           846.281
       280   12 Jun 2027 11:52:48.478   12 Jun 2027 11:52:49.694             1.216            91.844
       281   12 Jun 2027 11:53:37.934   12 Jun 2027 11:53:39.975             2.041           281.813
       282   12 Jun 2027 11:53:55.394   12 Jun 2027 11:53:56.290             0.896           173.344
       283   12 Jun 2027 11:54:39.736   12 Jun 2027 11:54:39.975             0.239           119.500
       284   13 Jun 2027 04:09:22.813   13 Jun 2027 04:10:28.514            65.701         32850.500
       285   13 Jun 2027 04:10:32.438   13 Jun 2027 04:11:22.774            50.336         25168.000
       286   13 Jun 2027 04:12:02.700   13 Jun 2027 04:12:28.364            25.664         12832.000
       287   13 Jun 2027 04:13:28.432   13 Jun 2027 04:13:30.781             2.349          1174.500
       288   13 Jun 2027 04:13:54.635   13 Jun 2027 04:14:09.669            15.034          7517.000
       289   13 Jun 2027 05:48:09.625   13 Jun 2027 05:50:02.117           112.492         56246.000
       290   13 Jun 2027 05:50:21.190   13 Jun 2027 05:51:16.191            55.001         27500.500
       291   13 Jun 2027 05:52:55.558   13 Jun 2027 05:53:09.399            13.841          5968.157
       292   13 Jun 2027 05:53:46.560   13 Jun 2027 05:53:48.110             1.550           460.219
       293   13 Jun 2027 07:12:30.004   13 Jun 2027 07:12:48.105            18.101          7213.969
       294   13 Jun 2027 07:14:29.168   13 Jun 2027 07:14:40.309            11.141          3016.094
       295   13 Jun 2027 07:24:46.200   13 Jun 2027 07:24:53.036             6.836          3307.188
       296   13 Jun 2027 08:46:36.459   13 Jun 2027 08:46:57.288            20.829          9934.344
       297   13 Jun 2027 08:49:17.681   13 Jun 2027 08:49:22.748             5.067          1745.937
       298   13 Jun 2027 08:50:20.725   13 Jun 2027 08:50:20.725             0.000             0.000
       299   13 Jun 2027 08:51:24.527   13 Jun 2027 08:51:36.815            12.288          3655.969
       300   13 Jun 2027 08:51:45.060   13 Jun 2027 08:51:51.448             6.388           257.656
       301   13 Jun 2027 10:21:23.716   13 Jun 2027 10:21:29.935             6.219          2703.063
       302   13 Jun 2027 10:23:26.414   13 Jun 2027 10:23:33.274             6.860          2107.969
       303   13 Jun 2027 10:24:02.897   13 Jun 2027 10:24:04.746             1.849           715.469
       304   13 Jun 2027 10:27:00.512   13 Jun 2027 10:27:12.386            11.874          3852.094
       305   13 Jun 2027 10:28:28.104   13 Jun 2027 10:28:34.874             6.770           845.687
       306   13 Jun 2027 10:29:47.281   13 Jun 2027 10:29:52.585             5.304          2262.719
       307   13 Jun 2027 10:30:10.362   13 Jun 2027 10:30:12.550             2.188            43.969
