uniorb/output/strategy_4/Camera/Camera_KinoSat_112002.txt

KinoSat_112002
-------------------------
    Access    *     Start Time (UTCG)     *     Stop Time (UTCG)  *   Duration (s) *   Data (Mbytes)
         1   01 Jun 2027 03:25:34.963   01 Jun 2027 03:26:55.288            80.325         40162.500
         2   01 Jun 2027 03:27:38.878   01 Jun 2027 03:27:50.323            11.445          5722.500
         3   01 Jun 2027 03:29:35.371   01 Jun 2027 03:30:36.608            61.237         30618.500
         4   01 Jun 2027 03:32:42.347   01 Jun 2027 03:32:51.201             8.854          4427.000
         5   01 Jun 2027 05:03:52.500   01 Jun 2027 05:04:16.135            23.635         11817.500
         6   01 Jun 2027 05:04:29.332   01 Jun 2027 05:05:14.206            44.874         22437.000
         7   01 Jun 2027 05:05:56.761   01 Jun 2027 05:06:20.684            23.923         11961.500
         8   01 Jun 2027 05:06:31.271   01 Jun 2027 05:06:38.330             7.059          3529.500
         9   01 Jun 2027 05:07:46.528   01 Jun 2027 05:07:49.406             2.878          1439.000
        10   01 Jun 2027 05:07:58.655   01 Jun 2027 05:08:02.084             3.429          1714.500
        11   01 Jun 2027 05:08:21.116   01 Jun 2027 05:08:31.653            10.537          5268.500
        12   01 Jun 2027 06:42:04.999   01 Jun 2027 06:43:46.745           101.746         50873.000
        13   01 Jun 2027 06:44:20.584   01 Jun 2027 06:44:32.049            11.465          5732.500
        14   01 Jun 2027 06:44:50.196   01 Jun 2027 06:44:58.322             8.126          4063.000
        15   01 Jun 2027 08:05:28.483   01 Jun 2027 08:06:55.769            87.286         43643.000
        16   01 Jun 2027 08:07:37.688   01 Jun 2027 08:07:55.694            18.006          9003.000
        17   01 Jun 2027 09:41:51.181   01 Jun 2027 09:42:32.443            41.262         20631.000
        18   01 Jun 2027 11:15:46.983   01 Jun 2027 11:17:45.204           118.221         59110.500
        19   01 Jun 2027 11:19:23.426   01 Jun 2027 11:19:57.988            34.562         17281.000
        20   01 Jun 2027 11:22:37.743   01 Jun 2027 11:22:51.155            13.412          6706.000
        21   01 Jun 2027 11:22:52.348   01 Jun 2027 11:23:23.992            31.644         15822.000
        22   01 Jun 2027 11:23:51.341   01 Jun 2027 11:23:53.567             2.226          1113.000
        23   02 Jun 2027 03:37:41.665   02 Jun 2027 03:38:00.405            18.740          9370.000
        24   02 Jun 2027 03:38:31.115   02 Jun 2027 03:38:57.097            25.982         12991.000
        25   02 Jun 2027 03:39:06.556   02 Jun 2027 03:39:31.020            24.464         12232.000
        26   02 Jun 2027 03:41:07.135   02 Jun 2027 03:41:33.157            26.022         13011.000
        27   02 Jun 2027 03:42:22.568   02 Jun 2027 03:43:52.169            89.601         44800.500
        28   02 Jun 2027 05:15:56.235   02 Jun 2027 05:16:57.254            61.019         30509.500
        29   02 Jun 2027 05:17:02.954   02 Jun 2027 05:18:22.137            79.183         39591.500
        30   02 Jun 2027 05:18:47.458   02 Jun 2027 05:19:42.225            54.767         27383.500
        31   02 Jun 2027 06:54:57.590   02 Jun 2027 06:57:42.475           164.885         82442.500
        32   02 Jun 2027 08:17:20.932   02 Jun 2027 08:20:05.070           164.138         82069.000
        33   02 Jun 2027 09:53:54.744   02 Jun 2027 09:55:03.639            68.895         31754.469
        34   02 Jun 2027 09:55:52.420   02 Jun 2027 09:55:54.670             2.250           850.344
        35   02 Jun 2027 09:56:58.593   02 Jun 2027 09:57:02.435             3.842          1912.156
        36   02 Jun 2027 11:29:03.716   02 Jun 2027 11:29:23.735            20.019          7429.156
        37   02 Jun 2027 11:35:02.288   02 Jun 2027 11:35:23.826            21.538         10332.219
        38   03 Jun 2027 03:49:39.904   03 Jun 2027 03:49:59.493            19.589          9794.500
        39   03 Jun 2027 03:50:35.271   03 Jun 2027 03:52:43.111           127.840         63920.000
        40   03 Jun 2027 05:27:53.008   03 Jun 2027 05:28:43.329            50.321         25160.500
        41   03 Jun 2027 05:28:59.721   03 Jun 2027 05:30:28.232            88.511         44255.500
        42   03 Jun 2027 05:30:50.579   03 Jun 2027 05:31:14.527            23.948         11974.000
        43   03 Jun 2027 05:31:53.030   03 Jun 2027 05:32:11.250            18.220          9110.000
        44   03 Jun 2027 07:06:08.197   03 Jun 2027 07:06:37.392            29.195         12041.125
        45   03 Jun 2027 07:07:06.776   03 Jun 2027 07:07:08.624             1.848           547.187
        46   03 Jun 2027 07:07:38.210   03 Jun 2027 07:07:41.557             3.347           680.344
        47   03 Jun 2027 07:09:05.794   03 Jun 2027 07:09:08.781             2.987           148.844
        48   03 Jun 2027 07:09:29.719   03 Jun 2027 07:09:32.252             2.533           363.594
        49   03 Jun 2027 08:29:30.601   03 Jun 2027 08:29:46.372            15.771          7025.313
        50   03 Jun 2027 08:30:38.826   03 Jun 2027 08:30:40.405             1.579           650.063
        51   03 Jun 2027 08:31:38.412   03 Jun 2027 08:31:41.305             2.893          1265.531
        52   03 Jun 2027 08:32:28.732   03 Jun 2027 08:32:32.466             3.734          1148.875
        53   03 Jun 2027 10:06:05.682   03 Jun 2027 10:06:16.151            10.469          3974.656
        54   03 Jun 2027 10:07:49.921   03 Jun 2027 10:07:57.044             7.123          2387.937
        55   03 Jun 2027 10:08:12.275   03 Jun 2027 10:08:15.349             3.074           328.906
        56   03 Jun 2027 11:41:38.109   03 Jun 2027 11:41:52.418            14.309          6691.313
        57   03 Jun 2027 11:44:10.176   03 Jun 2027 11:44:16.771             6.595          2194.969
        58   03 Jun 2027 11:46:55.133   03 Jun 2027 11:47:05.847            10.714          4542.125
        59   03 Jun 2027 11:47:16.290   03 Jun 2027 11:47:20.085             3.795           119.469
        60   03 Jun 2027 11:47:25.541   03 Jun 2027 11:47:27.097             1.556           106.656
        61   03 Jun 2027 11:47:39.862   03 Jun 2027 11:47:45.747             5.885            73.969
        62   03 Jun 2027 11:47:50.499   03 Jun 2027 11:47:51.607             1.108           148.500
        63   04 Jun 2027 04:01:41.106   04 Jun 2027 04:02:58.949            77.843         38921.500
        64   04 Jun 2027 04:04:21.924   04 Jun 2027 04:05:46.552            84.628         42314.000
        65   04 Jun 2027 04:06:09.023   04 Jun 2027 04:06:35.362            26.339         13169.500
        66   04 Jun 2027 05:40:58.716   04 Jun 2027 05:42:51.089           112.373         56186.500
        67   04 Jun 2027 05:43:14.188   04 Jun 2027 05:43:19.341             5.153          2576.500
        68   04 Jun 2027 05:43:52.903   04 Jun 2027 05:44:05.846            12.943          6471.500
        69   04 Jun 2027 05:47:51.556   04 Jun 2027 05:48:39.189            47.633         22899.219
        70   04 Jun 2027 07:18:04.928   04 Jun 2027 07:18:14.636             9.708          4854.000
        71   04 Jun 2027 07:18:48.646   04 Jun 2027 07:18:54.442             5.796          2427.844
        72   04 Jun 2027 07:21:17.309   04 Jun 2027 07:21:20.010             2.701           632.344
        73   04 Jun 2027 08:42:03.538   04 Jun 2027 08:42:27.538            24.000         10224.750
        74   04 Jun 2027 08:42:41.457   04 Jun 2027 08:42:42.737             1.280           126.250
        75   04 Jun 2027 08:44:23.556   04 Jun 2027 08:44:29.632             6.076          2658.281
        76   04 Jun 2027 10:17:53.532   04 Jun 2027 10:18:03.083             9.551          3388.813
        77   04 Jun 2027 10:19:39.811   04 Jun 2027 10:19:44.143             4.332          2088.031
        78   04 Jun 2027 10:20:44.413   04 Jun 2027 10:20:45.447             1.034           271.969
        79   04 Jun 2027 11:52:45.756   04 Jun 2027 11:52:51.598             5.842          2359.031
        80   04 Jun 2027 11:53:22.017   04 Jun 2027 11:53:23.092             1.075           247.906
        81   04 Jun 2027 11:59:30.810   04 Jun 2027 11:59:53.797            22.987         10618.281
        82   05 Jun 2027 04:14:21.905   05 Jun 2027 04:16:51.155           149.250         74625.000
        83   05 Jun 2027 04:18:19.416   05 Jun 2027 04:18:32.796            13.380          6690.000
        84   05 Jun 2027 05:53:07.497   05 Jun 2027 05:54:20.289            72.792         36396.000
        85   05 Jun 2027 05:55:40.540   05 Jun 2027 05:55:51.887            11.347          5673.500
        86   05 Jun 2027 05:56:57.067   05 Jun 2027 05:58:20.446            83.379         41689.500
        87   05 Jun 2027 05:58:41.958   05 Jun 2027 05:59:00.027            18.069          9034.500
        88   05 Jun 2027 05:59:36.747   05 Jun 2027 05:59:46.467             9.720          3623.313
        89   05 Jun 2027 07:18:44.089   05 Jun 2027 07:19:05.549            21.460          9883.781
        90   05 Jun 2027 07:19:46.081   05 Jun 2027 07:19:48.531             2.450          1222.656
        91   05 Jun 2027 07:30:03.251   05 Jun 2027 07:30:09.533             6.282          3043.000
        92   05 Jun 2027 08:52:38.771   05 Jun 2027 08:52:55.554            16.783          8331.813
        93   05 Jun 2027 08:53:23.015   05 Jun 2027 08:53:26.094             3.079           858.156
        94   05 Jun 2027 08:54:58.625   05 Jun 2027 08:55:05.423             6.798          2742.938
        95   05 Jun 2027 08:57:18.234   05 Jun 2027 08:57:20.109             1.875           937.500
        96   05 Jun 2027 10:28:09.770   05 Jun 2027 10:28:21.060            11.290          5471.156
        97   05 Jun 2027 10:30:31.732   05 Jun 2027 10:30:36.091             4.359          2073.438
        98   05 Jun 2027 10:33:03.085   05 Jun 2027 10:33:10.029             6.944          3034.375
        99   05 Jun 2027 10:33:35.034   05 Jun 2027 10:33:36.015             0.981           206.344
       100   06 Jun 2027 04:26:29.678   06 Jun 2027 04:26:36.370             6.692          3346.000
       101   06 Jun 2027 04:26:46.258   06 Jun 2027 04:27:42.476            56.218         28109.000
       102   06 Jun 2027 04:30:18.053   06 Jun 2027 04:30:25.093             7.040          3520.000
       103   06 Jun 2027 04:30:51.470   06 Jun 2027 04:31:02.852            11.382          5691.000
       104   06 Jun 2027 04:31:32.858   06 Jun 2027 04:31:54.140            21.282         10641.000
       105   06 Jun 2027 06:05:33.484   06 Jun 2027 06:09:21.185           227.701        113850.500
       106   06 Jun 2027 06:09:59.913   06 Jun 2027 06:10:11.235            11.322          2228.531
       107   06 Jun 2027 06:10:48.501   06 Jun 2027 06:10:53.247             4.746          1155.687
       108   06 Jun 2027 07:30:22.747   06 Jun 2027 07:30:35.007            12.260          6130.000
       109   06 Jun 2027 07:30:41.380   06 Jun 2027 07:30:42.151             0.771           252.281
       110   06 Jun 2027 07:30:55.429   06 Jun 2027 07:30:55.429             0.000             0.000
       111   06 Jun 2027 07:31:54.934   06 Jun 2027 07:31:57.318             2.384          1192.000
       112   06 Jun 2027 07:42:02.735   06 Jun 2027 07:42:07.075             4.340          2062.219
       113   06 Jun 2027 09:04:21.330   06 Jun 2027 09:04:48.829            27.499         13367.594
       114   06 Jun 2027 09:05:24.314   06 Jun 2027 09:05:26.530             2.216            98.875
       115   06 Jun 2027 09:06:16.372   06 Jun 2027 09:06:22.296             5.924          1094.187
       116   06 Jun 2027 09:06:46.019   06 Jun 2027 09:06:49.526             3.507           707.094
       117   06 Jun 2027 09:08:06.128   06 Jun 2027 09:08:10.468             4.340          2121.781
       118   06 Jun 2027 09:09:13.174   06 Jun 2027 09:09:17.181             4.007          1403.344
       119   06 Jun 2027 10:39:17.200   06 Jun 2027 10:39:21.838             4.638          2284.500
       120   06 Jun 2027 10:40:37.165   06 Jun 2027 10:40:44.394             7.229          1100.344
       121   06 Jun 2027 10:42:29.551   06 Jun 2027 10:42:40.205            10.654          3213.469
       122   06 Jun 2027 10:43:36.675   06 Jun 2027 10:43:39.765             3.090           944.687
       123   06 Jun 2027 10:44:17.824   06 Jun 2027 10:44:19.851             2.027           853.750
       124   06 Jun 2027 10:46:05.670   06 Jun 2027 10:46:07.734             2.064           962.437
       125   06 Jun 2027 10:47:18.910   06 Jun 2027 10:47:21.698             2.788          1374.844
       126   07 Jun 2027 03:01:53.312   07 Jun 2027 03:02:02.298             8.986          4493.000
       127   07 Jun 2027 03:02:14.481   07 Jun 2027 03:02:14.481             0.000             0.000
       128   07 Jun 2027 03:03:05.805   07 Jun 2027 03:03:24.011            18.206          9103.000
       129   07 Jun 2027 03:04:17.306   07 Jun 2027 03:04:19.252             1.946           973.000
       130   07 Jun 2027 03:04:59.097   07 Jun 2027 03:05:19.462            20.365         10182.500
       131   07 Jun 2027 03:06:31.480   07 Jun 2027 03:06:38.824             7.344          3672.000
       132   07 Jun 2027 03:08:17.016   07 Jun 2027 03:08:27.232            10.216          5108.000
       133   07 Jun 2027 04:38:56.925   07 Jun 2027 04:39:14.675            17.750          8875.000
       134   07 Jun 2027 04:39:22.458   07 Jun 2027 04:39:52.139            29.681         14840.500
       135   07 Jun 2027 04:39:57.041   07 Jun 2027 04:40:51.209            54.168         27084.000
       136   07 Jun 2027 04:40:53.355   07 Jun 2027 04:41:51.614            58.259         29129.500
       137   07 Jun 2027 04:43:25.181   07 Jun 2027 04:43:50.515            25.334         12667.000
       138   07 Jun 2027 06:17:38.481   07 Jun 2027 06:19:35.759           117.278         57577.531
       139   07 Jun 2027 06:19:51.364   07 Jun 2027 06:19:51.900             0.536            11.375
       140   07 Jun 2027 06:21:13.812   07 Jun 2027 06:21:15.623             1.811           420.156
       141   07 Jun 2027 06:21:38.861   07 Jun 2027 06:21:38.944             0.083            18.469
       142   07 Jun 2027 06:22:35.901   07 Jun 2027 06:22:39.530             3.629          1025.469
       143   07 Jun 2027 07:41:56.491   07 Jun 2027 07:42:12.452            15.961          7038.312
       144   07 Jun 2027 07:42:43.062   07 Jun 2027 07:42:43.889             0.827           329.687
       145   07 Jun 2027 07:43:03.474   07 Jun 2027 07:43:05.165             1.691           587.562
       146   07 Jun 2027 07:54:18.380   07 Jun 2027 07:54:27.742             9.362          1890.969
       147   07 Jun 2027 09:15:53.463   07 Jun 2027 09:16:16.150            22.687         10450.406
       148   07 Jun 2027 09:17:54.118   07 Jun 2027 09:17:58.977             4.859          2078.375
       149   07 Jun 2027 09:18:21.813   07 Jun 2027 09:18:25.184             3.371           603.438
       150   07 Jun 2027 09:19:30.106   07 Jun 2027 09:19:33.927             3.821          1319.813
       151   07 Jun 2027 09:20:26.406   07 Jun 2027 09:20:30.145             3.739          1282.156
       152   07 Jun 2027 09:21:10.463   07 Jun 2027 09:21:14.236             3.773           138.625
       153   07 Jun 2027 10:50:46.722   07 Jun 2027 10:50:50.797             4.075          1959.000
       154   07 Jun 2027 10:51:51.107   07 Jun 2027 10:51:54.725             3.618          1332.906
       155   07 Jun 2027 10:54:26.264   07 Jun 2027 10:54:36.587            10.323          2611.812
       156   07 Jun 2027 10:57:58.202   07 Jun 2027 10:58:11.201            12.999          6300.469
       157   08 Jun 2027 03:13:51.451   08 Jun 2027 03:14:03.591            12.140          6070.000
       158   08 Jun 2027 03:14:13.938   08 Jun 2027 03:14:15.125             1.187           593.500
       159   08 Jun 2027 03:16:06.686   08 Jun 2027 03:16:09.075             2.389          1194.500
       160   08 Jun 2027 03:16:22.008   08 Jun 2027 03:18:08.489           106.481         53240.500
       161   08 Jun 2027 03:18:20.453   08 Jun 2027 03:18:28.874             8.421          4210.500
       162   08 Jun 2027 03:18:48.061   08 Jun 2027 03:18:50.614             2.553          1276.500
       163   08 Jun 2027 03:19:25.129   08 Jun 2027 03:19:25.534             0.405           202.500
       164   08 Jun 2027 03:21:18.131   08 Jun 2027 03:21:37.143            19.012          9506.000
       165   08 Jun 2027 04:51:33.027   08 Jun 2027 04:51:45.445            12.418          6209.000
       166   08 Jun 2027 04:51:55.983   08 Jun 2027 04:52:56.420            60.437         30218.500
       167   08 Jun 2027 04:53:04.677   08 Jun 2027 04:53:32.077            27.400         13700.000
       168   08 Jun 2027 04:53:41.881   08 Jun 2027 04:54:14.942            33.061         16530.500
       169   08 Jun 2027 04:55:55.675   08 Jun 2027 04:56:59.293            63.618         28820.376
       170   08 Jun 2027 06:30:04.097   08 Jun 2027 06:30:39.868            35.771         16947.969
       171   08 Jun 2027 06:31:45.555   08 Jun 2027 06:31:51.064             5.509          1166.594
       172   08 Jun 2027 06:32:18.257   08 Jun 2027 06:32:21.504             3.247           678.000
       173   08 Jun 2027 06:33:36.024   08 Jun 2027 06:33:38.080             2.056           902.562
       174   08 Jun 2027 06:33:53.747   08 Jun 2027 06:33:56.263             2.516           394.281
       175   08 Jun 2027 06:35:01.572   08 Jun 2027 06:35:05.279             3.707          1202.250
       176   08 Jun 2027 07:53:52.541   08 Jun 2027 07:54:06.789            14.248          6928.031
       177   08 Jun 2027 07:54:47.880   08 Jun 2027 07:54:50.213             2.333           453.000
       178   08 Jun 2027 07:55:20.928   08 Jun 2027 07:55:20.928             0.000             0.000
       179   08 Jun 2027 07:55:29.460   08 Jun 2027 07:55:32.445             2.985           541.219
       180   08 Jun 2027 07:55:44.286   08 Jun 2027 07:55:45.936             1.650           241.687
       181   08 Jun 2027 07:55:52.131   08 Jun 2027 07:55:59.174             7.043            22.062
       182   08 Jun 2027 09:29:52.535   08 Jun 2027 09:30:03.374            10.839          3691.937
       183   08 Jun 2027 09:30:55.274   08 Jun 2027 09:31:00.310             5.036          1237.813
       184   08 Jun 2027 09:32:37.082   08 Jun 2027 09:32:42.466             5.384          2142.125
       185   08 Jun 2027 09:33:10.153   08 Jun 2027 09:33:11.861             1.708           812.625
       186   08 Jun 2027 11:03:40.344   08 Jun 2027 11:03:49.130             8.786          3356.344
       187   08 Jun 2027 11:06:21.601   08 Jun 2027 11:06:26.042             4.441          1538.063
       188   08 Jun 2027 11:09:48.071   08 Jun 2027 11:10:02.609            14.538          6127.375
       189   08 Jun 2027 11:10:55.672   08 Jun 2027 11:10:59.396             3.724          1124.406
       190   08 Jun 2027 11:11:25.556   08 Jun 2027 11:11:26.925             1.369            75.656
       191   08 Jun 2027 11:11:53.575   08 Jun 2027 11:11:55.404             1.829           447.219
       192   09 Jun 2027 03:25:53.691   09 Jun 2027 03:26:06.795            13.104          6552.000
       193   09 Jun 2027 03:26:23.900   09 Jun 2027 03:26:45.287            21.387         10693.500
       194   09 Jun 2027 03:27:53.823   09 Jun 2027 03:29:49.346           115.523         57761.500
       195   09 Jun 2027 03:30:40.772   09 Jun 2027 03:31:57.465            76.693         38346.500
       196   09 Jun 2027 03:32:59.823   09 Jun 2027 03:33:09.169             9.346          4673.000
       197   09 Jun 2027 05:06:11.523   09 Jun 2027 05:06:53.077            41.554         20777.000
       198   09 Jun 2027 05:08:15.680   09 Jun 2027 05:09:41.989            86.309         42553.594
       199   09 Jun 2027 05:10:10.101   09 Jun 2027 05:10:14.845             4.744           253.219
       200   09 Jun 2027 06:42:22.794   09 Jun 2027 06:42:50.366            27.572         12267.844
       201   09 Jun 2027 06:45:02.152   09 Jun 2027 06:45:07.095             4.943          1028.594
       202   09 Jun 2027 06:46:27.437   09 Jun 2027 06:46:33.137             5.700          2318.906
       203   09 Jun 2027 06:46:41.505   09 Jun 2027 06:46:42.587             1.082            65.000
       204   09 Jun 2027 08:05:45.137   09 Jun 2027 08:05:55.605            10.468          5202.187
       205   09 Jun 2027 08:07:37.638   09 Jun 2027 08:07:42.573             4.935          1457.844
       206   09 Jun 2027 08:08:12.700   09 Jun 2027 08:08:15.027             2.327           937.031
       207   09 Jun 2027 09:42:06.210   09 Jun 2027 09:42:16.999            10.789          2054.500
       208   09 Jun 2027 09:42:48.171   09 Jun 2027 09:42:50.463             2.292           111.406
       209   09 Jun 2027 09:43:12.618   09 Jun 2027 09:43:18.353             5.735           692.344
       210   09 Jun 2027 09:43:54.555   09 Jun 2027 09:43:58.814             4.259           635.406
       211   09 Jun 2027 09:44:19.452   09 Jun 2027 09:44:21.224             1.772           309.063
       212   09 Jun 2027 11:17:59.827   09 Jun 2027 11:18:20.806            20.979          8066.563
       213   09 Jun 2027 11:21:34.162   09 Jun 2027 11:21:34.162             0.000             0.000
       214   09 Jun 2027 11:22:52.516   09 Jun 2027 11:23:09.042            16.526          5786.656
       215   09 Jun 2027 11:23:26.574   09 Jun 2027 11:23:29.680             3.106           268.031
       216   09 Jun 2027 11:24:02.282   09 Jun 2027 11:24:07.278             4.996           723.969
       217   10 Jun 2027 03:37:59.340   10 Jun 2027 03:38:47.806            48.466         24233.000
       218   10 Jun 2027 03:39:21.582   10 Jun 2027 03:42:08.028           166.446         83223.000
       219   10 Jun 2027 03:43:07.603   10 Jun 2027 03:43:43.652            36.049         18024.500
       220   10 Jun 2027 05:16:12.439   10 Jun 2027 05:16:25.452            13.013          6506.500
       221   10 Jun 2027 05:17:07.613   10 Jun 2027 05:17:14.199             6.586          3293.000
       222   10 Jun 2027 05:17:20.223   10 Jun 2027 05:18:06.574            46.351         23175.500
       223   10 Jun 2027 05:18:56.029   10 Jun 2027 05:19:56.925            60.896         30448.000
       224   10 Jun 2027 05:20:03.876   10 Jun 2027 05:20:06.976             3.100           409.062
       225   10 Jun 2027 05:20:34.936   10 Jun 2027 05:20:36.129             1.193           382.938
       226   10 Jun 2027 05:20:53.156   10 Jun 2027 05:21:00.305             7.149           296.875
       227   10 Jun 2027 06:55:15.771   10 Jun 2027 06:55:39.930            24.159         10627.750
       228   10 Jun 2027 06:57:18.727   10 Jun 2027 06:57:24.705             5.978          2753.344
       229   10 Jun 2027 06:58:15.864   10 Jun 2027 06:58:19.551             3.687          1538.937
       230   10 Jun 2027 08:17:47.084   10 Jun 2027 08:18:00.821            13.737          6610.531
       231   10 Jun 2027 08:19:14.756   10 Jun 2027 08:19:21.108             6.352          2021.062
       232   10 Jun 2027 08:19:33.285   10 Jun 2027 08:19:35.549             2.264            71.063
       233   10 Jun 2027 09:54:12.967   10 Jun 2027 09:54:19.532             6.565          3037.125
       234   10 Jun 2027 09:55:44.410   10 Jun 2027 09:55:48.519             4.109          1666.281
       235   10 Jun 2027 09:56:59.283   10 Jun 2027 09:57:04.314             5.031          1852.625
       236   10 Jun 2027 11:29:21.290   10 Jun 2027 11:29:33.075            11.785          4985.469
       237   10 Jun 2027 11:30:19.048   10 Jun 2027 11:30:21.127             2.079           393.562
       238   10 Jun 2027 11:36:03.852   10 Jun 2027 11:36:08.406             4.554          2277.000
       239   11 Jun 2027 03:49:57.834   11 Jun 2027 03:50:14.093            16.259          8129.500
       240   11 Jun 2027 03:50:41.490   11 Jun 2027 03:53:08.899           147.409         73704.500
       241   11 Jun 2027 03:54:31.740   11 Jun 2027 03:54:33.325             1.585           792.500
       242   11 Jun 2027 03:55:43.499   11 Jun 2027 03:56:09.287            25.788         12894.000
       243   11 Jun 2027 05:28:11.681   11 Jun 2027 05:28:56.754            45.073         22536.500
       244   11 Jun 2027 05:29:17.785   11 Jun 2027 05:30:50.680            92.895         46405.937
       245   11 Jun 2027 05:32:20.354   11 Jun 2027 05:32:23.944             3.590          1637.937
       246   11 Jun 2027 07:06:24.989   11 Jun 2027 07:06:38.306            13.317          6131.906
       247   11 Jun 2027 07:08:51.121   11 Jun 2027 07:08:57.865             6.744           768.781
       248   11 Jun 2027 07:09:38.760   11 Jun 2027 07:09:41.365             2.605          1227.312
       249   11 Jun 2027 07:09:44.783   11 Jun 2027 07:09:46.519             1.736             4.094
       250   11 Jun 2027 08:29:46.888   11 Jun 2027 08:30:09.941            23.053         10241.750
       251   11 Jun 2027 08:31:15.654   11 Jun 2027 08:31:19.408             3.754          1676.469
       252   11 Jun 2027 08:32:46.279   11 Jun 2027 08:32:51.629             5.350          2343.594
       253   11 Jun 2027 10:06:23.524   11 Jun 2027 10:06:31.486             7.962          3918.656
       254   11 Jun 2027 10:08:06.167   11 Jun 2027 10:08:11.842             5.675          2343.781
       255   11 Jun 2027 10:08:31.499   11 Jun 2027 10:08:34.323             2.824           317.812
       256   11 Jun 2027 11:41:33.517   11 Jun 2027 11:41:45.177            11.660          4147.531
       257   11 Jun 2027 11:47:57.004   11 Jun 2027 11:48:09.482            12.478          6239.000
       258   12 Jun 2027 04:01:59.493   12 Jun 2027 04:02:21.774            22.281         11140.500
       259   12 Jun 2027 04:02:24.319   12 Jun 2027 04:04:36.318           131.999         65999.500
       260   12 Jun 2027 04:05:24.068   12 Jun 2027 04:06:03.568            39.500         19750.000
       261   12 Jun 2027 04:06:23.507   12 Jun 2027 04:06:27.064             3.557          1778.500
       262   12 Jun 2027 04:06:31.994   12 Jun 2027 04:06:54.388            22.394         11197.000
       263   12 Jun 2027 05:41:17.004   12 Jun 2027 05:43:42.757           145.753         71114.500
       264   12 Jun 2027 05:44:44.552   12 Jun 2027 05:44:49.200             4.648          1879.125
       265   12 Jun 2027 05:44:52.330   12 Jun 2027 05:44:53.252             0.922            97.813
       266   12 Jun 2027 05:45:17.939   12 Jun 2027 05:45:19.047             1.108           369.156
       267   12 Jun 2027 05:48:06.913   12 Jun 2027 05:48:18.879            11.966          4733.562
       268   12 Jun 2027 07:07:39.982   12 Jun 2027 07:07:43.342             3.360          1680.000
       269   12 Jun 2027 07:18:22.818   12 Jun 2027 07:18:34.233            11.415          4645.156
       270   12 Jun 2027 07:19:05.328   12 Jun 2027 07:19:06.547             1.219           168.406
       271   12 Jun 2027 07:20:43.923   12 Jun 2027 07:20:45.122             1.199           566.406
       272   12 Jun 2027 08:42:23.303   12 Jun 2027 08:42:42.140            18.837          9162.719
       273   12 Jun 2027 08:42:59.375   12 Jun 2027 08:43:00.334             0.959           233.969
       274   12 Jun 2027 08:44:46.494   12 Jun 2027 08:44:54.274             7.780          2337.156
       275   12 Jun 2027 10:18:07.868   12 Jun 2027 10:18:18.974            11.106          3516.063
       276   12 Jun 2027 10:19:55.839   12 Jun 2027 10:19:59.959             4.120          2038.937
       277   12 Jun 2027 10:21:34.615   12 Jun 2027 10:21:37.479             2.864          1230.281
       278   12 Jun 2027 11:53:28.916   12 Jun 2027 11:53:49.847            20.931          8740.250
       279   12 Jun 2027 11:58:50.019   12 Jun 2027 11:59:07.758            17.739          8853.594
       280   12 Jun 2027 11:59:27.051   12 Jun 2027 11:59:32.556             5.505            82.375
       281   12 Jun 2027 11:59:57.219   12 Jun 2027 11:59:59.369             2.150           729.844
       282   13 Jun 2027 04:14:40.089   13 Jun 2027 04:17:06.165           146.076         73038.000
       283   13 Jun 2027 04:18:31.342   13 Jun 2027 04:18:32.889             1.547           773.500
       284   13 Jun 2027 05:53:37.829   13 Jun 2027 05:55:02.083            84.254         42127.000
       285   13 Jun 2027 05:56:09.261   13 Jun 2027 05:56:27.544            18.283          9141.500
       286   13 Jun 2027 05:59:00.866   13 Jun 2027 06:01:02.231           121.365         60682.500
       287   13 Jun 2027 07:18:57.319   13 Jun 2027 07:19:12.973            15.654          6995.812
       288   13 Jun 2027 07:20:04.162   13 Jun 2027 07:20:06.841             2.679          1229.906
       289   13 Jun 2027 07:30:21.612   13 Jun 2027 07:30:29.788             8.176          3030.656
       290   13 Jun 2027 07:31:25.995   13 Jun 2027 07:31:30.339             4.344           688.469
       291   13 Jun 2027 08:52:59.420   13 Jun 2027 08:53:18.121            18.701          8928.188
       292   13 Jun 2027 08:54:32.283   13 Jun 2027 08:54:33.718             1.435           702.375
       293   13 Jun 2027 08:55:34.628   13 Jun 2027 08:55:42.719             8.091          1027.219
       294   13 Jun 2027 10:28:22.099   13 Jun 2027 10:28:26.296             4.197          2098.500
       295   13 Jun 2027 10:28:34.874   13 Jun 2027 10:28:39.224             4.350          1113.313
       296   13 Jun 2027 10:30:49.248   13 Jun 2027 10:30:53.765             4.517          1936.469
       297   13 Jun 2027 10:33:22.959   13 Jun 2027 10:33:29.415             6.456          3164.500
       298   13 Jun 2027 10:33:55.732   13 Jun 2027 10:33:57.902             2.170           251.313
       299   13 Jun 2027 10:34:28.176   13 Jun 2027 10:34:28.176             0.000             0.000
