uniorb/output/strategy_4/Camera/Camera_KinoSat_112005.txt

KinoSat_112005
-------------------------
    Access    *     Start Time (UTCG)     *     Stop Time (UTCG)  *   Duration (s) *   Data (Mbytes)
         1   01 Jun 2027 03:00:00.000   01 Jun 2027 03:00:01.643             1.643           821.500
         2   01 Jun 2027 03:00:09.650   01 Jun 2027 03:00:44.932            35.282         17641.000
         3   01 Jun 2027 03:01:52.018   01 Jun 2027 03:02:13.812            21.794         10897.000
         4   01 Jun 2027 03:03:48.677   01 Jun 2027 03:03:51.308             2.631          1315.500
         5   01 Jun 2027 03:04:06.675   01 Jun 2027 03:04:13.353             6.678          3339.000
         6   01 Jun 2027 04:33:43.470   01 Jun 2027 04:35:17.263            93.793         46896.500
         7   01 Jun 2027 04:36:48.528   01 Jun 2027 04:37:19.215            30.687         15343.500
         8   01 Jun 2027 06:12:40.501   01 Jun 2027 06:14:50.738           130.237         65118.500
         9   01 Jun 2027 06:15:36.845   01 Jun 2027 06:15:52.386            15.541          7770.500
        10   01 Jun 2027 06:16:32.459   01 Jun 2027 06:16:33.877             1.418           709.000
        11   01 Jun 2027 06:19:28.685   01 Jun 2027 06:19:41.386            12.701          6350.500
        12   01 Jun 2027 07:36:49.311   01 Jun 2027 07:38:09.367            80.056         40028.000
        13   01 Jun 2027 07:38:15.024   01 Jun 2027 07:38:57.762            42.738         21369.000
        14   01 Jun 2027 07:39:01.379   01 Jun 2027 07:39:01.379             0.000             0.000
        15   01 Jun 2027 07:49:07.092   01 Jun 2027 07:49:36.503            29.411         14705.500
        16   01 Jun 2027 09:11:05.021   01 Jun 2027 09:12:23.162            78.141         39070.500
        17   01 Jun 2027 09:13:08.365   01 Jun 2027 09:13:57.384            49.019         24509.500
        18   01 Jun 2027 09:14:58.932   01 Jun 2027 09:14:58.932             0.000             0.000
        19   01 Jun 2027 10:45:57.120   01 Jun 2027 10:47:38.132           101.012         50506.000
        20   02 Jun 2027 03:08:50.618   02 Jun 2027 03:09:04.438            13.820          6910.000
        21   02 Jun 2027 03:11:04.252   02 Jun 2027 03:11:04.252             0.000             0.000
        22   02 Jun 2027 03:11:07.239   02 Jun 2027 03:11:09.138             1.899           949.500
        23   02 Jun 2027 03:11:41.120   02 Jun 2027 03:13:17.528            96.408         48204.000
        24   02 Jun 2027 03:13:40.263   02 Jun 2027 03:14:25.595            45.332         22666.000
        25   02 Jun 2027 03:14:33.831   02 Jun 2027 03:14:35.440             1.609           804.500
        26   02 Jun 2027 04:46:28.302   02 Jun 2027 04:46:51.988            23.686         11843.000
        27   02 Jun 2027 04:46:55.194   02 Jun 2027 04:48:10.758            75.564         37782.000
        28   02 Jun 2027 04:48:17.439   02 Jun 2027 04:49:17.580            60.141         30070.500
        29   02 Jun 2027 06:24:51.019   02 Jun 2027 06:28:07.203           196.184         98092.000
        30   02 Jun 2027 06:28:25.456   02 Jun 2027 06:28:35.953            10.497          5248.500
        31   02 Jun 2027 06:30:03.486   02 Jun 2027 06:30:05.601             2.115          1057.500
        32   02 Jun 2027 07:48:54.517   02 Jun 2027 07:50:18.558            84.041         42020.500
        33   02 Jun 2027 09:22:40.575   02 Jun 2027 09:22:56.023            15.448          7724.000
        34   02 Jun 2027 09:23:32.977   02 Jun 2027 09:25:01.501            88.524         44262.000
        35   02 Jun 2027 09:25:31.129   02 Jun 2027 09:25:55.901            24.772         12386.000
        36   02 Jun 2027 09:27:47.442   02 Jun 2027 09:28:01.921            14.479          5081.906
        37   02 Jun 2027 09:28:09.455   02 Jun 2027 09:28:09.455             0.000             0.000
        38   02 Jun 2027 10:58:41.240   02 Jun 2027 10:58:57.748            16.508          6334.312
        39   02 Jun 2027 11:01:11.262   02 Jun 2027 11:01:14.783             3.521          1672.750
        40   02 Jun 2027 11:04:52.915   02 Jun 2027 11:05:08.020            15.105          6541.688
        41   03 Jun 2027 03:20:50.632   03 Jun 2027 03:21:17.072            26.440         13220.000
        42   03 Jun 2027 03:21:22.022   03 Jun 2027 03:21:25.847             3.825          1912.500
        43   03 Jun 2027 03:23:07.510   03 Jun 2027 03:23:43.074            35.564         17782.000
        44   03 Jun 2027 03:24:00.506   03 Jun 2027 03:26:12.221           131.715         65857.500
        45   03 Jun 2027 03:28:08.104   03 Jun 2027 03:28:30.148            22.044         11022.000
        46   03 Jun 2027 05:00:39.804   03 Jun 2027 05:00:43.447             3.643          1821.500
        47   03 Jun 2027 05:00:44.529   03 Jun 2027 05:01:35.305            50.776         25388.000
        48   03 Jun 2027 05:03:43.594   03 Jun 2027 05:04:16.823            33.229         16614.500
        49   03 Jun 2027 06:37:25.761   03 Jun 2027 06:38:29.322            63.561         30949.125
        50   03 Jun 2027 06:39:05.359   03 Jun 2027 06:39:07.301             1.942           810.844
        51   03 Jun 2027 06:40:04.142   03 Jun 2027 06:40:08.169             4.027          1012.938
        52   03 Jun 2027 06:41:28.971   03 Jun 2027 06:41:37.908             8.937          2391.781
        53   03 Jun 2027 08:00:49.573   03 Jun 2027 08:01:03.569            13.996          6735.625
        54   03 Jun 2027 08:02:12.557   03 Jun 2027 08:02:16.380             3.823          1510.687
        55   03 Jun 2027 08:02:47.917   03 Jun 2027 08:02:53.112             5.195           241.438
        56   03 Jun 2027 08:03:04.197   03 Jun 2027 08:03:04.939             0.742           155.531
        57   03 Jun 2027 09:37:08.683   03 Jun 2027 09:37:16.708             8.025          3630.250
        58   03 Jun 2027 09:37:53.483   03 Jun 2027 09:37:55.524             2.041           662.188
        59   03 Jun 2027 09:38:11.951   03 Jun 2027 09:38:13.086             1.135           372.469
        60   03 Jun 2027 09:39:27.689   03 Jun 2027 09:39:30.757             3.068          1249.344
        61   03 Jun 2027 11:10:40.241   03 Jun 2027 11:10:52.445            12.204          4663.969
        62   03 Jun 2027 11:13:08.337   03 Jun 2027 11:13:11.234             2.897           576.062
        63   03 Jun 2027 11:16:40.915   03 Jun 2027 11:16:57.474            16.559          6340.156
        64   03 Jun 2027 11:17:33.537   03 Jun 2027 11:17:39.137             5.600           968.000
        65   03 Jun 2027 11:19:10.126   03 Jun 2027 11:19:11.185             1.059           529.500
        66   04 Jun 2027 03:32:58.475   04 Jun 2027 03:33:16.980            18.505          9252.500
        67   04 Jun 2027 03:33:30.883   04 Jun 2027 03:33:51.682            20.799         10399.500
        68   04 Jun 2027 03:34:35.899   04 Jun 2027 03:37:22.491           166.592         83296.000
        69   04 Jun 2027 03:37:45.560   04 Jun 2027 03:38:03.305            17.745          8872.500
        70   04 Jun 2027 05:12:17.546   04 Jun 2027 05:13:37.771            80.225         40112.500
        71   04 Jun 2027 05:14:37.160   04 Jun 2027 05:14:56.654            19.494          9747.000
        72   04 Jun 2027 05:16:01.199   04 Jun 2027 05:16:16.862            15.663          7831.500
        73   04 Jun 2027 05:16:41.912   04 Jun 2027 05:16:53.417            11.505          5752.500
        74   04 Jun 2027 05:17:14.955   04 Jun 2027 05:17:16.379             1.424           712.000
        75   04 Jun 2027 06:49:04.040   04 Jun 2027 06:49:34.949            30.909         13529.875
        76   04 Jun 2027 06:50:03.125   04 Jun 2027 06:50:03.386             0.261           108.750
        77   04 Jun 2027 06:51:29.024   04 Jun 2027 06:51:29.953             0.929           464.500
        78   04 Jun 2027 06:51:59.760   04 Jun 2027 06:52:02.484             2.724          1084.625
        79   04 Jun 2027 06:53:15.509   04 Jun 2027 06:53:20.916             5.407          1792.094
        80   04 Jun 2027 08:12:41.192   04 Jun 2027 08:12:52.704            11.512          5111.188
        81   04 Jun 2027 08:14:13.860   04 Jun 2027 08:14:23.964            10.104          1822.312
        82   04 Jun 2027 08:14:37.608   04 Jun 2027 08:14:42.150             4.542            88.344
        83   04 Jun 2027 09:49:10.698   04 Jun 2027 09:49:14.902             4.204          1400.969
        84   04 Jun 2027 09:50:29.774   04 Jun 2027 09:50:32.398             2.624          1227.719
        85   04 Jun 2027 09:51:03.072   04 Jun 2027 09:51:06.104             3.032           809.406
        86   04 Jun 2027 09:52:13.996   04 Jun 2027 09:52:18.184             4.188          2081.094
        87   04 Jun 2027 11:23:19.268   04 Jun 2027 11:23:32.786            13.518          5013.281
        88   04 Jun 2027 11:24:52.982   04 Jun 2027 11:24:59.163             6.181          2506.125
        89   04 Jun 2027 11:28:24.201   04 Jun 2027 11:28:39.184            14.983          6054.562
        90   04 Jun 2027 11:30:00.454   04 Jun 2027 11:30:04.559             4.105          1789.875
        91   04 Jun 2027 11:30:19.773   04 Jun 2027 11:30:26.850             7.077           450.719
        92   04 Jun 2027 11:30:38.800   04 Jun 2027 11:30:42.195             3.395           321.031
        93   05 Jun 2027 03:45:00.303   05 Jun 2027 03:45:43.860            43.557         21778.500
        94   05 Jun 2027 03:46:04.142   05 Jun 2027 03:48:58.592           174.450         87225.000
        95   05 Jun 2027 03:51:51.255   05 Jun 2027 03:52:13.671            22.416         11208.000
        96   05 Jun 2027 05:23:08.780   05 Jun 2027 05:24:10.041            61.261         30630.500
        97   05 Jun 2027 05:24:17.920   05 Jun 2027 05:25:11.313            53.393         26081.563
        98   05 Jun 2027 05:25:52.631   05 Jun 2027 05:25:55.750             3.119          1186.625
        99   05 Jun 2027 05:26:28.106   05 Jun 2027 05:26:30.928             2.822           402.156
       100   05 Jun 2027 05:27:11.031   05 Jun 2027 05:27:12.335             1.304           299.281
       101   05 Jun 2027 05:27:35.750   05 Jun 2027 05:27:36.657             0.907            73.156
       102   05 Jun 2027 05:28:54.712   05 Jun 2027 05:28:59.627             4.915          2262.125
       103   05 Jun 2027 07:01:27.210   05 Jun 2027 07:01:44.403            17.193          6984.750
       104   05 Jun 2027 07:02:34.600   05 Jun 2027 07:02:37.255             2.655          1039.375
       105   05 Jun 2027 07:03:54.173   05 Jun 2027 07:03:57.022             2.849           797.844
       106   05 Jun 2027 07:04:23.330   05 Jun 2027 07:04:27.084             3.754           822.125
       107   05 Jun 2027 07:04:46.284   05 Jun 2027 07:04:51.293             5.009           600.000
       108   05 Jun 2027 08:24:50.484   05 Jun 2027 08:25:06.140            15.656          7142.531
       109   05 Jun 2027 08:26:14.905   05 Jun 2027 08:26:17.384             2.479           729.281
       110   05 Jun 2027 08:26:31.698   05 Jun 2027 08:26:32.986             1.288           252.281
       111   05 Jun 2027 10:01:21.118   05 Jun 2027 10:01:34.128            13.010          4173.438
       112   05 Jun 2027 10:03:04.293   05 Jun 2027 10:03:09.609             5.316          2295.656
       113   05 Jun 2027 10:03:21.655   05 Jun 2027 10:03:23.889             2.234           361.531
       114   05 Jun 2027 11:36:41.716   05 Jun 2027 11:36:54.312            12.596          6009.250
       115   05 Jun 2027 11:42:59.940   05 Jun 2027 11:43:08.178             8.238          4119.000
       116   06 Jun 2027 03:56:58.268   06 Jun 2027 04:00:39.315           221.047        110523.500
       117   06 Jun 2027 04:01:24.098   06 Jun 2027 04:01:26.082             1.984           992.000
       118   06 Jun 2027 05:35:14.561   06 Jun 2027 05:35:21.833             7.272          3636.000
       119   06 Jun 2027 05:36:15.589   06 Jun 2027 05:37:57.027           101.438         49436.625
       120   06 Jun 2027 05:38:27.153   06 Jun 2027 05:38:28.466             1.313           218.844
       121   06 Jun 2027 05:39:45.344   06 Jun 2027 05:39:49.669             4.325          1380.469
       122   06 Jun 2027 05:40:16.563   06 Jun 2027 05:40:18.857             2.294            53.125
       123   06 Jun 2027 05:40:30.117   06 Jun 2027 05:40:34.189             4.072           351.875
       124   06 Jun 2027 05:43:18.365   06 Jun 2027 05:43:27.005             8.640          3553.344
       125   06 Jun 2027 07:13:24.243   06 Jun 2027 07:13:36.198            11.955          5412.563
       126   06 Jun 2027 07:14:29.918   06 Jun 2027 07:14:32.589             2.671           837.281
       127   06 Jun 2027 07:15:18.915   06 Jun 2027 07:15:20.891             1.976           739.219
       128   06 Jun 2027 07:15:47.455   06 Jun 2027 07:15:48.841             1.386           615.625
       129   06 Jun 2027 07:16:34.659   06 Jun 2027 07:16:36.299             1.640           615.906
       130   06 Jun 2027 07:16:39.276   06 Jun 2027 07:16:39.738             0.462            17.281
       131   06 Jun 2027 08:37:30.694   06 Jun 2027 08:37:49.053            18.359          9027.219
       132   06 Jun 2027 08:38:31.002   06 Jun 2027 08:38:35.853             4.851           843.469
       133   06 Jun 2027 10:13:16.160   06 Jun 2027 10:13:23.613             7.453          2896.656
       134   06 Jun 2027 10:15:01.070   06 Jun 2027 10:15:07.437             6.367          2203.125
       135   06 Jun 2027 10:16:28.994   06 Jun 2027 10:16:32.601             3.607          1415.250
       136   06 Jun 2027 11:51:02.774   06 Jun 2027 11:51:18.096            15.322          7661.000
       137   06 Jun 2027 11:54:51.868   06 Jun 2027 11:55:14.237            22.369         11184.500
       138   07 Jun 2027 04:09:36.028   07 Jun 2027 04:12:39.245           183.217         91608.500
       139   07 Jun 2027 04:12:56.972   07 Jun 2027 04:13:17.196            20.224         10112.000
       140   07 Jun 2027 05:48:19.485   07 Jun 2027 05:50:51.897           152.412         75117.937
       141   07 Jun 2027 05:54:51.119   07 Jun 2027 05:55:06.527            15.408          7172.969
       142   07 Jun 2027 07:14:18.169   07 Jun 2027 07:14:32.335            14.166          6257.250
       143   07 Jun 2027 07:25:20.832   07 Jun 2027 07:25:28.925             8.093          4010.562
       144   07 Jun 2027 07:26:28.095   07 Jun 2027 07:26:30.308             2.213           722.656
       145   07 Jun 2027 07:27:27.486   07 Jun 2027 07:27:29.302             1.816           306.406
       146   07 Jun 2027 07:28:03.095   07 Jun 2027 07:28:05.243             2.148           731.375
       147   07 Jun 2027 08:48:19.491   07 Jun 2027 08:48:36.349            16.858          7493.313
       148   07 Jun 2027 08:49:25.627   07 Jun 2027 08:49:27.817             2.190           893.906
       149   07 Jun 2027 08:50:00.304   07 Jun 2027 08:50:05.311             5.007           812.656
       150   07 Jun 2027 08:51:46.557   07 Jun 2027 08:51:53.944             7.387          2305.750
       151   07 Jun 2027 10:23:46.489   07 Jun 2027 10:23:56.709            10.220          4839.062
       152   07 Jun 2027 10:25:49.602   07 Jun 2027 10:25:55.808             6.206          3051.188
       153   07 Jun 2027 10:28:09.551   07 Jun 2027 10:28:15.796             6.245          2522.875
       154   07 Jun 2027 10:28:40.695   07 Jun 2027 10:28:40.695             0.000             0.000
       155   08 Jun 2027 04:21:43.043   08 Jun 2027 04:23:28.139           105.096         52548.000
       156   08 Jun 2027 04:23:30.138   08 Jun 2027 04:24:19.635            49.497         24748.500
       157   08 Jun 2027 06:00:49.320   08 Jun 2027 06:03:12.938           143.618         71809.000
       158   08 Jun 2027 06:03:33.050   08 Jun 2027 06:03:57.938            24.888         12444.000
       159   08 Jun 2027 06:04:15.873   08 Jun 2027 06:04:35.733            19.860          9919.563
       160   08 Jun 2027 06:05:51.265   08 Jun 2027 06:05:55.922             4.657          2328.500
       161   08 Jun 2027 06:06:20.349   08 Jun 2027 06:06:22.109             1.760           795.219
       162   08 Jun 2027 07:25:41.021   08 Jun 2027 07:25:49.034             8.013          4006.500
       163   08 Jun 2027 07:25:57.449   08 Jun 2027 07:26:00.391             2.942          1390.563
       164   08 Jun 2027 07:27:08.583   08 Jun 2027 07:27:11.098             2.515          1257.500
       165   08 Jun 2027 07:37:23.639   08 Jun 2027 07:37:31.198             7.559          3436.250
       166   08 Jun 2027 07:37:44.187   08 Jun 2027 07:37:45.663             1.476             5.094
       167   08 Jun 2027 07:38:25.674   08 Jun 2027 07:38:26.978             1.304           588.250
       168   08 Jun 2027 08:59:36.276   08 Jun 2027 09:00:05.298            29.022         14274.625
       169   08 Jun 2027 09:01:37.959   08 Jun 2027 09:01:40.557             2.598          1095.781
       170   08 Jun 2027 09:02:37.078   08 Jun 2027 09:02:40.879             3.801          1078.719
       171   08 Jun 2027 10:34:43.281   08 Jun 2027 10:34:57.160            13.879          4042.125
       172   08 Jun 2027 10:40:23.764   08 Jun 2027 10:40:40.583            16.819          8409.500
       173   08 Jun 2027 10:40:55.395   08 Jun 2027 10:41:01.108             5.713          1742.875
       174   09 Jun 2027 03:00:00.000   09 Jun 2027 03:00:16.737            16.737          8368.500
       175   09 Jun 2027 03:00:27.845   09 Jun 2027 03:00:49.330            21.485         10742.500
       176   09 Jun 2027 03:02:27.958   09 Jun 2027 03:02:36.925             8.967          4483.500
       177   09 Jun 2027 03:03:42.635   09 Jun 2027 03:04:06.820            24.185         12092.500
       178   09 Jun 2027 04:34:02.403   09 Jun 2027 04:35:12.409            70.006         35003.000
       179   09 Jun 2027 04:35:13.510   09 Jun 2027 04:36:14.583            61.073         30536.500
       180   09 Jun 2027 04:36:15.127   09 Jun 2027 04:36:20.502             5.375          2687.500
       181   09 Jun 2027 04:36:27.078   09 Jun 2027 04:36:50.313            23.235         11617.500
       182   09 Jun 2027 04:36:54.705   09 Jun 2027 04:37:04.603             9.898          4949.000
       183   09 Jun 2027 06:12:50.019   09 Jun 2027 06:14:48.044           118.025         56911.906
       184   09 Jun 2027 06:16:12.220   09 Jun 2027 06:16:13.924             1.704           647.344
       185   09 Jun 2027 06:16:28.978   09 Jun 2027 06:16:31.523             2.545           470.438
       186   09 Jun 2027 06:17:23.252   09 Jun 2027 06:17:28.641             5.389           803.531
       187   09 Jun 2027 06:17:48.159   09 Jun 2027 06:17:49.445             1.286           609.938
       188   09 Jun 2027 06:18:20.844   09 Jun 2027 06:18:27.144             6.300           731.469
       189   09 Jun 2027 07:37:08.972   09 Jun 2027 07:37:21.094            12.122          5968.000
       190   09 Jun 2027 07:38:14.286   09 Jun 2027 07:38:17.918             3.632           865.844
       191   09 Jun 2027 07:38:33.060   09 Jun 2027 07:38:37.790             4.730           183.125
       192   09 Jun 2027 07:39:14.304   09 Jun 2027 07:39:16.636             2.332           887.437
       193   09 Jun 2027 07:49:25.272   09 Jun 2027 07:49:31.068             5.796          2501.188
       194   09 Jun 2027 09:11:22.199   09 Jun 2027 09:11:44.466            22.267          8787.000
       195   09 Jun 2027 09:13:25.288   09 Jun 2027 09:13:29.167             3.879          1877.281
       196   09 Jun 2027 09:14:04.525   09 Jun 2027 09:14:14.951            10.426          1049.531
       197   09 Jun 2027 09:15:14.722   09 Jun 2027 09:15:21.180             6.458          1867.844
       198   09 Jun 2027 09:16:28.567   09 Jun 2027 09:16:31.816             3.249          1384.000
       199   09 Jun 2027 10:46:12.697   09 Jun 2027 10:46:18.633             5.936          2874.937
       200   09 Jun 2027 10:48:09.997   09 Jun 2027 10:48:14.496             4.499          1815.719
       201   09 Jun 2027 10:51:59.208   09 Jun 2027 10:52:16.996            17.788          6873.656
       202   09 Jun 2027 10:54:43.563   09 Jun 2027 10:54:50.158             6.595          2821.625
       203   09 Jun 2027 10:55:00.467   09 Jun 2027 10:55:01.784             1.317            94.313
       204   10 Jun 2027 03:09:09.146   10 Jun 2027 03:09:20.265            11.119          5559.500
       205   10 Jun 2027 03:09:56.314   10 Jun 2027 03:09:56.314             0.000             0.000
       206   10 Jun 2027 03:10:23.578   10 Jun 2027 03:10:35.850            12.272          6136.000
       207   10 Jun 2027 03:11:56.052   10 Jun 2027 03:13:22.737            86.685         43342.500
       208   10 Jun 2027 03:13:50.931   10 Jun 2027 03:14:42.766            51.835         25917.500
       209   10 Jun 2027 03:14:59.424   10 Jun 2027 03:15:16.556            17.132          8566.000
       210   10 Jun 2027 03:16:30.045   10 Jun 2027 03:16:43.029            12.984          6492.000
       211   10 Jun 2027 04:49:19.645   10 Jun 2027 04:49:47.861            28.216         14108.000
       212   10 Jun 2027 04:51:10.759   10 Jun 2027 04:51:45.387            34.628         17314.000
       213   10 Jun 2027 06:25:10.010   10 Jun 2027 06:27:07.034           117.024         57498.219
       214   10 Jun 2027 06:27:44.266   10 Jun 2027 06:27:48.680             4.414          1151.563
       215   10 Jun 2027 06:28:23.968   10 Jun 2027 06:28:27.207             3.239          1102.750
       216   10 Jun 2027 06:29:07.006   10 Jun 2027 06:29:09.276             2.270          1027.875
       217   10 Jun 2027 06:29:44.701   10 Jun 2027 06:29:46.828             2.127           951.500
       218   10 Jun 2027 07:49:12.140   10 Jun 2027 07:49:24.640            12.500          4210.938
       219   10 Jun 2027 07:50:28.860   10 Jun 2027 07:50:32.735             3.875          1326.750
       220   10 Jun 2027 09:25:09.412   10 Jun 2027 09:25:23.949            14.537          6574.875
       221   10 Jun 2027 09:25:52.971   10 Jun 2027 09:26:00.812             7.841           266.156
       222   10 Jun 2027 09:26:55.612   10 Jun 2027 09:26:58.380             2.768          1319.469
       223   10 Jun 2027 09:28:10.410   10 Jun 2027 09:28:18.167             7.757           893.531
       224   10 Jun 2027 09:28:35.985   10 Jun 2027 09:28:37.250             1.265           269.625
       225   10 Jun 2027 10:58:58.997   10 Jun 2027 10:59:13.755            14.758          3406.250
       226   10 Jun 2027 11:01:24.048   10 Jun 2027 11:01:30.248             6.200          1436.469
       227   10 Jun 2027 11:05:09.468   10 Jun 2027 11:05:09.468             0.000             0.000
       228   10 Jun 2027 11:05:34.558   10 Jun 2027 11:05:50.511            15.953          7304.219
       229   11 Jun 2027 03:21:08.600   11 Jun 2027 03:21:31.690            23.090         11545.000
       230   11 Jun 2027 03:21:36.672   11 Jun 2027 03:21:43.042             6.370          3185.000
       231   11 Jun 2027 03:23:23.353   11 Jun 2027 03:25:59.922           156.569         78284.500
       232   11 Jun 2027 03:26:15.609   11 Jun 2027 03:26:27.721            12.112          6056.000
       233   11 Jun 2027 05:00:54.140   11 Jun 2027 05:01:00.071             5.931          2965.500
       234   11 Jun 2027 05:01:02.183   11 Jun 2027 05:01:49.980            47.797         23898.500
       235   11 Jun 2027 05:02:13.463   11 Jun 2027 05:03:11.508            58.045         29022.500
       236   11 Jun 2027 06:37:43.783   11 Jun 2027 06:38:28.568            44.785         21840.969
       237   11 Jun 2027 06:39:20.014   11 Jun 2027 06:39:21.669             1.655           807.469
       238   11 Jun 2027 06:40:20.767   11 Jun 2027 06:40:22.991             2.224          1073.812
       239   11 Jun 2027 06:41:46.343   11 Jun 2027 06:41:54.008             7.665          2468.531
       240   11 Jun 2027 08:01:06.478   11 Jun 2027 08:01:27.897            21.419          7603.500
       241   11 Jun 2027 08:02:30.360   11 Jun 2027 08:02:30.360             0.000             0.000
       242   11 Jun 2027 08:03:02.927   11 Jun 2027 08:03:08.235             5.308          2589.719
       243   11 Jun 2027 08:03:21.138   11 Jun 2027 08:03:22.721             1.583           162.750
       244   11 Jun 2027 09:37:28.469   11 Jun 2027 09:37:35.594             7.125          3388.656
       245   11 Jun 2027 09:39:43.209   11 Jun 2027 09:39:51.826             8.617          3447.500
       246   11 Jun 2027 11:10:57.413   11 Jun 2027 11:11:04.687             7.274          3371.719
       247   11 Jun 2027 11:13:22.915   11 Jun 2027 11:13:25.143             2.228           382.469
       248   11 Jun 2027 11:16:57.145   11 Jun 2027 11:17:14.247            17.102          6313.469
       249   11 Jun 2027 11:17:49.104   11 Jun 2027 11:17:57.499             8.395           927.187
       250   11 Jun 2027 11:18:18.143   11 Jun 2027 11:18:23.118             4.975           645.125
       251   11 Jun 2027 11:18:42.702   11 Jun 2027 11:18:42.929             0.227           113.500
       252   11 Jun 2027 11:19:27.674   11 Jun 2027 11:19:29.012             1.338           669.000
       253   12 Jun 2027 03:33:16.918   12 Jun 2027 03:33:25.091             8.173          4086.500
       254   12 Jun 2027 03:33:45.533   12 Jun 2027 03:34:08.265            22.732         11366.000
       255   12 Jun 2027 03:34:50.884   12 Jun 2027 03:36:40.083           109.199         54599.500
       256   12 Jun 2027 03:37:24.908   12 Jun 2027 03:38:00.757            35.849         17924.500
       257   12 Jun 2027 03:39:21.300   12 Jun 2027 03:40:05.200            43.900         21950.000
       258   12 Jun 2027 05:11:17.986   12 Jun 2027 05:11:21.046             3.060          1530.000
       259   12 Jun 2027 05:12:31.923   12 Jun 2027 05:13:25.176            53.253         26626.500
       260   12 Jun 2027 05:14:47.698   12 Jun 2027 05:15:11.357            23.659         11829.500
       261   12 Jun 2027 05:16:19.510   12 Jun 2027 05:16:56.086            36.576         18288.000
       262   12 Jun 2027 05:17:33.134   12 Jun 2027 05:17:33.650             0.516           258.000
       263   12 Jun 2027 06:49:58.960   12 Jun 2027 06:50:36.308            37.348         14495.593
       264   12 Jun 2027 06:51:36.664   12 Jun 2027 06:51:40.398             3.734           480.469
       265   12 Jun 2027 06:52:16.302   12 Jun 2027 06:52:20.237             3.935           989.500
       266   12 Jun 2027 06:53:28.878   12 Jun 2027 06:53:33.054             4.176          1743.969
       267   12 Jun 2027 08:12:57.475   12 Jun 2027 08:13:13.378            15.903          7379.375
       268   12 Jun 2027 08:14:31.644   12 Jun 2027 08:14:31.644             0.000             0.000
       269   12 Jun 2027 08:15:32.069   12 Jun 2027 08:15:40.345             8.276          3776.469
       270   12 Jun 2027 09:49:30.901   12 Jun 2027 09:49:38.875             7.974          3504.406
       271   12 Jun 2027 09:50:48.843   12 Jun 2027 09:50:51.756             2.913          1269.531
       272   12 Jun 2027 09:51:27.000   12 Jun 2027 09:51:27.000             0.000             0.000
       273   12 Jun 2027 09:51:33.212   12 Jun 2027 09:51:37.438             4.226           353.313
       274   12 Jun 2027 11:25:07.668   12 Jun 2027 11:25:27.326            19.658          9689.438
       275   12 Jun 2027 11:28:39.929   12 Jun 2027 11:28:39.929             0.000             0.000
       276   12 Jun 2027 11:30:28.682   12 Jun 2027 11:30:41.287            12.605          6302.500
       277   12 Jun 2027 11:31:23.262   12 Jun 2027 11:31:23.638             0.376           188.000
       278   13 Jun 2027 03:45:18.773   13 Jun 2027 03:46:00.694            41.921         20960.500
       279   13 Jun 2027 03:46:19.246   13 Jun 2027 03:48:41.044           141.798         70899.000
       280   13 Jun 2027 03:49:18.267   13 Jun 2027 03:49:29.407            11.140          5570.000
       281   13 Jun 2027 03:51:24.132   13 Jun 2027 03:51:43.613            19.481          9740.500
       282   13 Jun 2027 05:23:26.885   13 Jun 2027 05:24:28.973            62.088         31044.000
       283   13 Jun 2027 05:24:35.482   13 Jun 2027 05:25:41.884            66.402         30734.063
       284   13 Jun 2027 05:26:45.683   13 Jun 2027 05:26:46.882             1.199           435.687
       285   13 Jun 2027 05:27:25.800   13 Jun 2027 05:27:28.977             3.177           301.531
       286   13 Jun 2027 05:27:50.153   13 Jun 2027 05:27:50.762             0.609            53.125
       287   13 Jun 2027 05:28:59.508   13 Jun 2027 05:29:05.328             5.820          1958.437
       288   13 Jun 2027 07:01:45.255   13 Jun 2027 07:02:05.961            20.706          8303.094
       289   13 Jun 2027 07:02:16.881   13 Jun 2027 07:02:17.045             0.164            28.281
       290   13 Jun 2027 07:03:08.981   13 Jun 2027 07:03:12.233             3.252           587.906
       291   13 Jun 2027 07:04:04.686   13 Jun 2027 07:04:06.245             1.559           583.375
       292   13 Jun 2027 07:04:51.752   13 Jun 2027 07:04:52.981             1.229           563.000
       293   13 Jun 2027 07:05:16.930   13 Jun 2027 07:05:18.925             1.995           748.406
       294   13 Jun 2027 08:25:08.282   13 Jun 2027 08:25:24.750            16.468          7899.187
       295   13 Jun 2027 08:26:32.655   13 Jun 2027 08:26:32.655             0.000             0.000
       296   13 Jun 2027 08:27:52.061   13 Jun 2027 08:28:03.121            11.060          3107.875
       297   13 Jun 2027 10:01:39.999   13 Jun 2027 10:01:49.520             9.521          2738.031
       298   13 Jun 2027 10:03:21.519   13 Jun 2027 10:03:37.904            16.385          2579.125
       299   13 Jun 2027 10:04:38.759   13 Jun 2027 10:04:43.006             4.247          1812.219
       300   13 Jun 2027 11:36:56.478   13 Jun 2027 11:37:13.079            16.601          7625.844
       301   13 Jun 2027 11:40:14.450   13 Jun 2027 11:40:14.450             0.000             0.000
       302   13 Jun 2027 11:43:02.469   13 Jun 2027 11:43:26.214            23.745         10804.312
