uniorb/output/strategy_4/Camera/Camera_KinoSat_111010.txt

KinoSat_111010
-------------------------
    Access    *     Start Time (UTCG)     *     Stop Time (UTCG)  *   Duration (s) *   Data (Mbytes)
         1   01 Jun 2027 04:14:57.617   01 Jun 2027 04:16:29.285            91.668         45834.000
         2   01 Jun 2027 04:16:53.893   01 Jun 2027 04:16:55.923             2.030          1015.000
         3   01 Jun 2027 05:51:34.048   01 Jun 2027 05:53:16.679           102.631         51315.500
         4   01 Jun 2027 05:54:16.232   01 Jun 2027 05:54:34.444            18.212          9106.000
         5   01 Jun 2027 07:26:44.230   01 Jun 2027 07:29:30.413           166.183         83091.500
         6   01 Jun 2027 07:30:30.051   01 Jun 2027 07:30:30.801             0.750           375.000
         7   01 Jun 2027 07:32:21.491   01 Jun 2027 07:32:33.763            12.272          6136.000
         8   01 Jun 2027 07:32:46.441   01 Jun 2027 07:32:52.832             6.391          3195.500
         9   01 Jun 2027 07:33:06.069   01 Jun 2027 07:33:19.887            13.818          6909.000
        10   01 Jun 2027 09:03:01.817   01 Jun 2027 09:05:56.136           174.319         87159.500
        11   01 Jun 2027 09:08:06.746   01 Jun 2027 09:08:22.620            15.874          7937.000
        12   01 Jun 2027 10:40:31.242   01 Jun 2027 10:43:01.563           150.321         75160.500
        13   01 Jun 2027 10:43:59.035   01 Jun 2027 10:44:13.174            14.139          7069.500
        14   02 Jun 2027 03:03:34.941   02 Jun 2027 03:04:11.552            36.611         18305.500
        15   02 Jun 2027 03:04:54.148   02 Jun 2027 03:04:57.271             3.123          1561.500
        16   02 Jun 2027 03:05:35.030   02 Jun 2027 03:05:35.030             0.000             0.000
        17   02 Jun 2027 03:06:16.259   02 Jun 2027 03:06:49.360            33.101         16550.500
        18   02 Jun 2027 04:27:32.989   02 Jun 2027 04:28:14.092            41.103         20551.500
        19   02 Jun 2027 04:29:00.083   02 Jun 2027 04:29:00.083             0.000             0.000
        20   02 Jun 2027 04:29:40.609   02 Jun 2027 04:29:40.850             0.241           120.500
        21   02 Jun 2027 04:30:02.583   02 Jun 2027 04:30:15.142            12.559          6279.500
        22   02 Jun 2027 06:03:18.525   02 Jun 2027 06:05:58.162           159.637         79818.500
        23   02 Jun 2027 06:06:29.319   02 Jun 2027 06:06:32.467             3.148          1574.000
        24   02 Jun 2027 07:38:12.992   02 Jun 2027 07:40:57.853           164.861         82430.500
        25   02 Jun 2027 07:41:25.888   02 Jun 2027 07:42:06.419            40.531         20265.500
        26   02 Jun 2027 07:44:20.905   02 Jun 2027 07:44:43.675            22.770         11385.000
        27   02 Jun 2027 07:45:26.694   02 Jun 2027 07:45:29.405             2.711          1355.500
        28   02 Jun 2027 09:14:43.809   02 Jun 2027 09:17:47.466           183.657         90253.688
        29   02 Jun 2027 09:18:59.230   02 Jun 2027 09:19:02.810             3.580          1265.250
        30   02 Jun 2027 09:19:28.222   02 Jun 2027 09:19:31.761             3.539           295.656
        31   02 Jun 2027 10:53:02.256   02 Jun 2027 10:53:16.909            14.653          7322.687
        32   02 Jun 2027 10:55:02.204   02 Jun 2027 10:55:04.528             2.324           722.594
        33   02 Jun 2027 10:55:07.465   02 Jun 2027 10:55:10.967             3.502            91.781
        34   02 Jun 2027 10:55:27.559   02 Jun 2027 10:55:30.458             2.899           349.562
        35   02 Jun 2027 10:55:46.897   02 Jun 2027 10:55:48.919             2.022           513.719
        36   02 Jun 2027 10:56:39.924   02 Jun 2027 10:56:43.164             3.240          1019.938
        37   02 Jun 2027 10:56:43.351   02 Jun 2027 10:56:44.947             1.596             5.844
        38   03 Jun 2027 03:04:06.952   03 Jun 2027 03:04:16.443             9.491          4745.500
        39   03 Jun 2027 03:15:31.163   03 Jun 2027 03:17:11.709           100.546         50273.000
        40   03 Jun 2027 04:38:07.403   03 Jun 2027 04:39:09.598            62.195         31097.500
        41   03 Jun 2027 04:39:23.464   03 Jun 2027 04:39:31.270             7.806          3903.000
        42   03 Jun 2027 04:40:53.182   03 Jun 2027 04:40:53.777             0.595           297.500
        43   03 Jun 2027 04:41:34.160   03 Jun 2027 04:41:53.896            19.736          9868.000
        44   03 Jun 2027 04:42:44.390   03 Jun 2027 04:42:46.047             1.657           828.500
        45   03 Jun 2027 06:13:35.083   03 Jun 2027 06:14:28.266            53.183         26591.500
        46   03 Jun 2027 06:15:05.730   03 Jun 2027 06:16:02.018            56.288         26073.563
        47   03 Jun 2027 06:16:10.954   03 Jun 2027 06:16:12.595             1.641           279.250
        48   03 Jun 2027 06:17:16.197   03 Jun 2027 06:17:19.719             3.522          1654.906
        49   03 Jun 2027 06:17:53.117   03 Jun 2027 06:17:55.199             2.082          1033.812
        50   03 Jun 2027 06:18:30.986   03 Jun 2027 06:18:30.986             0.000             0.000
        51   03 Jun 2027 06:19:11.549   03 Jun 2027 06:19:18.444             6.895          2385.938
        52   03 Jun 2027 06:19:40.374   03 Jun 2027 06:19:43.094             2.720           685.313
        53   03 Jun 2027 07:49:58.012   03 Jun 2027 07:50:02.358             4.346          2088.906
        54   03 Jun 2027 07:50:48.633   03 Jun 2027 07:50:56.442             7.809           812.750
        55   03 Jun 2027 07:55:03.032   03 Jun 2027 07:55:07.449             4.417          1709.031
        56   03 Jun 2027 07:55:53.332   03 Jun 2027 07:56:00.375             7.043          1381.625
        57   03 Jun 2027 07:56:07.115   03 Jun 2027 07:56:08.339             1.224           139.844
        58   03 Jun 2027 07:57:04.184   03 Jun 2027 07:57:08.270             4.086           710.313
        59   03 Jun 2027 07:57:30.004   03 Jun 2027 07:57:30.172             0.168            84.000
        60   03 Jun 2027 09:27:03.986   03 Jun 2027 09:27:15.809            11.823          4650.844
        61   03 Jun 2027 09:28:33.403   03 Jun 2027 09:28:34.069             0.666           262.063
        62   03 Jun 2027 09:30:41.630   03 Jun 2027 09:30:45.861             4.231          2087.000
        63   03 Jun 2027 09:31:36.043   03 Jun 2027 09:31:40.256             4.213          1023.406
        64   03 Jun 2027 09:31:58.183   03 Jun 2027 09:31:59.029             0.846           206.000
        65   03 Jun 2027 09:32:29.424   03 Jun 2027 09:32:32.225             2.801           949.844
        66   03 Jun 2027 11:04:59.541   03 Jun 2027 11:05:13.368            13.827          5284.437
        67   03 Jun 2027 11:05:44.843   03 Jun 2027 11:05:50.680             5.837           930.187
        68   03 Jun 2027 11:07:01.225   03 Jun 2027 11:07:07.094             5.869          1004.344
        69   03 Jun 2027 11:07:28.714   03 Jun 2027 11:07:32.581             3.867            67.937
        70   03 Jun 2027 11:08:28.152   03 Jun 2027 11:08:30.251             2.099           206.625
        71   03 Jun 2027 11:08:51.782   03 Jun 2027 11:08:55.560             3.778           602.125
        72   04 Jun 2027 03:15:50.654   04 Jun 2027 03:15:58.504             7.850          3925.000
        73   04 Jun 2027 03:27:34.430   04 Jun 2027 03:28:33.241            58.811         29405.500
        74   04 Jun 2027 04:49:48.295   04 Jun 2027 04:50:54.501            66.206         33103.000
        75   04 Jun 2027 04:51:42.021   04 Jun 2027 04:53:56.468           134.447         67223.500
        76   04 Jun 2027 06:24:43.945   04 Jun 2027 06:25:19.528            35.583         16984.687
        77   04 Jun 2027 06:25:51.046   04 Jun 2027 06:25:52.554             1.508           290.500
        78   04 Jun 2027 06:26:04.824   04 Jun 2027 06:26:10.858             6.034           337.844
        79   04 Jun 2027 06:26:17.952   04 Jun 2027 06:26:21.249             3.297           221.688
        80   04 Jun 2027 06:27:10.604   04 Jun 2027 06:27:15.209             4.605           748.281
        81   04 Jun 2027 06:28:23.834   04 Jun 2027 06:28:27.878             4.044          2021.469
        82   04 Jun 2027 06:28:34.528   04 Jun 2027 06:28:34.528             0.000             0.000
        83   04 Jun 2027 06:29:53.520   04 Jun 2027 06:30:02.734             9.214          2590.875
        84   04 Jun 2027 06:31:07.535   04 Jun 2027 06:31:11.721             4.186          1873.812
        85   04 Jun 2027 06:31:17.113   04 Jun 2027 06:31:20.927             3.814           168.500
        86   04 Jun 2027 06:32:44.176   04 Jun 2027 06:32:48.274             4.098          1328.844
        87   04 Jun 2027 08:02:14.594   04 Jun 2027 08:02:15.989             1.395           594.000
        88   04 Jun 2027 08:06:09.953   04 Jun 2027 08:06:12.256             2.303          1119.781
        89   04 Jun 2027 08:08:02.740   04 Jun 2027 08:08:09.198             6.458          1815.719
        90   04 Jun 2027 08:08:25.114   04 Jun 2027 08:08:28.164             3.050           477.469
        91   04 Jun 2027 08:09:26.855   04 Jun 2027 08:09:28.522             1.667           793.469
        92   04 Jun 2027 09:38:59.830   04 Jun 2027 09:39:10.094            10.264          5003.750
        93   04 Jun 2027 09:42:15.805   04 Jun 2027 09:42:21.970             6.165          1303.781
        94   04 Jun 2027 09:42:58.372   04 Jun 2027 09:43:01.762             3.390           292.125
        95   04 Jun 2027 09:43:06.979   04 Jun 2027 09:43:08.289             1.310           163.031
        96   04 Jun 2027 09:44:04.822   04 Jun 2027 09:44:13.927             9.105           937.281
        97   04 Jun 2027 09:44:58.614   04 Jun 2027 09:45:03.341             4.727          1396.469
        98   04 Jun 2027 11:16:58.836   04 Jun 2027 11:17:14.906            16.070          7464.031
        99   04 Jun 2027 11:18:59.791   04 Jun 2027 11:19:03.926             4.135          2050.719
       100   04 Jun 2027 11:20:11.159   04 Jun 2027 11:20:11.882             0.723            41.094
       101   04 Jun 2027 11:20:43.761   04 Jun 2027 11:20:52.523             8.762           841.344
       102   04 Jun 2027 11:21:04.497   04 Jun 2027 11:21:06.443             1.946           347.000
       103   05 Jun 2027 03:27:23.786   05 Jun 2027 03:27:46.349            22.563         11281.500
       104   05 Jun 2027 03:39:39.609   05 Jun 2027 03:40:07.223            27.614         13807.000
       105   05 Jun 2027 05:01:20.447   05 Jun 2027 05:02:40.040            79.593         39796.500
       106   05 Jun 2027 05:03:28.254   05 Jun 2027 05:04:49.633            81.379         40689.500
       107   05 Jun 2027 05:05:18.329   05 Jun 2027 05:05:18.329             0.000             0.000
       108   05 Jun 2027 05:06:37.665   05 Jun 2027 05:06:56.483            18.818          9409.000
       109   05 Jun 2027 06:36:13.772   05 Jun 2027 06:37:41.949            88.177         42977.813
       110   05 Jun 2027 06:38:36.255   05 Jun 2027 06:38:36.255             0.000             0.000
       111   05 Jun 2027 06:38:58.059   05 Jun 2027 06:39:04.062             6.003          1630.094
       112   05 Jun 2027 06:39:55.284   05 Jun 2027 06:39:57.042             1.758           430.250
       113   05 Jun 2027 06:40:08.267   05 Jun 2027 06:40:08.267             0.000             0.000
       114   05 Jun 2027 06:40:34.692   05 Jun 2027 06:40:37.382             2.690           931.844
       115   05 Jun 2027 06:41:53.413   05 Jun 2027 06:41:59.491             6.078          2375.969
       116   05 Jun 2027 06:42:55.657   05 Jun 2027 06:42:58.800             3.143          1408.344
       117   05 Jun 2027 06:43:30.329   05 Jun 2027 06:43:32.638             2.309           985.281
       118   05 Jun 2027 06:43:54.540   05 Jun 2027 06:43:54.540             0.000             0.000
       119   05 Jun 2027 06:44:05.972   05 Jun 2027 06:44:09.012             3.040           933.313
       120   05 Jun 2027 08:14:09.144   05 Jun 2027 08:14:17.262             8.118          2725.875
       121   05 Jun 2027 08:15:58.471   05 Jun 2027 08:16:03.563             5.092          1971.969
       122   05 Jun 2027 08:17:57.480   05 Jun 2027 08:18:02.310             4.830          1775.969
       123   05 Jun 2027 08:18:57.400   05 Jun 2027 08:19:00.074             2.674          1283.094
       124   05 Jun 2027 08:19:58.256   05 Jun 2027 08:20:01.540             3.284           739.062
       125   05 Jun 2027 08:20:38.644   05 Jun 2027 08:20:41.536             2.892          1159.500
       126   05 Jun 2027 08:21:28.223   05 Jun 2027 08:21:31.275             3.052           694.250
       127   05 Jun 2027 09:50:56.311   05 Jun 2027 09:51:03.397             7.086          3543.000
       128   05 Jun 2027 09:51:28.972   05 Jun 2027 09:51:32.523             3.551          1480.531
       129   05 Jun 2027 09:53:27.146   05 Jun 2027 09:53:32.213             5.067          2129.844
       130   05 Jun 2027 09:55:12.047   05 Jun 2027 09:55:18.268             6.221           577.656
       131   05 Jun 2027 09:55:36.329   05 Jun 2027 09:55:38.733             2.404           479.531
       132   05 Jun 2027 09:55:44.764   05 Jun 2027 09:55:47.423             2.659           188.469
       133   05 Jun 2027 09:55:56.604   05 Jun 2027 09:55:59.154             2.550           286.906
       134   05 Jun 2027 09:56:57.630   05 Jun 2027 09:57:01.314             3.684          1582.750
       135   05 Jun 2027 09:57:11.597   05 Jun 2027 09:57:12.185             0.588           199.406
       136   05 Jun 2027 09:57:33.550   05 Jun 2027 09:57:35.725             2.175           605.188
       137   05 Jun 2027 11:28:46.745   05 Jun 2027 11:28:59.718            12.973          5598.906
       138   05 Jun 2027 11:31:05.181   05 Jun 2027 11:31:11.827             6.646           620.875
       139   05 Jun 2027 11:31:43.845   05 Jun 2027 11:31:53.027             9.182           755.125
       140   05 Jun 2027 11:32:03.506   05 Jun 2027 11:32:07.164             3.658             0.375
       141   05 Jun 2027 11:32:45.831   05 Jun 2027 11:32:50.367             4.536           348.406
       142   05 Jun 2027 11:33:04.623   05 Jun 2027 11:33:06.393             1.770           327.469
       143   06 Jun 2027 03:39:19.350   06 Jun 2027 03:39:47.011            27.661         13830.500
       144   06 Jun 2027 05:15:19.067   06 Jun 2027 05:18:36.978           197.911         98955.500
       145   06 Jun 2027 06:49:07.099   06 Jun 2027 06:50:38.353            91.254         44872.875
       146   06 Jun 2027 06:51:29.934   06 Jun 2027 06:51:30.122             0.188            94.000
       147   06 Jun 2027 06:52:23.830   06 Jun 2027 06:52:28.907             5.077          2152.969
       148   06 Jun 2027 06:53:52.225   06 Jun 2027 06:53:59.430             7.205          2340.438
       149   06 Jun 2027 06:54:36.081   06 Jun 2027 06:54:36.081             0.000             0.000
       150   06 Jun 2027 06:54:52.294   06 Jun 2027 06:55:01.700             9.406          1212.437
       151   06 Jun 2027 06:55:16.799   06 Jun 2027 06:55:17.460             0.661           251.000
       152   06 Jun 2027 06:56:09.279   06 Jun 2027 06:56:20.312            11.033          1416.125
       153   06 Jun 2027 06:56:59.255   06 Jun 2027 06:57:06.200             6.945           663.125
       154   06 Jun 2027 06:57:24.986   06 Jun 2027 06:57:26.666             1.680           376.719
       155   06 Jun 2027 06:57:36.579   06 Jun 2027 06:57:37.878             1.299           309.781
       156   06 Jun 2027 08:26:20.162   06 Jun 2027 08:26:24.961             4.799           754.469
       157   06 Jun 2027 08:28:45.724   06 Jun 2027 08:28:48.050             2.326           758.469
       158   06 Jun 2027 08:30:12.029   06 Jun 2027 08:30:16.822             4.793          2341.562
       159   06 Jun 2027 08:31:17.896   06 Jun 2027 08:31:20.070             2.174           762.313
       160   06 Jun 2027 08:31:46.102   06 Jun 2027 08:31:50.931             4.829           759.281
       161   06 Jun 2027 08:32:41.568   06 Jun 2027 08:32:44.795             3.227          1324.375
       162   06 Jun 2027 08:32:53.961   06 Jun 2027 08:32:58.376             4.415           109.531
       163   06 Jun 2027 10:03:33.088   06 Jun 2027 10:03:45.497            12.409          4615.000
       164   06 Jun 2027 10:05:50.883   06 Jun 2027 10:05:51.500             0.617           104.188
       165   06 Jun 2027 10:06:39.336   06 Jun 2027 10:06:40.184             0.848           358.469
       166   06 Jun 2027 10:06:53.036   06 Jun 2027 10:06:57.019             3.983           401.625
       167   06 Jun 2027 10:07:12.569   06 Jun 2027 10:07:15.392             2.823           259.750
       168   06 Jun 2027 10:07:23.888   06 Jun 2027 10:07:24.936             1.048           126.031
       169   06 Jun 2027 10:07:40.599   06 Jun 2027 10:07:42.560             1.961           478.406
       170   06 Jun 2027 10:08:12.003   06 Jun 2027 10:08:19.444             7.441           622.344
       171   06 Jun 2027 10:08:50.461   06 Jun 2027 10:08:54.168             3.707           957.594
       172   06 Jun 2027 10:09:13.979   06 Jun 2027 10:09:19.217             5.238           468.719
       173   06 Jun 2027 11:40:14.180   06 Jun 2027 11:40:31.952            17.772          8280.875
       174   06 Jun 2027 11:43:23.732   06 Jun 2027 11:43:27.443             3.711           658.094
       175   06 Jun 2027 11:43:58.567   06 Jun 2027 11:44:10.356            11.789           528.844
       176   06 Jun 2027 11:45:01.540   06 Jun 2027 11:45:05.102             3.562           219.094
       177   07 Jun 2027 03:51:11.263   07 Jun 2027 03:51:14.815             3.552          1776.000
       178   07 Jun 2027 03:52:02.396   07 Jun 2027 03:52:12.797            10.401          5200.500
       179   07 Jun 2027 03:53:25.972   07 Jun 2027 03:53:25.972             0.000             0.000
       180   07 Jun 2027 05:27:32.692   07 Jun 2027 05:30:30.823           178.131         89065.500
       181   07 Jun 2027 05:30:48.611   07 Jun 2027 05:31:04.763            16.152          8076.000
       182   07 Jun 2027 07:01:36.369   07 Jun 2027 07:03:18.486           102.117         51058.500
       183   07 Jun 2027 07:03:28.519   07 Jun 2027 07:03:31.334             2.815          1206.594
       184   07 Jun 2027 07:03:42.804   07 Jun 2027 07:03:45.552             2.748            81.906
       185   07 Jun 2027 07:04:17.197   07 Jun 2027 07:04:18.253             1.056           156.687
       186   07 Jun 2027 07:05:51.278   07 Jun 2027 07:05:56.308             5.030          2148.813
       187   07 Jun 2027 07:06:48.073   07 Jun 2027 07:06:52.973             4.900           993.875
       188   07 Jun 2027 07:07:56.857   07 Jun 2027 07:07:56.857             0.000             0.000
       189   07 Jun 2027 07:08:12.558   07 Jun 2027 07:08:16.931             4.373          2039.313
       190   07 Jun 2027 07:08:49.759   07 Jun 2027 07:08:49.759             0.000             0.000
       191   07 Jun 2027 07:09:28.456   07 Jun 2027 07:09:33.838             5.382          2193.281
       192   07 Jun 2027 08:38:42.362   07 Jun 2027 08:38:54.800            12.438          4854.281
       193   07 Jun 2027 08:43:29.992   07 Jun 2027 08:43:32.198             2.206          1063.281
       194   07 Jun 2027 08:43:43.450   07 Jun 2027 08:43:47.750             4.300           326.125
       195   07 Jun 2027 08:44:37.988   07 Jun 2027 08:44:47.391             9.403          1327.969
       196   07 Jun 2027 08:45:17.117   07 Jun 2027 08:45:18.230             1.113           330.969
       197   07 Jun 2027 10:15:39.939   07 Jun 2027 10:15:51.808            11.869          5636.938
       198   07 Jun 2027 10:18:48.985   07 Jun 2027 10:18:49.872             0.887           387.094
       199   07 Jun 2027 10:19:03.544   07 Jun 2027 10:19:03.693             0.149            65.375
       200   07 Jun 2027 10:19:19.174   07 Jun 2027 10:19:22.442             3.268           142.938
       201   07 Jun 2027 10:19:54.795   07 Jun 2027 10:19:57.845             3.050           909.125
       202   07 Jun 2027 11:52:26.433   07 Jun 2027 11:52:39.101            12.668          5965.281
       203   07 Jun 2027 11:55:08.338   07 Jun 2027 11:55:14.028             5.690             0.375
       204   08 Jun 2027 04:03:13.963   08 Jun 2027 04:04:04.672            50.709         25354.500
       205   08 Jun 2027 05:39:39.291   08 Jun 2027 05:42:12.075           152.784         76392.000
       206   08 Jun 2027 07:14:47.344   08 Jun 2027 07:16:46.751           119.407         59427.344
       207   08 Jun 2027 07:17:49.006   08 Jun 2027 07:17:53.375             4.369          1832.531
       208   08 Jun 2027 07:18:18.870   08 Jun 2027 07:18:18.870             0.000             0.000
       209   08 Jun 2027 07:19:57.399   08 Jun 2027 07:20:05.437             8.038          3580.438
       210   08 Jun 2027 07:20:48.378   08 Jun 2027 07:20:50.931             2.553          1018.813
       211   08 Jun 2027 07:21:17.855   08 Jun 2027 07:21:18.865             1.010           418.594
       212   08 Jun 2027 07:21:28.356   08 Jun 2027 07:21:29.401             1.045           294.781
       213   08 Jun 2027 08:51:08.202   08 Jun 2027 08:51:17.971             9.769          4806.781
       214   08 Jun 2027 08:56:07.184   08 Jun 2027 08:56:11.715             4.531          1935.344
       215   08 Jun 2027 08:56:28.584   08 Jun 2027 08:56:29.004             0.420            18.750
       216   08 Jun 2027 08:57:17.186   08 Jun 2027 08:57:20.054             2.868           930.781
       217   08 Jun 2027 10:28:41.855   08 Jun 2027 10:28:57.813            15.958          6920.469
       218   08 Jun 2027 10:31:08.958   08 Jun 2027 10:31:11.279             2.321          1023.469
       219   08 Jun 2027 10:32:39.784   08 Jun 2027 10:32:50.466            10.682          1803.969
       220   09 Jun 2027 04:15:12.375   09 Jun 2027 04:16:00.530            48.155         24077.500
       221   09 Jun 2027 05:51:49.241   09 Jun 2027 05:54:06.547           137.306         68653.000
       222   09 Jun 2027 07:26:59.311   09 Jun 2027 07:29:07.180           127.869         63237.468
       223   09 Jun 2027 07:29:45.707   09 Jun 2027 07:29:49.276             3.569          1195.719
       224   09 Jun 2027 07:30:21.272   09 Jun 2027 07:30:23.786             2.514           999.875
       225   09 Jun 2027 07:31:57.437   09 Jun 2027 07:32:08.348            10.911          2209.531
       226   09 Jun 2027 07:32:57.031   09 Jun 2027 07:33:01.023             3.992          1191.563
       227   09 Jun 2027 07:33:12.601   09 Jun 2027 07:33:14.122             1.521           361.813
       228   09 Jun 2027 09:03:16.518   09 Jun 2027 09:03:31.583            15.065          6085.500
       229   09 Jun 2027 09:07:10.292   09 Jun 2027 09:07:13.086             2.794          1175.688
       230   09 Jun 2027 09:08:21.261   09 Jun 2027 09:08:23.704             2.443          1195.187
       231   09 Jun 2027 09:08:41.462   09 Jun 2027 09:08:45.116             3.654           554.938
       232   09 Jun 2027 09:09:11.521   09 Jun 2027 09:09:13.427             1.906           442.406
       233   09 Jun 2027 10:40:47.050   09 Jun 2027 10:41:01.797            14.747          6501.469
       234   09 Jun 2027 10:42:11.657   09 Jun 2027 10:42:25.572            13.915           102.844
       235   09 Jun 2027 10:43:17.016   09 Jun 2027 10:43:18.987             1.971            40.781
       236   09 Jun 2027 10:43:49.561   09 Jun 2027 10:43:50.476             0.915           411.375
       237   09 Jun 2027 10:44:22.286   09 Jun 2027 10:44:31.663             9.377           240.500
       238   09 Jun 2027 10:45:05.901   09 Jun 2027 10:45:09.564             3.663           444.063
       239   10 Jun 2027 03:03:49.888   10 Jun 2027 03:04:31.788            41.900         20950.000
       240   10 Jun 2027 03:04:38.192   10 Jun 2027 03:04:57.412            19.220          9610.000
       241   10 Jun 2027 03:06:32.870   10 Jun 2027 03:06:32.896             0.026            13.000
       242   10 Jun 2027 03:07:06.232   10 Jun 2027 03:07:15.489             9.257          4628.500
       243   10 Jun 2027 03:07:22.743   10 Jun 2027 03:07:25.189             2.446          1223.000
       244   10 Jun 2027 04:27:48.452   10 Jun 2027 04:28:19.218            30.766         15383.000
       245   10 Jun 2027 04:28:29.143   10 Jun 2027 04:28:36.324             7.181          3590.500
       246   10 Jun 2027 04:29:14.965   10 Jun 2027 04:29:55.278            40.313         20156.500
       247   10 Jun 2027 06:03:33.271   10 Jun 2027 06:05:41.692           128.421         64210.500
       248   10 Jun 2027 06:06:01.638   10 Jun 2027 06:06:18.426            16.788          8394.000
       249   10 Jun 2027 07:38:27.792   10 Jun 2027 07:38:59.574            31.782         14655.001
       250   10 Jun 2027 07:42:04.777   10 Jun 2027 07:42:06.824             2.047           738.969
       251   10 Jun 2027 07:42:49.762   10 Jun 2027 07:42:52.841             3.079           822.656
       252   10 Jun 2027 07:43:05.121   10 Jun 2027 07:43:09.900             4.779           223.500
       253   10 Jun 2027 07:43:57.446   10 Jun 2027 07:43:59.389             1.943           875.031
       254   10 Jun 2027 07:45:24.286   10 Jun 2027 07:45:29.892             5.606          2101.406
       255   10 Jun 2027 09:14:59.406   10 Jun 2027 09:15:10.285            10.879          4699.063
       256   10 Jun 2027 09:18:44.280   10 Jun 2027 09:18:44.672             0.392           148.844
       257   10 Jun 2027 09:19:33.391   10 Jun 2027 09:19:36.406             3.015          1235.906
       258   10 Jun 2027 09:19:58.500   10 Jun 2027 09:20:00.094             1.594           440.719
       259   10 Jun 2027 09:20:19.044   10 Jun 2027 09:20:20.604             1.560           131.063
       260   10 Jun 2027 10:53:17.173   10 Jun 2027 10:53:31.436            14.263          6783.875
       261   10 Jun 2027 10:53:35.830   10 Jun 2027 10:53:36.780             0.950            27.125
       262   10 Jun 2027 10:54:03.185   10 Jun 2027 10:54:04.031             0.846           416.781
       263   10 Jun 2027 10:55:21.580   10 Jun 2027 10:55:26.353             4.773           136.594
       264   10 Jun 2027 10:55:47.175   10 Jun 2027 10:55:48.186             1.011           153.906
       265   10 Jun 2027 10:56:56.294   10 Jun 2027 10:56:58.896             2.602          1055.687
       266   11 Jun 2027 03:04:20.822   11 Jun 2027 03:04:52.804            31.982         15991.000
       267   11 Jun 2027 03:15:46.363   11 Jun 2027 03:18:17.539           151.176         75588.000
       268   11 Jun 2027 04:38:23.693   11 Jun 2027 04:39:03.018            39.325         19662.500
       269   11 Jun 2027 04:41:10.556   11 Jun 2027 04:41:18.477             7.921          3960.500
       270   11 Jun 2027 04:41:48.610   11 Jun 2027 04:42:09.430            20.820         10410.000
       271   11 Jun 2027 06:13:48.121   11 Jun 2027 06:14:43.383            55.262         27631.000
       272   11 Jun 2027 06:15:18.886   11 Jun 2027 06:15:45.085            26.199         13099.500
       273   11 Jun 2027 06:16:39.543   11 Jun 2027 06:16:47.727             8.184          2399.844
       274   11 Jun 2027 06:17:13.104   11 Jun 2027 06:17:14.790             1.686           641.125
       275   11 Jun 2027 06:17:54.681   11 Jun 2027 06:17:54.681             0.000             0.000
       276   11 Jun 2027 06:18:10.493   11 Jun 2027 06:18:12.976             2.483          1158.031
       277   11 Jun 2027 06:18:47.967   11 Jun 2027 06:18:47.967             0.000             0.000
       278   11 Jun 2027 06:19:28.744   11 Jun 2027 06:19:34.296             5.552          2339.250
       279   11 Jun 2027 07:50:13.692   11 Jun 2027 07:50:24.270            10.578          2492.781
       280   11 Jun 2027 07:51:05.572   11 Jun 2027 07:51:10.957             5.385           842.437
       281   11 Jun 2027 07:53:34.953   11 Jun 2027 07:53:37.239             2.286           118.813
       282   11 Jun 2027 07:55:20.031   11 Jun 2027 07:55:23.626             3.595          1709.125
       283   11 Jun 2027 07:56:11.899   11 Jun 2027 07:56:16.307             4.408          1508.531
       284   11 Jun 2027 07:57:37.562   11 Jun 2027 07:57:43.732             6.170          2493.656
       285   11 Jun 2027 09:27:19.868   11 Jun 2027 09:27:32.760            12.892          4879.531
       286   11 Jun 2027 09:28:48.530   11 Jun 2027 09:28:54.080             5.550           244.063
       287   11 Jun 2027 09:31:00.643   11 Jun 2027 09:31:00.883             0.240            55.719
       288   11 Jun 2027 09:31:26.148   11 Jun 2027 09:31:27.046             0.898           172.938
       289   11 Jun 2027 09:31:38.991   11 Jun 2027 09:31:40.310             1.319           192.906
       290   11 Jun 2027 09:32:18.934   11 Jun 2027 09:32:21.025             2.091           965.219
       291   11 Jun 2027 11:05:14.950   11 Jun 2027 11:05:30.734            15.784          4857.219
       292   11 Jun 2027 11:06:32.763   11 Jun 2027 11:06:35.866             3.103           999.625
       293   11 Jun 2027 11:07:27.357   11 Jun 2027 11:07:29.007             1.650           335.469
       294   11 Jun 2027 11:07:45.517   11 Jun 2027 11:07:47.230             1.713           134.437
       295   11 Jun 2027 11:08:48.266   11 Jun 2027 11:08:49.396             1.130           174.125
       296   11 Jun 2027 11:08:58.161   11 Jun 2027 11:08:58.274             0.113            10.844
       297   11 Jun 2027 11:09:10.626   11 Jun 2027 11:09:12.341             1.715            22.000
       298   12 Jun 2027 03:15:59.074   12 Jun 2027 03:16:14.714            15.640          7820.000
       299   12 Jun 2027 03:16:29.548   12 Jun 2027 03:16:33.958             4.410          2205.000
       300   12 Jun 2027 03:27:48.005   12 Jun 2027 03:28:48.065            60.060         30030.000
       301   12 Jun 2027 04:50:03.069   12 Jun 2027 04:51:09.346            66.277         33138.500
       302   12 Jun 2027 04:51:57.260   12 Jun 2027 04:53:09.978            72.718         36359.000
       303   12 Jun 2027 04:54:46.168   12 Jun 2027 04:54:53.233             7.065          3532.500
       304   12 Jun 2027 06:24:57.455   12 Jun 2027 06:26:26.370            88.915         43354.781
       305   12 Jun 2027 06:26:35.380   12 Jun 2027 06:26:37.131             1.751           281.563
       306   12 Jun 2027 06:27:55.759   12 Jun 2027 06:27:59.387             3.628          1647.344
       307   12 Jun 2027 06:28:14.134   12 Jun 2027 06:28:17.002             2.868            95.406
       308   12 Jun 2027 06:28:25.330   12 Jun 2027 06:28:27.288             1.958            92.812
       309   12 Jun 2027 06:29:32.039   12 Jun 2027 06:29:35.895             3.856          1622.594
       310   12 Jun 2027 06:30:29.281   12 Jun 2027 06:30:33.401             4.120           720.000
       311   12 Jun 2027 06:30:49.510   12 Jun 2027 06:30:49.510             0.000             0.000
       312   12 Jun 2027 06:31:40.100   12 Jun 2027 06:31:44.460             4.360          2035.844
       313   12 Jun 2027 06:32:58.591   12 Jun 2027 06:33:05.892             7.301          2030.125
       314   12 Jun 2027 08:02:29.348   12 Jun 2027 08:02:32.473             3.125           512.094
       315   12 Jun 2027 08:08:17.561   12 Jun 2027 08:08:22.255             4.694          1764.531
       316   12 Jun 2027 08:08:39.694   12 Jun 2027 08:08:43.806             4.112           381.406
       317   12 Jun 2027 08:09:41.701   12 Jun 2027 08:09:47.611             5.910           745.750
       318   12 Jun 2027 09:39:15.287   12 Jun 2027 09:39:25.984            10.697          5197.125
       319   12 Jun 2027 09:40:24.713   12 Jun 2027 09:40:26.893             2.180           732.281
       320   12 Jun 2027 09:42:28.842   12 Jun 2027 09:42:37.396             8.554          1179.594
       321   12 Jun 2027 09:43:17.077   12 Jun 2027 09:43:21.893             4.816           424.625
       322   12 Jun 2027 09:43:50.926   12 Jun 2027 09:43:54.465             3.539           883.562
       323   12 Jun 2027 09:44:57.709   12 Jun 2027 09:45:01.345             3.636          1668.219
       324   12 Jun 2027 09:45:43.648   12 Jun 2027 09:45:47.380             3.732          1093.313
       325   12 Jun 2027 11:17:14.879   12 Jun 2027 11:17:30.579            15.700          7038.094
       326   12 Jun 2027 11:18:01.210   12 Jun 2027 11:18:05.565             4.355           858.406
       327   12 Jun 2027 11:19:15.154   12 Jun 2027 11:19:19.776             4.622          2070.094
       328   12 Jun 2027 11:19:39.224   12 Jun 2027 11:19:41.625             2.401           563.844
       329   12 Jun 2027 11:20:32.827   12 Jun 2027 11:20:36.624             3.797           405.000
       330   12 Jun 2027 11:21:11.023   12 Jun 2027 11:21:12.884             1.861           862.250
       331   12 Jun 2027 11:21:20.138   12 Jun 2027 11:21:22.192             2.054            81.438
       332   13 Jun 2027 03:27:39.046   13 Jun 2027 03:28:01.294            22.248         11124.000
       333   13 Jun 2027 03:39:54.716   13 Jun 2027 03:40:22.359            27.643         13821.500
       334   13 Jun 2027 05:01:34.769   13 Jun 2027 05:02:55.002            80.233         40116.500
       335   13 Jun 2027 05:03:43.268   13 Jun 2027 05:05:03.855            80.587         40293.500
       336   13 Jun 2027 05:05:33.345   13 Jun 2027 05:05:45.148            11.803          5901.500
       337   13 Jun 2027 05:07:21.668   13 Jun 2027 05:07:31.042             9.374          4687.000
       338   13 Jun 2027 06:36:28.353   13 Jun 2027 06:37:50.738            82.385         41192.500
       339   13 Jun 2027 06:38:21.622   13 Jun 2027 06:38:25.598             3.976          1520.500
       340   13 Jun 2027 06:38:51.853   13 Jun 2027 06:38:57.660             5.807           413.813
       341   13 Jun 2027 06:39:44.959   13 Jun 2027 06:39:49.156             4.197          1227.000
       342   13 Jun 2027 06:40:10.166   13 Jun 2027 06:40:11.148             0.982           394.906
       343   13 Jun 2027 06:40:28.550   13 Jun 2027 06:40:29.113             0.563           256.219
       344   13 Jun 2027 06:42:00.361   13 Jun 2027 06:42:08.825             8.464          2501.281
       345   13 Jun 2027 06:42:27.678   13 Jun 2027 06:42:31.202             3.524           589.156
       346   13 Jun 2027 06:42:58.942   13 Jun 2027 06:42:59.772             0.830           251.000
       347   13 Jun 2027 06:43:39.572   13 Jun 2027 06:43:41.667             2.095           975.906
       348   13 Jun 2027 06:44:10.583   13 Jun 2027 06:44:14.381             3.798           765.906
       349   13 Jun 2027 06:45:22.608   13 Jun 2027 06:45:26.724             4.116          1953.063
       350   13 Jun 2027 08:14:24.252   13 Jun 2027 08:14:30.088             5.836           491.969
       351   13 Jun 2027 08:15:12.652   13 Jun 2027 08:15:16.395             3.743           927.438
       352   13 Jun 2027 08:18:14.625   13 Jun 2027 08:18:21.467             6.842          1806.312
       353   13 Jun 2027 08:19:14.730   13 Jun 2027 08:19:28.369            13.639          1293.781
       354   13 Jun 2027 08:20:12.499   13 Jun 2027 08:20:13.945             1.446           690.812
       355   13 Jun 2027 08:20:51.585   13 Jun 2027 08:20:54.191             2.606          1101.406
       356   13 Jun 2027 08:21:21.039   13 Jun 2027 08:21:23.615             2.576           769.531
       357   13 Jun 2027 09:51:11.858   13 Jun 2027 09:51:27.131            15.273          5418.281
       358   13 Jun 2027 09:53:40.851   13 Jun 2027 09:53:47.514             6.663          2058.500
       359   13 Jun 2027 09:55:11.321   13 Jun 2027 09:55:14.379             3.058           295.500
       360   13 Jun 2027 09:55:40.669   13 Jun 2027 09:55:41.607             0.938           316.656
       361   13 Jun 2027 09:55:53.580   13 Jun 2027 09:55:54.027             0.447            17.781
       362   13 Jun 2027 09:56:28.597   13 Jun 2027 09:56:31.489             2.892          1039.500
       363   13 Jun 2027 09:57:41.790   13 Jun 2027 09:57:44.300             2.510           873.000
       364   13 Jun 2027 11:29:02.192   13 Jun 2027 11:29:14.934            12.742          4943.187
       365   13 Jun 2027 11:31:12.660   13 Jun 2027 11:31:17.514             4.854          2127.812
       366   13 Jun 2027 11:32:47.320   13 Jun 2027 11:32:52.520             5.200          1911.625
       367   13 Jun 2027 11:33:22.347   13 Jun 2027 11:33:23.589             1.242           413.031
