uniorb/output/strategy_4/Camera/Camera_KinoSat_111204.txt

KinoSat_111204
-------------------------
    Access    *     Start Time (UTCG)     *     Stop Time (UTCG)  *   Duration (s) *   Data (Mbytes)
         1   01 Jun 2027 03:41:27.673   01 Jun 2027 03:41:58.024            30.351         15175.500
         2   01 Jun 2027 03:42:16.597   01 Jun 2027 03:44:03.912           107.315         53657.500
         3   01 Jun 2027 03:44:46.906   01 Jun 2027 03:45:07.387            20.481         10240.500
         4   01 Jun 2027 05:04:50.078   01 Jun 2027 05:06:09.064            78.986         39493.000
         5   01 Jun 2027 06:41:21.954   01 Jun 2027 06:43:13.593           111.639         55819.500
         6   01 Jun 2027 08:16:31.941   01 Jun 2027 08:19:04.481           152.540         76270.000
         7   01 Jun 2027 08:20:50.722   01 Jun 2027 08:20:58.491             7.769          3884.500
         8   01 Jun 2027 08:23:07.206   01 Jun 2027 08:23:08.554             1.348           674.000
         9   01 Jun 2027 09:52:57.453   01 Jun 2027 09:54:18.374            80.921         40460.500
        10   01 Jun 2027 09:54:45.637   01 Jun 2027 09:56:04.574            78.937         39468.500
        11   01 Jun 2027 11:30:11.903   01 Jun 2027 11:30:51.051            39.148         19574.000
        12   01 Jun 2027 11:31:22.737   01 Jun 2027 11:31:33.044            10.307          5153.500
        13   01 Jun 2027 11:31:44.147   01 Jun 2027 11:33:23.757            99.610         49805.000
        14   01 Jun 2027 11:34:01.472   01 Jun 2027 11:34:16.759            15.287          7643.500
        15   02 Jun 2027 03:53:24.388   02 Jun 2027 03:54:03.187            38.799         19399.500
        16   02 Jun 2027 03:54:28.325   02 Jun 2027 03:56:12.226           103.901         51950.500
        17   02 Jun 2027 05:16:52.861   02 Jun 2027 05:17:47.365            54.504         27252.000
        18   02 Jun 2027 05:18:30.890   02 Jun 2027 05:18:43.599            12.709          6354.500
        19   02 Jun 2027 05:19:39.423   02 Jun 2027 05:19:46.339             6.916          3458.000
        20   02 Jun 2027 06:53:15.031   02 Jun 2027 06:55:58.635           163.604         81802.000
        21   02 Jun 2027 06:56:39.265   02 Jun 2027 06:57:16.870            37.605         18802.500
        22   02 Jun 2027 08:28:11.122   02 Jun 2027 08:31:04.473           173.351         86675.500
        23   02 Jun 2027 08:31:22.439   02 Jun 2027 08:31:51.798            29.359         14679.500
        24   02 Jun 2027 08:32:34.640   02 Jun 2027 08:32:36.042             1.402           701.000
        25   02 Jun 2027 08:34:48.619   02 Jun 2027 08:35:16.487            27.868         13934.000
        26   02 Jun 2027 10:04:29.907   02 Jun 2027 10:04:54.439            24.532         11504.032
        27   02 Jun 2027 10:07:04.813   02 Jun 2027 10:07:07.200             2.387           254.625
        28   02 Jun 2027 10:07:16.064   02 Jun 2027 10:07:16.739             0.675           148.938
        29   02 Jun 2027 10:07:33.236   02 Jun 2027 10:07:34.347             1.111           509.500
        30   02 Jun 2027 10:07:59.943   02 Jun 2027 10:08:02.906             2.963           561.594
        31   02 Jun 2027 10:08:42.291   02 Jun 2027 10:08:46.007             3.716           938.031
        32   02 Jun 2027 10:09:05.976   02 Jun 2027 10:09:11.469             5.493           453.531
        33   02 Jun 2027 10:09:34.622   02 Jun 2027 10:09:38.460             3.838           560.031
        34   02 Jun 2027 10:10:03.875   02 Jun 2027 10:10:14.154            10.279           612.969
        35   02 Jun 2027 11:42:45.309   02 Jun 2027 11:42:57.421            12.112          5459.438
        36   02 Jun 2027 11:43:33.771   02 Jun 2027 11:43:36.429             2.658           581.656
        37   02 Jun 2027 11:44:57.548   02 Jun 2027 11:45:01.925             4.377          2098.812
        38   02 Jun 2027 11:45:46.571   02 Jun 2027 11:45:49.957             3.386          1340.406
        39   02 Jun 2027 11:46:19.735   02 Jun 2027 11:46:23.618             3.883           665.719
        40   02 Jun 2027 11:46:36.222   02 Jun 2027 11:46:37.537             1.315           283.031
        41   03 Jun 2027 03:54:09.195   03 Jun 2027 03:54:16.981             7.786          3893.000
        42   03 Jun 2027 04:05:20.721   03 Jun 2027 04:07:01.938           101.217         50608.500
        43   03 Jun 2027 04:07:26.107   03 Jun 2027 04:08:29.551            63.444         31722.000
        44   03 Jun 2027 05:28:16.986   03 Jun 2027 05:29:07.280            50.294         25147.000
        45   03 Jun 2027 07:03:33.750   03 Jun 2027 07:04:07.496            33.746         16873.000
        46   03 Jun 2027 07:04:58.989   03 Jun 2027 07:06:00.060            61.071         29881.406
        47   03 Jun 2027 07:06:10.413   03 Jun 2027 07:06:11.680             1.267            83.750
        48   03 Jun 2027 07:07:04.253   03 Jun 2027 07:07:04.253             0.000             0.000
        49   03 Jun 2027 07:07:30.433   03 Jun 2027 07:07:36.371             5.938          1960.937
        50   03 Jun 2027 07:08:03.692   03 Jun 2027 07:08:05.058             1.366           463.812
        51   03 Jun 2027 07:08:41.651   03 Jun 2027 07:08:44.724             3.073           979.875
        52   03 Jun 2027 08:39:44.524   03 Jun 2027 08:39:48.798             4.274          1694.563
        53   03 Jun 2027 08:42:03.935   03 Jun 2027 08:42:11.161             7.226          2368.344
        54   03 Jun 2027 08:43:01.606   03 Jun 2027 08:43:03.144             1.538           434.062
        55   03 Jun 2027 08:44:04.235   03 Jun 2027 08:44:07.859             3.624          1487.969
        56   03 Jun 2027 08:44:41.787   03 Jun 2027 08:44:44.543             2.756          1060.250
        57   03 Jun 2027 08:45:09.791   03 Jun 2027 08:45:11.133             1.342           372.563
        58   03 Jun 2027 08:45:57.584   03 Jun 2027 08:46:04.200             6.616           774.875
        59   03 Jun 2027 08:46:51.968   03 Jun 2027 08:46:53.661             1.693           738.937
        60   03 Jun 2027 10:16:49.387   03 Jun 2027 10:17:03.183            13.796          6216.125
        61   03 Jun 2027 10:19:18.080   03 Jun 2027 10:19:21.537             3.457           349.781
        62   03 Jun 2027 10:20:18.738   03 Jun 2027 10:20:22.619             3.881          1502.125
        63   03 Jun 2027 10:21:24.848   03 Jun 2027 10:21:28.490             3.642          1210.875
        64   03 Jun 2027 10:21:37.512   03 Jun 2027 10:21:39.163             1.651           157.812
        65   03 Jun 2027 10:22:50.213   03 Jun 2027 10:22:59.820             9.607          2132.750
        66   03 Jun 2027 11:54:48.391   03 Jun 2027 11:55:01.054            12.663          6247.219
        67   03 Jun 2027 11:56:27.036   03 Jun 2027 11:56:28.398             1.362           156.844
        68   03 Jun 2027 11:56:56.998   03 Jun 2027 11:56:59.073             2.075           320.937
        69   03 Jun 2027 11:57:26.149   03 Jun 2027 11:57:28.237             2.088           555.813
        70   03 Jun 2027 11:57:55.083   03 Jun 2027 11:57:59.247             4.164           838.938
        71   03 Jun 2027 11:58:16.088   03 Jun 2027 11:58:16.570             0.482           226.406
        72   03 Jun 2027 11:58:24.974   03 Jun 2027 11:58:25.189             0.215            48.500
        73   04 Jun 2027 04:05:40.358   04 Jun 2027 04:06:11.488            31.130         15565.000
        74   04 Jun 2027 04:17:23.561   04 Jun 2027 04:18:36.900            73.339         36669.500
        75   04 Jun 2027 05:39:36.302   04 Jun 2027 05:40:46.994            70.692         35346.000
        76   04 Jun 2027 05:41:37.043   04 Jun 2027 05:42:26.256            49.213         24606.500
        77   04 Jun 2027 05:43:51.846   04 Jun 2027 05:43:51.846             0.000             0.000
        78   04 Jun 2027 07:14:40.242   04 Jun 2027 07:16:13.484            93.242         46621.000
        79   04 Jun 2027 07:16:43.521   04 Jun 2027 07:16:49.608             6.087          2116.156
        80   04 Jun 2027 07:17:23.460   04 Jun 2027 07:17:24.575             1.115           413.625
        81   04 Jun 2027 07:17:54.710   04 Jun 2027 07:17:55.981             1.271           417.844
        82   04 Jun 2027 07:18:36.103   04 Jun 2027 07:18:37.928             1.825           805.031
        83   04 Jun 2027 07:19:49.404   04 Jun 2027 07:19:57.485             8.081          2233.625
        84   04 Jun 2027 07:20:23.409   04 Jun 2027 07:20:25.121             1.712           589.063
        85   04 Jun 2027 07:21:22.082   04 Jun 2027 07:21:26.723             4.641          1613.812
        86   04 Jun 2027 08:52:02.661   04 Jun 2027 08:52:09.894             7.233          2808.313
        87   04 Jun 2027 08:54:53.793   04 Jun 2027 08:54:57.439             3.646          1564.500
        88   04 Jun 2027 08:55:24.433   04 Jun 2027 08:55:25.862             1.429           488.406
        89   04 Jun 2027 08:56:09.576   04 Jun 2027 08:56:17.890             8.314           937.688
        90   04 Jun 2027 08:56:39.963   04 Jun 2027 08:56:41.340             1.377           596.094
        91   04 Jun 2027 08:57:03.618   04 Jun 2027 08:57:07.608             3.990           687.969
        92   04 Jun 2027 08:57:33.348   04 Jun 2027 08:57:35.520             2.172           773.937
        93   04 Jun 2027 08:57:41.199   04 Jun 2027 08:57:41.199             0.000             0.000
        94   04 Jun 2027 08:57:56.308   04 Jun 2027 08:57:58.363             2.055           559.781
        95   04 Jun 2027 08:58:41.612   04 Jun 2027 08:58:45.762             4.150           567.312
        96   04 Jun 2027 08:59:21.764   04 Jun 2027 08:59:22.010             0.246            28.062
        97   04 Jun 2027 10:28:51.040   04 Jun 2027 10:29:08.557            17.517          6860.031
        98   04 Jun 2027 10:31:32.996   04 Jun 2027 10:31:34.958             1.962            89.969
        99   04 Jun 2027 10:32:40.737   04 Jun 2027 10:32:44.034             3.297           260.406
       100   04 Jun 2027 10:32:59.843   04 Jun 2027 10:33:01.062             1.219           451.031
       101   04 Jun 2027 10:33:38.507   04 Jun 2027 10:33:42.519             4.012           933.969
       102   04 Jun 2027 10:34:12.283   04 Jun 2027 10:34:18.100             5.817           166.000
       103   04 Jun 2027 10:34:56.082   04 Jun 2027 10:34:57.075             0.993           214.031
       104   05 Jun 2027 04:17:10.983   05 Jun 2027 04:17:56.206            45.223         22611.500
       105   05 Jun 2027 04:18:02.492   05 Jun 2027 04:18:20.479            17.987          8993.500
       106   05 Jun 2027 04:29:24.318   05 Jun 2027 04:29:56.144            31.826         15913.000
       107   05 Jun 2027 05:51:20.296   05 Jun 2027 05:52:34.440            74.144         37072.000
       108   05 Jun 2027 05:53:23.066   05 Jun 2027 05:53:58.807            35.741         17870.500
       109   05 Jun 2027 05:55:54.374   05 Jun 2027 05:55:54.374             0.000             0.000
       110   05 Jun 2027 05:56:01.975   05 Jun 2027 05:56:08.172             6.197          3098.500
       111   05 Jun 2027 07:26:08.466   05 Jun 2027 07:27:53.738           105.272         49975.813
       112   05 Jun 2027 07:28:52.714   05 Jun 2027 07:28:56.791             4.077          1516.625
       113   05 Jun 2027 07:29:38.061   05 Jun 2027 07:29:41.072             3.011          1208.813
       114   05 Jun 2027 07:29:56.920   05 Jun 2027 07:30:00.176             3.256           495.250
       115   05 Jun 2027 07:30:38.390   05 Jun 2027 07:30:40.403             2.013           801.125
       116   05 Jun 2027 07:31:42.298   05 Jun 2027 07:31:46.080             3.782          1257.250
       117   05 Jun 2027 07:32:10.047   05 Jun 2027 07:32:13.201             3.154           643.469
       118   05 Jun 2027 07:32:47.638   05 Jun 2027 07:32:49.067             1.429           434.281
       119   05 Jun 2027 07:33:01.139   05 Jun 2027 07:33:01.139             0.000             0.000
       120   05 Jun 2027 07:33:13.549   05 Jun 2027 07:33:15.249             1.700           765.062
       121   05 Jun 2027 07:33:52.076   05 Jun 2027 07:33:52.076             0.000             0.000
       122   05 Jun 2027 07:33:58.245   05 Jun 2027 07:34:04.330             6.085          1343.625
       123   05 Jun 2027 07:35:01.452   05 Jun 2027 07:35:06.448             4.996          1669.437
       124   05 Jun 2027 09:03:57.630   05 Jun 2027 09:04:09.619            11.989          5019.281
       125   05 Jun 2027 09:04:55.077   05 Jun 2027 09:04:58.511             3.434          1101.687
       126   05 Jun 2027 09:06:48.254   05 Jun 2027 09:06:51.464             3.210          1418.656
       127   05 Jun 2027 09:08:03.385   05 Jun 2027 09:08:10.765             7.380          2033.781
       128   05 Jun 2027 09:08:14.499   05 Jun 2027 09:08:15.700             1.201            24.469
       129   05 Jun 2027 09:10:00.806   05 Jun 2027 09:10:03.149             2.343           870.281
       130   05 Jun 2027 09:10:42.500   05 Jun 2027 09:10:47.031             4.531           130.688
       131   05 Jun 2027 09:11:03.954   05 Jun 2027 09:11:05.047             1.093           159.313
       132   05 Jun 2027 10:40:42.034   05 Jun 2027 10:40:54.486            12.452          5237.594
       133   05 Jun 2027 10:41:12.051   05 Jun 2027 10:41:14.685             2.634           281.281
       134   05 Jun 2027 10:44:06.813   05 Jun 2027 10:44:13.742             6.929          1797.594
       135   05 Jun 2027 10:44:42.521   05 Jun 2027 10:44:46.380             3.859           873.438
       136   05 Jun 2027 10:44:56.908   05 Jun 2027 10:44:58.129             1.221           329.000
       137   05 Jun 2027 10:45:35.914   05 Jun 2027 10:45:39.260             3.346           894.719
       138   05 Jun 2027 10:45:50.534   05 Jun 2027 10:45:52.320             1.786           308.063
       139   05 Jun 2027 10:46:17.633   05 Jun 2027 10:46:21.579             3.946           129.094
       140   05 Jun 2027 10:46:53.856   05 Jun 2027 10:46:58.905             5.049           534.094
       141   05 Jun 2027 10:47:01.391   05 Jun 2027 10:47:01.936             0.545            77.687
       142   06 Jun 2027 03:05:08.033   06 Jun 2027 03:05:53.848            45.815         22907.500
       143   06 Jun 2027 03:06:03.065   06 Jun 2027 03:06:03.747             0.682           341.000
       144   06 Jun 2027 03:06:32.739   06 Jun 2027 03:06:47.851            15.112          7556.000
       145   06 Jun 2027 03:07:19.973   06 Jun 2027 03:07:23.153             3.180          1590.000
       146   06 Jun 2027 03:08:26.581   06 Jun 2027 03:08:36.106             9.525          4762.500
       147   06 Jun 2027 03:08:43.780   06 Jun 2027 03:08:48.477             4.697          2348.500
       148   06 Jun 2027 03:08:51.894   06 Jun 2027 03:08:56.656             4.762          2381.000
       149   06 Jun 2027 03:09:05.356   06 Jun 2027 03:09:42.947            37.591         18795.500
       150   06 Jun 2027 04:29:09.712   06 Jun 2027 04:29:47.942            38.230         19115.000
       151   06 Jun 2027 04:30:44.439   06 Jun 2027 04:31:06.578            22.139         11069.500
       152   06 Jun 2027 06:05:06.404   06 Jun 2027 06:07:29.637           143.233         71326.969
       153   06 Jun 2027 07:38:57.190   06 Jun 2027 07:39:11.820            14.630          4462.531
       154   06 Jun 2027 07:40:18.220   06 Jun 2027 07:40:20.602             2.382           335.781
       155   06 Jun 2027 07:41:06.184   06 Jun 2027 07:41:09.914             3.730          1074.656
       156   06 Jun 2027 07:41:56.573   06 Jun 2027 07:41:58.236             1.663           720.750
       157   06 Jun 2027 07:42:41.345   06 Jun 2027 07:42:45.649             4.304           825.500
       158   06 Jun 2027 07:43:34.679   06 Jun 2027 07:43:38.823             4.144           964.500
       159   06 Jun 2027 07:44:28.957   06 Jun 2027 07:44:33.979             5.022          1251.406
       160   06 Jun 2027 07:45:15.026   06 Jun 2027 07:45:20.719             5.693          1248.844
       161   06 Jun 2027 07:46:27.570   06 Jun 2027 07:46:31.584             4.014          1434.844
       162   06 Jun 2027 09:16:04.169   06 Jun 2027 09:16:20.071            15.902          6710.437
       163   06 Jun 2027 09:20:11.861   06 Jun 2027 09:20:18.508             6.647          2745.938
       164   06 Jun 2027 09:21:25.832   06 Jun 2027 09:21:30.247             4.415          1442.437
       165   06 Jun 2027 09:21:45.641   06 Jun 2027 09:21:53.524             7.883           441.438
       166   06 Jun 2027 09:22:58.305   06 Jun 2027 09:23:00.794             2.489          1004.688
       167   06 Jun 2027 09:23:07.236   06 Jun 2027 09:23:09.328             2.092           201.313
       168   06 Jun 2027 09:23:20.440   06 Jun 2027 09:23:23.047             2.607           300.938
       169   06 Jun 2027 10:53:07.054   06 Jun 2027 10:53:21.303            14.249          6476.344
       170   06 Jun 2027 10:53:32.029   06 Jun 2027 10:53:40.909             8.880           335.187
       171   06 Jun 2027 10:55:48.050   06 Jun 2027 10:55:52.362             4.312            28.625
       172   06 Jun 2027 10:56:48.949   06 Jun 2027 10:56:50.430             1.481           202.719
       173   06 Jun 2027 10:57:08.227   06 Jun 2027 10:57:09.310             1.083           498.344
       174   06 Jun 2027 10:57:19.193   06 Jun 2027 10:57:20.133             0.940           155.406
       175   06 Jun 2027 10:57:37.903   06 Jun 2027 10:57:39.719             1.816           143.875
       176   06 Jun 2027 10:58:23.558   06 Jun 2027 10:58:28.527             4.969          1298.219
       177   06 Jun 2027 10:58:54.904   06 Jun 2027 10:58:56.008             1.104           503.406
       178   06 Jun 2027 10:59:06.183   06 Jun 2027 10:59:13.248             7.065           291.656
       179   07 Jun 2027 03:17:42.697   07 Jun 2027 03:20:26.085           163.388         81694.000
       180   07 Jun 2027 03:21:09.505   07 Jun 2027 03:21:39.101            29.596         14798.000
       181   07 Jun 2027 04:41:04.027   07 Jun 2027 04:41:41.387            37.360         18680.000
       182   07 Jun 2027 06:17:28.261   07 Jun 2027 06:19:04.121            95.860         47265.719
       183   07 Jun 2027 06:19:08.915   07 Jun 2027 06:19:09.271             0.356           149.812
       184   07 Jun 2027 06:19:46.539   07 Jun 2027 06:19:48.093             1.554           777.000
       185   07 Jun 2027 06:19:58.961   07 Jun 2027 06:19:58.961             0.000             0.000
       186   07 Jun 2027 06:20:08.260   07 Jun 2027 06:20:08.260             0.000             0.000
       187   07 Jun 2027 06:20:27.224   07 Jun 2027 06:20:31.135             3.911          1452.281
       188   07 Jun 2027 07:51:09.912   07 Jun 2027 07:51:14.202             4.290          1815.719
       189   07 Jun 2027 07:53:03.878   07 Jun 2027 07:53:06.900             3.022          1325.875
       190   07 Jun 2027 07:53:22.743   07 Jun 2027 07:53:25.918             3.175            79.187
       191   07 Jun 2027 07:54:16.842   07 Jun 2027 07:54:21.296             4.454          1546.187
       192   07 Jun 2027 07:55:24.019   07 Jun 2027 07:55:30.180             6.161          1758.656
       193   07 Jun 2027 07:56:10.780   07 Jun 2027 07:56:15.955             5.175           722.250
       194   07 Jun 2027 07:56:50.656   07 Jun 2027 07:56:53.571             2.915          1084.406
       195   07 Jun 2027 07:57:36.380   07 Jun 2027 07:57:37.451             1.071           197.875
       196   07 Jun 2027 07:57:53.951   07 Jun 2027 07:57:56.006             2.055           508.938
       197   07 Jun 2027 07:58:00.221   07 Jun 2027 07:58:00.221             0.000             0.000
       198   07 Jun 2027 07:58:00.722   07 Jun 2027 07:58:01.191             0.469            57.344
       199   07 Jun 2027 07:58:13.523   07 Jun 2027 07:58:15.354             1.831           312.719
       200   07 Jun 2027 07:58:25.532   07 Jun 2027 07:58:26.407             0.875             6.250
       201   07 Jun 2027 07:58:50.949   07 Jun 2027 07:58:54.374             3.425           215.719
       202   07 Jun 2027 07:59:24.518   07 Jun 2027 07:59:26.265             1.747             5.656
       203   07 Jun 2027 09:28:30.508   07 Jun 2027 09:28:45.658            15.150          5871.312
       204   07 Jun 2027 09:32:05.457   07 Jun 2027 09:32:07.361             1.904           197.781
       205   07 Jun 2027 09:33:05.645   07 Jun 2027 09:33:07.705             2.060           719.594
       206   07 Jun 2027 09:33:37.177   07 Jun 2027 09:33:40.683             3.506           207.469
       207   07 Jun 2027 09:34:38.600   07 Jun 2027 09:34:40.801             2.201          1006.125
       208   07 Jun 2027 09:35:09.993   07 Jun 2027 09:35:12.345             2.352           912.250
       209   07 Jun 2027 11:05:27.371   07 Jun 2027 11:05:46.877            19.506          5462.000
       210   07 Jun 2027 11:07:18.729   07 Jun 2027 11:07:21.146             2.417           306.375
       211   07 Jun 2027 11:08:38.631   07 Jun 2027 11:08:40.391             1.760           102.000
       212   07 Jun 2027 11:09:00.853   07 Jun 2027 11:09:03.091             2.238           639.437
       213   07 Jun 2027 11:09:10.453   07 Jun 2027 11:09:11.427             0.974           230.062
       214   07 Jun 2027 11:10:40.803   07 Jun 2027 11:10:47.750             6.947          2725.750
       215   08 Jun 2027 03:29:20.467   08 Jun 2027 03:32:10.291           169.824         84912.000
       216   08 Jun 2027 03:32:26.854   08 Jun 2027 03:33:15.736            48.882         24441.000
       217   08 Jun 2027 04:52:51.281   08 Jun 2027 04:53:17.090            25.809         12904.500
       218   08 Jun 2027 06:29:30.856   08 Jun 2027 06:30:55.341            84.485         40300.782
       219   08 Jun 2027 06:31:19.550   08 Jun 2027 06:31:21.724             2.174           125.750
       220   08 Jun 2027 06:31:42.371   08 Jun 2027 06:31:45.161             2.790           545.625
       221   08 Jun 2027 06:32:00.899   08 Jun 2027 06:32:02.578             1.679           262.250
       222   08 Jun 2027 08:04:30.425   08 Jun 2027 08:04:42.234            11.809          3085.188
       223   08 Jun 2027 08:05:41.173   08 Jun 2027 08:05:42.607             1.434           688.031
       224   08 Jun 2027 08:06:18.439   08 Jun 2027 08:06:24.592             6.153          1119.750
       225   08 Jun 2027 08:07:45.589   08 Jun 2027 08:07:45.589             0.000             0.000
       226   08 Jun 2027 08:07:54.608   08 Jun 2027 08:07:59.081             4.473          1860.656
       227   08 Jun 2027 08:08:32.407   08 Jun 2027 08:08:36.592             4.185           429.438
       228   08 Jun 2027 08:10:01.332   08 Jun 2027 08:10:08.137             6.805          2249.250
       229   08 Jun 2027 08:10:35.273   08 Jun 2027 08:10:37.675             2.402           848.000
       230   08 Jun 2027 08:11:13.536   08 Jun 2027 08:11:16.672             3.136           241.000
       231   08 Jun 2027 09:40:38.083   08 Jun 2027 09:40:52.148            14.065          6185.031
       232   08 Jun 2027 09:44:50.574   08 Jun 2027 09:44:57.057             6.483          1672.000
       233   08 Jun 2027 09:45:36.245   08 Jun 2027 09:45:38.889             2.644          1115.844
       234   08 Jun 2027 09:46:29.324   08 Jun 2027 09:46:32.610             3.286          1575.250
       235   08 Jun 2027 09:47:11.823   08 Jun 2027 09:47:14.097             2.274           818.937
       236   08 Jun 2027 09:47:17.108   08 Jun 2027 09:47:17.802             0.694            50.031
       237   08 Jun 2027 11:18:22.192   08 Jun 2027 11:18:34.989            12.797          5799.281
       238   08 Jun 2027 11:19:14.964   08 Jun 2027 11:19:23.755             8.791          1119.031
       239   08 Jun 2027 11:20:34.860   08 Jun 2027 11:20:43.117             8.257           760.125
       240   08 Jun 2027 11:21:12.119   08 Jun 2027 11:21:13.346             1.227           112.906
       241   08 Jun 2027 11:21:53.972   08 Jun 2027 11:21:55.483             1.511           590.250
       242   08 Jun 2027 11:22:28.533   08 Jun 2027 11:22:30.923             2.390           149.625
       243   09 Jun 2027 03:41:43.314   09 Jun 2027 03:42:14.221            30.907         15453.500
       244   09 Jun 2027 03:42:32.773   09 Jun 2027 03:45:35.296           182.523         91261.500
       245   09 Jun 2027 05:05:05.817   09 Jun 2027 05:05:25.837            20.020         10010.000
       246   09 Jun 2027 05:05:49.109   09 Jun 2027 05:05:57.726             8.617          4308.500
       247   09 Jun 2027 05:06:06.661   09 Jun 2027 05:06:06.661             0.000             0.000
       248   09 Jun 2027 05:06:45.241   09 Jun 2027 05:06:46.258             1.017           508.500
       249   09 Jun 2027 06:41:37.632   09 Jun 2027 06:42:50.366            72.734         34273.125
       250   09 Jun 2027 06:42:59.943   09 Jun 2027 06:43:03.534             3.591           299.281
       251   09 Jun 2027 06:43:06.858   09 Jun 2027 06:43:08.978             2.120           103.875
       252   09 Jun 2027 06:44:12.167   09 Jun 2027 06:44:14.840             2.673          1289.281
       253   09 Jun 2027 06:44:21.318   09 Jun 2027 06:44:21.318             0.000             0.000
       254   09 Jun 2027 06:44:37.139   09 Jun 2027 06:44:41.268             4.129           696.844
       255   09 Jun 2027 08:16:47.891   09 Jun 2027 08:16:56.200             8.309          2276.281
       256   09 Jun 2027 08:17:08.256   09 Jun 2027 08:17:08.297             0.041             3.469
       257   09 Jun 2027 08:18:19.669   09 Jun 2027 08:18:21.939             2.270           425.531
       258   09 Jun 2027 08:19:06.065   09 Jun 2027 08:19:20.929            14.864          1288.469
       259   09 Jun 2027 08:20:08.941   09 Jun 2027 08:20:12.369             3.428          1466.063
       260   09 Jun 2027 08:20:50.195   09 Jun 2027 08:20:54.448             4.253           906.844
       261   09 Jun 2027 08:21:35.314   09 Jun 2027 08:21:40.283             4.969           680.938
       262   09 Jun 2027 08:22:38.800   09 Jun 2027 08:22:44.309             5.509          1729.125
       263   09 Jun 2027 08:23:12.850   09 Jun 2027 08:23:13.816             0.966           308.625
       264   09 Jun 2027 09:53:11.656   09 Jun 2027 09:53:22.182            10.526          4817.406
       265   09 Jun 2027 09:55:44.196   09 Jun 2027 09:55:44.984             0.788           358.344
       266   09 Jun 2027 09:55:46.212   09 Jun 2027 09:55:46.666             0.454            38.375
       267   09 Jun 2027 09:56:04.195   09 Jun 2027 09:56:06.259             2.064           293.094
       268   09 Jun 2027 09:57:13.252   09 Jun 2027 09:57:19.103             5.851          1645.687
       269   09 Jun 2027 09:57:44.168   09 Jun 2027 09:57:47.403             3.235           783.281
       270   09 Jun 2027 09:58:42.654   09 Jun 2027 09:58:45.264             2.610           902.812
       271   09 Jun 2027 09:58:53.598   09 Jun 2027 09:58:54.036             0.438            92.281
       272   09 Jun 2027 09:59:05.018   09 Jun 2027 09:59:09.503             4.485            29.281
       273   09 Jun 2027 11:30:28.237   09 Jun 2027 11:30:46.442            18.205          6088.250
       274   09 Jun 2027 11:31:06.571   09 Jun 2027 11:31:10.292             3.721           462.531
       275   09 Jun 2027 11:32:01.903   09 Jun 2027 11:32:04.059             2.156           400.844
       276   09 Jun 2027 11:33:13.161   09 Jun 2027 11:33:19.887             6.726          1924.031
       277   09 Jun 2027 11:34:16.375   09 Jun 2027 11:34:32.761            16.386          1130.844
       278   09 Jun 2027 11:34:42.938   09 Jun 2027 11:34:44.605             1.667           224.312
       279   09 Jun 2027 11:34:59.397   09 Jun 2027 11:35:04.518             5.121           462.250
       280   10 Jun 2027 03:53:40.060   10 Jun 2027 03:54:19.065            39.005         19502.500
       281   10 Jun 2027 03:54:42.344   10 Jun 2027 03:57:15.536           153.192         76596.000
       282   10 Jun 2027 05:17:35.668   10 Jun 2027 05:17:44.669             9.001          4500.500
       283   10 Jun 2027 05:18:44.585   10 Jun 2027 05:18:47.886             3.301          1650.500
       284   10 Jun 2027 05:20:17.659   10 Jun 2027 05:20:18.564             0.905           452.500
       285   10 Jun 2027 06:53:30.358   10 Jun 2027 06:55:00.420            90.062         44200.438
       286   10 Jun 2027 06:56:10.318   10 Jun 2027 06:56:13.649             3.331          1653.125
       287   10 Jun 2027 06:56:46.085   10 Jun 2027 06:56:46.374             0.289           144.500
       288   10 Jun 2027 06:56:54.334   10 Jun 2027 06:56:54.334             0.000             0.000
       289   10 Jun 2027 06:57:23.770   10 Jun 2027 06:57:29.967             6.197          1897.281
       290   10 Jun 2027 08:28:26.454   10 Jun 2027 08:28:30.422             3.968          1817.906
       291   10 Jun 2027 08:29:05.762   10 Jun 2027 08:29:08.468             2.706           394.531
       292   10 Jun 2027 08:30:33.445   10 Jun 2027 08:30:36.274             2.829           405.062
       293   10 Jun 2027 08:31:20.008   10 Jun 2027 08:31:20.508             0.500            70.906
       294   10 Jun 2027 08:31:38.164   10 Jun 2027 08:31:41.476             3.312           301.719
       295   10 Jun 2027 08:32:48.490   10 Jun 2027 08:32:53.549             5.059          1309.781
       296   10 Jun 2027 08:34:00.914   10 Jun 2027 08:34:08.626             7.712          2105.156
       297   10 Jun 2027 08:34:58.569   10 Jun 2027 08:35:03.887             5.318          1560.719
       298   10 Jun 2027 10:04:45.622   10 Jun 2027 10:04:58.210            12.588          4809.500
       299   10 Jun 2027 10:07:15.328   10 Jun 2027 10:07:17.514             2.186           752.125
       300   10 Jun 2027 10:07:57.273   10 Jun 2027 10:08:00.871             3.598           505.094
       301   10 Jun 2027 10:08:30.539   10 Jun 2027 10:08:34.459             3.920           927.125
       302   10 Jun 2027 10:09:10.439   10 Jun 2027 10:09:17.420             6.981           622.094
       303   10 Jun 2027 10:10:04.252   10 Jun 2027 10:10:06.525             2.273           507.406
       304   10 Jun 2027 10:11:00.747   10 Jun 2027 10:11:09.320             8.573          1388.656
       305   10 Jun 2027 11:43:01.118   10 Jun 2027 11:43:12.719            11.601          5356.531
       306   10 Jun 2027 11:44:06.753   10 Jun 2027 11:44:19.349            12.596           538.469
       307   10 Jun 2027 11:45:21.623   10 Jun 2027 11:45:24.097             2.474           253.063
       308   10 Jun 2027 11:45:41.890   10 Jun 2027 11:45:43.400             1.510           146.344
       309   10 Jun 2027 11:45:57.739   10 Jun 2027 11:46:00.084             2.345           330.406
       310   10 Jun 2027 11:46:14.749   10 Jun 2027 11:46:16.299             1.550           376.000
       311   10 Jun 2027 11:46:46.014   10 Jun 2027 11:46:48.145             2.131           354.500
       312   11 Jun 2027 03:54:31.562   11 Jun 2027 03:54:57.219            25.657         12828.500
       313   11 Jun 2027 04:05:36.418   11 Jun 2027 04:07:17.331           100.913         50456.500
       314   11 Jun 2027 04:07:44.582   11 Jun 2027 04:08:35.054            50.472         25236.000
       315   11 Jun 2027 05:28:12.862   11 Jun 2027 05:28:42.952            30.090         15045.000
       316   11 Jun 2027 05:30:04.753   11 Jun 2027 05:30:17.492            12.739          6369.500
       317   11 Jun 2027 05:30:46.371   11 Jun 2027 05:30:49.590             3.219          1609.500
       318   11 Jun 2027 05:32:08.614   11 Jun 2027 05:32:08.614             0.000             0.000
       319   11 Jun 2027 07:03:48.457   11 Jun 2027 07:04:28.868            40.411         20205.500
       320   11 Jun 2027 07:05:14.766   11 Jun 2027 07:06:11.521            56.755         28319.782
       321   11 Jun 2027 07:06:26.484   11 Jun 2027 07:06:26.718             0.234            52.562
       322   11 Jun 2027 07:08:07.532   11 Jun 2027 07:08:14.821             7.289          2591.656
       323   11 Jun 2027 07:08:48.135   11 Jun 2027 07:08:50.085             1.950           961.156
       324   11 Jun 2027 07:09:36.598   11 Jun 2027 07:09:39.085             2.487          1210.406
       325   11 Jun 2027 08:39:59.746   11 Jun 2027 08:40:07.190             7.444          1745.875
       326   11 Jun 2027 08:41:05.670   11 Jun 2027 08:41:09.065             3.395          1018.625
       327   11 Jun 2027 08:43:08.107   11 Jun 2027 08:43:14.256             6.149          1192.187
       328   11 Jun 2027 08:43:37.075   11 Jun 2027 08:43:37.606             0.531           150.375
       329   11 Jun 2027 08:44:25.452   11 Jun 2027 08:44:29.702             4.250           104.031
       330   11 Jun 2027 08:45:15.179   11 Jun 2027 08:45:17.866             2.687           923.594
       331   11 Jun 2027 08:45:48.015   11 Jun 2027 08:45:49.837             1.822           736.594
       332   11 Jun 2027 08:46:11.635   11 Jun 2027 08:46:14.946             3.311           373.406
       333   11 Jun 2027 08:46:43.571   11 Jun 2027 08:46:45.474             1.903           825.875
       334   11 Jun 2027 08:47:33.576   11 Jun 2027 08:47:35.328             1.752           824.125
       335   11 Jun 2027 10:17:05.556   11 Jun 2027 10:17:19.329            13.773          6137.375
       336   11 Jun 2027 10:19:10.998   11 Jun 2027 10:19:12.580             1.582             4.563
       337   11 Jun 2027 10:20:34.937   11 Jun 2027 10:20:41.017             6.080          1509.187
       338   11 Jun 2027 10:21:00.966   11 Jun 2027 10:21:07.984             7.018           577.906
       339   11 Jun 2027 10:21:47.938   11 Jun 2027 10:21:51.441             3.503           646.281
       340   11 Jun 2027 10:22:20.158   11 Jun 2027 10:22:26.376             6.218           869.844
       341   11 Jun 2027 10:23:15.477   11 Jun 2027 10:23:17.031             1.554           259.062
       342   11 Jun 2027 11:55:03.845   11 Jun 2027 11:55:15.591            11.746          5749.781
       343   11 Jun 2027 11:55:29.098   11 Jun 2027 11:55:30.481             1.383           414.094
       344   11 Jun 2027 11:57:14.780   11 Jun 2027 11:57:17.811             3.031           409.156
       345   11 Jun 2027 11:58:23.686   11 Jun 2027 11:58:28.043             4.357          1762.656
       346   11 Jun 2027 11:58:39.732   11 Jun 2027 11:58:40.440             0.708           224.375
       347   11 Jun 2027 11:58:54.981   11 Jun 2027 11:58:59.047             4.066           427.531
       348   12 Jun 2027 04:05:55.754   12 Jun 2027 04:06:26.048            30.294         15147.000
       349   12 Jun 2027 04:17:39.367   12 Jun 2027 04:18:49.179            69.812         34906.000
       350   12 Jun 2027 05:39:52.410   12 Jun 2027 05:41:02.119            69.709         34854.500
       351   12 Jun 2027 05:41:52.503   12 Jun 2027 05:42:40.741            48.238         24119.000
       352   12 Jun 2027 07:14:54.888   12 Jun 2027 07:16:38.930           104.042         52021.000
       353   12 Jun 2027 07:17:17.124   12 Jun 2027 07:17:20.994             3.870          1588.656
       354   12 Jun 2027 07:18:45.246   12 Jun 2027 07:18:50.381             5.135          2138.500
       355   12 Jun 2027 07:18:54.462   12 Jun 2027 07:18:55.663             1.201           127.531
       356   12 Jun 2027 07:20:03.527   12 Jun 2027 07:20:05.391             1.864           932.000
       357   12 Jun 2027 07:20:24.631   12 Jun 2027 07:20:33.220             8.589          1028.031
       358   12 Jun 2027 07:21:44.849   12 Jun 2027 07:21:49.942             5.093          1983.500
       359   12 Jun 2027 08:52:19.276   12 Jun 2027 08:52:25.797             6.521          2722.125
       360   12 Jun 2027 08:53:08.067   12 Jun 2027 08:53:10.734             2.667          1017.281
       361   12 Jun 2027 08:55:11.082   12 Jun 2027 08:55:16.336             5.254          1579.000
       362   12 Jun 2027 08:55:42.246   12 Jun 2027 08:55:44.714             2.468           559.719
       363   12 Jun 2027 08:56:27.136   12 Jun 2027 08:56:34.317             7.181           926.563
       364   12 Jun 2027 08:56:36.279   12 Jun 2027 08:56:37.495             1.216            14.906
       365   12 Jun 2027 08:56:53.609   12 Jun 2027 08:56:54.841             1.232           119.375
       366   12 Jun 2027 08:57:25.786   12 Jun 2027 08:57:29.290             3.504           967.031
       367   12 Jun 2027 08:58:42.294   12 Jun 2027 08:58:51.494             9.200          1679.719
       368   12 Jun 2027 08:59:35.356   12 Jun 2027 08:59:38.022             2.666          1200.563
       369   12 Jun 2027 10:29:07.105   12 Jun 2027 10:29:19.332            12.227          6024.250
       370   12 Jun 2027 10:32:10.796   12 Jun 2027 10:32:13.964             3.168           362.938
       371   12 Jun 2027 10:33:00.183   12 Jun 2027 10:33:01.173             0.990           407.125
       372   12 Jun 2027 10:33:16.261   12 Jun 2027 10:33:17.592             1.331           449.594
       373   12 Jun 2027 10:33:21.493   12 Jun 2027 10:33:23.335             1.842            97.719
       374   12 Jun 2027 10:33:55.240   12 Jun 2027 10:33:58.895             3.655           954.781
       375   12 Jun 2027 10:34:26.569   12 Jun 2027 10:34:26.810             0.241            95.656
       376   12 Jun 2027 10:35:13.012   12 Jun 2027 10:35:13.669             0.657           247.469
       377   13 Jun 2027 03:00:00.000   13 Jun 2027 03:00:10.902            10.902          5451.000
       378   13 Jun 2027 04:17:27.213   13 Jun 2027 04:18:11.748            44.535         22267.500
       379   13 Jun 2027 04:19:28.885   13 Jun 2027 04:19:39.405            10.520          5260.000
       380   13 Jun 2027 04:29:40.132   13 Jun 2027 04:30:11.847            31.715         15857.500
       381   13 Jun 2027 05:51:35.213   13 Jun 2027 05:52:49.114            73.901         36950.500
       382   13 Jun 2027 05:53:38.201   13 Jun 2027 05:54:14.285            36.084         18042.000
       383   13 Jun 2027 05:56:09.974   13 Jun 2027 05:56:22.968            12.994          6497.000
       384   13 Jun 2027 07:26:23.490   13 Jun 2027 07:28:02.331            98.841         48899.375
       385   13 Jun 2027 07:28:32.913   13 Jun 2027 07:28:34.400             1.487           389.406
       386   13 Jun 2027 07:29:00.492   13 Jun 2027 07:29:01.091             0.599           285.938
       387   13 Jun 2027 07:29:15.511   13 Jun 2027 07:29:19.516             4.005           195.750
       388   13 Jun 2027 07:30:45.513   13 Jun 2027 07:30:51.195             5.682          1878.906
       389   13 Jun 2027 07:31:57.941   13 Jun 2027 07:32:01.637             3.696          1183.969
       390   13 Jun 2027 07:32:27.751   13 Jun 2027 07:32:30.915             3.164           698.031
       391   13 Jun 2027 07:33:00.937   13 Jun 2027 07:33:04.997             4.060           301.656
       392   13 Jun 2027 07:33:28.498   13 Jun 2027 07:33:30.555             2.057           734.406
       393   13 Jun 2027 07:33:31.462   13 Jun 2027 07:33:31.551             0.089            28.344
       394   13 Jun 2027 07:34:43.778   13 Jun 2027 07:34:46.712             2.934          1305.750
       395   13 Jun 2027 09:04:13.314   13 Jun 2027 09:04:24.322            11.008          4893.281
       396   13 Jun 2027 09:06:19.629   13 Jun 2027 09:06:24.168             4.539          2081.563
       397   13 Jun 2027 09:08:28.806   13 Jun 2027 09:08:31.228             2.422          1201.719
       398   13 Jun 2027 09:10:17.349   13 Jun 2027 09:10:21.202             3.853           913.156
       399   13 Jun 2027 09:11:00.963   13 Jun 2027 09:11:01.924             0.961           310.969
       400   13 Jun 2027 09:11:18.364   13 Jun 2027 09:11:19.288             0.924           127.781
       401   13 Jun 2027 10:40:57.792   13 Jun 2027 10:41:15.570            17.778          7257.406
       402   13 Jun 2027 10:42:03.969   13 Jun 2027 10:42:06.937             2.968          1476.094
       403   13 Jun 2027 10:43:58.573   13 Jun 2027 10:44:00.308             1.735           445.187
       404   13 Jun 2027 10:44:30.001   13 Jun 2027 10:44:38.980             8.979           238.594
       405   13 Jun 2027 10:45:11.927   13 Jun 2027 10:45:12.464             0.537           268.500
       406   13 Jun 2027 10:45:32.207   13 Jun 2027 10:45:38.574             6.367           635.531
       407   13 Jun 2027 10:45:52.113   13 Jun 2027 10:45:55.045             2.932           311.937
       408   13 Jun 2027 10:46:07.262   13 Jun 2027 10:46:08.376             1.114           309.562
       409   13 Jun 2027 10:47:14.055   13 Jun 2027 10:47:18.037             3.982          1654.344
