uniorb/output/strategy_4/Camera/Camera_KinoSat_111905.txt

KinoSat_111905
-------------------------
    Access    *     Start Time (UTCG)     *     Stop Time (UTCG)  *   Duration (s) *   Data (Mbytes)
         1   01 Jun 2027 03:00:45.546   01 Jun 2027 03:00:55.137             9.591          4795.500
         2   01 Jun 2027 03:01:31.758   01 Jun 2027 03:01:31.758             0.000             0.000
         3   01 Jun 2027 03:01:41.989   01 Jun 2027 03:01:43.860             1.871           935.500
         4   01 Jun 2027 03:02:26.641   01 Jun 2027 03:02:58.419            31.778         15889.000
         5   01 Jun 2027 03:03:26.731   01 Jun 2027 03:03:31.576             4.845          2422.500
         6   01 Jun 2027 03:03:51.308   01 Jun 2027 03:04:06.675            15.367          7683.500
         7   01 Jun 2027 03:05:17.472   01 Jun 2027 03:05:39.879            22.407         11203.500
         8   01 Jun 2027 03:07:30.067   01 Jun 2027 03:07:33.994             3.927          1963.500
         9   01 Jun 2027 03:07:46.605   01 Jun 2027 03:07:58.939            12.334          6167.000
        10   01 Jun 2027 04:38:53.946   01 Jun 2027 04:39:22.252            28.306         14153.000
        11   01 Jun 2027 04:39:29.081   01 Jun 2027 04:40:37.606            68.525         34262.500
        12   01 Jun 2027 04:42:18.909   01 Jun 2027 04:42:19.229             0.320           160.000
        13   01 Jun 2027 04:42:50.717   01 Jun 2027 04:43:14.747            24.030         12015.000
        14   01 Jun 2027 06:16:54.539   01 Jun 2027 06:19:00.836           126.297         63148.500
        15   01 Jun 2027 06:19:15.096   01 Jun 2027 06:19:18.240             3.144          1572.000
        16   01 Jun 2027 07:40:35.460   01 Jun 2027 07:42:34.299           118.839         59419.500
        17   01 Jun 2027 09:16:57.672   01 Jun 2027 09:17:38.893            41.221         20610.500
        18   01 Jun 2027 09:18:25.423   01 Jun 2027 09:19:26.077            60.654         30327.000
        19   01 Jun 2027 10:51:01.720   01 Jun 2027 10:52:53.540           111.820         55910.000
        20   01 Jun 2027 10:54:52.724   01 Jun 2027 10:55:04.265            11.541          5770.500
        21   01 Jun 2027 10:57:35.877   01 Jun 2027 10:57:45.829             9.952          4976.000
        22   01 Jun 2027 10:58:26.824   01 Jun 2027 10:58:56.372            29.548         14774.000
        23   01 Jun 2027 10:58:58.765   01 Jun 2027 10:59:01.311             2.546          1273.000
        24   02 Jun 2027 03:12:49.644   02 Jun 2027 03:13:02.670            13.026          6513.000
        25   02 Jun 2027 03:13:05.228   02 Jun 2027 03:13:31.562            26.334         13167.000
        26   02 Jun 2027 03:14:09.449   02 Jun 2027 03:15:41.506            92.057         46028.500
        27   02 Jun 2027 03:17:21.885   02 Jun 2027 03:17:21.885             0.000             0.000
        28   02 Jun 2027 03:18:01.136   02 Jun 2027 03:18:09.027             7.891          3945.500
        29   02 Jun 2027 03:18:26.722   02 Jun 2027 03:18:30.619             3.897          1948.500
        30   02 Jun 2027 03:18:36.884   02 Jun 2027 03:18:57.120            20.236         10118.000
        31   02 Jun 2027 03:19:50.196   02 Jun 2027 03:19:51.703             1.507           753.500
        32   02 Jun 2027 04:51:00.650   02 Jun 2027 04:52:03.712            63.062         31531.000
        33   02 Jun 2027 04:52:10.274   02 Jun 2027 04:55:25.327           195.053         97526.500
        34   02 Jun 2027 04:55:52.514   02 Jun 2027 04:56:18.678            26.164         13082.000
        35   02 Jun 2027 06:30:08.065   02 Jun 2027 06:32:44.289           156.224         78112.000
        36   02 Jun 2027 07:52:39.353   02 Jun 2027 07:53:40.512            61.159         30579.500
        37   02 Jun 2027 07:54:17.391   02 Jun 2027 07:54:20.750             3.359          1679.500
        38   02 Jun 2027 09:29:08.576   02 Jun 2027 09:30:11.901            63.325         31662.500
        39   02 Jun 2027 11:04:13.587   02 Jun 2027 11:04:52.915            39.328         18995.688
        40   02 Jun 2027 11:05:34.078   02 Jun 2027 11:05:40.679             6.601          1286.344
        41   02 Jun 2027 11:06:07.551   02 Jun 2027 11:06:09.729             2.178            56.781
        42   02 Jun 2027 11:07:08.480   02 Jun 2027 11:07:10.999             2.519           867.719
        43   02 Jun 2027 11:10:17.014   02 Jun 2027 11:10:29.822            12.808          5747.781
        44   02 Jun 2027 11:10:53.573   02 Jun 2027 11:10:57.381             3.808           217.125
        45   02 Jun 2027 11:10:59.132   02 Jun 2027 11:11:00.566             1.434            39.125
        46   03 Jun 2027 03:24:48.084   03 Jun 2027 03:25:24.798            36.714         18357.000
        47   03 Jun 2027 03:25:38.520   03 Jun 2027 03:28:08.104           149.584         74792.000
        48   03 Jun 2027 03:28:45.491   03 Jun 2027 03:29:18.529            33.038         16519.000
        49   03 Jun 2027 03:30:06.933   03 Jun 2027 03:30:16.003             9.070          4535.000
        50   03 Jun 2027 03:30:41.477   03 Jun 2027 03:30:41.923             0.446           223.000
        51   03 Jun 2027 05:03:03.094   03 Jun 2027 05:03:43.884            40.790         20395.000
        52   03 Jun 2027 05:04:07.930   03 Jun 2027 05:04:48.288            40.358         20179.000
        53   03 Jun 2027 05:05:05.940   03 Jun 2027 05:05:30.532            24.592         12223.218
        54   03 Jun 2027 05:06:44.752   03 Jun 2027 05:06:49.971             5.219          1513.437
        55   03 Jun 2027 05:08:24.916   03 Jun 2027 05:08:27.356             2.440          1161.594
        56   03 Jun 2027 06:41:15.202   03 Jun 2027 06:41:25.534            10.332          4529.125
        57   03 Jun 2027 06:43:08.115   03 Jun 2027 06:43:11.035             2.920          1158.750
        58   03 Jun 2027 08:04:35.873   03 Jun 2027 08:04:56.903            21.030          7110.688
        59   03 Jun 2027 08:05:23.816   03 Jun 2027 08:05:25.176             1.360           351.500
        60   03 Jun 2027 08:06:03.813   03 Jun 2027 08:06:06.052             2.239           633.562
        61   03 Jun 2027 08:07:26.619   03 Jun 2027 08:07:26.690             0.071            35.500
        62   03 Jun 2027 08:07:38.049   03 Jun 2027 08:07:44.834             6.785          2550.656
        63   03 Jun 2027 08:07:48.964   03 Jun 2027 08:07:50.253             1.289            23.469
        64   03 Jun 2027 09:41:13.681   03 Jun 2027 09:41:21.991             8.310          2387.281
        65   03 Jun 2027 09:42:53.252   03 Jun 2027 09:42:57.630             4.378           937.781
        66   03 Jun 2027 09:43:14.084   03 Jun 2027 09:43:15.915             1.831           514.188
        67   03 Jun 2027 09:44:15.727   03 Jun 2027 09:44:20.666             4.939          1419.375
        68   03 Jun 2027 11:16:23.979   03 Jun 2027 11:16:34.213            10.234          4366.437
        69   03 Jun 2027 11:18:21.222   03 Jun 2027 11:18:27.701             6.479          3134.594
        70   03 Jun 2027 11:22:46.470   03 Jun 2027 11:23:00.036            13.566          6760.750
        71   04 Jun 2027 03:36:50.192   04 Jun 2027 03:37:12.072            21.880         10940.000
        72   04 Jun 2027 03:37:15.300   04 Jun 2027 03:40:10.799           175.499         87749.500
        73   04 Jun 2027 03:43:07.551   04 Jun 2027 03:43:26.218            18.667          9333.500
        74   04 Jun 2027 05:16:07.905   04 Jun 2027 05:17:57.089           109.184         52595.156
        75   04 Jun 2027 05:18:31.112   04 Jun 2027 05:18:32.869             1.757           858.312
        76   04 Jun 2027 05:18:39.129   04 Jun 2027 05:18:40.448             1.319           195.625
        77   04 Jun 2027 05:19:50.390   04 Jun 2027 05:19:52.450             2.060           737.500
        78   04 Jun 2027 05:22:32.224   04 Jun 2027 05:22:41.195             8.971          4485.500
        79   04 Jun 2027 05:22:55.281   04 Jun 2027 05:23:00.955             5.674           947.625
        80   04 Jun 2027 06:42:26.423   04 Jun 2027 06:42:36.710            10.287          4963.281
        81   04 Jun 2027 06:53:12.916   04 Jun 2027 06:53:15.509             2.593          1296.500
        82   04 Jun 2027 06:53:24.061   04 Jun 2027 06:53:26.166             2.105           675.781
        83   04 Jun 2027 06:56:38.798   04 Jun 2027 06:56:39.384             0.586            54.469
        84   04 Jun 2027 08:17:12.129   04 Jun 2027 08:17:28.279            16.150          3989.375
        85   04 Jun 2027 08:17:46.104   04 Jun 2027 08:17:48.332             2.228           215.500
        86   04 Jun 2027 08:19:21.540   04 Jun 2027 08:19:27.516             5.976          2461.281
        87   04 Jun 2027 08:19:29.900   04 Jun 2027 08:19:31.129             1.229            74.500
        88   04 Jun 2027 09:52:57.657   04 Jun 2027 09:53:05.710             8.053          2297.719
        89   04 Jun 2027 09:54:38.129   04 Jun 2027 09:54:43.661             5.532          1904.344
        90   04 Jun 2027 09:55:38.277   04 Jun 2027 09:55:41.465             3.188          1465.563
        91   04 Jun 2027 11:27:48.251   04 Jun 2027 11:27:53.225             4.974          2205.781
        92   04 Jun 2027 11:30:32.084   04 Jun 2027 11:30:32.084             0.000             0.000
        93   04 Jun 2027 11:31:18.173   04 Jun 2027 11:31:29.114            10.941          5436.625
        94   04 Jun 2027 11:32:28.046   04 Jun 2027 11:32:32.335             4.289          1275.031
        95   04 Jun 2027 11:32:48.712   04 Jun 2027 11:32:51.010             2.298           334.250
        96   04 Jun 2027 11:33:51.391   04 Jun 2027 11:33:57.436             6.045          1052.344
        97   04 Jun 2027 11:34:27.476   04 Jun 2027 11:34:29.070             1.594           653.188
        98   04 Jun 2027 11:34:50.357   04 Jun 2027 11:34:54.310             3.953           665.219
        99   05 Jun 2027 03:49:30.774   05 Jun 2027 03:51:13.506           102.732         51366.000
       100   05 Jun 2027 05:28:28.904   05 Jun 2027 05:31:55.059           206.155        103077.500
       101   05 Jun 2027 05:34:25.352   05 Jun 2027 05:34:42.009            16.657          6640.781
       102   05 Jun 2027 06:53:42.579   05 Jun 2027 06:53:50.257             7.678          3649.844
       103   05 Jun 2027 06:54:23.896   05 Jun 2027 06:54:26.633             2.737           420.937
       104   05 Jun 2027 07:05:13.484   05 Jun 2027 07:05:19.587             6.103          2664.875
       105   05 Jun 2027 07:06:17.008   05 Jun 2027 07:06:19.878             2.870           642.344
       106   05 Jun 2027 08:27:51.094   05 Jun 2027 08:28:04.486            13.392          6593.344
       107   05 Jun 2027 08:29:26.648   05 Jun 2027 08:29:30.567             3.919          1530.313
       108   05 Jun 2027 08:30:18.193   05 Jun 2027 08:30:25.421             7.228           929.812
       109   05 Jun 2027 10:02:59.270   05 Jun 2027 10:03:06.840             7.570          2952.562
       110   05 Jun 2027 10:04:42.295   05 Jun 2027 10:04:46.539             4.244          1776.875
       111   05 Jun 2027 10:05:07.244   05 Jun 2027 10:05:08.628             1.384           518.187
       112   05 Jun 2027 10:07:33.173   05 Jun 2027 10:07:35.797             2.624          1312.000
       113   05 Jun 2027 10:08:41.125   05 Jun 2027 10:08:51.792            10.667          4397.594
       114   05 Jun 2027 11:39:42.911   05 Jun 2027 11:39:59.635            16.724          4434.219
       115   05 Jun 2027 11:42:41.167   05 Jun 2027 11:42:52.950            11.783          5047.875
       116   05 Jun 2027 11:44:31.974   05 Jun 2027 11:44:39.866             7.892          2876.062
       117   05 Jun 2027 11:45:03.953   05 Jun 2027 11:45:04.826             0.873           305.438
       118   05 Jun 2027 11:45:46.318   05 Jun 2027 11:45:48.702             2.384           845.125
       119   05 Jun 2027 11:46:32.447   05 Jun 2027 11:46:35.225             2.778           975.656
       120   06 Jun 2027 04:01:46.704   06 Jun 2027 04:03:09.646            82.942         41471.000
       121   06 Jun 2027 04:03:13.388   06 Jun 2027 04:05:21.827           128.439         64219.500
       122   06 Jun 2027 04:06:32.287   06 Jun 2027 04:06:52.564            20.277         10138.500
       123   06 Jun 2027 04:07:05.915   06 Jun 2027 04:07:06.814             0.899           449.500
       124   06 Jun 2027 05:40:45.100   06 Jun 2027 05:42:32.788           107.688         53844.000
       125   06 Jun 2027 05:42:52.721   06 Jun 2027 05:42:56.789             4.068           977.375
       126   06 Jun 2027 05:45:52.902   06 Jun 2027 05:46:01.413             8.511          4024.781
       127   06 Jun 2027 05:46:16.538   06 Jun 2027 05:46:21.950             5.412           384.656
       128   06 Jun 2027 05:46:46.120   06 Jun 2027 05:46:46.971             0.851           418.750
       129   06 Jun 2027 07:04:58.836   06 Jun 2027 07:05:07.055             8.219          4109.500
       130   06 Jun 2027 07:05:34.692   06 Jun 2027 07:05:41.297             6.605          2419.500
       131   06 Jun 2027 07:05:50.404   06 Jun 2027 07:05:53.651             3.247           284.594
       132   06 Jun 2027 07:06:13.246   06 Jun 2027 07:06:14.546             1.300           575.969
       133   06 Jun 2027 07:07:05.208   06 Jun 2027 07:07:07.634             2.426           970.781
       134   06 Jun 2027 07:17:11.262   06 Jun 2027 07:17:17.787             6.525          1971.125
       135   06 Jun 2027 08:39:26.950   06 Jun 2027 08:39:51.357            24.407         11478.469
       136   06 Jun 2027 08:40:27.755   06 Jun 2027 08:40:30.385             2.630          1137.437
       137   06 Jun 2027 08:42:02.316   06 Jun 2027 08:42:11.764             9.448          2202.781
       138   06 Jun 2027 08:43:26.115   06 Jun 2027 08:43:30.210             4.095          1957.062
       139   06 Jun 2027 08:44:20.712   06 Jun 2027 08:44:23.756             3.044          1393.344
       140   06 Jun 2027 10:14:19.429   06 Jun 2027 10:14:27.840             8.411          2426.531
       141   06 Jun 2027 10:15:43.706   06 Jun 2027 10:15:50.809             7.103          1332.375
       142   06 Jun 2027 10:18:05.257   06 Jun 2027 10:18:12.147             6.890          3008.219
       143   06 Jun 2027 10:19:33.959   06 Jun 2027 10:19:34.160             0.201           100.500
       144   06 Jun 2027 10:20:22.607   06 Jun 2027 10:20:31.764             9.157          3543.594
       145   06 Jun 2027 10:20:55.876   06 Jun 2027 10:20:58.161             2.285           596.344
       146   06 Jun 2027 10:21:31.486   06 Jun 2027 10:21:31.486             0.000             0.000
       147   06 Jun 2027 11:53:58.861   06 Jun 2027 11:54:18.883            20.022          9800.938
       148   06 Jun 2027 11:58:02.596   06 Jun 2027 11:58:02.596             0.000             0.000
       149   06 Jun 2027 11:58:04.889   06 Jun 2027 11:58:18.799            13.910          6031.906
       150   06 Jun 2027 11:59:04.944   06 Jun 2027 11:59:11.293             6.349          1293.250
       151   07 Jun 2027 04:14:05.981   07 Jun 2027 04:14:19.249            13.268          6634.000
       152   07 Jun 2027 04:14:33.207   07 Jun 2027 04:16:59.435           146.228         73114.000
       153   07 Jun 2027 04:17:39.477   07 Jun 2027 04:17:53.968            14.491          7245.500
       154   07 Jun 2027 05:52:51.711   07 Jun 2027 05:55:07.874           136.163         67671.344
       155   07 Jun 2027 05:57:17.250   07 Jun 2027 05:57:22.505             5.255          2230.437
       156   07 Jun 2027 05:59:01.987   07 Jun 2027 05:59:14.009            12.022          2782.219
       157   07 Jun 2027 07:17:04.635   07 Jun 2027 07:17:23.868            19.233          8423.406
       158   07 Jun 2027 07:17:40.452   07 Jun 2027 07:17:42.177             1.725           295.469
       159   07 Jun 2027 07:18:16.386   07 Jun 2027 07:18:19.041             2.655           844.344
       160   07 Jun 2027 07:18:54.160   07 Jun 2027 07:18:57.946             3.786           578.688
       161   07 Jun 2027 07:29:35.139   07 Jun 2027 07:29:38.619             3.480          1740.000
       162   07 Jun 2027 08:50:55.484   07 Jun 2027 08:51:20.196            24.712         11269.500
       163   07 Jun 2027 08:52:59.757   07 Jun 2027 08:53:03.678             3.921          1801.500
       164   07 Jun 2027 08:54:01.131   07 Jun 2027 08:54:10.347             9.216          1795.406
       165   07 Jun 2027 08:54:58.262   07 Jun 2027 08:55:00.759             2.497           837.313
       166   07 Jun 2027 08:55:39.022   07 Jun 2027 08:55:41.910             2.888           461.688
       167   07 Jun 2027 10:25:49.553   07 Jun 2027 10:25:55.808             6.255          3112.594
       168   07 Jun 2027 10:28:31.775   07 Jun 2027 10:28:33.451             1.676           694.500
       169   07 Jun 2027 10:31:34.213   07 Jun 2027 10:31:37.707             3.494          1747.000
       170   07 Jun 2027 10:32:09.996   07 Jun 2027 10:32:19.569             9.573          4684.469
       171   07 Jun 2027 10:33:13.751   07 Jun 2027 10:33:14.860             1.109           461.281
       172   07 Jun 2027 10:34:56.115   07 Jun 2027 10:35:05.249             9.134          3141.094
       173   08 Jun 2027 04:26:43.793   08 Jun 2027 04:26:51.418             7.625          3812.500
       174   08 Jun 2027 04:27:05.324   08 Jun 2027 04:27:14.046             8.722          4361.000
       175   08 Jun 2027 04:27:15.400   08 Jun 2027 04:28:06.914            51.514         25757.000
       176   08 Jun 2027 04:28:11.867   08 Jun 2027 04:28:50.843            38.976         19488.000
       177   08 Jun 2027 04:28:51.001   08 Jun 2027 04:29:07.872            16.871          8435.500
       178   08 Jun 2027 04:32:12.307   08 Jun 2027 04:32:20.338             8.031          4015.500
       179   08 Jun 2027 06:05:17.010   08 Jun 2027 06:08:18.800           181.790         90525.563
       180   08 Jun 2027 06:08:38.039   08 Jun 2027 06:08:40.665             2.626            12.000
       181   08 Jun 2027 06:09:59.445   08 Jun 2027 06:10:04.704             5.259           766.594
       182   08 Jun 2027 07:29:00.632   08 Jun 2027 07:29:12.437            11.805          5101.031
       183   08 Jun 2027 07:30:16.472   08 Jun 2027 07:30:20.002             3.530          1583.063
       184   08 Jun 2027 09:05:12.953   08 Jun 2027 09:05:36.816            23.863         11494.656
       185   08 Jun 2027 09:05:54.588   08 Jun 2027 09:05:57.726             3.138           555.375
       186   08 Jun 2027 09:07:59.184   08 Jun 2027 09:08:09.365            10.181          3752.719
       187   08 Jun 2027 10:38:44.814   08 Jun 2027 10:38:56.825            12.011          3954.750
       188   08 Jun 2027 10:40:39.615   08 Jun 2027 10:40:44.861             5.246          1957.000
       189   08 Jun 2027 10:43:33.846   08 Jun 2027 10:43:44.052            10.206          4951.594
       190   08 Jun 2027 10:45:56.925   08 Jun 2027 10:46:02.450             5.525          2130.875
       191   08 Jun 2027 10:46:43.353   08 Jun 2027 10:46:47.811             4.458           903.312
       192   09 Jun 2027 03:01:03.858   09 Jun 2027 03:01:20.045            16.187          8093.500
       193   09 Jun 2027 03:01:55.048   09 Jun 2027 03:01:58.171             3.123          1561.500
       194   09 Jun 2027 03:02:56.493   09 Jun 2027 03:03:17.415            20.922         10461.000
       195   09 Jun 2027 03:03:27.197   09 Jun 2027 03:03:38.133            10.936          5468.000
       196   09 Jun 2027 03:04:24.285   09 Jun 2027 03:04:35.851            11.566          5783.000
       197   09 Jun 2027 03:05:00.825   09 Jun 2027 03:05:06.734             5.909          2954.500
       198   09 Jun 2027 03:06:02.755   09 Jun 2027 03:06:17.654            14.899          7449.500
       199   09 Jun 2027 03:06:39.823   09 Jun 2027 03:06:47.813             7.990          3995.000
       200   09 Jun 2027 04:39:10.824   09 Jun 2027 04:39:38.930            28.106         14053.000
       201   09 Jun 2027 04:39:42.804   09 Jun 2027 04:41:35.549           112.745         56372.500
       202   09 Jun 2027 04:42:27.371   09 Jun 2027 04:42:35.920             8.549          4274.500
       203   09 Jun 2027 04:42:55.699   09 Jun 2027 04:43:37.462            41.763         20881.500
       204   09 Jun 2027 04:44:07.007   09 Jun 2027 04:44:25.448            18.441          9220.500
       205   09 Jun 2027 04:44:50.804   09 Jun 2027 04:45:01.557            10.753          5376.500
       206   09 Jun 2027 06:17:11.542   09 Jun 2027 06:18:06.286            54.744         27220.687
       207   09 Jun 2027 06:21:18.586   09 Jun 2027 06:21:19.849             1.263           472.969
       208   09 Jun 2027 06:21:38.776   09 Jun 2027 06:21:41.663             2.887           235.281
       209   09 Jun 2027 07:40:52.425   09 Jun 2027 07:41:06.514            14.089          6814.906
       210   09 Jun 2027 07:42:17.829   09 Jun 2027 07:42:24.212             6.383          1850.000
       211   09 Jun 2027 07:42:47.945   09 Jun 2027 07:42:49.782             1.837           290.250
       212   09 Jun 2027 07:43:00.795   09 Jun 2027 07:43:02.008             1.213           255.937
       213   09 Jun 2027 09:17:16.211   09 Jun 2027 09:17:37.264            21.053          8932.938
       214   09 Jun 2027 09:18:30.783   09 Jun 2027 09:18:35.923             5.140           692.500
       215   09 Jun 2027 09:18:46.591   09 Jun 2027 09:18:49.153             2.562           163.906
       216   09 Jun 2027 09:19:08.957   09 Jun 2027 09:19:09.913             0.956           407.000
       217   09 Jun 2027 09:20:21.164   09 Jun 2027 09:20:27.721             6.557          1995.062
       218   09 Jun 2027 10:49:28.529   09 Jun 2027 10:49:38.658            10.129          3665.594
       219   09 Jun 2027 10:53:13.271   09 Jun 2027 10:53:28.330            15.059          6510.281
       220   09 Jun 2027 10:55:09.473   09 Jun 2027 10:55:09.473             0.000             0.000
       221   09 Jun 2027 10:55:32.738   09 Jun 2027 10:55:32.818             0.080            40.000
       222   09 Jun 2027 10:55:54.435   09 Jun 2027 10:55:59.956             5.521          2172.250
       223   09 Jun 2027 10:56:24.097   09 Jun 2027 10:56:31.344             7.247           627.812
       224   09 Jun 2027 10:58:48.224   09 Jun 2027 10:59:03.255            15.031          4173.375
       225   10 Jun 2027 03:13:07.070   10 Jun 2027 03:13:48.004            40.934         20467.000
       226   10 Jun 2027 03:14:24.461   10 Jun 2027 03:16:17.990           113.529         56764.500
       227   10 Jun 2027 03:16:52.129   10 Jun 2027 03:17:25.053            32.924         16462.000
       228   10 Jun 2027 04:51:16.920   10 Jun 2027 04:52:20.411            63.491         31745.500
       229   10 Jun 2027 04:52:27.751   10 Jun 2027 04:52:28.386             0.635           317.500
       230   10 Jun 2027 04:53:43.789   10 Jun 2027 04:55:00.923            77.134         38109.500
       231   10 Jun 2027 06:30:25.364   10 Jun 2027 06:30:43.878            18.514          8777.156
       232   10 Jun 2027 06:33:05.749   10 Jun 2027 06:33:06.381             0.632           214.844
       233   10 Jun 2027 07:52:57.794   10 Jun 2027 07:53:08.616            10.822          5411.000
       234   10 Jun 2027 07:54:18.948   10 Jun 2027 07:54:26.601             7.653          3458.250
       235   10 Jun 2027 07:55:37.612   10 Jun 2027 07:55:41.609             3.997          1978.062
       236   10 Jun 2027 07:55:55.385   10 Jun 2027 07:55:58.345             2.960           271.562
       237   10 Jun 2027 09:29:26.951   10 Jun 2027 09:29:35.989             9.038          3861.063
       238   10 Jun 2027 09:29:55.239   10 Jun 2027 09:29:58.828             3.589           527.688
       239   10 Jun 2027 09:30:32.558   10 Jun 2027 09:30:34.789             2.231           440.969
       240   10 Jun 2027 09:31:11.724   10 Jun 2027 09:31:12.746             1.022           511.000
       241   10 Jun 2027 09:31:31.305   10 Jun 2027 09:31:34.351             3.046          1058.125
       242   10 Jun 2027 09:32:26.351   10 Jun 2027 09:32:28.998             2.647          1247.156
       243   10 Jun 2027 11:04:34.463   10 Jun 2027 11:04:50.962            16.499          4130.250
       244   10 Jun 2027 11:05:55.102   10 Jun 2027 11:06:09.174            14.072          1426.062
       245   10 Jun 2027 11:07:42.292   10 Jun 2027 11:07:49.530             7.238           538.438
       246   10 Jun 2027 11:10:37.692   10 Jun 2027 11:10:46.879             9.187          4468.063
       247   10 Jun 2027 11:11:10.691   10 Jun 2027 11:11:11.828             1.137           297.656
       248   10 Jun 2027 11:11:16.054   10 Jun 2027 11:11:16.612             0.558            63.094
       249   11 Jun 2027 03:25:05.264   11 Jun 2027 03:25:41.443            36.179         18089.500
       250   11 Jun 2027 03:25:53.687   11 Jun 2027 03:29:01.733           188.046         94023.000
       251   11 Jun 2027 03:30:35.311   11 Jun 2027 03:30:56.409            21.098         10549.000
       252   11 Jun 2027 03:31:18.766   11 Jun 2027 03:31:22.868             4.102          2051.000
       253   11 Jun 2027 05:03:21.302   11 Jun 2027 05:04:02.709            41.407         20703.500
       254   11 Jun 2027 05:04:25.146   11 Jun 2027 05:05:23.363            58.217         28170.219
       255   11 Jun 2027 05:05:33.699   11 Jun 2027 05:05:38.308             4.609           302.094
       256   11 Jun 2027 05:06:16.561   11 Jun 2027 05:06:17.574             1.013           183.531
       257   11 Jun 2027 05:08:12.011   11 Jun 2027 05:08:17.948             5.937           861.875
       258   11 Jun 2027 06:41:34.480   11 Jun 2027 06:41:43.047             8.567          3946.656
       259   11 Jun 2027 06:43:23.556   11 Jun 2027 06:43:29.884             6.328          1183.094
       260   11 Jun 2027 06:44:56.345   11 Jun 2027 06:44:58.074             1.729            43.344
       261   11 Jun 2027 08:05:01.675   11 Jun 2027 08:05:13.250            11.575          3700.750
       262   11 Jun 2027 08:05:40.258   11 Jun 2027 08:05:41.068             0.810           369.906
       263   11 Jun 2027 08:06:18.439   11 Jun 2027 08:06:19.765             1.326           538.656
       264   11 Jun 2027 08:07:42.963   11 Jun 2027 08:07:42.963             0.000             0.000
       265   11 Jun 2027 08:07:56.819   11 Jun 2027 08:08:03.276             6.457          3032.937
       266   11 Jun 2027 09:41:30.649   11 Jun 2027 09:41:36.504             5.855          2916.781
       267   11 Jun 2027 09:43:04.158   11 Jun 2027 09:43:12.731             8.573          2154.563
       268   11 Jun 2027 09:43:56.705   11 Jun 2027 09:44:00.542             3.837          1323.719
       269   11 Jun 2027 09:44:53.546   11 Jun 2027 09:44:55.100             1.554           603.906
       270   11 Jun 2027 11:16:41.797   11 Jun 2027 11:16:49.988             8.191          3628.250
       271   11 Jun 2027 11:18:42.929   11 Jun 2027 11:18:50.266             7.337          3305.750
       272   11 Jun 2027 11:21:13.494   11 Jun 2027 11:21:18.148             4.654          2327.000
       273   11 Jun 2027 11:22:44.875   11 Jun 2027 11:22:53.109             8.234          3690.094
       274   11 Jun 2027 11:23:12.938   11 Jun 2027 11:23:14.366             1.428           411.688
       275   12 Jun 2027 03:37:08.508   12 Jun 2027 03:40:14.954           186.446         93223.000
       276   12 Jun 2027 03:40:29.601   12 Jun 2027 03:41:28.504            58.903         29451.500
       277   12 Jun 2027 03:43:51.779   12 Jun 2027 03:43:59.794             8.015          4007.500
       278   12 Jun 2027 05:16:25.977   12 Jun 2027 05:17:44.529            78.552         38255.188
       279   12 Jun 2027 05:18:45.345   12 Jun 2027 05:18:46.990             1.645           796.844
       280   12 Jun 2027 05:18:57.592   12 Jun 2027 05:18:59.691             2.099           331.313
       281   12 Jun 2027 05:22:46.647   12 Jun 2027 05:22:55.931             9.284          4642.000
       282   12 Jun 2027 05:23:11.342   12 Jun 2027 05:23:16.373             5.031           939.750
       283   12 Jun 2027 06:42:40.627   12 Jun 2027 06:42:51.550            10.923          3889.406
       284   12 Jun 2027 06:53:30.252   12 Jun 2027 06:53:35.585             5.333          2173.156
       285   12 Jun 2027 06:56:53.273   12 Jun 2027 06:56:53.727             0.454            50.531
       286   12 Jun 2027 08:17:28.680   12 Jun 2027 08:17:51.192            22.512          9502.344
       287   12 Jun 2027 08:18:03.747   12 Jun 2027 08:18:06.012             2.265           318.875
       288   12 Jun 2027 08:19:37.701   12 Jun 2027 08:19:42.704             5.003          2421.313
       289   12 Jun 2027 09:53:15.075   12 Jun 2027 09:53:21.267             6.192          2852.656
       290   12 Jun 2027 09:55:12.113   12 Jun 2027 09:55:18.672             6.559          2997.500
       291   12 Jun 2027 09:55:56.643   12 Jun 2027 09:55:58.089             1.446           208.344
       292   12 Jun 2027 09:56:44.875   12 Jun 2027 09:56:49.709             4.834          1426.000
       293   12 Jun 2027 09:57:21.039   12 Jun 2027 09:57:24.196             3.157           193.719
       294   12 Jun 2027 11:28:39.929   12 Jun 2027 11:28:56.452            16.523          8127.500
       295   12 Jun 2027 11:34:53.463   12 Jun 2027 11:35:12.167            18.704          8274.406
       296   13 Jun 2027 03:49:48.797   13 Jun 2027 03:53:03.673           194.876         97438.000
       297   13 Jun 2027 03:53:16.058   13 Jun 2027 03:53:40.276            24.218         12109.000
       298   13 Jun 2027 03:55:19.425   13 Jun 2027 03:55:22.462             3.037          1518.500
       299   13 Jun 2027 03:56:11.357   13 Jun 2027 03:56:11.986             0.629           314.500
       300   13 Jun 2027 05:28:47.960   13 Jun 2027 05:30:41.166           113.206         56603.000
       301   13 Jun 2027 05:30:51.038   13 Jun 2027 05:30:56.177             5.139          2382.625
       302   13 Jun 2027 05:34:40.340   13 Jun 2027 05:34:52.658            12.318          4705.875
       303   13 Jun 2027 06:53:55.703   13 Jun 2027 06:54:09.810            14.107          5575.844
       304   13 Jun 2027 06:54:39.592   13 Jun 2027 06:54:40.914             1.322           409.000
       305   13 Jun 2027 06:55:05.257   13 Jun 2027 06:55:05.257             0.000             0.000
       306   13 Jun 2027 07:05:31.448   13 Jun 2027 07:05:39.526             8.078          2729.812
       307   13 Jun 2027 07:06:49.462   13 Jun 2027 07:06:53.931             4.469           292.687
       308   13 Jun 2027 08:28:06.122   13 Jun 2027 08:28:20.545            14.423          6605.781
       309   13 Jun 2027 08:29:44.360   13 Jun 2027 08:29:47.598             3.238          1521.563
       310   13 Jun 2027 08:31:43.676   13 Jun 2027 08:31:51.290             7.614          3050.469
       311   13 Jun 2027 08:32:42.534   13 Jun 2027 08:32:46.135             3.601          1601.375
       312   13 Jun 2027 10:03:23.716   13 Jun 2027 10:03:37.904            14.188          4825.563
       313   13 Jun 2027 10:04:58.400   13 Jun 2027 10:05:00.704             2.304            18.344
       314   13 Jun 2027 10:06:40.027   13 Jun 2027 10:06:46.478             6.451          1467.750
       315   13 Jun 2027 10:08:55.497   13 Jun 2027 10:08:58.467             2.970          1485.000
       316   13 Jun 2027 10:09:16.721   13 Jun 2027 10:09:19.722             3.001          1315.906
       317   13 Jun 2027 11:40:04.025   13 Jun 2027 11:40:14.450            10.425          4175.969
       318   13 Jun 2027 11:44:56.823   13 Jun 2027 11:45:16.971            20.148          8824.156
       319   13 Jun 2027 11:45:36.516   13 Jun 2027 11:45:47.525            11.009           461.375
       320   13 Jun 2027 11:46:18.896   13 Jun 2027 11:46:20.228             1.332           446.969
       321   13 Jun 2027 11:46:39.828   13 Jun 2027 11:46:42.280             2.452           491.250
       322   13 Jun 2027 11:47:12.164   13 Jun 2027 11:47:14.575             2.411           814.063
