uniorb/output/strategy_4/Camera/Camera_KinoSat_110706.txt

KinoSat_110706
-------------------------
    Access    *     Start Time (UTCG)     *     Stop Time (UTCG)  *   Duration (s) *   Data (Mbytes)
         1   01 Jun 2027 03:28:08.436   01 Jun 2027 03:29:14.981            66.545         33272.500
         2   01 Jun 2027 03:30:10.922   01 Jun 2027 03:30:18.438             7.516          3758.000
         3   01 Jun 2027 03:31:20.347   01 Jun 2027 03:31:37.272            16.925          8462.500
         4   01 Jun 2027 03:33:15.128   01 Jun 2027 03:33:43.057            27.929         13964.500
         5   01 Jun 2027 05:02:56.949   01 Jun 2027 05:04:42.515           105.566         52783.000
         6   01 Jun 2027 05:05:42.725   01 Jun 2027 05:05:51.139             8.414          4207.000
         7   01 Jun 2027 05:06:30.088   01 Jun 2027 05:06:30.088             0.000             0.000
         8   01 Jun 2027 05:09:30.696   01 Jun 2027 05:09:30.696             0.000             0.000
         9   01 Jun 2027 05:09:42.649   01 Jun 2027 05:09:50.519             7.870          3935.000
        10   01 Jun 2027 05:11:41.962   01 Jun 2027 05:11:52.678            10.716          5358.000
        11   01 Jun 2027 06:40:45.344   01 Jun 2027 06:42:21.336            95.992         47996.000
        12   01 Jun 2027 06:42:56.064   01 Jun 2027 06:43:16.036            19.972          9986.000
        13   01 Jun 2027 06:44:40.665   01 Jun 2027 06:44:43.313             2.648          1324.000
        14   01 Jun 2027 06:47:32.137   01 Jun 2027 06:47:33.925             1.788           894.000
        15   01 Jun 2027 06:48:07.074   01 Jun 2027 06:48:10.980             3.906          1953.000
        16   01 Jun 2027 08:17:29.929   01 Jun 2027 08:19:54.138           144.209         72104.500
        17   01 Jun 2027 08:20:58.491   01 Jun 2027 08:21:02.679             4.188          2094.000
        18   01 Jun 2027 08:21:35.846   01 Jun 2027 08:21:45.354             9.508          4754.000
        19   01 Jun 2027 09:55:37.007   01 Jun 2027 09:58:27.776           170.769         85384.500
        20   01 Jun 2027 11:29:28.122   01 Jun 2027 11:31:49.339           141.217         70608.500
        21   02 Jun 2027 03:41:54.260   02 Jun 2027 03:42:02.084             7.824          3912.000
        22   02 Jun 2027 03:44:06.969   02 Jun 2027 03:44:14.488             7.519          3759.500
        23   02 Jun 2027 05:15:45.075   02 Jun 2027 05:18:47.458           182.383         91191.500
        24   02 Jun 2027 05:19:06.742   02 Jun 2027 05:19:39.423            32.681         16340.500
        25   02 Jun 2027 06:52:51.737   02 Jun 2027 06:54:56.508           124.771         62385.500
        26   02 Jun 2027 06:55:58.635   02 Jun 2027 06:56:39.265            40.630         20315.000
        27   02 Jun 2027 06:56:58.855   02 Jun 2027 06:57:09.731            10.876          5438.000
        28   02 Jun 2027 06:57:38.978   02 Jun 2027 06:57:42.008             3.030          1515.000
        29   02 Jun 2027 06:57:52.166   02 Jun 2027 06:58:00.265             8.099          4049.500
        30   02 Jun 2027 06:58:05.641   02 Jun 2027 06:58:07.774             2.133          1066.500
        31   02 Jun 2027 08:29:53.725   02 Jun 2027 08:33:31.358           217.633        108816.500
        32   02 Jun 2027 08:35:12.853   02 Jun 2027 08:36:01.825            48.972         24486.000
        33   02 Jun 2027 10:06:50.919   02 Jun 2027 10:07:09.555            18.636          9122.970
        34   02 Jun 2027 10:07:59.943   02 Jun 2027 10:08:02.906             2.963           561.594
        35   02 Jun 2027 10:10:01.260   02 Jun 2027 10:10:03.875             2.615           387.062
        36   02 Jun 2027 10:10:52.433   02 Jun 2027 10:10:53.430             0.997           343.594
        37   02 Jun 2027 11:41:54.867   02 Jun 2027 11:41:58.787             3.920          1832.687
        38   03 Jun 2027 03:54:15.744   03 Jun 2027 03:54:40.312            24.568         12284.000
        39   03 Jun 2027 05:27:43.424   03 Jun 2027 05:30:31.088           167.664         83832.000
        40   03 Jun 2027 05:30:36.155   03 Jun 2027 05:30:39.008             2.853          1426.500
        41   03 Jun 2027 05:31:49.151   03 Jun 2027 05:32:00.764            11.613          5806.500
        42   03 Jun 2027 05:34:54.400   03 Jun 2027 05:35:11.885            17.485          8742.500
        43   03 Jun 2027 05:35:12.927   03 Jun 2027 05:35:25.640            12.713          6356.500
        44   03 Jun 2027 05:35:56.778   03 Jun 2027 05:36:14.057            17.279          8639.500
        45   03 Jun 2027 07:05:17.411   03 Jun 2027 07:06:39.878            82.467         40350.125
        46   03 Jun 2027 07:08:22.094   03 Jun 2027 07:08:24.269             2.175           972.562
        47   03 Jun 2027 07:09:16.232   03 Jun 2027 07:09:20.315             4.083          1528.844
        48   03 Jun 2027 07:10:36.683   03 Jun 2027 07:10:47.081            10.398          2075.969
        49   03 Jun 2027 07:11:23.815   03 Jun 2027 07:11:26.792             2.977           145.625
        50   03 Jun 2027 08:42:11.161   03 Jun 2027 08:42:23.173            12.012          4588.437
        51   03 Jun 2027 08:44:21.883   03 Jun 2027 08:44:29.850             7.967          1820.844
        52   03 Jun 2027 08:45:31.952   03 Jun 2027 08:45:35.088             3.136          1032.313
        53   03 Jun 2027 08:45:48.296   03 Jun 2027 08:45:50.082             1.786            62.094
        54   03 Jun 2027 08:46:28.322   03 Jun 2027 08:46:31.206             2.884           960.563
        55   03 Jun 2027 08:46:39.787   03 Jun 2027 08:46:40.135             0.348           113.250
        56   03 Jun 2027 08:47:33.502   03 Jun 2027 08:47:37.790             4.288           493.906
        57   03 Jun 2027 10:19:05.058   03 Jun 2027 10:19:21.537            16.479          7573.375
        58   03 Jun 2027 10:21:37.512   03 Jun 2027 10:21:39.163             1.651           157.812
        59   03 Jun 2027 10:23:00.277   03 Jun 2027 10:23:05.558             5.281           314.500
        60   03 Jun 2027 11:56:44.428   03 Jun 2027 11:56:46.728             2.300            82.938
        61   04 Jun 2027 04:06:17.078   04 Jun 2027 04:06:19.895             2.817          1408.500
        62   04 Jun 2027 04:06:37.726   04 Jun 2027 04:06:40.627             2.901          1450.500
        63   04 Jun 2027 04:07:07.200   04 Jun 2027 04:07:08.496             1.296           648.000
        64   04 Jun 2027 04:07:44.030   04 Jun 2027 04:07:57.162            13.132          6566.000
        65   04 Jun 2027 05:41:12.101   04 Jun 2027 05:43:42.067           149.966         74983.000
        66   04 Jun 2027 05:47:28.293   04 Jun 2027 05:47:51.556            23.263         11631.500
        67   04 Jun 2027 07:17:24.575   04 Jun 2027 07:19:30.321           125.746         62591.094
        68   04 Jun 2027 07:20:05.667   04 Jun 2027 07:20:06.269             0.602           255.687
        69   04 Jun 2027 07:21:21.705   04 Jun 2027 07:21:23.362             1.657           304.875
        70   04 Jun 2027 07:23:38.478   04 Jun 2027 07:23:40.796             2.318           545.156
        71   04 Jun 2027 08:55:07.670   04 Jun 2027 08:55:18.003            10.333          4232.031
        72   04 Jun 2027 08:56:03.387   04 Jun 2027 08:56:05.655             2.268           640.969
        73   04 Jun 2027 08:56:39.963   04 Jun 2027 08:56:41.340             1.377           596.094
        74   04 Jun 2027 08:57:03.618   04 Jun 2027 08:57:07.608             3.990           687.969
        75   04 Jun 2027 08:57:48.879   04 Jun 2027 08:57:51.299             2.420           237.063
        76   04 Jun 2027 08:58:07.804   04 Jun 2027 08:58:15.011             7.207           434.188
        77   04 Jun 2027 08:58:41.612   04 Jun 2027 08:58:45.762             4.150           567.312
        78   04 Jun 2027 08:59:16.225   04 Jun 2027 08:59:16.990             0.765           213.844
        79   04 Jun 2027 08:59:25.352   04 Jun 2027 08:59:27.841             2.489           261.312
        80   04 Jun 2027 10:31:12.098   04 Jun 2027 10:31:28.367            16.269          6780.125
        81   05 Jun 2027 04:19:58.089   05 Jun 2027 04:20:29.338            31.249         15624.500
        82   05 Jun 2027 05:53:34.781   05 Jun 2027 05:56:11.813           157.032         78516.000
        83   05 Jun 2027 05:58:45.911   05 Jun 2027 05:59:28.840            42.929         21464.500
        84   05 Jun 2027 06:00:10.366   05 Jun 2027 06:00:11.433             1.067           533.500
        85   05 Jun 2027 07:30:00.176   05 Jun 2027 07:31:25.483            85.307         42327.281
        86   05 Jun 2027 07:33:16.208   05 Jun 2027 07:33:17.215             1.007           339.625
        87   05 Jun 2027 07:34:21.540   05 Jun 2027 07:34:27.528             5.988          1490.312
        88   05 Jun 2027 09:07:14.647   05 Jun 2027 09:07:31.879            17.232          5398.219
        89   05 Jun 2027 09:09:38.421   05 Jun 2027 09:09:39.199             0.778           137.563
        90   05 Jun 2027 09:09:45.121   05 Jun 2027 09:09:46.810             1.689            16.031
        91   05 Jun 2027 09:11:18.476   05 Jun 2027 09:11:23.513             5.037           452.750
        92   05 Jun 2027 10:43:29.254   05 Jun 2027 10:43:40.544            11.290          5345.281
        93   06 Jun 2027 04:30:17.761   06 Jun 2027 04:30:51.470            33.709         16854.500
        94   06 Jun 2027 04:31:54.140   06 Jun 2027 04:33:42.655           108.515         54257.500
        95   06 Jun 2027 06:05:14.098   06 Jun 2027 06:07:15.776           121.678         60839.000
        96   06 Jun 2027 06:08:19.050   06 Jun 2027 06:08:48.951            29.901         14950.500
        97   06 Jun 2027 06:09:20.004   06 Jun 2027 06:09:33.511            13.507          6675.000
        98   06 Jun 2027 06:10:53.247   06 Jun 2027 06:10:57.486             4.239          2005.875
        99   06 Jun 2027 06:11:27.483   06 Jun 2027 06:11:29.980             2.497           853.250
       100   06 Jun 2027 06:11:50.767   06 Jun 2027 06:11:52.184             1.417           168.406
       101   06 Jun 2027 07:41:32.466   06 Jun 2027 07:41:33.616             1.150           523.875
       102   06 Jun 2027 07:42:57.697   06 Jun 2027 07:43:01.745             4.048           251.594
       103   06 Jun 2027 07:43:50.287   06 Jun 2027 07:43:52.599             2.312           972.500
       104   06 Jun 2027 07:45:35.733   06 Jun 2027 07:45:45.971            10.238          1350.219
       105   06 Jun 2027 07:46:48.465   06 Jun 2027 07:46:51.599             3.134          1042.937
       106   06 Jun 2027 09:19:48.109   06 Jun 2027 09:20:02.784            14.675          6331.281
       107   06 Jun 2027 09:20:48.401   06 Jun 2027 09:20:51.081             2.680          1145.000
       108   06 Jun 2027 09:21:37.312   06 Jun 2027 09:21:45.242             7.930          1444.719
       109   06 Jun 2027 09:22:26.155   06 Jun 2027 09:22:27.125             0.970           475.844
       110   06 Jun 2027 09:23:00.794   06 Jun 2027 09:23:04.118             3.324            77.781
       111   06 Jun 2027 09:23:16.708   06 Jun 2027 09:23:20.440             3.732           296.000
       112   06 Jun 2027 10:55:08.183   06 Jun 2027 10:55:18.639            10.456          4624.438
       113   06 Jun 2027 10:57:33.299   06 Jun 2027 10:57:37.903             4.604           783.500
       114   06 Jun 2027 11:00:35.364   06 Jun 2027 11:00:37.040             1.676            31.250
       115   07 Jun 2027 03:05:19.780   07 Jun 2027 03:05:30.167            10.387          5193.500
       116   07 Jun 2027 03:06:03.327   07 Jun 2027 03:06:05.103             1.776           888.000
       117   07 Jun 2027 03:07:37.953   07 Jun 2027 03:07:49.963            12.010          6005.000
       118   07 Jun 2027 04:40:36.467   07 Jun 2027 04:41:09.922            33.455         16727.500
       119   07 Jun 2027 04:42:01.598   07 Jun 2027 04:42:35.881            34.283         17141.500
       120   07 Jun 2027 04:43:50.515   07 Jun 2027 04:46:01.910           131.395         65697.500
       121   07 Jun 2027 06:16:47.356   07 Jun 2027 06:18:13.027            85.671         42821.907
       122   07 Jun 2027 06:19:04.121   07 Jun 2027 06:19:07.328             3.207          1596.688
       123   07 Jun 2027 06:19:26.370   07 Jun 2027 06:19:35.759             9.389           545.469
       124   07 Jun 2027 06:19:58.961   07 Jun 2027 06:19:58.961             0.000             0.000
       125   07 Jun 2027 06:19:59.337   07 Jun 2027 06:20:00.412             1.075           351.375
       126   07 Jun 2027 06:20:27.224   07 Jun 2027 06:20:29.720             2.496           592.625
       127   07 Jun 2027 06:22:00.971   07 Jun 2027 06:22:02.635             1.664           299.125
       128   07 Jun 2027 06:22:39.530   07 Jun 2027 06:22:43.449             3.919           454.563
       129   07 Jun 2027 06:23:38.697   07 Jun 2027 06:23:46.866             8.169          1669.781
       130   07 Jun 2027 07:53:51.720   07 Jun 2027 07:53:53.455             1.735            43.875
       131   07 Jun 2027 07:55:59.323   07 Jun 2027 07:56:00.441             1.118           491.469
       132   07 Jun 2027 07:57:33.816   07 Jun 2027 07:57:37.451             3.635          1408.250
       133   07 Jun 2027 07:57:53.951   07 Jun 2027 07:57:56.006             2.055           508.938
       134   07 Jun 2027 07:58:23.828   07 Jun 2027 07:58:25.002             1.174           451.906
       135   07 Jun 2027 07:58:25.202   07 Jun 2027 07:58:25.532             0.330             6.250
       136   07 Jun 2027 07:59:12.420   07 Jun 2027 07:59:15.728             3.308           100.156
       137   07 Jun 2027 09:31:50.909   07 Jun 2027 09:32:05.457            14.548          5260.094
       138   07 Jun 2027 09:32:54.774   07 Jun 2027 09:33:00.591             5.817          1541.156
       139   07 Jun 2027 09:34:36.580   07 Jun 2027 09:34:40.801             4.221          1856.344
       140   07 Jun 2027 09:35:09.993   07 Jun 2027 09:35:12.345             2.352           912.250
       141   07 Jun 2027 09:35:43.935   07 Jun 2027 09:35:46.235             2.300           805.063
       142   07 Jun 2027 11:05:00.075   07 Jun 2027 11:05:12.704            12.629          5141.406
       143   08 Jun 2027 03:16:38.791   08 Jun 2027 03:16:47.551             8.760          4380.000
       144   08 Jun 2027 03:17:43.503   08 Jun 2027 03:17:47.535             4.032          2016.000
       145   08 Jun 2027 03:20:28.244   08 Jun 2027 03:20:30.455             2.211          1105.500
       146   08 Jun 2027 03:20:42.846   08 Jun 2027 03:20:50.644             7.798          3899.000
       147   08 Jun 2027 04:51:43.166   08 Jun 2027 04:53:26.331           103.165         51582.500
       148   08 Jun 2027 04:53:46.133   08 Jun 2027 04:55:55.675           129.542         64771.000
       149   08 Jun 2027 04:57:05.657   08 Jun 2027 04:57:13.580             7.923          3961.500
       150   08 Jun 2027 04:59:42.151   08 Jun 2027 04:59:47.405             5.254          2627.000
       151   08 Jun 2027 06:29:04.489   08 Jun 2027 06:29:57.229            52.740         24993.437
       152   08 Jun 2027 06:30:16.125   08 Jun 2027 06:30:19.536             3.411           465.219
       153   08 Jun 2027 06:31:52.507   08 Jun 2027 06:31:53.257             0.750           316.750
       154   08 Jun 2027 06:32:11.537   08 Jun 2027 06:32:11.537             0.000             0.000
       155   08 Jun 2027 06:32:30.885   08 Jun 2027 06:32:35.103             4.218           937.063
       156   08 Jun 2027 06:34:39.524   08 Jun 2027 06:34:39.524             0.000             0.000
       157   08 Jun 2027 06:35:10.943   08 Jun 2027 06:35:19.478             8.535          2521.250
       158   08 Jun 2027 08:05:53.417   08 Jun 2027 08:05:58.298             4.881           247.875
       159   08 Jun 2027 08:08:28.576   08 Jun 2027 08:08:30.665             2.089           575.750
       160   08 Jun 2027 08:10:04.359   08 Jun 2027 08:10:08.137             3.778           940.063
       161   08 Jun 2027 08:11:05.537   08 Jun 2027 08:11:08.653             3.116          1532.500
       162   08 Jun 2027 08:11:18.466   08 Jun 2027 08:11:19.548             1.082            56.062
       163   08 Jun 2027 09:43:50.416   08 Jun 2027 09:44:06.968            16.552          5920.344
       164   08 Jun 2027 09:45:00.538   08 Jun 2027 09:45:02.595             2.057           311.375
       165   08 Jun 2027 09:46:45.617   08 Jun 2027 09:46:46.897             1.280           614.531
       166   08 Jun 2027 09:47:12.237   08 Jun 2027 09:47:14.097             1.860            12.938
       167   08 Jun 2027 09:47:39.486   08 Jun 2027 09:47:45.489             6.003           482.937
       168   08 Jun 2027 11:17:27.003   08 Jun 2027 11:17:29.602             2.599           465.813
       169   09 Jun 2027 03:28:22.945   09 Jun 2027 03:28:45.327            22.382         11191.000
       170   09 Jun 2027 05:03:11.366   09 Jun 2027 05:06:25.032           193.666         96833.000
       171   09 Jun 2027 05:08:21.806   09 Jun 2027 05:08:24.236             2.430          1215.000
       172   09 Jun 2027 05:12:03.344   09 Jun 2027 05:12:12.905             9.561          4780.500
       173   09 Jun 2027 06:41:00.016   09 Jun 2027 06:42:34.338            94.322         46907.969
       174   09 Jun 2027 06:43:38.202   09 Jun 2027 06:43:40.404             2.202          1083.375
       175   09 Jun 2027 06:44:02.560   09 Jun 2027 06:44:04.201             1.641           598.031
       176   09 Jun 2027 06:44:21.318   09 Jun 2027 06:44:21.318             0.000             0.000
       177   09 Jun 2027 06:44:37.139   09 Jun 2027 06:44:41.268             4.129           696.844
       178   09 Jun 2027 06:46:04.006   09 Jun 2027 06:46:06.424             2.418           216.156
       179   09 Jun 2027 06:46:13.502   09 Jun 2027 06:46:15.618             2.116           169.875
       180   09 Jun 2027 06:46:42.587   09 Jun 2027 06:46:44.980             2.393           203.188
       181   09 Jun 2027 06:48:07.692   09 Jun 2027 06:48:13.216             5.524           167.563
       182   09 Jun 2027 08:17:44.452   09 Jun 2027 08:17:48.281             3.829          1086.844
       183   09 Jun 2027 08:21:35.314   09 Jun 2027 08:21:40.283             4.969           680.938
       184   09 Jun 2027 08:22:08.837   09 Jun 2027 08:22:11.145             2.308           763.719
       185   09 Jun 2027 08:22:35.634   09 Jun 2027 08:22:37.135             1.501           247.687
       186   09 Jun 2027 08:23:03.724   09 Jun 2027 08:23:05.402             1.678           830.906
       187   09 Jun 2027 08:24:04.774   09 Jun 2027 08:24:09.178             4.404          1300.562
       188   09 Jun 2027 09:55:51.940   09 Jun 2027 09:56:02.815            10.875          3059.437
       189   09 Jun 2027 09:57:05.743   09 Jun 2027 09:57:09.206             3.463          1609.844
       190   09 Jun 2027 09:58:53.598   09 Jun 2027 09:58:54.036             0.438            92.281
       191   09 Jun 2027 09:59:34.424   09 Jun 2027 09:59:36.442             2.018           778.781
       192   09 Jun 2027 09:59:46.479   09 Jun 2027 09:59:47.389             0.910            53.813
       193   09 Jun 2027 11:29:43.015   09 Jun 2027 11:29:45.907             2.892          1209.937
       194   10 Jun 2027 03:42:08.752   10 Jun 2027 03:42:17.192             8.440          4220.000
       195   10 Jun 2027 03:44:22.766   10 Jun 2027 03:44:30.540             7.774          3887.000
       196   10 Jun 2027 05:15:59.782   10 Jun 2027 05:18:56.029           176.247         88123.500
       197   10 Jun 2027 05:24:03.258   10 Jun 2027 05:24:29.737            26.479         13239.500
       198   10 Jun 2027 06:53:06.434   10 Jun 2027 06:54:52.470           106.036         51011.937
       199   10 Jun 2027 06:56:18.144   10 Jun 2027 06:56:27.655             9.511          1465.625
       200   10 Jun 2027 06:58:00.258   10 Jun 2027 06:58:02.081             1.823           343.750
       201   10 Jun 2027 06:58:15.700   10 Jun 2027 06:58:17.270             1.570           212.656
       202   10 Jun 2027 08:30:08.787   10 Jun 2027 08:30:14.434             5.647          2053.719
       203   10 Jun 2027 08:33:02.684   10 Jun 2027 08:33:05.173             2.489           145.344
       204   10 Jun 2027 08:34:29.933   10 Jun 2027 08:34:33.896             3.963          1881.906
       205   10 Jun 2027 08:34:35.225   10 Jun 2027 08:34:36.563             1.338            41.531
       206   10 Jun 2027 08:35:24.669   10 Jun 2027 08:35:26.209             1.540           734.187
       207   10 Jun 2027 08:35:57.613   10 Jun 2027 08:36:08.325            10.712           901.469
       208   10 Jun 2027 10:07:06.044   10 Jun 2027 10:07:17.514            11.470          5676.688
       209   10 Jun 2027 10:08:19.114   10 Jun 2027 10:08:27.202             8.088           682.531
       210   10 Jun 2027 10:11:15.035   10 Jun 2027 10:11:16.117             1.082           391.031
       211   10 Jun 2027 11:42:09.754   10 Jun 2027 11:42:12.245             2.491           359.906
       212   11 Jun 2027 03:54:30.491   11 Jun 2027 03:54:57.219            26.728         13364.000
       213   11 Jun 2027 05:27:58.396   11 Jun 2027 05:31:05.994           187.598         93799.000
       214   11 Jun 2027 05:34:56.950   11 Jun 2027 05:35:01.405             4.455          2227.500
       215   11 Jun 2027 05:35:45.568   11 Jun 2027 05:35:55.114             9.546          4773.000
       216   11 Jun 2027 05:36:04.994   11 Jun 2027 05:36:28.746            23.752         11876.000
       217   11 Jun 2027 07:05:32.247   11 Jun 2027 07:06:51.946            79.699         39673.437
       218   11 Jun 2027 07:09:47.833   11 Jun 2027 07:09:48.321             0.488            95.312
       219   11 Jun 2027 07:11:39.256   11 Jun 2027 07:11:41.477             2.221           169.906
       220   11 Jun 2027 08:42:26.360   11 Jun 2027 08:42:38.017            11.657          4114.344
       221   11 Jun 2027 08:46:03.930   11 Jun 2027 08:46:04.130             0.200            83.219
       222   11 Jun 2027 08:46:43.571   11 Jun 2027 08:46:45.474             1.903           825.875
       223   11 Jun 2027 08:46:54.504   11 Jun 2027 08:46:55.441             0.937            89.844
       224   11 Jun 2027 08:47:33.576   11 Jun 2027 08:47:35.328             1.752           824.125
       225   11 Jun 2027 10:19:19.855   11 Jun 2027 10:19:33.329            13.474          6018.750
       226   11 Jun 2027 10:21:14.643   11 Jun 2027 10:21:21.430             6.787          1201.031
       227   11 Jun 2027 10:21:51.441   11 Jun 2027 10:21:52.249             0.808           109.469
       228   11 Jun 2027 10:21:57.447   11 Jun 2027 10:22:00.639             3.192           147.375
       229   11 Jun 2027 11:56:59.510   11 Jun 2027 11:57:01.687             2.177           665.500
       230   12 Jun 2027 04:06:32.078   12 Jun 2027 04:06:52.928            20.850         10425.000
       231   12 Jun 2027 05:41:27.084   12 Jun 2027 05:43:11.150           104.066         52033.000
       232   12 Jun 2027 05:44:39.939   12 Jun 2027 05:45:18.384            38.445         19222.500
       233   12 Jun 2027 05:47:42.937   12 Jun 2027 05:48:06.913            23.976         11988.000
       234   12 Jun 2027 07:17:39.652   12 Jun 2027 07:19:49.385           129.733         63935.875
       235   12 Jun 2027 07:21:49.942   12 Jun 2027 07:21:53.143             3.201           545.844
       236   12 Jun 2027 08:55:23.024   12 Jun 2027 08:55:35.016            11.992          4926.687
       237   12 Jun 2027 08:56:54.841   12 Jun 2027 08:56:58.038             3.197           580.063
       238   12 Jun 2027 10:31:29.310   12 Jun 2027 10:31:46.039            16.729          6214.750
       239   12 Jun 2027 10:35:05.093   12 Jun 2027 10:35:09.995             4.902           242.094
       240   13 Jun 2027 04:18:39.505   13 Jun 2027 04:19:14.894            35.389         17694.500
       241   13 Jun 2027 04:20:34.948   13 Jun 2027 04:20:40.681             5.733          2866.500
       242   13 Jun 2027 04:21:00.932   13 Jun 2027 04:21:06.002             5.070          2535.000
       243   13 Jun 2027 05:53:49.569   13 Jun 2027 05:56:09.261           139.692         69846.000
       244   13 Jun 2027 05:56:27.544   13 Jun 2027 05:56:27.705             0.161            80.500
       245   13 Jun 2027 05:58:40.377   13 Jun 2027 05:59:19.095            38.718         19359.000
       246   13 Jun 2027 05:59:59.371   13 Jun 2027 06:00:11.236            11.865          5932.500
       247   13 Jun 2027 06:00:14.366   13 Jun 2027 06:00:26.143            11.777          5888.500
       248   13 Jun 2027 07:30:14.733   13 Jun 2027 07:31:30.339            75.606         36454.594
       249   13 Jun 2027 07:33:32.682   13 Jun 2027 07:33:38.607             5.925           400.687
       250   13 Jun 2027 07:34:36.170   13 Jun 2027 07:34:40.690             4.520          1382.219
       251   13 Jun 2027 07:35:44.319   13 Jun 2027 07:35:45.395             1.076           212.188
       252   13 Jun 2027 09:07:29.632   13 Jun 2027 09:07:41.248            11.616          5659.594
       253   13 Jun 2027 09:09:11.369   13 Jun 2027 09:09:12.303             0.934           428.219
       254   13 Jun 2027 09:09:46.147   13 Jun 2027 09:09:47.134             0.987           108.656
       255   13 Jun 2027 09:09:53.131   13 Jun 2027 09:09:54.484             1.353           137.937
       256   13 Jun 2027 09:11:19.288   13 Jun 2027 09:11:20.086             0.798            34.281
       257   13 Jun 2027 10:43:44.042   13 Jun 2027 10:43:58.573            14.531          7240.500
       258   13 Jun 2027 10:45:29.855   13 Jun 2027 10:45:31.157             1.302           560.250
       259   13 Jun 2027 10:48:24.167   13 Jun 2027 10:48:25.926             1.759            14.656
