uniorb/output/strategy_4/Camera/Camera_KinoSat_110702.txt

KinoSat_110702
-------------------------
    Access    *     Start Time (UTCG)     *     Stop Time (UTCG)  *   Duration (s) *   Data (Mbytes)
         1   01 Jun 2027 04:08:33.420   01 Jun 2027 04:10:23.040           109.620         54810.000
         2   01 Jun 2027 05:43:41.984   01 Jun 2027 05:45:15.502            93.518         46759.000
         3   01 Jun 2027 05:45:40.724   01 Jun 2027 05:46:09.922            29.198         14599.000
         4   01 Jun 2027 05:47:19.736   01 Jun 2027 05:47:29.728             9.992          4996.000
         5   01 Jun 2027 05:47:38.634   01 Jun 2027 05:47:46.847             8.213          4106.500
         6   01 Jun 2027 05:49:30.861   01 Jun 2027 05:49:39.095             8.234          4117.000
         7   01 Jun 2027 05:50:23.507   01 Jun 2027 05:50:30.714             7.207          3603.500
         8   01 Jun 2027 07:20:01.992   01 Jun 2027 07:22:08.622           126.630         63315.000
         9   01 Jun 2027 07:22:13.162   01 Jun 2027 07:22:31.324            18.162          9081.000
        10   01 Jun 2027 07:22:41.154   01 Jun 2027 07:22:49.137             7.983          3991.500
        11   01 Jun 2027 07:24:27.515   01 Jun 2027 07:24:39.211            11.696          5848.000
        12   01 Jun 2027 07:24:44.823   01 Jun 2027 07:24:45.387             0.564           282.000
        13   01 Jun 2027 07:26:03.897   01 Jun 2027 07:26:09.793             5.896          2948.000
        14   01 Jun 2027 08:57:36.972   01 Jun 2027 09:00:56.522           199.550         99775.000
        15   01 Jun 2027 09:01:18.913   01 Jun 2027 09:01:34.347            15.434          7717.000
        16   01 Jun 2027 09:01:49.634   01 Jun 2027 09:01:54.624             4.990          2495.000
        17   01 Jun 2027 10:33:39.475   01 Jun 2027 10:34:35.291            55.816         27908.000
        18   01 Jun 2027 10:36:21.974   01 Jun 2027 10:37:45.640            83.666         41833.000
        19   01 Jun 2027 10:37:48.771   01 Jun 2027 10:37:51.031             2.260          1130.000
        20   02 Jun 2027 04:20:43.965   02 Jun 2027 04:21:13.210            29.245         14622.500
        21   02 Jun 2027 04:22:15.195   02 Jun 2027 04:23:36.578            81.383         40691.500
        22   02 Jun 2027 05:55:53.754   02 Jun 2027 05:57:19.736            85.982         42991.000
        23   02 Jun 2027 05:58:01.291   02 Jun 2027 05:58:16.969            15.678          7839.000
        24   02 Jun 2027 05:58:30.408   02 Jun 2027 05:58:34.128             3.720          1860.000
        25   02 Jun 2027 05:59:08.588   02 Jun 2027 06:00:04.295            55.707         27853.500
        26   02 Jun 2027 06:01:31.012   02 Jun 2027 06:01:48.586            17.574          8787.000
        27   02 Jun 2027 06:02:29.598   02 Jun 2027 06:02:29.612             0.014             7.000
        28   02 Jun 2027 07:32:14.933   02 Jun 2027 07:35:26.973           192.040         96020.000
        29   02 Jun 2027 07:38:15.605   02 Jun 2027 07:38:24.193             8.588          4294.000
        30   02 Jun 2027 09:09:31.977   02 Jun 2027 09:13:02.413           210.436        105168.844
        31   02 Jun 2027 10:45:44.179   02 Jun 2027 10:45:57.225            13.046          6248.656
        32   02 Jun 2027 10:47:07.112   02 Jun 2027 10:47:10.237             3.125           294.625
        33   02 Jun 2027 10:47:15.438   02 Jun 2027 10:47:20.421             4.983            90.125
        34   02 Jun 2027 10:48:28.056   02 Jun 2027 10:48:31.640             3.584          1747.000
        35   02 Jun 2027 10:50:22.246   02 Jun 2027 10:50:29.521             7.275          1956.656
        36   03 Jun 2027 04:32:32.307   03 Jun 2027 04:34:11.848            99.541         49770.500
        37   03 Jun 2027 04:35:12.195   03 Jun 2027 04:35:56.643            44.448         22224.000
        38   03 Jun 2027 06:07:26.417   03 Jun 2027 06:09:23.220           116.803         58401.500
        39   03 Jun 2027 06:10:32.551   03 Jun 2027 06:11:09.280            36.729         18364.500
        40   03 Jun 2027 06:11:38.623   03 Jun 2027 06:11:50.474            11.851          1942.031
        41   03 Jun 2027 06:13:09.148   03 Jun 2027 06:13:13.675             4.527          1966.375
        42   03 Jun 2027 06:13:49.222   03 Jun 2027 06:13:56.103             6.881          1110.844
        43   03 Jun 2027 06:14:06.813   03 Jun 2027 06:14:11.038             4.225           106.813
        44   03 Jun 2027 07:43:52.321   03 Jun 2027 07:43:54.692             2.371          1131.000
        45   03 Jun 2027 07:46:27.889   03 Jun 2027 07:46:29.879             1.990           826.812
        46   03 Jun 2027 07:46:53.707   03 Jun 2027 07:46:58.895             5.188           744.625
        47   03 Jun 2027 07:47:31.596   03 Jun 2027 07:47:35.204             3.608           733.125
        48   03 Jun 2027 07:48:31.903   03 Jun 2027 07:48:38.405             6.502          1247.406
        49   03 Jun 2027 07:48:54.793   03 Jun 2027 07:48:55.638             0.845           281.563
        50   03 Jun 2027 07:49:56.379   03 Jun 2027 07:49:57.424             1.045           415.000
        51   03 Jun 2027 09:22:10.789   03 Jun 2027 09:22:21.854            11.065          5197.094
        52   03 Jun 2027 09:22:28.817   03 Jun 2027 09:22:30.345             1.528           217.594
        53   03 Jun 2027 09:23:32.851   03 Jun 2027 09:23:38.102             5.251          1380.469
        54   03 Jun 2027 09:24:45.456   03 Jun 2027 09:24:48.615             3.159          1564.063
        55   03 Jun 2027 09:25:21.989   03 Jun 2027 09:25:24.277             2.288           293.469
        56   03 Jun 2027 09:25:33.574   03 Jun 2027 09:25:36.584             3.010            30.250
        57   03 Jun 2027 10:57:37.134   03 Jun 2027 10:57:49.429            12.295          5868.062
        58   03 Jun 2027 10:59:45.074   03 Jun 2027 10:59:50.404             5.330           587.375
        59   04 Jun 2027 03:07:15.950   04 Jun 2027 03:07:42.156            26.206         13103.000
        60   04 Jun 2027 04:42:48.742   04 Jun 2027 04:43:38.656            49.914         24957.000
        61   04 Jun 2027 04:44:16.753   04 Jun 2027 04:46:49.982           153.229         76614.500
        62   04 Jun 2027 04:47:13.368   04 Jun 2027 04:47:42.779            29.411         14705.500
        63   04 Jun 2027 06:19:06.133   04 Jun 2027 06:19:59.833            53.700         25478.531
        64   04 Jun 2027 06:21:41.679   04 Jun 2027 06:21:42.959             1.280           269.687
        65   04 Jun 2027 06:22:25.815   04 Jun 2027 06:22:26.479             0.664           299.344
        66   04 Jun 2027 06:23:42.985   04 Jun 2027 06:23:49.305             6.320          1847.969
        67   04 Jun 2027 06:24:18.837   04 Jun 2027 06:24:23.059             4.222           318.906
        68   04 Jun 2027 06:24:51.396   04 Jun 2027 06:24:53.341             1.945           191.781
        69   04 Jun 2027 06:25:01.562   04 Jun 2027 06:25:02.175             0.613           256.906
        70   04 Jun 2027 06:25:52.554   04 Jun 2027 06:25:57.871             5.317          1542.906
        71   04 Jun 2027 07:56:11.872   04 Jun 2027 07:56:15.400             3.528           378.000
        72   04 Jun 2027 07:57:21.880   04 Jun 2027 07:57:23.880             2.000           619.875
        73   04 Jun 2027 07:58:28.449   04 Jun 2027 07:58:29.034             0.585            99.063
        74   04 Jun 2027 07:59:55.205   04 Jun 2027 07:59:59.056             3.851          1875.625
        75   04 Jun 2027 08:00:39.648   04 Jun 2027 08:00:41.889             2.241          1007.625
        76   04 Jun 2027 08:01:28.383   04 Jun 2027 08:01:32.729             4.346          1421.687
        77   04 Jun 2027 08:02:15.989   04 Jun 2027 08:02:21.182             5.193          1351.875
        78   04 Jun 2027 09:34:09.218   04 Jun 2027 09:34:22.147            12.929          5473.969
        79   04 Jun 2027 09:35:13.464   04 Jun 2027 09:35:18.080             4.616          1603.656
        80   04 Jun 2027 09:35:28.841   04 Jun 2027 09:35:32.154             3.313           258.000
        81   04 Jun 2027 09:36:55.583   04 Jun 2027 09:37:00.424             4.841          1889.187
        82   04 Jun 2027 09:37:38.814   04 Jun 2027 09:37:39.885             1.071           265.406
        83   04 Jun 2027 09:37:55.449   04 Jun 2027 09:37:58.285             2.836           479.531
        84   04 Jun 2027 11:07:14.101   04 Jun 2027 11:07:25.165            11.064          4930.719
        85   05 Jun 2027 03:18:59.143   05 Jun 2027 03:19:05.791             6.648          3324.000
        86   05 Jun 2027 03:20:01.826   05 Jun 2027 03:20:04.962             3.136          1568.000
        87   05 Jun 2027 03:20:55.864   05 Jun 2027 03:21:07.226            11.362          5681.000
        88   05 Jun 2027 04:53:57.302   05 Jun 2027 04:55:51.482           114.180         57090.000
        89   05 Jun 2027 04:56:00.649   05 Jun 2027 04:57:32.957            92.308         46154.000
        90   05 Jun 2027 04:58:23.315   05 Jun 2027 04:58:23.315             0.000             0.000
        91   05 Jun 2027 04:58:41.486   05 Jun 2027 04:58:46.296             4.810          2405.000
        92   05 Jun 2027 04:59:21.200   05 Jun 2027 04:59:21.200             0.000             0.000
        93   05 Jun 2027 05:00:09.824   05 Jun 2027 05:00:09.902             0.078            39.000
        94   05 Jun 2027 05:02:02.628   05 Jun 2027 05:02:18.665            16.037          8018.500
        95   05 Jun 2027 06:31:25.471   05 Jun 2027 06:32:32.484            67.013         32218.375
        96   05 Jun 2027 06:33:31.213   05 Jun 2027 06:33:34.863             3.650          1791.187
        97   05 Jun 2027 06:34:18.830   05 Jun 2027 06:34:21.036             2.206           306.437
        98   05 Jun 2027 06:35:47.282   05 Jun 2027 06:35:51.993             4.711          1826.875
        99   05 Jun 2027 06:36:34.927   05 Jun 2027 06:36:36.854             1.927           845.125
       100   05 Jun 2027 06:37:18.882   05 Jun 2027 06:37:23.088             4.206          1259.625
       101   05 Jun 2027 06:37:36.356   05 Jun 2027 06:37:37.390             1.034           414.625
       102   05 Jun 2027 08:08:10.662   05 Jun 2027 08:08:15.171             4.509          1161.781
       103   05 Jun 2027 08:10:56.055   05 Jun 2027 08:11:01.560             5.505          1014.156
       104   05 Jun 2027 08:11:26.485   05 Jun 2027 08:11:33.247             6.762           674.437
       105   05 Jun 2027 08:11:54.728   05 Jun 2027 08:11:56.043             1.315           266.844
       106   05 Jun 2027 08:12:06.645   05 Jun 2027 08:12:09.241             2.596           241.969
       107   05 Jun 2027 08:12:17.793   05 Jun 2027 08:12:18.760             0.967           267.250
       108   05 Jun 2027 08:12:30.012   05 Jun 2027 08:12:31.792             1.780           337.063
       109   05 Jun 2027 08:13:27.894   05 Jun 2027 08:13:32.293             4.399          1398.594
       110   05 Jun 2027 08:14:27.251   05 Jun 2027 08:14:32.825             5.574          1612.500
       111   05 Jun 2027 09:46:08.744   05 Jun 2027 09:46:22.796            14.052          6964.375
       112   05 Jun 2027 09:47:19.123   05 Jun 2027 09:47:20.972             1.849           556.594
       113   05 Jun 2027 09:48:41.225   05 Jun 2027 09:48:45.481             4.256          1474.813
       114   05 Jun 2027 09:49:02.416   05 Jun 2027 09:49:02.751             0.335            51.500
       115   05 Jun 2027 09:49:23.861   05 Jun 2027 09:49:26.631             2.770           606.781
       116   05 Jun 2027 09:49:36.779   05 Jun 2027 09:49:39.670             2.891           195.594
       117   05 Jun 2027 09:49:45.627   05 Jun 2027 09:49:47.989             2.362           161.781
       118   05 Jun 2027 09:50:15.109   05 Jun 2027 09:50:19.237             4.128           402.687
       119   05 Jun 2027 11:19:46.500   05 Jun 2027 11:19:52.884             6.384          1362.719
       120   06 Jun 2027 03:30:34.066   06 Jun 2027 03:30:49.561            15.495          7747.500
       121   06 Jun 2027 03:31:40.569   06 Jun 2027 03:31:45.169             4.600          2300.000
       122   06 Jun 2027 03:36:18.018   06 Jun 2027 03:36:24.156             6.138          3069.000
       123   06 Jun 2027 05:05:25.170   06 Jun 2027 05:08:40.601           195.431         97715.500
       124   06 Jun 2027 05:09:03.778   06 Jun 2027 05:09:20.946            17.168          8584.000
       125   06 Jun 2027 05:14:08.314   06 Jun 2027 05:14:34.233            25.919         12959.500
       126   06 Jun 2027 06:43:18.475   06 Jun 2027 06:44:15.287            56.812         28016.344
       127   06 Jun 2027 06:44:36.889   06 Jun 2027 06:44:38.057             1.168           563.437
       128   06 Jun 2027 06:45:59.421   06 Jun 2027 06:46:04.050             4.629          1140.250
       129   06 Jun 2027 06:46:32.407   06 Jun 2027 06:46:32.407             0.000             0.000
       130   06 Jun 2027 06:46:47.623   06 Jun 2027 06:46:53.290             5.667           849.437
       131   06 Jun 2027 06:48:01.008   06 Jun 2027 06:48:05.771             4.763          2116.188
       132   06 Jun 2027 06:48:53.207   06 Jun 2027 06:49:00.185             6.978          1212.312
       133   06 Jun 2027 08:20:02.342   06 Jun 2027 08:20:06.479             4.137          1129.406
       134   06 Jun 2027 08:21:50.112   06 Jun 2027 08:21:53.012             2.900          1139.844
       135   06 Jun 2027 08:22:56.257   06 Jun 2027 08:23:03.726             7.469           562.438
       136   06 Jun 2027 08:23:28.155   06 Jun 2027 08:23:32.267             4.112           635.000
       137   06 Jun 2027 08:24:02.115   06 Jun 2027 08:24:09.566             7.451           533.250
       138   06 Jun 2027 08:24:46.628   06 Jun 2027 08:24:46.923             0.295            18.500
       139   06 Jun 2027 08:25:20.428   06 Jun 2027 08:25:22.865             2.437           734.219
       140   06 Jun 2027 08:26:21.662   06 Jun 2027 08:26:24.961             3.299          1240.375
       141   06 Jun 2027 09:58:09.041   06 Jun 2027 09:58:25.542            16.501          6371.500
       142   06 Jun 2027 09:59:24.239   06 Jun 2027 09:59:28.525             4.286          1673.500
       143   06 Jun 2027 10:01:00.068   06 Jun 2027 10:01:02.561             2.493           152.344
       144   06 Jun 2027 10:01:32.111   06 Jun 2027 10:01:34.891             2.780           620.125
       145   06 Jun 2027 11:33:52.577   06 Jun 2027 11:33:55.212             2.635           401.187
       146   07 Jun 2027 03:44:29.687   07 Jun 2027 03:44:38.252             8.565          4282.500
       147   07 Jun 2027 03:45:49.712   07 Jun 2027 03:45:49.712             0.000             0.000
       148   07 Jun 2027 03:46:37.917   07 Jun 2027 03:46:44.926             7.009          3504.500
       149   07 Jun 2027 05:18:17.027   07 Jun 2027 05:21:29.882           192.855         96427.500
       150   07 Jun 2027 05:23:53.706   07 Jun 2027 05:23:53.706             0.000             0.000
       151   07 Jun 2027 05:24:06.877   07 Jun 2027 05:24:25.010            18.133          9066.500
       152   07 Jun 2027 05:26:23.087   07 Jun 2027 05:26:47.612            24.525         12262.500
       153   07 Jun 2027 06:55:25.813   07 Jun 2027 06:56:31.037            65.224         32508.500
       154   07 Jun 2027 06:56:39.770   07 Jun 2027 06:56:46.614             6.844            89.344
       155   07 Jun 2027 06:57:16.892   07 Jun 2027 06:57:18.215             1.323           590.719
       156   07 Jun 2027 06:57:52.852   07 Jun 2027 06:58:01.242             8.390          1082.406
       157   07 Jun 2027 06:58:35.712   07 Jun 2027 06:58:35.712             0.000             0.000
       158   07 Jun 2027 06:59:34.987   07 Jun 2027 06:59:41.467             6.480          2289.719
       159   07 Jun 2027 07:00:13.100   07 Jun 2027 07:00:15.015             1.915           907.187
       160   07 Jun 2027 07:00:26.508   07 Jun 2027 07:00:28.322             1.814           278.094
       161   07 Jun 2027 07:01:42.680   07 Jun 2027 07:01:42.908             0.228           114.000
       162   07 Jun 2027 08:32:40.114   07 Jun 2027 08:32:48.007             7.893          3717.719
       163   07 Jun 2027 08:34:01.954   07 Jun 2027 08:34:05.893             3.939           407.781
       164   07 Jun 2027 08:34:53.198   07 Jun 2027 08:34:55.704             2.506           911.125
       165   07 Jun 2027 08:35:22.401   07 Jun 2027 08:35:25.354             2.953           286.438
       166   07 Jun 2027 08:35:47.093   07 Jun 2027 08:35:48.449             1.356           655.625
       167   07 Jun 2027 08:36:14.910   07 Jun 2027 08:36:18.127             3.217           415.875
       168   07 Jun 2027 08:36:58.753   07 Jun 2027 08:37:02.580             3.827           685.875
       169   07 Jun 2027 08:38:14.079   07 Jun 2027 08:38:17.694             3.615           832.781
       170   07 Jun 2027 10:09:22.705   07 Jun 2027 10:09:38.580            15.875          5878.875
       171   07 Jun 2027 10:13:19.284   07 Jun 2027 10:13:23.652             4.368           434.875
       172   07 Jun 2027 11:44:34.072   07 Jun 2027 11:44:36.919             2.847           729.937
       173   08 Jun 2027 03:56:43.340   08 Jun 2027 03:57:14.495            31.155         15577.500
       174   08 Jun 2027 05:30:40.272   08 Jun 2027 05:33:25.205           164.933         82466.500
       175   08 Jun 2027 05:37:10.547   08 Jun 2027 05:37:39.211            28.664         14332.000
       176   08 Jun 2027 05:37:39.921   08 Jun 2027 05:37:59.024            19.103          9551.500
       177   08 Jun 2027 05:38:31.219   08 Jun 2027 05:38:46.322            15.103          7551.500
       178   08 Jun 2027 07:07:51.281   08 Jun 2027 07:08:55.116            63.835         31382.250
       179   08 Jun 2027 07:10:49.955   08 Jun 2027 07:10:53.779             3.824           818.938
       180   08 Jun 2027 07:11:50.426   08 Jun 2027 07:11:54.364             3.938          1551.250
       181   08 Jun 2027 07:12:05.019   08 Jun 2027 07:12:05.464             0.445           139.938
       182   08 Jun 2027 07:14:21.453   08 Jun 2027 07:14:28.872             7.419           833.469
       183   08 Jun 2027 08:44:51.984   08 Jun 2027 08:45:05.725            13.741          4499.250
       184   08 Jun 2027 08:47:00.163   08 Jun 2027 08:47:01.396             1.233           183.187
       185   08 Jun 2027 08:47:57.894   08 Jun 2027 08:48:01.981             4.087          1369.281
       186   08 Jun 2027 08:50:03.975   08 Jun 2027 08:50:09.101             5.126           371.312
       187   08 Jun 2027 10:21:37.677   08 Jun 2027 10:21:52.901            15.224          6309.687
       188   08 Jun 2027 10:23:34.514   08 Jun 2027 10:23:37.517             3.003           242.469
       189   08 Jun 2027 10:24:06.240   08 Jun 2027 10:24:09.466             3.226           684.188
       190   08 Jun 2027 11:59:47.452   08 Jun 2027 11:59:48.900             1.448           470.156
       191   09 Jun 2027 04:08:48.217   09 Jun 2027 04:09:14.888            26.671         13335.500
       192   09 Jun 2027 04:09:39.950   09 Jun 2027 04:09:42.311             2.361          1180.500
       193   09 Jun 2027 05:43:57.062   09 Jun 2027 05:46:22.879           145.817         72908.500
       194   09 Jun 2027 05:47:28.772   09 Jun 2027 05:48:21.113            52.341         26170.500
       195   09 Jun 2027 05:50:38.125   09 Jun 2027 05:50:45.635             7.510          3755.000
       196   09 Jun 2027 07:20:17.005   09 Jun 2027 07:21:45.895            88.890         41114.656
       197   09 Jun 2027 07:23:03.818   09 Jun 2027 07:23:07.073             3.255          1267.844
       198   09 Jun 2027 07:23:51.077   09 Jun 2027 07:23:52.553             1.476            91.000
       199   09 Jun 2027 07:26:02.314   09 Jun 2027 07:26:03.753             1.439           515.187
       200   09 Jun 2027 07:26:24.785   09 Jun 2027 07:26:30.484             5.699           452.250
       201   09 Jun 2027 08:57:51.644   09 Jun 2027 08:58:04.802            13.158          5098.438
       202   09 Jun 2027 08:59:59.452   09 Jun 2027 09:00:06.463             7.011          1591.063
       203   09 Jun 2027 10:33:54.360   09 Jun 2027 10:34:07.490            13.130          6564.062
       204   09 Jun 2027 10:35:45.839   09 Jun 2027 10:35:49.641             3.802           237.375
       205   10 Jun 2027 04:20:58.646   10 Jun 2027 04:21:46.840            48.194         24097.000
       206   10 Jun 2027 04:22:22.004   10 Jun 2027 04:22:45.835            23.831         11915.500
       207   10 Jun 2027 04:23:58.308   10 Jun 2027 04:23:58.308             0.000             0.000
       208   10 Jun 2027 04:24:09.430   10 Jun 2027 04:24:22.818            13.388          6694.000
       209   10 Jun 2027 05:56:08.693   10 Jun 2027 05:58:30.221           141.528         70764.000
       210   10 Jun 2027 05:58:45.032   10 Jun 2027 05:59:07.195            22.163         11081.500
       211   10 Jun 2027 06:00:22.426   10 Jun 2027 06:00:31.010             8.584          4292.000
       212   10 Jun 2027 06:01:51.669   10 Jun 2027 06:02:03.219            11.550          5775.000
       213   10 Jun 2027 07:32:29.625   10 Jun 2027 07:33:22.177            52.552         25746.906
       214   10 Jun 2027 07:35:06.353   10 Jun 2027 07:35:07.770             1.417           161.187
       215   10 Jun 2027 07:36:01.313   10 Jun 2027 07:36:05.593             4.280          1234.437
       216   10 Jun 2027 07:36:52.969   10 Jun 2027 07:36:57.843             4.874          1371.094
       217   10 Jun 2027 09:09:46.471   10 Jun 2027 09:09:57.911            11.440          5211.250
       218   10 Jun 2027 09:11:16.600   10 Jun 2027 09:11:19.315             2.715           475.375
       219   10 Jun 2027 10:45:58.828   10 Jun 2027 10:46:09.885            11.057          5262.469
       220   10 Jun 2027 10:47:24.571   10 Jun 2027 10:47:27.084             2.513           349.563
       221   10 Jun 2027 10:47:30.096   10 Jun 2027 10:47:30.245             0.149            61.500
       222   10 Jun 2027 10:48:41.377   10 Jun 2027 10:48:44.886             3.509          1589.750
       223   11 Jun 2027 04:32:46.460   11 Jun 2027 04:35:00.290           133.830         66915.000
       224   11 Jun 2027 04:35:28.945   11 Jun 2027 04:35:37.151             8.206          4103.000
       225   11 Jun 2027 04:36:51.197   11 Jun 2027 04:36:55.086             3.889          1944.500
       226   11 Jun 2027 06:07:39.954   11 Jun 2027 06:08:20.250            40.296         20148.000
       227   11 Jun 2027 06:09:10.391   11 Jun 2027 06:10:53.058           102.667         51333.500
       228   11 Jun 2027 06:11:53.373   11 Jun 2027 06:12:07.107            13.734          5007.312
       229   11 Jun 2027 06:13:24.963   11 Jun 2027 06:13:28.951             3.988          1892.656
       230   11 Jun 2027 06:14:04.656   11 Jun 2027 06:14:11.978             7.322          1106.875
       231   11 Jun 2027 06:14:21.354   11 Jun 2027 06:14:25.813             4.459            68.750
       232   11 Jun 2027 07:44:07.708   11 Jun 2027 07:44:10.762             3.054           973.656
       233   11 Jun 2027 07:45:28.030   11 Jun 2027 07:45:30.978             2.948            53.344
       234   11 Jun 2027 07:46:15.789   11 Jun 2027 07:46:16.818             1.029           286.312
       235   11 Jun 2027 07:46:44.126   11 Jun 2027 07:46:46.450             2.324           767.062
       236   11 Jun 2027 07:47:09.789   11 Jun 2027 07:47:13.207             3.418            44.250
       237   11 Jun 2027 07:48:10.930   11 Jun 2027 07:48:13.954             3.024          1508.531
       238   11 Jun 2027 07:49:00.688   11 Jun 2027 07:49:02.985             2.297           440.875
       239   11 Jun 2027 07:50:11.422   11 Jun 2027 07:50:12.652             1.230           426.937
       240   11 Jun 2027 09:22:25.856   11 Jun 2027 09:22:35.342             9.486          4724.594
       241   11 Jun 2027 09:23:23.512   11 Jun 2027 09:23:29.679             6.167          1254.094
       242   11 Jun 2027 09:25:02.740   11 Jun 2027 09:25:06.132             3.392          1640.438
       243   11 Jun 2027 09:25:36.945   11 Jun 2027 09:25:38.663             1.718           292.625
       244   11 Jun 2027 10:57:52.618   11 Jun 2027 10:58:05.652            13.034          6113.844
       245   11 Jun 2027 10:59:28.996   11 Jun 2027 10:59:30.857             1.861           302.750
       246   12 Jun 2027 03:07:30.673   12 Jun 2027 03:07:56.771            26.098         13049.000
       247   12 Jun 2027 04:43:02.679   12 Jun 2027 04:43:53.275            50.596         25298.000
       248   12 Jun 2027 04:44:31.340   12 Jun 2027 04:47:01.195           149.855         74927.500
       249   12 Jun 2027 06:19:21.290   12 Jun 2027 06:20:43.564            82.274         40865.500
       250   12 Jun 2027 06:21:57.556   12 Jun 2027 06:21:59.594             2.038           284.438
       251   12 Jun 2027 06:22:30.946   12 Jun 2027 06:22:32.109             1.163           448.125
       252   12 Jun 2027 06:22:43.553   12 Jun 2027 06:22:47.251             3.698           329.281
       253   12 Jun 2027 06:23:34.949   12 Jun 2027 06:23:38.586             3.637          1136.969
       254   12 Jun 2027 06:23:57.777   12 Jun 2027 06:23:58.881             1.104           545.563
       255   12 Jun 2027 06:24:35.598   12 Jun 2027 06:24:35.598             0.000             0.000
       256   12 Jun 2027 06:25:09.048   12 Jun 2027 06:25:12.455             3.407          1397.094
       257   12 Jun 2027 06:25:19.264   12 Jun 2027 06:25:20.179             0.915            55.313
       258   12 Jun 2027 06:26:08.491   12 Jun 2027 06:26:15.161             6.670            27.344
       259   12 Jun 2027 07:56:27.421   12 Jun 2027 07:56:31.390             3.969          1550.875
       260   12 Jun 2027 07:57:38.403   12 Jun 2027 07:57:41.748             3.345           669.156
       261   12 Jun 2027 07:58:21.176   12 Jun 2027 07:58:23.128             1.952           158.781
       262   12 Jun 2027 07:58:43.669   12 Jun 2027 07:58:43.934             0.265            12.000
       263   12 Jun 2027 07:59:13.265   12 Jun 2027 07:59:16.760             3.495           110.312
       264   12 Jun 2027 08:00:06.688   12 Jun 2027 08:00:10.118             3.430          1423.781
       265   12 Jun 2027 08:00:19.554   12 Jun 2027 08:00:20.710             1.156           294.875
       266   12 Jun 2027 08:00:54.035   12 Jun 2027 08:00:56.324             2.289           994.469
       267   12 Jun 2027 08:01:38.563   12 Jun 2027 08:01:42.422             3.859          1271.969
       268   12 Jun 2027 08:01:55.431   12 Jun 2027 08:01:56.940             1.509           344.625
       269   12 Jun 2027 08:02:43.733   12 Jun 2027 08:02:45.272             1.539           640.312
       270   12 Jun 2027 09:34:23.964   12 Jun 2027 09:34:36.683            12.719          5583.531
       271   12 Jun 2027 09:35:13.320   12 Jun 2027 09:35:17.560             4.240           289.156
       272   12 Jun 2027 09:35:54.654   12 Jun 2027 09:35:58.335             3.681           778.594
       273   12 Jun 2027 09:37:10.670   12 Jun 2027 09:37:14.587             3.917          1897.531
       274   12 Jun 2027 09:37:55.116   12 Jun 2027 09:37:56.599             1.483           358.500
       275   12 Jun 2027 09:38:15.142   12 Jun 2027 09:38:20.084             4.942           160.469
       276   12 Jun 2027 11:07:28.830   12 Jun 2027 11:07:38.234             9.404          4582.687
       277   13 Jun 2027 03:19:13.679   13 Jun 2027 03:19:20.814             7.135          3567.500
       278   13 Jun 2027 03:20:16.448   13 Jun 2027 03:20:19.493             3.045          1522.500
       279   13 Jun 2027 03:21:09.129   13 Jun 2027 03:21:22.321            13.192          6596.000
       280   13 Jun 2027 04:54:11.569   13 Jun 2027 04:56:06.362           114.793         57396.500
       281   13 Jun 2027 04:56:15.278   13 Jun 2027 04:57:49.331            94.053         47026.500
       282   13 Jun 2027 04:58:39.030   13 Jun 2027 04:58:39.030             0.000             0.000
       283   13 Jun 2027 06:31:40.062   13 Jun 2027 06:33:03.319            83.257         41429.906
       284   13 Jun 2027 06:33:53.865   13 Jun 2027 06:33:55.068             1.203           207.625
       285   13 Jun 2027 06:34:22.981   13 Jun 2027 06:34:27.551             4.570           830.031
       286   13 Jun 2027 06:34:46.832   13 Jun 2027 06:34:50.640             3.808           373.188
       287   13 Jun 2027 06:36:23.026   13 Jun 2027 06:36:28.353             5.327          2423.656
       288   13 Jun 2027 06:36:38.359   13 Jun 2027 06:36:40.106             1.747           273.063
       289   13 Jun 2027 06:36:53.452   13 Jun 2027 06:36:56.300             2.848           123.531
       290   13 Jun 2027 06:37:38.274   13 Jun 2027 06:37:40.085             1.811           812.250
       291   13 Jun 2027 08:08:24.813   13 Jun 2027 08:08:29.286             4.473           750.844
       292   13 Jun 2027 08:11:10.703   13 Jun 2027 08:11:17.631             6.928           946.687
       293   13 Jun 2027 08:11:42.848   13 Jun 2027 08:11:48.497             5.649           729.469
       294   13 Jun 2027 08:12:06.753   13 Jun 2027 08:12:07.321             0.568           175.969
       295   13 Jun 2027 08:12:36.236   13 Jun 2027 08:12:38.662             2.426           899.219
       296   13 Jun 2027 08:13:41.748   13 Jun 2027 08:13:45.758             4.010          1361.562
       297   13 Jun 2027 08:14:41.891   13 Jun 2027 08:14:46.181             4.290          1570.812
       298   13 Jun 2027 09:46:23.174   13 Jun 2027 09:46:35.926            12.752          5739.250
       299   13 Jun 2027 09:47:35.368   13 Jun 2027 09:47:39.300             3.932           617.125
       300   13 Jun 2027 09:49:21.554   13 Jun 2027 09:49:25.451             3.897           785.625
       301   13 Jun 2027 09:49:45.771   13 Jun 2027 09:49:47.306             1.535           224.000
       302   13 Jun 2027 09:50:17.297   13 Jun 2027 09:50:23.337             6.040           820.625
       303   13 Jun 2027 11:20:01.065   13 Jun 2027 11:20:03.507             2.442           595.656
