uniorb/output/strategy_4/Camera/Camera_KinoSat_110605.txt

KinoSat_110605
-------------------------
    Access    *     Start Time (UTCG)     *     Stop Time (UTCG)  *   Duration (s) *   Data (Mbytes)
         1   01 Jun 2027 03:44:13.088   01 Jun 2027 03:45:35.443            82.355         41177.500
         2   01 Jun 2027 03:45:56.590   01 Jun 2027 03:46:06.013             9.423          4711.500
         3   01 Jun 2027 03:46:37.435   01 Jun 2027 03:47:02.080            24.645         12322.500
         4   01 Jun 2027 05:19:22.190   01 Jun 2027 05:20:55.988            93.798         46899.000
         5   01 Jun 2027 05:21:21.081   01 Jun 2027 05:21:50.521            29.440         14720.000
         6   01 Jun 2027 05:24:59.593   01 Jun 2027 05:25:03.559             3.966          1983.000
         7   01 Jun 2027 05:25:33.401   01 Jun 2027 05:25:59.417            26.016         13008.000
         8   01 Jun 2027 06:55:45.802   01 Jun 2027 06:57:46.877           121.075         60537.500
         9   01 Jun 2027 06:58:09.054   01 Jun 2027 06:58:28.109            19.055          9527.500
        10   01 Jun 2027 06:59:07.863   01 Jun 2027 06:59:13.249             5.386          2693.000
        11   01 Jun 2027 07:01:54.020   01 Jun 2027 07:01:57.438             3.418          1709.000
        12   01 Jun 2027 08:32:59.653   01 Jun 2027 08:35:31.268           151.615         75807.500
        13   01 Jun 2027 08:36:32.280   01 Jun 2027 08:36:40.277             7.997          3998.500
        14   01 Jun 2027 10:09:18.509   01 Jun 2027 10:11:56.407           157.898         78949.000
        15   01 Jun 2027 10:13:19.678   01 Jun 2027 10:13:33.124            13.446          6723.000
        16   02 Jun 2027 03:56:06.074   02 Jun 2027 03:56:33.616            27.542         13771.000
        17   02 Jun 2027 03:58:47.912   02 Jun 2027 03:59:04.207            16.295          8147.500
        18   02 Jun 2027 05:31:03.674   02 Jun 2027 05:33:48.092           164.418         82209.000
        19   02 Jun 2027 05:33:52.595   02 Jun 2027 05:33:52.982             0.387           193.500
        20   02 Jun 2027 05:34:16.205   02 Jun 2027 05:35:06.687            50.482         25241.000
        21   02 Jun 2027 05:37:39.659   02 Jun 2027 05:38:07.023            27.364         13682.000
        22   02 Jun 2027 07:07:17.417   02 Jun 2027 07:09:38.788           141.371         70685.500
        23   02 Jun 2027 07:12:15.115   02 Jun 2027 07:12:38.483            23.368         11684.000
        24   02 Jun 2027 08:45:37.541   02 Jun 2027 08:49:28.039           230.498        115249.000
        25   02 Jun 2027 10:20:56.970   02 Jun 2027 10:21:28.987            32.017         15166.907
        26   02 Jun 2027 10:23:18.249   02 Jun 2027 10:23:21.331             3.082           611.344
        27   03 Jun 2027 04:06:28.232   03 Jun 2027 04:06:53.963            25.731         12865.500
        28   03 Jun 2027 04:07:50.863   03 Jun 2027 04:08:11.170            20.307         10153.500
        29   03 Jun 2027 04:11:10.334   03 Jun 2027 04:11:14.108             3.774          1887.000
        30   03 Jun 2027 04:11:27.644   03 Jun 2027 04:11:31.361             3.717          1858.500
        31   03 Jun 2027 05:42:36.654   03 Jun 2027 05:44:26.267           109.613         54806.500
        32   03 Jun 2027 05:45:02.357   03 Jun 2027 05:45:37.198            34.841         17420.500
        33   03 Jun 2027 05:46:07.776   03 Jun 2027 05:46:11.009             3.233          1616.500
        34   03 Jun 2027 05:47:53.888   03 Jun 2027 05:48:04.166            10.278          5139.000
        35   03 Jun 2027 05:48:18.814   03 Jun 2027 05:48:27.691             8.877          4438.500
        36   03 Jun 2027 05:49:27.862   03 Jun 2027 05:49:32.915             5.053          2526.500
        37   03 Jun 2027 05:50:08.230   03 Jun 2027 05:50:10.834             2.604          1302.000
        38   03 Jun 2027 07:19:39.027   03 Jun 2027 07:21:37.808           118.781         57509.188
        39   03 Jun 2027 08:57:38.679   03 Jun 2027 08:57:49.342            10.663          4832.656
        40   03 Jun 2027 10:30:50.291   03 Jun 2027 10:31:02.447            12.156          4634.406
        41   04 Jun 2027 04:17:32.767   04 Jun 2027 04:18:22.995            50.228         25114.000
        42   04 Jun 2027 04:19:49.102   04 Jun 2027 04:20:07.302            18.200          9100.000
        43   04 Jun 2027 04:20:35.265   04 Jun 2027 04:20:56.045            20.780         10390.000
        44   04 Jun 2027 04:23:29.799   04 Jun 2027 04:23:43.036            13.237          6618.500
        45   04 Jun 2027 04:24:09.684   04 Jun 2027 04:24:12.019             2.335          1167.500
        46   04 Jun 2027 04:25:30.922   04 Jun 2027 04:25:46.528            15.606          7803.000
        47   04 Jun 2027 05:54:48.067   04 Jun 2027 05:57:15.588           147.521         73760.500
        48   04 Jun 2027 05:59:16.593   04 Jun 2027 05:59:20.912             4.319          2159.500
        49   04 Jun 2027 06:00:00.485   04 Jun 2027 06:00:08.662             8.177          4088.500
        50   04 Jun 2027 06:01:21.504   04 Jun 2027 06:01:53.448            31.944         15972.000
        51   04 Jun 2027 06:02:12.158   04 Jun 2027 06:02:12.375             0.217           108.500
        52   04 Jun 2027 07:31:42.351   04 Jun 2027 07:32:27.426            45.075         22122.282
        53   04 Jun 2027 07:36:50.073   04 Jun 2027 07:36:55.846             5.773          2101.750
        54   04 Jun 2027 07:37:47.778   04 Jun 2027 07:37:52.378             4.600           975.875
        55   04 Jun 2027 09:09:38.477   04 Jun 2027 09:09:51.122            12.645          6321.625
        56   04 Jun 2027 10:43:11.890   04 Jun 2027 10:43:17.371             5.481          1981.375
        57   05 Jun 2027 04:29:02.053   05 Jun 2027 04:30:50.316           108.263         54131.500
        58   05 Jun 2027 04:31:24.578   05 Jun 2027 04:31:28.411             3.833          1916.500
        59   05 Jun 2027 04:32:30.926   05 Jun 2027 04:32:42.021            11.095          5547.500
        60   05 Jun 2027 04:35:24.288   05 Jun 2027 04:36:02.419            38.131         19065.500
        61   05 Jun 2027 04:36:18.339   05 Jun 2027 04:36:18.339             0.000             0.000
        62   05 Jun 2027 04:36:37.583   05 Jun 2027 04:36:55.208            17.625          8812.500
        63   05 Jun 2027 06:06:48.479   05 Jun 2027 06:09:18.421           149.942         74086.843
        64   05 Jun 2027 06:09:52.212   05 Jun 2027 06:09:57.041             4.829          1023.312
        65   05 Jun 2027 06:11:55.041   05 Jun 2027 06:11:59.407             4.366          1116.469
        66   05 Jun 2027 06:12:48.687   05 Jun 2027 06:12:55.693             7.006           716.031
        67   05 Jun 2027 07:43:33.733   05 Jun 2027 07:43:37.723             3.990           295.250
        68   05 Jun 2027 09:21:39.095   05 Jun 2027 09:21:48.119             9.024          2347.063
        69   05 Jun 2027 10:55:30.137   05 Jun 2027 10:55:33.056             2.919           858.281
        70   06 Jun 2027 03:05:46.146   06 Jun 2027 03:06:01.682            15.536          7768.000
        71   06 Jun 2027 03:10:31.332   06 Jun 2027 03:10:34.067             2.735          1367.500
        72   06 Jun 2027 04:41:48.025   06 Jun 2027 04:45:01.104           193.079         96539.500
        73   06 Jun 2027 04:49:17.954   06 Jun 2027 04:49:24.972             7.018          3509.000
        74   06 Jun 2027 04:49:50.628   06 Jun 2027 04:50:17.643            27.015         13507.500
        75   06 Jun 2027 06:18:52.269   06 Jun 2027 06:20:00.253            67.984         33813.687
        76   06 Jun 2027 06:20:21.095   06 Jun 2027 06:20:21.095             0.000             0.000
        77   06 Jun 2027 06:21:15.956   06 Jun 2027 06:21:18.416             2.460          1230.000
        78   06 Jun 2027 06:21:21.020   06 Jun 2027 06:21:29.550             8.530           664.250
        79   06 Jun 2027 06:22:00.500   06 Jun 2027 06:22:03.136             2.636           831.750
        80   06 Jun 2027 06:23:16.939   06 Jun 2027 06:23:20.651             3.712          1245.250
        81   06 Jun 2027 06:23:23.482   06 Jun 2027 06:23:25.076             1.594            49.656
        82   06 Jun 2027 06:23:57.930   06 Jun 2027 06:23:58.870             0.940           188.188
        83   06 Jun 2027 07:55:50.948   06 Jun 2027 07:55:51.163             0.215           104.875
        84   06 Jun 2027 07:58:32.485   06 Jun 2027 07:58:33.413             0.928           369.906
        85   06 Jun 2027 07:59:27.254   06 Jun 2027 07:59:31.743             4.489          1124.906
        86   06 Jun 2027 07:59:44.719   06 Jun 2027 07:59:46.003             1.284            27.219
        87   06 Jun 2027 09:32:52.853   06 Jun 2027 09:32:58.344             5.491          2715.625
        88   06 Jun 2027 09:33:27.227   06 Jun 2027 09:33:29.277             2.050            46.969
        89   06 Jun 2027 11:07:56.386   06 Jun 2027 11:07:57.923             1.537           540.031
        90   07 Jun 2027 03:20:17.717   07 Jun 2027 03:20:37.930            20.213         10106.500
        91   07 Jun 2027 03:21:14.640   07 Jun 2027 03:21:16.729             2.089          1044.500
        92   07 Jun 2027 04:53:46.085   07 Jun 2027 04:55:33.970           107.885         53942.500
        93   07 Jun 2027 04:58:34.618   07 Jun 2027 05:00:31.012           116.394         58197.000
        94   07 Jun 2027 05:01:14.605   07 Jun 2027 05:01:15.405             0.800           400.000
        95   07 Jun 2027 05:01:55.141   07 Jun 2027 05:02:07.354            12.213          6106.500
        96   07 Jun 2027 05:02:14.679   07 Jun 2027 05:02:16.897             2.218          1109.000
        97   07 Jun 2027 06:31:18.645   07 Jun 2027 06:32:14.888            56.243         27767.469
        98   07 Jun 2027 08:08:13.230   07 Jun 2027 08:08:15.572             2.342           230.844
        99   07 Jun 2027 08:11:52.560   07 Jun 2027 08:11:54.724             2.164           343.438
       100   07 Jun 2027 09:45:04.163   07 Jun 2027 09:45:13.355             9.192          3330.062
       101   07 Jun 2027 11:22:40.661   07 Jun 2027 11:22:41.069             0.408           176.688
       102   08 Jun 2027 03:32:19.088   08 Jun 2027 03:32:29.656            10.568          5284.000
       103   08 Jun 2027 05:06:49.227   08 Jun 2027 05:07:48.707            59.480         29740.000
       104   08 Jun 2027 05:08:03.407   08 Jun 2027 05:08:46.934            43.527         21763.500
       105   08 Jun 2027 05:11:05.874   08 Jun 2027 05:13:10.873           124.999         62499.500
       106   08 Jun 2027 05:13:14.876   08 Jun 2027 05:13:15.603             0.727           363.500
       107   08 Jun 2027 05:14:09.684   08 Jun 2027 05:14:12.722             3.038          1519.000
       108   08 Jun 2027 06:43:25.464   08 Jun 2027 06:44:33.834            68.370         33502.437
       109   08 Jun 2027 06:49:14.324   08 Jun 2027 06:49:17.717             3.393          1085.688
       110   08 Jun 2027 08:21:07.805   08 Jun 2027 08:21:11.291             3.486           706.656
       111   08 Jun 2027 09:57:06.302   08 Jun 2027 09:57:16.357            10.055          3928.406
       112   09 Jun 2027 03:44:27.773   09 Jun 2027 03:44:43.136            15.363          7681.500
       113   09 Jun 2027 03:45:52.276   09 Jun 2027 03:46:11.694            19.418          9709.000
       114   09 Jun 2027 05:19:36.942   09 Jun 2027 05:21:10.654            93.712         46856.000
       115   09 Jun 2027 05:21:44.331   09 Jun 2027 05:22:28.557            44.226         22113.000
       116   09 Jun 2027 05:23:29.458   09 Jun 2027 05:24:05.675            36.217         18108.500
       117   09 Jun 2027 05:25:38.494   09 Jun 2027 05:25:46.774             8.280          4140.000
       118   09 Jun 2027 05:26:12.755   09 Jun 2027 05:26:14.094             1.339           669.500
       119   09 Jun 2027 06:56:00.768   09 Jun 2027 06:57:49.991           109.223         54048.782
       120   09 Jun 2027 07:00:28.836   09 Jun 2027 07:00:31.753             2.917           278.781
       121   09 Jun 2027 07:01:00.054   09 Jun 2027 07:01:01.036             0.982           426.406
       122   09 Jun 2027 08:33:14.343   09 Jun 2027 08:33:23.597             9.254          2745.031
       123   09 Jun 2027 10:09:33.319   09 Jun 2027 10:09:48.375            15.056          7144.687
       124   09 Jun 2027 10:10:34.205   09 Jun 2027 10:10:36.098             1.893           745.031
       125   10 Jun 2027 03:56:20.625   10 Jun 2027 03:56:48.398            27.773         13886.500
       126   10 Jun 2027 05:31:18.116   10 Jun 2027 05:34:08.465           170.349         85174.500
       127   10 Jun 2027 05:35:49.717   10 Jun 2027 05:36:33.529            43.812         21906.000
       128   10 Jun 2027 05:37:54.164   10 Jun 2027 05:38:21.897            27.733         13866.500
       129   10 Jun 2027 07:07:32.349   10 Jun 2027 07:08:37.193            64.844         30546.625
       130   10 Jun 2027 07:12:21.139   10 Jun 2027 07:12:23.676             2.537           183.031
       131   10 Jun 2027 07:12:52.949   10 Jun 2027 07:12:55.168             2.219           688.781
       132   10 Jun 2027 08:45:52.080   10 Jun 2027 08:46:02.567            10.487          5080.344
       133   10 Jun 2027 08:48:02.904   10 Jun 2027 08:48:06.287             3.383           717.125
       134   10 Jun 2027 10:21:11.574   10 Jun 2027 10:21:24.557            12.983          5897.250
       135   11 Jun 2027 04:06:40.555   11 Jun 2027 04:07:06.361            25.806         12903.000
       136   11 Jun 2027 04:08:05.210   11 Jun 2027 04:08:26.021            20.811         10405.500
       137   11 Jun 2027 04:11:23.115   11 Jun 2027 04:11:23.115             0.000             0.000
       138   11 Jun 2027 05:42:51.110   11 Jun 2027 05:44:40.924           109.814         54907.000
       139   11 Jun 2027 05:45:17.004   11 Jun 2027 05:45:52.026            35.022         17511.000
       140   11 Jun 2027 05:50:22.931   11 Jun 2027 05:50:25.342             2.411          1205.500
       141   11 Jun 2027 07:19:53.755   11 Jun 2027 07:22:27.042           153.287         74469.094
       142   11 Jun 2027 07:25:41.326   11 Jun 2027 07:25:41.843             0.517            42.875
       143   11 Jun 2027 08:57:53.308   11 Jun 2027 08:58:03.649            10.341          4612.719
       144   11 Jun 2027 10:31:04.420   11 Jun 2027 10:31:17.634            13.214          5752.156
       145   12 Jun 2027 04:17:47.182   12 Jun 2027 04:18:35.574            48.392         24196.000
       146   12 Jun 2027 04:20:15.495   12 Jun 2027 04:20:22.804             7.309          3654.500
       147   12 Jun 2027 04:21:37.981   12 Jun 2027 04:21:44.573             6.592          3296.000
       148   12 Jun 2027 04:23:21.566   12 Jun 2027 04:23:32.406            10.840          5420.000
       149   12 Jun 2027 04:24:25.616   12 Jun 2027 04:24:30.711             5.095          2547.500
       150   12 Jun 2027 04:25:41.029   12 Jun 2027 04:26:01.327            20.298         10149.000
       151   12 Jun 2027 05:55:03.200   12 Jun 2027 05:57:30.819           147.619         73809.500
       152   12 Jun 2027 05:57:44.852   12 Jun 2027 05:57:50.430             5.578          2789.000
       153   12 Jun 2027 05:58:38.952   12 Jun 2027 05:58:40.672             1.720           860.000
       154   12 Jun 2027 05:58:45.619   12 Jun 2027 05:59:26.960            41.341         20670.500
       155   12 Jun 2027 06:01:46.483   12 Jun 2027 06:02:07.843            21.360         10680.000
       156   12 Jun 2027 06:02:26.848   12 Jun 2027 06:02:27.074             0.226           113.000
       157   12 Jun 2027 07:31:56.765   12 Jun 2027 07:32:29.306            32.541         15744.000
       158   12 Jun 2027 07:32:42.406   12 Jun 2027 07:32:42.829             0.423           104.000
       159   12 Jun 2027 07:33:39.905   12 Jun 2027 07:33:46.177             6.272          1783.000
       160   12 Jun 2027 07:35:20.932   12 Jun 2027 07:35:23.070             2.138           562.625
       161   12 Jun 2027 07:37:07.792   12 Jun 2027 07:37:12.815             5.023          2221.469
       162   12 Jun 2027 09:09:52.986   12 Jun 2027 09:10:05.615            12.629          4950.594
       163   12 Jun 2027 10:43:27.754   12 Jun 2027 10:43:31.999             4.245          1961.906
       164   13 Jun 2027 03:00:00.000   13 Jun 2027 03:00:03.829             3.829          1914.500
       165   13 Jun 2027 04:29:16.354   13 Jun 2027 04:31:04.447           108.093         54046.500
       166   13 Jun 2027 04:31:41.357   13 Jun 2027 04:31:41.357             0.000             0.000
       167   13 Jun 2027 04:31:56.308   13 Jun 2027 04:32:05.041             8.733          4366.500
       168   13 Jun 2027 04:33:56.599   13 Jun 2027 04:34:12.837            16.238          8119.000
       169   13 Jun 2027 04:37:50.136   13 Jun 2027 04:38:14.469            24.333         12166.500
       170   13 Jun 2027 06:07:03.057   13 Jun 2027 06:09:48.068           165.011         82505.500
       171   13 Jun 2027 06:10:07.133   13 Jun 2027 06:10:17.706            10.573          3431.937
       172   13 Jun 2027 06:13:02.948   13 Jun 2027 06:13:11.785             8.837          2770.219
       173   13 Jun 2027 09:21:53.757   13 Jun 2027 09:21:59.017             5.260          2346.156
       174   13 Jun 2027 10:55:44.927   13 Jun 2027 10:55:48.666             3.739           876.344
