uniorb/output/strategy_4/Camera/Camera_KinoSat_110908.txt

KinoSat_110908
-------------------------
    Access    *     Start Time (UTCG)     *     Stop Time (UTCG)  *   Duration (s) *   Data (Mbytes)
         1   01 Jun 2027 03:02:26.704   01 Jun 2027 03:02:47.840            21.136         10568.000
         2   01 Jun 2027 03:03:27.938   01 Jun 2027 03:03:51.803            23.865         11932.500
         3   01 Jun 2027 03:04:13.851   01 Jun 2027 03:04:13.851             0.000             0.000
         4   01 Jun 2027 03:14:56.145   01 Jun 2027 03:15:06.979            10.834          5417.000
         5   01 Jun 2027 04:36:16.670   01 Jun 2027 04:37:57.811           101.141         50570.500
         6   01 Jun 2027 04:38:02.266   01 Jun 2027 04:38:13.295            11.029          5514.500
         7   01 Jun 2027 04:40:40.623   01 Jun 2027 04:40:52.644            12.021          6010.500
         8   01 Jun 2027 04:40:59.121   01 Jun 2027 04:41:05.519             6.398          3199.000
         9   01 Jun 2027 06:11:10.603   01 Jun 2027 06:12:41.550            90.947         45473.500
        10   01 Jun 2027 06:14:58.854   01 Jun 2027 06:15:03.252             4.398          2199.000
        11   01 Jun 2027 06:15:27.437   01 Jun 2027 06:15:39.793            12.356          6178.000
        12   01 Jun 2027 06:16:07.617   01 Jun 2027 06:16:07.617             0.000             0.000
        13   01 Jun 2027 06:17:23.410   01 Jun 2027 06:17:26.981             3.571          1785.500
        14   01 Jun 2027 06:17:52.109   01 Jun 2027 06:17:58.414             6.305          3152.500
        15   01 Jun 2027 06:18:20.760   01 Jun 2027 06:18:24.744             3.984          1992.000
        16   01 Jun 2027 06:20:07.179   01 Jun 2027 06:20:09.030             1.851           925.500
        17   01 Jun 2027 06:20:28.780   01 Jun 2027 06:20:34.120             5.340          2670.000
        18   01 Jun 2027 07:49:13.522   01 Jun 2027 07:50:31.349            77.827         38913.500
        19   01 Jun 2027 07:52:25.893   01 Jun 2027 07:53:24.212            58.319         29159.500
        20   01 Jun 2027 07:53:45.997   01 Jun 2027 07:53:47.791             1.794           897.000
        21   01 Jun 2027 07:54:33.379   01 Jun 2027 07:54:57.863            24.484         12242.000
        22   01 Jun 2027 09:26:06.901   01 Jun 2027 09:28:31.502           144.601         72300.500
        23   01 Jun 2027 09:30:29.695   01 Jun 2027 09:31:08.956            39.261         19630.500
        24   01 Jun 2027 09:32:14.129   01 Jun 2027 09:32:35.947            21.818         10909.000
        25   01 Jun 2027 11:03:17.231   01 Jun 2027 11:05:41.161           143.930         71965.000
        26   01 Jun 2027 11:05:55.773   01 Jun 2027 11:05:56.512             0.739           369.500
        27   01 Jun 2027 11:07:57.876   01 Jun 2027 11:08:11.603            13.727          6863.500
        28   02 Jun 2027 03:14:24.413   02 Jun 2027 03:14:28.251             3.838          1919.000
        29   02 Jun 2027 03:14:51.506   02 Jun 2027 03:15:13.663            22.157         11078.500
        30   02 Jun 2027 04:50:35.204   02 Jun 2027 04:52:58.931           143.727         71863.500
        31   02 Jun 2027 04:53:45.871   02 Jun 2027 04:53:53.814             7.943          3971.500
        32   02 Jun 2027 06:24:08.720   02 Jun 2027 06:28:09.797           241.077        120538.500
        33   02 Jun 2027 06:28:35.032   02 Jun 2027 06:28:35.032             0.000             0.000
        34   02 Jun 2027 06:31:43.257   02 Jun 2027 06:32:32.703            49.446         24723.000
        35   02 Jun 2027 06:32:41.319   02 Jun 2027 06:32:42.411             1.092           546.000
        36   02 Jun 2027 08:01:35.469   02 Jun 2027 08:03:49.761           134.292         67146.000
        37   02 Jun 2027 08:05:00.129   02 Jun 2027 08:06:14.611            74.482         37241.000
        38   02 Jun 2027 08:06:39.792   02 Jun 2027 08:06:44.737             4.945          1305.625
        39   02 Jun 2027 09:38:36.030   02 Jun 2027 09:39:00.837            24.807         12323.125
        40   02 Jun 2027 09:39:58.915   02 Jun 2027 09:40:03.288             4.373          1761.719
        41   02 Jun 2027 09:40:36.714   02 Jun 2027 09:40:37.881             1.167           270.062
        42   02 Jun 2027 09:41:33.605   02 Jun 2027 09:41:39.921             6.316          1741.375
        43   02 Jun 2027 09:42:26.066   02 Jun 2027 09:42:30.312             4.246           417.094
        44   02 Jun 2027 09:42:35.898   02 Jun 2027 09:42:38.344             2.446           123.656
        45   02 Jun 2027 09:43:02.381   02 Jun 2027 09:43:03.958             1.577           220.406
        46   02 Jun 2027 09:43:12.606   02 Jun 2027 09:43:14.535             1.929           194.875
        47   02 Jun 2027 09:44:05.690   02 Jun 2027 09:44:08.936             3.246          1457.719
        48   02 Jun 2027 11:15:30.143   02 Jun 2027 11:15:44.976            14.833          6808.531
        49   02 Jun 2027 11:18:13.054   02 Jun 2027 11:18:16.640             3.586           640.000
        50   02 Jun 2027 11:18:33.436   02 Jun 2027 11:18:34.627             1.191           394.625
        51   02 Jun 2027 11:18:48.480   02 Jun 2027 11:18:56.310             7.830           432.906
        52   02 Jun 2027 11:19:38.412   02 Jun 2027 11:19:39.469             1.057           509.000
        53   02 Jun 2027 11:20:00.772   02 Jun 2027 11:20:02.811             2.039            92.406
        54   02 Jun 2027 11:20:07.096   02 Jun 2027 11:20:07.613             0.517            55.344
        55   03 Jun 2027 03:26:13.995   03 Jun 2027 03:26:29.581            15.586          7793.000
        56   03 Jun 2027 05:02:40.972   03 Jun 2027 05:03:48.082            67.110         33555.000
        57   03 Jun 2027 05:04:52.331   03 Jun 2027 05:05:07.606            15.275          7637.500
        58   03 Jun 2027 05:05:33.032   03 Jun 2027 05:06:14.158            41.126         20563.000
        59   03 Jun 2027 06:34:52.034   03 Jun 2027 06:35:00.024             7.990          3995.000
        60   03 Jun 2027 06:36:47.540   03 Jun 2027 06:39:24.042           156.502         77948.281
        61   03 Jun 2027 06:40:50.601   03 Jun 2027 06:40:55.105             4.504          2252.000
        62   03 Jun 2027 06:41:11.340   03 Jun 2027 06:41:12.591             1.251           613.156
        63   03 Jun 2027 06:42:12.039   03 Jun 2027 06:42:14.988             2.949          1453.281
        64   03 Jun 2027 06:42:56.484   03 Jun 2027 06:42:58.874             2.390           775.094
        65   03 Jun 2027 06:43:30.864   03 Jun 2027 06:43:33.141             2.277           800.813
        66   03 Jun 2027 06:44:19.807   03 Jun 2027 06:44:29.053             9.246          1043.687
        67   03 Jun 2027 08:13:45.375   03 Jun 2027 08:13:47.516             2.141           935.656
        68   03 Jun 2027 08:15:40.142   03 Jun 2027 08:15:44.681             4.539           904.813
        69   03 Jun 2027 08:16:15.386   03 Jun 2027 08:16:17.332             1.946           269.687
        70   03 Jun 2027 08:16:50.945   03 Jun 2027 08:16:56.275             5.330           950.594
        71   03 Jun 2027 08:17:27.619   03 Jun 2027 08:17:30.750             3.131           827.156
        72   03 Jun 2027 08:17:51.904   03 Jun 2027 08:17:54.294             2.390             3.969
        73   03 Jun 2027 08:19:32.996   03 Jun 2027 08:19:34.777             1.781           754.938
        74   03 Jun 2027 09:51:00.247   03 Jun 2027 09:51:11.631            11.384          5548.625
        75   03 Jun 2027 09:54:07.938   03 Jun 2027 09:54:09.558             1.620           385.281
        76   03 Jun 2027 09:54:09.887   03 Jun 2027 09:54:14.653             4.766            10.281
        77   03 Jun 2027 09:54:55.750   03 Jun 2027 09:54:59.796             4.046          1284.281
        78   03 Jun 2027 09:55:19.606   03 Jun 2027 09:55:22.636             3.030           571.031
        79   03 Jun 2027 09:55:42.186   03 Jun 2027 09:55:47.942             5.756           222.844
        80   03 Jun 2027 11:27:30.410   03 Jun 2027 11:27:47.747            17.337          6105.062
        81   03 Jun 2027 11:28:19.686   03 Jun 2027 11:28:20.174             0.488           190.031
        82   03 Jun 2027 11:30:08.354   03 Jun 2027 11:30:12.988             4.634           663.500
        83   03 Jun 2027 11:32:03.792   03 Jun 2027 11:32:04.079             0.287            70.500
        84   04 Jun 2027 03:38:21.717   04 Jun 2027 03:38:30.571             8.854          4427.000
        85   04 Jun 2027 03:41:00.087   04 Jun 2027 03:41:24.307            24.220         12110.000
        86   04 Jun 2027 05:14:49.764   04 Jun 2027 05:18:28.737           218.973        109486.500
        87   04 Jun 2027 06:50:00.181   04 Jun 2027 06:50:59.487            59.306         29201.500
        88   04 Jun 2027 06:51:16.414   04 Jun 2027 06:51:17.975             1.561           382.281
        89   04 Jun 2027 06:52:14.973   04 Jun 2027 06:52:18.162             3.189          1138.875
        90   04 Jun 2027 06:52:55.665   04 Jun 2027 06:52:58.200             2.535           235.469
        91   04 Jun 2027 06:53:08.219   04 Jun 2027 06:53:09.627             1.408           313.094
        92   04 Jun 2027 06:53:35.788   04 Jun 2027 06:53:35.788             0.000             0.000
        93   04 Jun 2027 06:54:49.991   04 Jun 2027 06:54:55.761             5.770          2577.594
        94   04 Jun 2027 06:56:01.275   04 Jun 2027 06:56:05.546             4.271          1652.344
        95   04 Jun 2027 06:56:14.948   04 Jun 2027 06:56:18.904             3.956           184.656
        96   04 Jun 2027 08:26:19.529   04 Jun 2027 08:26:29.652            10.123          4566.687
        97   04 Jun 2027 08:29:14.427   04 Jun 2027 08:29:16.234             1.807           852.688
        98   04 Jun 2027 08:29:32.412   04 Jun 2027 08:29:32.938             0.526           216.969
        99   04 Jun 2027 08:31:23.771   04 Jun 2027 08:31:25.757             1.986           664.281
       100   04 Jun 2027 08:32:06.045   04 Jun 2027 08:32:11.230             5.185           834.062
       101   04 Jun 2027 10:03:43.482   04 Jun 2027 10:03:54.471            10.989          4657.375
       102   04 Jun 2027 10:05:28.024   04 Jun 2027 10:05:29.061             1.037           186.594
       103   04 Jun 2027 10:06:16.010   04 Jun 2027 10:06:17.145             1.135           561.219
       104   04 Jun 2027 10:07:43.485   04 Jun 2027 10:07:45.967             2.482          1199.313
       105   04 Jun 2027 11:39:55.511   04 Jun 2027 11:40:07.984            12.473          5369.750
       106   04 Jun 2027 11:41:58.906   04 Jun 2027 11:42:00.594             1.688           564.062
       107   05 Jun 2027 03:50:23.206   05 Jun 2027 03:50:31.178             7.972          3986.000
       108   05 Jun 2027 03:50:53.093   05 Jun 2027 03:50:57.919             4.826          2413.000
       109   05 Jun 2027 03:52:58.523   05 Jun 2027 03:53:00.886             2.363          1181.500
       110   05 Jun 2027 03:53:20.111   05 Jun 2027 03:53:28.845             8.734          4367.000
       111   05 Jun 2027 05:26:51.329   05 Jun 2027 05:29:33.917           162.588         81294.000
       112   05 Jun 2027 05:30:01.706   05 Jun 2027 05:30:16.510            14.804          7402.000
       113   05 Jun 2027 07:02:03.970   05 Jun 2027 07:04:01.359           117.389         57172.343
       114   05 Jun 2027 07:04:42.054   05 Jun 2027 07:04:43.701             1.647            71.063
       115   05 Jun 2027 07:05:01.445   05 Jun 2027 07:05:02.961             1.516           526.563
       116   05 Jun 2027 07:05:36.071   05 Jun 2027 07:05:36.071             0.000             0.000
       117   05 Jun 2027 07:06:49.981   05 Jun 2027 07:07:02.539            12.558          3106.187
       118   05 Jun 2027 07:08:19.324   05 Jun 2027 07:08:25.164             5.840          2120.375
       119   05 Jun 2027 08:37:58.924   05 Jun 2027 08:38:09.427            10.503          4403.656
       120   05 Jun 2027 08:41:40.623   05 Jun 2027 08:41:43.205             2.582          1213.812
       121   05 Jun 2027 08:42:54.008   05 Jun 2027 08:42:58.446             4.438           668.250
       122   05 Jun 2027 08:43:55.808   05 Jun 2027 08:44:00.190             4.382          1395.063
       123   05 Jun 2027 10:15:56.029   05 Jun 2027 10:16:09.122            13.093          6293.844
       124   05 Jun 2027 10:17:20.482   05 Jun 2027 10:17:24.860             4.378           539.281
       125   05 Jun 2027 10:19:22.915   05 Jun 2027 10:19:29.151             6.236          2068.062
       126   05 Jun 2027 10:19:56.885   05 Jun 2027 10:19:58.124             1.239           392.656
       127   05 Jun 2027 10:20:06.161   05 Jun 2027 10:20:08.395             2.234           251.156
       128   05 Jun 2027 11:51:49.309   05 Jun 2027 11:51:59.937            10.628          4978.937
       129   05 Jun 2027 11:53:30.041   05 Jun 2027 11:53:32.949             2.908           136.719
       130   05 Jun 2027 11:53:50.386   05 Jun 2027 11:53:51.117             0.731           165.594
       131   06 Jun 2027 04:02:49.603   06 Jun 2027 04:03:33.561            43.958         21979.000
       132   06 Jun 2027 05:38:34.551   06 Jun 2027 05:38:43.997             9.446          4723.000
       133   06 Jun 2027 05:40:34.189   06 Jun 2027 05:42:43.715           129.526         64763.000
       134   06 Jun 2027 07:13:18.385   06 Jun 2027 07:15:37.990           139.605         68663.281
       135   06 Jun 2027 07:15:52.833   06 Jun 2027 07:15:53.787             0.954           226.937
       136   06 Jun 2027 07:16:37.047   06 Jun 2027 07:16:38.370             1.323           202.750
       137   06 Jun 2027 07:17:04.790   06 Jun 2027 07:17:07.172             2.382           782.875
       138   06 Jun 2027 07:17:42.976   06 Jun 2027 07:17:43.260             0.284           129.344
       139   06 Jun 2027 07:19:14.435   06 Jun 2027 07:19:18.927             4.492           783.125
       140   06 Jun 2027 07:19:54.107   06 Jun 2027 07:20:02.462             8.355           641.875
       141   06 Jun 2027 08:50:06.292   06 Jun 2027 08:50:15.139             8.847          3831.594
       142   06 Jun 2027 08:52:07.886   06 Jun 2027 08:52:10.523             2.637           843.031
       143   06 Jun 2027 08:52:49.797   06 Jun 2027 08:52:53.378             3.581           878.937
       144   06 Jun 2027 08:53:52.429   06 Jun 2027 08:53:55.136             2.707           640.719
       145   06 Jun 2027 08:54:32.591   06 Jun 2027 08:54:35.151             2.560            94.031
       146   06 Jun 2027 08:54:42.711   06 Jun 2027 08:54:46.106             3.395           178.969
       147   06 Jun 2027 08:55:14.560   06 Jun 2027 08:55:19.520             4.960           772.312
       148   06 Jun 2027 08:55:55.408   06 Jun 2027 08:55:56.829             1.421           312.844
       149   06 Jun 2027 10:28:21.389   06 Jun 2027 10:28:34.919            13.530          6186.469
       150   06 Jun 2027 10:30:10.890   06 Jun 2027 10:30:13.667             2.777          1223.406
       151   06 Jun 2027 10:31:41.044   06 Jun 2027 10:31:46.660             5.616          2633.781
       152   06 Jun 2027 10:32:10.119   06 Jun 2027 10:32:16.393             6.274           733.094
       153   07 Jun 2027 04:13:25.280   07 Jun 2027 04:13:37.371            12.091          6045.500
       154   07 Jun 2027 04:13:58.059   07 Jun 2027 04:13:58.059             0.000             0.000
       155   07 Jun 2027 04:15:06.392   07 Jun 2027 04:15:31.085            24.693         12346.500
       156   07 Jun 2027 04:16:37.640   07 Jun 2027 04:16:57.201            19.561          9780.500
       157   07 Jun 2027 05:48:28.985   07 Jun 2027 05:49:46.685            77.700         38850.000
       158   07 Jun 2027 05:50:18.968   07 Jun 2027 05:51:10.232            51.264         25632.000
       159   07 Jun 2027 05:51:25.818   07 Jun 2027 05:51:25.818             0.000             0.000
       160   07 Jun 2027 05:51:45.163   07 Jun 2027 05:51:53.477             8.314          4157.000
       161   07 Jun 2027 05:54:45.901   07 Jun 2027 05:55:11.749            25.848         12924.000
       162   07 Jun 2027 07:25:26.621   07 Jun 2027 07:27:20.733           114.112         54458.813
       163   07 Jun 2027 07:28:14.396   07 Jun 2027 07:28:17.503             3.107          1508.625
       164   07 Jun 2027 07:28:21.234   07 Jun 2027 07:28:23.501             2.267           116.594
       165   07 Jun 2027 07:28:33.217   07 Jun 2027 07:28:38.640             5.423           303.625
       166   07 Jun 2027 07:30:48.067   07 Jun 2027 07:30:58.090            10.023          1997.156
       167   07 Jun 2027 07:31:15.755   07 Jun 2027 07:31:16.634             0.879            85.375
       168   07 Jun 2027 07:31:50.054   07 Jun 2027 07:31:52.568             2.514          1024.750
       169   07 Jun 2027 09:02:24.993   07 Jun 2027 09:02:35.183            10.190          3953.500
       170   07 Jun 2027 09:03:33.326   07 Jun 2027 09:03:39.885             6.559          1190.937
       171   07 Jun 2027 09:04:49.787   07 Jun 2027 09:04:51.168             1.381           573.812
       172   07 Jun 2027 09:06:18.170   07 Jun 2027 09:06:19.140             0.970           315.469
       173   07 Jun 2027 09:06:43.732   07 Jun 2027 09:06:49.946             6.214           768.500
       174   07 Jun 2027 09:07:14.650   07 Jun 2027 09:07:16.936             2.286             8.719
       175   07 Jun 2027 09:08:30.262   07 Jun 2027 09:08:32.659             2.397           918.750
       176   07 Jun 2027 10:40:19.550   07 Jun 2027 10:40:33.156            13.606          5203.125
       177   07 Jun 2027 10:42:16.002   07 Jun 2027 10:42:21.497             5.495          2583.750
       178   07 Jun 2027 10:43:27.874   07 Jun 2027 10:43:33.598             5.724           339.406
       179   07 Jun 2027 10:43:58.633   07 Jun 2027 10:44:00.598             1.965           298.000
       180   07 Jun 2027 10:44:03.668   07 Jun 2027 10:44:06.046             2.378            38.656
       181   08 Jun 2027 03:02:50.455   08 Jun 2027 03:03:23.687            33.232         16616.000
       182   08 Jun 2027 03:03:46.210   08 Jun 2027 03:03:47.256             1.046           523.000
       183   08 Jun 2027 04:24:55.134   08 Jun 2027 04:25:14.541            19.407          9703.500
       184   08 Jun 2027 04:26:57.365   08 Jun 2027 04:27:27.497            30.132         15066.000
       185   08 Jun 2027 04:28:39.813   08 Jun 2027 04:28:48.090             8.277          4138.500
       186   08 Jun 2027 05:59:53.947   08 Jun 2027 06:02:25.197           151.250         75625.000
       187   08 Jun 2027 06:03:03.183   08 Jun 2027 06:03:42.980            39.797         19898.500
       188   08 Jun 2027 06:05:05.707   08 Jun 2027 06:05:08.255             2.548          1274.000
       189   08 Jun 2027 06:06:17.248   08 Jun 2027 06:06:36.673            19.425          9712.500
       190   08 Jun 2027 07:37:30.207   08 Jun 2027 07:37:48.988            18.781          9385.656
       191   08 Jun 2027 07:38:57.846   08 Jun 2027 07:39:01.957             4.111            61.500
       192   08 Jun 2027 07:39:29.190   08 Jun 2027 07:39:30.967             1.777           725.063
       193   08 Jun 2027 07:39:56.569   08 Jun 2027 07:39:57.736             1.167           332.406
       194   08 Jun 2027 07:40:19.314   08 Jun 2027 07:40:20.734             1.420           511.156
       195   08 Jun 2027 07:41:16.146   08 Jun 2027 07:41:17.051             0.905           141.844
       196   08 Jun 2027 07:42:45.923   08 Jun 2027 07:42:49.490             3.567          1680.375
       197   08 Jun 2027 07:43:19.910   08 Jun 2027 07:43:22.130             2.220           623.531
       198   08 Jun 2027 09:14:14.368   08 Jun 2027 09:14:28.317            13.949          6871.469
       199   08 Jun 2027 09:17:21.573   08 Jun 2027 09:17:26.020             4.447          1024.969
       200   08 Jun 2027 09:18:07.256   08 Jun 2027 09:18:08.925             1.669           660.969
       201   08 Jun 2027 09:18:11.351   08 Jun 2027 09:18:12.675             1.324            75.813
       202   08 Jun 2027 09:18:22.585   08 Jun 2027 09:18:27.905             5.320             1.750
       203   08 Jun 2027 09:18:43.419   08 Jun 2027 09:18:46.866             3.447           484.813
       204   08 Jun 2027 09:19:27.054   08 Jun 2027 09:19:27.875             0.821           340.063
       205   08 Jun 2027 09:19:55.654   08 Jun 2027 09:19:57.894             2.240           634.594
       206   08 Jun 2027 09:20:35.268   08 Jun 2027 09:20:37.958             2.690           833.625
       207   08 Jun 2027 10:52:18.997   08 Jun 2027 10:52:32.042            13.045          6488.063
       208   08 Jun 2027 10:54:14.337   08 Jun 2027 10:54:21.089             6.752          2240.562
       209   08 Jun 2027 10:55:26.830   08 Jun 2027 10:55:32.460             5.630           295.187
       210   08 Jun 2027 10:55:40.888   08 Jun 2027 10:55:41.250             0.362           177.906
       211   08 Jun 2027 10:55:58.113   08 Jun 2027 10:56:00.869             2.756           241.281
       212   08 Jun 2027 10:56:12.616   08 Jun 2027 10:56:14.500             1.884            81.937
       213   08 Jun 2027 10:56:18.574   08 Jun 2027 10:56:20.040             1.466            28.500
       214   09 Jun 2027 03:02:41.704   09 Jun 2027 03:02:54.635            12.931          6465.500
       215   09 Jun 2027 03:04:29.423   09 Jun 2027 03:04:29.423             0.000             0.000
       216   09 Jun 2027 03:15:11.360   09 Jun 2027 03:15:17.501             6.141          3070.500
       217   09 Jun 2027 04:36:31.331   09 Jun 2027 04:38:18.008           106.677         53338.500
       218   09 Jun 2027 04:39:09.299   09 Jun 2027 04:39:25.917            16.618          8309.000
       219   09 Jun 2027 04:40:55.513   09 Jun 2027 04:41:45.095            49.582         24791.000
       220   09 Jun 2027 06:11:24.470   09 Jun 2027 06:13:14.866           110.396         53783.719
       221   09 Jun 2027 06:14:13.486   09 Jun 2027 06:14:13.486             0.000             0.000
       222   09 Jun 2027 06:14:15.470   09 Jun 2027 06:14:19.988             4.518          1821.000
       223   09 Jun 2027 06:15:07.497   09 Jun 2027 06:15:10.516             3.019          1065.156
       224   09 Jun 2027 06:15:17.981   09 Jun 2027 06:15:17.981             0.000             0.000
       225   09 Jun 2027 06:15:24.291   09 Jun 2027 06:15:28.007             3.716           306.781
       226   09 Jun 2027 06:17:40.061   09 Jun 2027 06:17:46.818             6.757          3378.500
       227   09 Jun 2027 06:17:51.134   09 Jun 2027 06:17:57.437             6.303           802.656
       228   09 Jun 2027 06:18:56.271   09 Jun 2027 06:19:00.315             4.044          1625.625
       229   09 Jun 2027 06:19:16.205   09 Jun 2027 06:19:19.709             3.504           496.563
       230   09 Jun 2027 06:20:09.854   09 Jun 2027 06:20:11.740             1.886           896.219
       231   09 Jun 2027 06:20:21.727   09 Jun 2027 06:20:22.216             0.489           200.563
       232   09 Jun 2027 07:49:29.052   09 Jun 2027 07:49:31.951             2.899          1215.094
       233   09 Jun 2027 07:51:05.032   09 Jun 2027 07:51:09.610             4.578          1987.906
       234   09 Jun 2027 07:53:20.013   09 Jun 2027 07:53:25.605             5.592           858.063
       235   09 Jun 2027 07:54:02.921   09 Jun 2027 07:54:07.769             4.848           693.500
       236   09 Jun 2027 09:26:22.260   09 Jun 2027 09:26:34.092            11.832          5230.125
       237   09 Jun 2027 09:29:38.196   09 Jun 2027 09:29:42.878             4.682          1592.063
       238   09 Jun 2027 09:30:25.538   09 Jun 2027 09:30:27.263             1.725           673.344
       239   09 Jun 2027 09:30:46.711   09 Jun 2027 09:30:47.800             1.089            39.125
       240   09 Jun 2027 09:31:24.665   09 Jun 2027 09:31:26.210             1.545           739.094
       241   09 Jun 2027 11:03:32.185   09 Jun 2027 11:03:43.377            11.192          4845.281
       242   09 Jun 2027 11:06:35.324   09 Jun 2027 11:06:46.386            11.062           705.656
       243   09 Jun 2027 11:07:09.600   09 Jun 2027 11:07:11.958             2.358           499.625
       244   09 Jun 2027 11:08:16.799   09 Jun 2027 11:08:17.793             0.994           100.031
       245   10 Jun 2027 03:14:38.212   10 Jun 2027 03:14:42.914             4.702          2351.000
       246   10 Jun 2027 03:16:09.763   10 Jun 2027 03:16:26.610            16.847          8423.500
       247   10 Jun 2027 04:50:50.287   10 Jun 2027 04:54:03.665           193.378         96689.000
       248   10 Jun 2027 04:54:10.079   10 Jun 2027 04:54:22.116            12.037          6018.500
       249   10 Jun 2027 06:24:23.666   10 Jun 2027 06:25:48.268            84.602         41012.593
       250   10 Jun 2027 06:26:36.385   10 Jun 2027 06:26:37.384             0.999           209.219
       251   10 Jun 2027 06:26:50.634   10 Jun 2027 06:26:52.979             2.345           175.562
       252   10 Jun 2027 06:27:30.294   10 Jun 2027 06:27:32.740             2.446           610.469
       253   10 Jun 2027 06:29:07.355   10 Jun 2027 06:29:10.457             3.102          1551.000
       254   10 Jun 2027 06:29:44.777   10 Jun 2027 06:29:48.253             3.476          1738.000
       255   10 Jun 2027 06:30:18.172   10 Jun 2027 06:30:22.698             4.526          1264.750
       256   10 Jun 2027 06:31:10.516   10 Jun 2027 06:31:10.516             0.000             0.000
       257   10 Jun 2027 06:31:47.472   10 Jun 2027 06:31:55.380             7.908          2332.250
       258   10 Jun 2027 06:32:56.229   10 Jun 2027 06:32:56.705             0.476           237.406
       259   10 Jun 2027 08:01:51.263   10 Jun 2027 08:01:53.599             2.336           238.250
       260   10 Jun 2027 08:04:06.822   10 Jun 2027 08:04:19.431            12.609           310.562
       261   10 Jun 2027 08:04:56.932   10 Jun 2027 08:04:56.986             0.054            10.438
       262   10 Jun 2027 08:05:34.174   10 Jun 2027 08:05:35.178             1.004           493.875
       263   10 Jun 2027 08:05:41.105   10 Jun 2027 08:05:42.441             1.336            70.844
       264   10 Jun 2027 08:06:53.391   10 Jun 2027 08:07:00.023             6.632           711.750
       265   10 Jun 2027 09:38:50.847   10 Jun 2027 09:39:05.601            14.754          5102.469
       266   10 Jun 2027 09:41:49.403   10 Jun 2027 09:41:54.495             5.092          1741.625
       267   10 Jun 2027 09:42:40.698   10 Jun 2027 09:42:45.174             4.476           397.313
       268   10 Jun 2027 09:43:26.676   10 Jun 2027 09:43:32.428             5.752          1106.281
       269   10 Jun 2027 09:43:34.869   10 Jun 2027 09:43:37.385             2.516            69.469
       270   10 Jun 2027 11:15:44.838   10 Jun 2027 11:15:59.667            14.829          5138.844
       271   10 Jun 2027 11:17:36.057   10 Jun 2027 11:17:37.424             1.367           426.938
       272   10 Jun 2027 11:18:29.873   10 Jun 2027 11:18:34.635             4.762           694.812
       273   10 Jun 2027 11:18:47.947   10 Jun 2027 11:18:50.248             2.301           324.563
       274   10 Jun 2027 11:20:13.900   10 Jun 2027 11:20:18.271             4.371          2166.937
       275   10 Jun 2027 11:20:19.162   10 Jun 2027 11:20:20.769             1.607            27.844
       276   11 Jun 2027 03:26:28.806   11 Jun 2027 03:26:44.239            15.433          7716.500
       277   11 Jun 2027 05:02:55.714   11 Jun 2027 05:06:18.703           202.989        101494.500
       278   11 Jun 2027 06:35:06.076   11 Jun 2027 06:35:15.020             8.944          4472.000
       279   11 Jun 2027 06:37:02.607   11 Jun 2027 06:38:23.888            81.281         36900.500
       280   11 Jun 2027 06:38:28.568   11 Jun 2027 06:38:33.769             5.201            52.781
       281   11 Jun 2027 06:39:18.750   11 Jun 2027 06:39:20.014             1.264           468.344
       282   11 Jun 2027 06:39:30.835   11 Jun 2027 06:39:34.454             3.619           286.437
       283   11 Jun 2027 06:41:05.737   11 Jun 2027 06:41:13.339             7.602          2332.344
       284   11 Jun 2027 06:41:22.406   11 Jun 2027 06:41:24.816             2.410           283.344
       285   11 Jun 2027 06:41:54.008   11 Jun 2027 06:41:56.681             2.673           836.219
       286   11 Jun 2027 06:42:25.338   11 Jun 2027 06:42:28.870             3.532           468.906
       287   11 Jun 2027 06:42:48.645   11 Jun 2027 06:42:59.824            11.179           598.187
       288   11 Jun 2027 06:43:22.663   11 Jun 2027 06:43:25.116             2.453           545.125
       289   11 Jun 2027 06:44:02.284   11 Jun 2027 06:44:08.845             6.561           493.250
       290   11 Jun 2027 08:14:00.658   11 Jun 2027 08:14:03.817             3.159           495.750
       291   11 Jun 2027 08:17:16.184   11 Jun 2027 08:17:18.075             1.891           360.594
       292   11 Jun 2027 08:18:13.118   11 Jun 2027 08:18:15.466             2.348           232.250
       293   11 Jun 2027 08:19:48.084   11 Jun 2027 08:19:55.304             7.220           769.219
       294   11 Jun 2027 08:20:44.372   11 Jun 2027 08:20:45.472             1.100           516.375
       295   11 Jun 2027 09:51:18.337   11 Jun 2027 09:51:28.985            10.648          5132.094
       296   11 Jun 2027 09:54:47.604   11 Jun 2027 09:54:49.911             2.307           652.031
       297   11 Jun 2027 09:55:05.565   11 Jun 2027 09:55:08.025             2.460           489.188
       298   11 Jun 2027 09:55:16.498   11 Jun 2027 09:55:19.380             2.882           176.500
       299   11 Jun 2027 09:55:28.403   11 Jun 2027 09:55:29.476             1.073           221.781
       300   11 Jun 2027 11:27:45.953   11 Jun 2027 11:28:03.313            17.360          7791.875
       301   11 Jun 2027 11:29:48.918   11 Jun 2027 11:29:57.642             8.724          2290.344
       302   11 Jun 2027 11:30:24.459   11 Jun 2027 11:30:30.595             6.136           697.500
       303   11 Jun 2027 11:31:56.607   11 Jun 2027 11:32:04.371             7.764          2354.406
       304   11 Jun 2027 11:32:28.536   11 Jun 2027 11:32:30.033             1.497           472.094
       305   12 Jun 2027 03:38:36.799   12 Jun 2027 03:38:45.223             8.424          4212.000
       306   12 Jun 2027 03:39:29.779   12 Jun 2027 03:39:37.261             7.482          3741.000
       307   12 Jun 2027 03:41:16.725   12 Jun 2027 03:41:39.672            22.947         11473.500
       308   12 Jun 2027 05:17:33.820   12 Jun 2027 05:18:43.701            69.881         34940.500
       309   12 Jun 2027 06:50:15.673   12 Jun 2027 06:53:51.622           215.949        104881.782
       310   12 Jun 2027 06:53:54.111   12 Jun 2027 06:53:54.111             0.000             0.000
       311   12 Jun 2027 06:55:05.691   12 Jun 2027 06:55:12.039             6.348          2302.344
       312   12 Jun 2027 06:56:17.251   12 Jun 2027 06:56:22.110             4.859          1607.375
       313   12 Jun 2027 06:56:30.641   12 Jun 2027 06:56:31.335             0.694           168.250
       314   12 Jun 2027 08:26:34.699   12 Jun 2027 08:26:44.378             9.679          4782.250
       315   12 Jun 2027 08:31:38.958   12 Jun 2027 08:31:43.377             4.419           682.625
       316   12 Jun 2027 08:32:22.873   12 Jun 2027 08:32:26.323             3.450           898.250
       317   12 Jun 2027 10:03:58.211   12 Jun 2027 10:04:07.938             9.727          4684.062
       318   12 Jun 2027 10:06:15.085   12 Jun 2027 10:06:17.568             2.483          1002.375
       319   12 Jun 2027 10:07:00.341   12 Jun 2027 10:07:03.495             3.154           112.688
       320   12 Jun 2027 10:07:59.531   12 Jun 2027 10:08:02.323             2.792          1243.500
       321   12 Jun 2027 11:40:10.057   12 Jun 2027 11:40:25.870            15.813          5234.906
       322   12 Jun 2027 11:41:59.755   12 Jun 2027 11:42:00.084             0.329           156.500
       323   12 Jun 2027 11:43:23.207   12 Jun 2027 11:43:27.759             4.552          2040.875
       324   13 Jun 2027 03:50:37.966   13 Jun 2027 03:51:07.879            29.913         14956.500
       325   13 Jun 2027 03:53:34.715   13 Jun 2027 03:53:34.715             0.000             0.000
       326   13 Jun 2027 05:29:14.976   13 Jun 2027 05:30:34.871            79.895         39947.500
       327   13 Jun 2027 07:02:18.511   13 Jun 2027 07:05:49.054           210.543        102635.500
       328   13 Jun 2027 07:07:05.657   13 Jun 2027 07:07:17.249            11.592          2288.375
       329   13 Jun 2027 07:08:35.403   13 Jun 2027 07:08:39.866             4.463          2078.937
       330   13 Jun 2027 08:38:13.708   13 Jun 2027 08:38:23.019             9.311          4174.219
       331   13 Jun 2027 08:41:55.839   13 Jun 2027 08:41:58.342             2.503          1062.719
       332   13 Jun 2027 08:43:08.569   13 Jun 2027 08:43:13.174             4.605           626.750
       333   13 Jun 2027 08:43:32.906   13 Jun 2027 08:43:33.597             0.691           157.438
       334   13 Jun 2027 10:16:12.526   13 Jun 2027 10:16:24.149            11.623          5373.375
       335   13 Jun 2027 10:16:45.534   13 Jun 2027 10:16:47.044             1.510           175.094
       336   13 Jun 2027 10:18:21.780   13 Jun 2027 10:18:26.451             4.671          1981.312
       337   13 Jun 2027 10:19:38.222   13 Jun 2027 10:19:43.475             5.253          2071.187
       338   13 Jun 2027 10:20:12.246   13 Jun 2027 10:20:13.385             1.139           310.719
       339   13 Jun 2027 10:20:21.977   13 Jun 2027 10:20:22.578             0.601           268.500
       340   13 Jun 2027 11:52:04.325   13 Jun 2027 11:52:14.378            10.053          4962.563
