uniorb/output/strategy_4/Camera/Camera_KinoSat_111601.txt

KinoSat_111601
-------------------------
    Access    *     Start Time (UTCG)     *     Stop Time (UTCG)  *   Duration (s) *   Data (Mbytes)
         1   01 Jun 2027 03:52:52.791   01 Jun 2027 03:53:02.871            10.080          5040.000
         2   01 Jun 2027 03:53:54.487   01 Jun 2027 03:56:07.222           132.735         66367.500
         3   01 Jun 2027 03:57:26.322   01 Jun 2027 03:57:34.342             8.020          4010.000
         4   01 Jun 2027 04:00:30.832   01 Jun 2027 04:00:42.269            11.437          5718.500
         5   01 Jun 2027 05:31:03.119   01 Jun 2027 05:31:41.905            38.786         19393.000
         6   01 Jun 2027 05:32:07.521   01 Jun 2027 05:32:55.166            47.645         23822.500
         7   01 Jun 2027 05:33:17.075   01 Jun 2027 05:33:21.591             4.516          2258.000
         8   01 Jun 2027 05:34:02.039   01 Jun 2027 05:34:27.300            25.261         12630.500
         9   01 Jun 2027 06:55:08.918   01 Jun 2027 06:56:27.167            78.249         39124.500
        10   01 Jun 2027 08:30:54.341   01 Jun 2027 08:32:25.075            90.734         45367.000
        11   01 Jun 2027 08:33:28.263   01 Jun 2027 08:33:28.263             0.000             0.000
        12   01 Jun 2027 08:34:08.038   01 Jun 2027 08:34:16.345             8.307          4153.500
        13   01 Jun 2027 10:05:51.828   01 Jun 2027 10:07:24.172            92.344         46172.000
        14   01 Jun 2027 10:08:19.964   01 Jun 2027 10:08:56.126            36.162         18081.000
        15   01 Jun 2027 10:11:16.092   01 Jun 2027 10:11:16.092             0.000             0.000
        16   01 Jun 2027 10:12:29.390   01 Jun 2027 10:12:54.249            24.859         12429.500
        17   01 Jun 2027 11:42:05.450   01 Jun 2027 11:43:18.078            72.628         36314.000
        18   01 Jun 2027 11:46:24.518   01 Jun 2027 11:47:01.677            37.159         18579.500
        19   01 Jun 2027 11:47:41.800   01 Jun 2027 11:48:23.177            41.377         20688.500
        20   02 Jun 2027 04:05:58.104   02 Jun 2027 04:07:56.499           118.395         59197.500
        21   02 Jun 2027 04:09:28.350   02 Jun 2027 04:09:40.298            11.948          5974.000
        22   02 Jun 2027 04:10:30.183   02 Jun 2027 04:10:47.764            17.581          8790.500
        23   02 Jun 2027 04:12:57.590   02 Jun 2027 04:13:36.611            39.021         19510.500
        24   02 Jun 2027 05:31:53.759   02 Jun 2027 05:32:37.052            43.293         21646.500
        25   02 Jun 2027 05:42:59.600   02 Jun 2027 05:44:40.929           101.329         50664.500
        26   02 Jun 2027 05:45:03.781   02 Jun 2027 05:46:08.543            64.762         32381.000
        27   02 Jun 2027 07:05:56.923   02 Jun 2027 07:07:01.710            64.787         32393.500
        28   02 Jun 2027 07:09:07.640   02 Jun 2027 07:09:29.111            21.471         10735.500
        29   02 Jun 2027 08:41:16.553   02 Jun 2027 08:41:42.154            25.601         12800.500
        30   02 Jun 2027 08:42:39.522   02 Jun 2027 08:45:09.548           150.026         75013.000
        31   02 Jun 2027 10:17:24.910   02 Jun 2027 10:19:02.896            97.986         48850.375
        32   02 Jun 2027 10:20:26.920   02 Jun 2027 10:20:26.920             0.000             0.000
        33   02 Jun 2027 10:20:46.237   02 Jun 2027 10:20:51.528             5.291          2539.219
        34   02 Jun 2027 10:23:15.319   02 Jun 2027 10:23:25.200             9.881          4283.875
        35   02 Jun 2027 10:23:50.027   02 Jun 2027 10:23:59.071             9.044           594.156
        36   02 Jun 2027 10:24:28.055   02 Jun 2027 10:24:31.608             3.553           333.781
        37   02 Jun 2027 11:54:27.401   02 Jun 2027 11:54:42.493            15.092          7108.250
        38   02 Jun 2027 11:56:00.692   02 Jun 2027 11:56:06.558             5.866          1819.625
        39   02 Jun 2027 11:57:08.285   02 Jun 2027 11:57:11.335             3.050           886.844
        40   02 Jun 2027 11:57:26.331   02 Jun 2027 11:57:27.917             1.586           468.625
        41   02 Jun 2027 11:58:17.429   02 Jun 2027 11:58:19.051             1.622           457.281
        42   02 Jun 2027 11:58:47.563   02 Jun 2027 11:58:50.540             2.977           825.750
        43   02 Jun 2027 11:59:14.509   02 Jun 2027 11:59:18.236             3.727           717.344
        44   03 Jun 2027 04:18:27.972   03 Jun 2027 04:20:27.548           119.576         59788.000
        45   03 Jun 2027 04:21:02.713   03 Jun 2027 04:21:11.162             8.449          4224.500
        46   03 Jun 2027 04:23:19.153   03 Jun 2027 04:23:19.153             0.000             0.000
        47   03 Jun 2027 04:23:40.848   03 Jun 2027 04:23:40.848             0.000             0.000
        48   03 Jun 2027 04:23:55.547   03 Jun 2027 04:24:13.851            18.304          9152.000
        49   03 Jun 2027 04:25:12.779   03 Jun 2027 04:25:13.755             0.976           488.000
        50   03 Jun 2027 05:43:19.437   03 Jun 2027 05:43:53.247            33.810         16905.000
        51   03 Jun 2027 05:55:02.714   03 Jun 2027 05:56:15.959            73.245         36622.500
        52   03 Jun 2027 07:17:15.015   03 Jun 2027 07:18:27.634            72.619         36309.500
        53   03 Jun 2027 07:19:43.514   03 Jun 2027 07:19:48.175             4.661          2108.656
        54   03 Jun 2027 07:20:50.792   03 Jun 2027 07:20:55.194             4.402          1760.625
        55   03 Jun 2027 07:21:32.054   03 Jun 2027 07:21:32.054             0.000             0.000
        56   03 Jun 2027 07:21:47.425   03 Jun 2027 07:21:50.829             3.404          1266.063
        57   03 Jun 2027 08:52:21.105   03 Jun 2027 08:52:29.452             8.347          2986.781
        58   03 Jun 2027 08:52:50.860   03 Jun 2027 08:52:51.614             0.754           183.094
        59   03 Jun 2027 08:53:10.357   03 Jun 2027 08:53:10.357             0.000             0.000
        60   03 Jun 2027 08:54:23.418   03 Jun 2027 08:54:29.330             5.912          1836.094
        61   03 Jun 2027 08:56:23.312   03 Jun 2027 08:56:29.689             6.377          3164.937
        62   03 Jun 2027 08:57:29.712   03 Jun 2027 08:57:30.282             0.570           285.000
        63   03 Jun 2027 08:57:50.023   03 Jun 2027 08:57:55.091             5.068          1536.750
        64   03 Jun 2027 08:58:28.113   03 Jun 2027 08:58:32.955             4.842           199.344
        65   03 Jun 2027 08:58:48.255   03 Jun 2027 08:58:48.255             0.000             0.000
        66   03 Jun 2027 10:29:37.122   03 Jun 2027 10:29:45.578             8.456          3990.656
        67   03 Jun 2027 10:32:50.752   03 Jun 2027 10:33:01.138            10.386          2671.438
        68   03 Jun 2027 10:33:05.810   03 Jun 2027 10:33:06.273             0.463            66.937
        69   03 Jun 2027 10:34:00.663   03 Jun 2027 10:34:04.587             3.924          1685.719
        70   03 Jun 2027 10:34:36.737   03 Jun 2027 10:34:38.754             2.017           572.844
        71   03 Jun 2027 10:35:13.731   03 Jun 2027 10:35:15.739             2.008           912.031
        72   03 Jun 2027 10:36:22.040   03 Jun 2027 10:36:32.979            10.939          1845.594
        73   04 Jun 2027 04:30:36.516   04 Jun 2027 04:32:43.923           127.407         63703.500
        74   04 Jun 2027 04:34:16.889   04 Jun 2027 04:34:30.878            13.989          6994.500
        75   04 Jun 2027 04:35:25.625   04 Jun 2027 04:35:42.517            16.892          8446.000
        76   04 Jun 2027 04:37:33.868   04 Jun 2027 04:37:35.816             1.948           974.000
        77   04 Jun 2027 05:54:48.257   04 Jun 2027 05:55:54.843            66.586         33293.000
        78   04 Jun 2027 05:56:36.558   04 Jun 2027 05:56:40.146             3.588          1794.000
        79   04 Jun 2027 06:07:03.539   04 Jun 2027 06:07:35.327            31.788         15894.000
        80   04 Jun 2027 07:29:00.543   04 Jun 2027 07:30:02.195            61.652         30436.062
        81   04 Jun 2027 07:30:16.737   04 Jun 2027 07:30:18.436             1.699           282.531
        82   04 Jun 2027 07:31:03.255   04 Jun 2027 07:31:07.352             4.097           289.844
        83   04 Jun 2027 07:31:42.640   04 Jun 2027 07:31:48.442             5.802           963.719
        84   04 Jun 2027 07:33:54.528   04 Jun 2027 07:34:03.780             9.252          3691.344
        85   04 Jun 2027 07:34:12.417   04 Jun 2027 07:34:15.840             3.423           174.281
        86   04 Jun 2027 09:03:50.179   04 Jun 2027 09:03:54.571             4.392          2152.312
        87   04 Jun 2027 09:05:32.394   04 Jun 2027 09:05:36.844             4.450          1789.656
        88   04 Jun 2027 09:05:46.555   04 Jun 2027 09:05:49.982             3.427           177.625
        89   04 Jun 2027 09:07:50.209   04 Jun 2027 09:08:01.206            10.997          3741.063
        90   04 Jun 2027 09:09:30.576   04 Jun 2027 09:09:37.154             6.578          2529.188
        91   04 Jun 2027 09:11:40.620   04 Jun 2027 09:11:43.329             2.709          1354.500
        92   04 Jun 2027 09:12:08.373   04 Jun 2027 09:12:11.179             2.806          1094.312
        93   04 Jun 2027 10:41:37.277   04 Jun 2027 10:41:52.630            15.353          3828.312
        94   04 Jun 2027 10:43:17.371   04 Jun 2027 10:43:24.930             7.559            85.406
        95   04 Jun 2027 10:44:40.619   04 Jun 2027 10:44:40.619             0.000             0.000
        96   04 Jun 2027 10:45:28.929   04 Jun 2027 10:45:37.757             8.828          3874.969
        97   04 Jun 2027 10:47:11.165   04 Jun 2027 10:47:18.275             7.110          2643.313
        98   04 Jun 2027 10:47:55.847   04 Jun 2027 10:48:00.392             4.545           568.781
        99   04 Jun 2027 10:48:46.018   04 Jun 2027 10:48:52.249             6.231          1310.156
       100   04 Jun 2027 10:48:59.468   04 Jun 2027 10:49:03.268             3.800           108.625
       101   05 Jun 2027 03:04:24.708   05 Jun 2027 03:05:14.711            50.003         25001.500
       102   05 Jun 2027 03:06:15.396   05 Jun 2027 03:06:23.720             8.324          4162.000
       103   05 Jun 2027 03:08:21.263   05 Jun 2027 03:08:24.885             3.622          1811.000
       104   05 Jun 2027 04:42:47.437   05 Jun 2027 04:44:59.325           131.888         65944.000
       105   05 Jun 2027 04:46:36.466   05 Jun 2027 04:48:01.124            84.658         42329.000
       106   05 Jun 2027 06:06:49.974   05 Jun 2027 06:07:56.234            66.260         32420.156
       107   05 Jun 2027 07:42:47.915   05 Jun 2027 07:43:03.487            15.572          4672.781
       108   05 Jun 2027 07:43:21.656   05 Jun 2027 07:43:27.551             5.895           516.781
       109   05 Jun 2027 07:43:41.031   05 Jun 2027 07:43:48.244             7.213           418.562
       110   05 Jun 2027 07:44:41.010   05 Jun 2027 07:44:45.048             4.038          1333.469
       111   05 Jun 2027 07:45:14.477   05 Jun 2027 07:45:15.266             0.789           353.938
       112   05 Jun 2027 07:45:50.541   05 Jun 2027 07:45:55.175             4.634           408.375
       113   05 Jun 2027 09:16:36.993   05 Jun 2027 09:16:44.682             7.689          2458.656
       114   05 Jun 2027 09:18:21.545   05 Jun 2027 09:18:23.349             1.804           690.469
       115   05 Jun 2027 09:19:50.483   05 Jun 2027 09:19:58.126             7.643          2325.500
       116   05 Jun 2027 09:21:30.275   05 Jun 2027 09:21:35.612             5.337          2441.406
       117   05 Jun 2027 09:23:00.960   05 Jun 2027 09:23:02.823             1.863           850.062
       118   05 Jun 2027 09:23:31.169   05 Jun 2027 09:23:34.863             3.694           561.406
       119   05 Jun 2027 09:24:26.951   05 Jun 2027 09:24:31.063             4.112          1490.094
       120   05 Jun 2027 10:53:42.659   05 Jun 2027 10:53:54.293            11.634          5482.906
       121   05 Jun 2027 10:55:01.104   05 Jun 2027 10:55:02.988             1.884           906.813
       122   05 Jun 2027 10:56:26.734   05 Jun 2027 10:56:26.734             0.000             0.000
       123   05 Jun 2027 10:57:55.958   05 Jun 2027 10:58:05.972            10.014          4753.031
       124   05 Jun 2027 10:58:45.653   05 Jun 2027 10:58:46.772             1.119           471.469
       125   05 Jun 2027 10:58:56.818   05 Jun 2027 10:59:02.096             5.278            51.219
       126   05 Jun 2027 11:00:14.202   05 Jun 2027 11:00:15.780             1.578           745.344
       127   05 Jun 2027 11:00:29.911   05 Jun 2027 11:00:31.911             2.000           426.344
       128   05 Jun 2027 11:01:01.101   05 Jun 2027 11:01:01.265             0.164            82.000
       129   06 Jun 2027 03:17:02.181   06 Jun 2027 03:17:46.558            44.377         22188.500
       130   06 Jun 2027 03:17:55.354   06 Jun 2027 03:18:38.689            43.335         21667.500
       131   06 Jun 2027 03:18:40.520   06 Jun 2027 03:19:46.705            66.185         33092.500
       132   06 Jun 2027 03:20:15.087   06 Jun 2027 03:20:36.120            21.033         10516.500
       133   06 Jun 2027 03:22:25.955   06 Jun 2027 03:22:26.472             0.517           258.500
       134   06 Jun 2027 04:55:22.342   06 Jun 2027 04:55:55.319            32.977         16488.500
       135   06 Jun 2027 04:55:58.045   06 Jun 2027 04:57:27.790            89.745         44872.500
       136   06 Jun 2027 04:58:07.849   06 Jun 2027 04:58:15.520             7.671          2956.907
       137   06 Jun 2027 04:59:53.753   06 Jun 2027 04:59:57.964             4.211          1763.875
       138   06 Jun 2027 06:18:44.376   06 Jun 2027 06:18:57.310            12.934          6309.781
       139   06 Jun 2027 06:20:40.806   06 Jun 2027 06:20:52.342            11.536          2679.938
       140   06 Jun 2027 06:21:01.948   06 Jun 2027 06:21:01.948             0.000             0.000
       141   06 Jun 2027 07:55:07.289   06 Jun 2027 07:55:17.668            10.379          3828.625
       142   06 Jun 2027 07:55:34.883   06 Jun 2027 07:55:38.516             3.633            78.031
       143   06 Jun 2027 07:55:46.055   06 Jun 2027 07:55:50.948             4.893           235.594
       144   06 Jun 2027 07:56:49.691   06 Jun 2027 07:56:53.515             3.824          1686.125
       145   06 Jun 2027 07:57:01.095   06 Jun 2027 07:57:01.407             0.312            40.875
       146   06 Jun 2027 07:57:39.889   06 Jun 2027 07:57:45.349             5.460           740.469
       147   06 Jun 2027 09:28:35.365   06 Jun 2027 09:28:43.481             8.116          3761.531
       148   06 Jun 2027 09:30:30.756   06 Jun 2027 09:30:34.764             4.008          1382.563
       149   06 Jun 2027 09:31:37.389   06 Jun 2027 09:31:44.672             7.283          1054.469
       150   06 Jun 2027 09:33:29.277   06 Jun 2027 09:33:33.320             4.043          2021.500
       151   06 Jun 2027 09:35:10.052   06 Jun 2027 09:35:17.726             7.674          3253.062
       152   06 Jun 2027 09:35:38.088   06 Jun 2027 09:35:38.634             0.546           173.937
       153   06 Jun 2027 09:36:28.420   06 Jun 2027 09:36:32.876             4.456          1336.656
       154   06 Jun 2027 11:06:09.297   06 Jun 2027 11:06:23.951            14.654          5290.531
       155   06 Jun 2027 11:08:52.983   06 Jun 2027 11:09:03.112            10.129           711.187
       156   06 Jun 2027 11:09:20.867   06 Jun 2027 11:09:25.213             4.346           421.750
       157   06 Jun 2027 11:10:54.936   06 Jun 2027 11:11:02.134             7.198          2010.031
       158   06 Jun 2027 11:11:31.789   06 Jun 2027 11:11:40.424             8.635           910.031
       159   06 Jun 2027 11:12:21.522   06 Jun 2027 11:12:29.406             7.884           388.125
       160   07 Jun 2027 03:28:55.863   07 Jun 2027 03:29:01.417             5.554          2777.000
       161   07 Jun 2027 03:29:21.181   07 Jun 2027 03:31:55.620           154.439         77219.500
       162   07 Jun 2027 03:32:03.754   07 Jun 2027 03:32:12.716             8.962          4481.000
       163   07 Jun 2027 03:32:27.399   07 Jun 2027 03:33:48.756            81.357         40678.500
       164   07 Jun 2027 05:07:00.289   07 Jun 2027 05:07:55.238            54.949         27474.500
       165   07 Jun 2027 05:08:33.801   07 Jun 2027 05:08:51.295            17.494          8629.219
       166   07 Jun 2027 05:09:24.471   07 Jun 2027 05:09:25.713             1.242           197.562
       167   07 Jun 2027 05:10:07.450   07 Jun 2027 05:10:11.776             4.326           716.812
       168   07 Jun 2027 05:10:44.875   07 Jun 2027 05:10:48.319             3.444           766.438
       169   07 Jun 2027 06:30:33.372   07 Jun 2027 06:30:44.932            11.560          5466.469
       170   07 Jun 2027 06:31:58.782   07 Jun 2027 06:32:04.443             5.661          2307.813
       171   07 Jun 2027 06:33:18.307   07 Jun 2027 06:33:18.772             0.465           232.500
       172   07 Jun 2027 08:07:08.897   07 Jun 2027 08:07:15.468             6.571          3207.312
       173   07 Jun 2027 08:07:47.433   07 Jun 2027 08:07:48.697             1.264           393.938
       174   07 Jun 2027 08:07:57.407   07 Jun 2027 08:07:58.079             0.672           125.688
       175   07 Jun 2027 08:08:07.206   07 Jun 2027 08:08:07.206             0.000             0.000
       176   07 Jun 2027 08:09:00.624   07 Jun 2027 08:09:04.155             3.531          1765.500
       177   07 Jun 2027 08:09:42.064   07 Jun 2027 08:09:45.412             3.348          1250.157
       178   07 Jun 2027 09:42:02.705   07 Jun 2027 09:42:10.297             7.592          3633.719
       179   07 Jun 2027 09:43:07.110   07 Jun 2027 09:43:08.920             1.810           342.469
       180   07 Jun 2027 09:43:39.346   07 Jun 2027 09:43:44.745             5.399           495.656
       181   07 Jun 2027 09:44:43.169   07 Jun 2027 09:44:44.557             1.388           568.656
       182   07 Jun 2027 09:45:46.442   07 Jun 2027 09:45:53.619             7.177          1309.813
       183   07 Jun 2027 09:47:33.453   07 Jun 2027 09:47:44.015            10.562          2697.562
       184   07 Jun 2027 09:48:32.169   07 Jun 2027 09:48:33.740             1.571           784.469
       185   07 Jun 2027 09:48:43.262   07 Jun 2027 09:48:43.883             0.621           129.031
       186   07 Jun 2027 09:48:55.452   07 Jun 2027 09:48:56.226             0.774           179.375
       187   07 Jun 2027 11:18:15.910   07 Jun 2027 11:18:25.914            10.004          4476.719
       188   07 Jun 2027 11:20:47.891   07 Jun 2027 11:20:50.278             2.387           726.375
       189   07 Jun 2027 11:21:24.021   07 Jun 2027 11:21:26.496             2.475          1054.469
       190   07 Jun 2027 11:22:51.739   07 Jun 2027 11:23:01.291             9.552          1814.344
       191   07 Jun 2027 11:23:04.976   07 Jun 2027 11:23:05.749             0.773            11.969
       192   07 Jun 2027 11:23:09.215   07 Jun 2027 11:23:11.896             2.681           108.313
       193   07 Jun 2027 11:23:50.433   07 Jun 2027 11:23:51.311             0.878           315.500
       194   07 Jun 2027 11:24:06.586   07 Jun 2027 11:24:08.512             1.926           218.938
       195   08 Jun 2027 03:41:04.685   08 Jun 2027 03:42:06.466            61.781         30890.500
       196   08 Jun 2027 03:42:13.810   08 Jun 2027 03:44:27.382           133.572         66786.000
       197   08 Jun 2027 03:47:19.283   08 Jun 2027 03:47:20.348             1.065           532.500
       198   08 Jun 2027 05:19:23.201   08 Jun 2027 05:19:54.265            31.064         15532.000
       199   08 Jun 2027 05:20:12.770   08 Jun 2027 05:21:33.973            81.203         40487.687
       200   08 Jun 2027 05:22:48.564   08 Jun 2027 05:22:53.106             4.542          1936.969
       201   08 Jun 2027 06:42:45.876   08 Jun 2027 06:42:58.087            12.211          5362.000
       202   08 Jun 2027 06:43:40.233   08 Jun 2027 06:43:41.124             0.891           299.406
       203   08 Jun 2027 06:44:10.973   08 Jun 2027 06:44:10.973             0.000             0.000
       204   08 Jun 2027 06:44:22.621   08 Jun 2027 06:44:25.193             2.572          1281.750
       205   08 Jun 2027 06:45:23.065   08 Jun 2027 06:45:24.743             1.678           839.000
       206   08 Jun 2027 08:19:29.621   08 Jun 2027 08:19:38.655             9.034          4443.906
       207   08 Jun 2027 08:20:30.117   08 Jun 2027 08:20:34.138             4.021          1596.969
       208   08 Jun 2027 08:20:54.275   08 Jun 2027 08:20:56.332             2.057           421.906
       209   08 Jun 2027 08:21:54.352   08 Jun 2027 08:22:01.075             6.723          1264.000
       210   08 Jun 2027 08:22:16.795   08 Jun 2027 08:22:17.557             0.762             4.969
       211   08 Jun 2027 09:54:27.365   08 Jun 2027 09:54:31.924             4.559          2172.406
       212   08 Jun 2027 09:55:47.097   08 Jun 2027 09:55:47.687             0.590           191.844
       213   08 Jun 2027 09:56:35.501   08 Jun 2027 09:56:39.863             4.362          1435.906
       214   08 Jun 2027 09:58:09.674   08 Jun 2027 09:58:14.442             4.768          2031.344
       215   08 Jun 2027 09:58:54.426   08 Jun 2027 09:58:57.190             2.764           553.750
       216   08 Jun 2027 09:59:36.477   08 Jun 2027 09:59:41.229             4.752           897.406
       217   08 Jun 2027 10:00:47.082   08 Jun 2027 10:00:50.296             3.214           928.750
       218   08 Jun 2027 11:30:52.298   08 Jun 2027 11:31:05.066            12.768          5120.781
       219   08 Jun 2027 11:33:26.374   08 Jun 2027 11:33:32.710             6.336           900.500
       220   08 Jun 2027 11:34:25.854   08 Jun 2027 11:34:30.330             4.476           804.656
       221   08 Jun 2027 11:34:36.467   08 Jun 2027 11:34:37.106             0.639             7.125
       222   08 Jun 2027 11:35:14.899   08 Jun 2027 11:35:18.840             3.941           872.125
       223   08 Jun 2027 11:36:13.323   08 Jun 2027 11:36:18.496             5.173          1078.406
       224   08 Jun 2027 11:36:31.082   08 Jun 2027 11:36:32.357             1.275           393.313
       225   08 Jun 2027 11:36:37.950   08 Jun 2027 11:36:46.883             8.933           170.938
       226   09 Jun 2027 03:53:10.402   09 Jun 2027 03:53:17.428             7.026          3513.000
       227   09 Jun 2027 03:54:11.367   09 Jun 2027 03:56:51.185           159.818         79909.000
       228   09 Jun 2027 05:31:20.117   09 Jun 2027 05:31:59.088            38.971         19485.500
       229   09 Jun 2027 05:32:21.849   09 Jun 2027 05:33:54.703            92.854         46206.219
       230   09 Jun 2027 05:34:53.301   09 Jun 2027 05:34:55.443             2.142          1071.000
       231   09 Jun 2027 06:55:22.010   09 Jun 2027 06:55:31.097             9.087          4541.781
       232   09 Jun 2027 06:55:55.413   09 Jun 2027 06:55:56.998             1.585           675.750
       233   09 Jun 2027 06:56:08.753   09 Jun 2027 06:56:08.753             0.000             0.000
       234   09 Jun 2027 06:56:44.821   09 Jun 2027 06:56:49.187             4.366          1394.375
       235   09 Jun 2027 08:31:10.760   09 Jun 2027 08:31:18.425             7.665          3197.062
       236   09 Jun 2027 08:33:29.644   09 Jun 2027 08:33:42.487            12.843          3977.719
       237   09 Jun 2027 08:34:25.611   09 Jun 2027 08:34:29.984             4.373          1252.438
       238   09 Jun 2027 10:06:07.577   09 Jun 2027 10:06:14.991             7.414          2722.844
       239   09 Jun 2027 10:07:42.172   09 Jun 2027 10:07:51.892             9.720          2184.844
       240   09 Jun 2027 10:08:39.894   09 Jun 2027 10:08:42.566             2.672           788.531
       241   09 Jun 2027 10:09:09.883   09 Jun 2027 10:09:16.570             6.687           653.813
       242   09 Jun 2027 10:11:33.729   09 Jun 2027 10:11:47.458            13.729          4162.594
       243   09 Jun 2027 10:12:15.986   09 Jun 2027 10:12:18.845             2.859           700.531
       244   09 Jun 2027 10:12:50.243   09 Jun 2027 10:12:55.601             5.358           784.094
       245   09 Jun 2027 11:42:25.336   09 Jun 2027 11:42:37.638            12.302          5728.062
       246   09 Jun 2027 11:44:25.525   09 Jun 2027 11:44:29.565             4.040          1649.562
       247   09 Jun 2027 11:45:12.852   09 Jun 2027 11:45:18.523             5.671           434.875
       248   09 Jun 2027 11:45:20.793   09 Jun 2027 11:45:23.105             2.312            70.938
       249   09 Jun 2027 11:45:55.452   09 Jun 2027 11:45:58.360             2.908           861.094
       250   09 Jun 2027 11:46:40.373   09 Jun 2027 11:46:42.785             2.412           947.312
       251   09 Jun 2027 11:47:29.855   09 Jun 2027 11:47:37.961             8.106          1197.937
       252   09 Jun 2027 11:47:54.349   09 Jun 2027 11:47:59.100             4.751           299.125
       253   10 Jun 2027 04:06:15.101   10 Jun 2027 04:08:57.299           162.198         81099.000
       254   10 Jun 2027 04:10:04.131   10 Jun 2027 04:10:24.163            20.032         10016.000
       255   10 Jun 2027 04:12:44.982   10 Jun 2027 04:12:48.513             3.531          1765.500
       256   10 Jun 2027 05:32:07.585   10 Jun 2027 05:32:36.836            29.251         14625.500
       257   10 Jun 2027 05:43:16.363   10 Jun 2027 05:44:08.773            52.410         26205.000
       258   10 Jun 2027 05:44:33.743   10 Jun 2027 05:44:57.272            23.529         11764.500
       259   10 Jun 2027 05:45:25.619   10 Jun 2027 05:46:21.709            56.090         26148.062
       260   10 Jun 2027 07:06:13.400   10 Jun 2027 07:06:29.655            16.255          7894.031
       261   10 Jun 2027 07:06:39.836   10 Jun 2027 07:06:42.656             2.820           318.156
       262   10 Jun 2027 07:08:00.363   10 Jun 2027 07:08:09.702             9.339          1720.094
       263   10 Jun 2027 07:09:23.313   10 Jun 2027 07:09:35.290            11.977          2283.125
       264   10 Jun 2027 07:10:22.751   10 Jun 2027 07:10:23.731             0.980           490.000
       265   10 Jun 2027 07:10:27.057   10 Jun 2027 07:10:27.057             0.000             0.000
       266   10 Jun 2027 08:41:29.757   10 Jun 2027 08:41:34.863             5.106          2308.656
       267   10 Jun 2027 08:41:59.313   10 Jun 2027 08:42:01.796             2.483           545.969
       268   10 Jun 2027 08:44:06.497   10 Jun 2027 08:44:14.046             7.549          3609.625
       269   10 Jun 2027 08:45:39.450   10 Jun 2027 08:45:44.325             4.875          2201.187
       270   10 Jun 2027 08:45:52.731   10 Jun 2027 08:45:54.439             1.708           187.781
       271   10 Jun 2027 08:46:04.357   10 Jun 2027 08:46:04.962             0.605           172.344
       272   10 Jun 2027 08:47:08.850   10 Jun 2027 08:47:14.217             5.367           981.875
       273   10 Jun 2027 10:17:40.774   10 Jun 2027 10:17:51.851            11.077          3852.531
       274   10 Jun 2027 10:19:35.145   10 Jun 2027 10:19:41.056             5.911          2572.844
       275   10 Jun 2027 10:20:46.671   10 Jun 2027 10:20:50.759             4.088          1991.781
       276   10 Jun 2027 10:21:14.884   10 Jun 2027 10:21:16.204             1.320           292.656
       277   10 Jun 2027 10:23:32.884   10 Jun 2027 10:23:40.571             7.687          3467.875
       278   10 Jun 2027 10:24:06.444   10 Jun 2027 10:24:11.397             4.953           595.062
       279   10 Jun 2027 10:24:43.007   10 Jun 2027 10:24:47.881             4.874           283.719
       280   10 Jun 2027 11:54:44.980   10 Jun 2027 11:54:59.808            14.828          7092.906
       281   10 Jun 2027 11:56:07.394   10 Jun 2027 11:56:12.991             5.597           136.000
       282   10 Jun 2027 11:58:18.863   10 Jun 2027 11:58:22.959             4.096          2045.844
       283   10 Jun 2027 11:58:31.412   10 Jun 2027 11:58:32.175             0.763           239.687
       284   10 Jun 2027 11:59:04.877   10 Jun 2027 11:59:11.368             6.491           818.000
       285   10 Jun 2027 11:59:23.867   10 Jun 2027 11:59:30.167             6.300           286.250
       286   10 Jun 2027 11:59:37.957   10 Jun 2027 11:59:43.364             5.407           243.437
       287   11 Jun 2027 04:18:44.723   11 Jun 2027 04:19:44.934            60.211         30105.500
       288   11 Jun 2027 04:20:57.459   11 Jun 2027 04:21:42.354            44.895         22447.500
       289   11 Jun 2027 04:23:40.168   11 Jun 2027 04:23:57.490            17.322          8661.000
       290   11 Jun 2027 04:24:10.274   11 Jun 2027 04:24:29.913            19.639          9819.500
       291   11 Jun 2027 04:24:42.919   11 Jun 2027 04:24:50.553             7.634          3817.000
       292   11 Jun 2027 04:25:30.600   11 Jun 2027 04:25:51.393            20.793         10396.500
       293   11 Jun 2027 05:43:36.630   11 Jun 2027 05:44:09.919            33.289         16644.500
       294   11 Jun 2027 05:55:19.027   11 Jun 2027 05:56:21.798            62.771         31385.500
       295   11 Jun 2027 07:17:32.373   11 Jun 2027 07:18:43.531            71.158         35579.000
       296   11 Jun 2027 07:20:00.034   11 Jun 2027 07:20:11.681            11.647          2548.313
       297   11 Jun 2027 07:20:48.058   11 Jun 2027 07:20:48.058             0.000             0.000
       298   11 Jun 2027 07:21:06.067   11 Jun 2027 07:21:09.857             3.790          1672.406
       299   11 Jun 2027 07:22:03.482   11 Jun 2027 07:22:06.586             3.104          1278.938
       300   11 Jun 2027 08:52:36.694   11 Jun 2027 08:52:46.436             9.742          3919.281
       301   11 Jun 2027 08:53:27.336   11 Jun 2027 08:53:29.723             2.387           836.781
       302   11 Jun 2027 08:54:09.770   11 Jun 2027 08:54:09.770             0.000             0.000
       303   11 Jun 2027 08:54:57.476   11 Jun 2027 08:55:05.244             7.768          2742.281
       304   11 Jun 2027 08:55:48.110   11 Jun 2027 08:55:49.499             1.389           489.219
       305   11 Jun 2027 08:56:37.930   11 Jun 2027 08:56:45.487             7.557           951.031
       306   11 Jun 2027 08:57:46.512   11 Jun 2027 08:57:53.051             6.539          1448.531
       307   11 Jun 2027 08:58:09.008   11 Jun 2027 08:58:11.216             2.208           167.469
       308   11 Jun 2027 08:58:46.122   11 Jun 2027 08:58:47.609             1.487           354.594
       309   11 Jun 2027 08:59:04.222   11 Jun 2027 08:59:04.222             0.000             0.000
       310   11 Jun 2027 09:00:36.121   11 Jun 2027 09:00:40.185             4.064          1657.281
       311   11 Jun 2027 10:29:58.051   11 Jun 2027 10:30:02.798             4.747          2104.969
       312   11 Jun 2027 10:33:07.223   11 Jun 2027 10:33:15.264             8.041          2626.875
       313   11 Jun 2027 10:33:25.394   11 Jun 2027 10:33:28.807             3.413            48.562
       314   11 Jun 2027 10:34:33.550   11 Jun 2027 10:34:35.017             1.467           517.250
       315   11 Jun 2027 10:34:50.441   11 Jun 2027 10:34:51.125             0.684            25.719
       316   11 Jun 2027 10:34:54.712   11 Jun 2027 10:34:55.384             0.672            59.219
       317   11 Jun 2027 10:35:13.620   11 Jun 2027 10:35:15.681             2.061           569.875
       318   11 Jun 2027 10:35:20.796   11 Jun 2027 10:35:22.368             1.572           159.844
       319   11 Jun 2027 10:36:17.905   11 Jun 2027 10:36:23.713             5.808          1459.031
       320   11 Jun 2027 10:36:49.298   11 Jun 2027 10:36:50.803             1.505           697.719
       321   12 Jun 2027 04:30:45.503   12 Jun 2027 04:33:01.724           136.221         68110.500
       322   12 Jun 2027 04:33:05.248   12 Jun 2027 04:33:08.352             3.104          1552.000
       323   12 Jun 2027 04:33:24.204   12 Jun 2027 04:33:33.346             9.142          4571.000
       324   12 Jun 2027 04:33:50.165   12 Jun 2027 04:33:58.014             7.849          3924.500
       325   12 Jun 2027 04:35:40.146   12 Jun 2027 04:35:57.564            17.418          8709.000
       326   12 Jun 2027 04:37:32.097   12 Jun 2027 04:37:32.097             0.000             0.000
       327   12 Jun 2027 04:37:43.689   12 Jun 2027 04:37:47.975             4.286          2143.000
       328   12 Jun 2027 05:55:06.754   12 Jun 2027 05:55:39.240            32.486         16243.000
       329   12 Jun 2027 05:56:55.799   12 Jun 2027 05:57:20.165            24.366         12183.000
       330   12 Jun 2027 06:07:20.664   12 Jun 2027 06:07:52.248            31.584         15792.000
       331   12 Jun 2027 07:29:16.804   12 Jun 2027 07:30:21.804            65.000         30203.906
       332   12 Jun 2027 07:31:19.573   12 Jun 2027 07:31:23.729             4.156           300.094
       333   12 Jun 2027 07:31:59.117   12 Jun 2027 07:32:12.084            12.967           907.625
       334   12 Jun 2027 07:32:52.675   12 Jun 2027 07:32:54.396             1.721           860.500
       335   12 Jun 2027 07:34:11.739   12 Jun 2027 07:34:18.650             6.911          2749.625
       336   12 Jun 2027 07:34:26.990   12 Jun 2027 07:34:30.314             3.324           107.469
       337   12 Jun 2027 09:04:04.935   12 Jun 2027 09:04:13.911             8.976          3226.219
       338   12 Jun 2027 09:05:50.458   12 Jun 2027 09:05:55.009             4.551          1872.406
       339   12 Jun 2027 09:06:51.273   12 Jun 2027 09:06:57.730             6.457          1525.219
       340   12 Jun 2027 09:07:50.801   12 Jun 2027 09:07:53.248             2.447           663.531
       341   12 Jun 2027 09:09:41.215   12 Jun 2027 09:09:47.729             6.514          2908.250
       342   12 Jun 2027 09:10:40.996   12 Jun 2027 09:10:42.537             1.541           770.500
       343   12 Jun 2027 09:11:58.194   12 Jun 2027 09:12:00.653             2.459          1229.500
       344   12 Jun 2027 09:12:25.079   12 Jun 2027 09:12:30.450             5.371          2028.875
       345   12 Jun 2027 09:12:45.959   12 Jun 2027 09:12:50.626             4.667            56.812
       346   12 Jun 2027 10:41:53.898   12 Jun 2027 10:42:07.268            13.370          3803.969
       347   12 Jun 2027 10:43:31.999   12 Jun 2027 10:43:40.277             8.278            20.937
       348   12 Jun 2027 10:44:56.848   12 Jun 2027 10:45:04.693             7.845          2315.281
       349   12 Jun 2027 10:46:06.770   12 Jun 2027 10:46:10.724             3.954          1155.844
       350   12 Jun 2027 10:47:05.116   12 Jun 2027 10:47:08.592             3.476          1699.750
       351   12 Jun 2027 10:47:54.302   12 Jun 2027 10:47:59.169             4.867          1265.000
       352   12 Jun 2027 10:48:11.878   12 Jun 2027 10:48:14.695             2.817           397.156
       353   12 Jun 2027 10:49:02.053   12 Jun 2027 10:49:08.166             6.113          1341.656
       354   12 Jun 2027 10:49:14.869   12 Jun 2027 10:49:17.204             2.335           209.469
       355   13 Jun 2027 03:04:42.004   13 Jun 2027 03:05:13.909            31.905         15952.500
       356   13 Jun 2027 03:06:10.386   13 Jun 2027 03:06:21.528            11.142          5571.000
       357   13 Jun 2027 03:06:43.952   13 Jun 2027 03:06:52.247             8.295          4147.500
       358   13 Jun 2027 03:07:32.964   13 Jun 2027 03:07:53.007            20.043         10021.500
       359   13 Jun 2027 04:43:06.364   13 Jun 2027 04:44:42.885            96.521         48260.500
       360   13 Jun 2027 04:45:13.513   13 Jun 2027 04:46:54.647           101.134         50567.000
       361   13 Jun 2027 04:47:02.893   13 Jun 2027 04:47:33.452            30.559         15279.500
       362   13 Jun 2027 04:48:07.890   13 Jun 2027 04:48:17.469             9.579          4321.438
       363   13 Jun 2027 06:07:06.145   13 Jun 2027 06:07:36.704            30.559         15279.500
       364   13 Jun 2027 06:09:05.022   13 Jun 2027 06:09:13.569             8.547          4273.500
       365   13 Jun 2027 07:43:03.029   13 Jun 2027 07:43:17.729            14.700          3976.187
       366   13 Jun 2027 07:43:38.001   13 Jun 2027 07:43:43.074             5.073           509.813
       367   13 Jun 2027 07:43:57.453   13 Jun 2027 07:44:02.157             4.704           354.875
       368   13 Jun 2027 07:44:37.346   13 Jun 2027 07:44:37.346             0.000             0.000
       369   13 Jun 2027 07:44:59.375   13 Jun 2027 07:45:03.217             3.842          1342.219
       370   13 Jun 2027 07:45:30.895   13 Jun 2027 07:45:30.895             0.000             0.000
       371   13 Jun 2027 07:45:54.832   13 Jun 2027 07:46:02.006             7.174          1128.500
       372   13 Jun 2027 07:46:22.424   13 Jun 2027 07:46:31.131             8.707           547.063
       373   13 Jun 2027 09:16:53.703   13 Jun 2027 09:17:00.802             7.099          2997.937
       374   13 Jun 2027 09:20:08.372   13 Jun 2027 09:20:13.803             5.431          2226.500
       375   13 Jun 2027 09:21:47.375   13 Jun 2027 09:21:52.415             5.040          2412.344
       376   13 Jun 2027 09:23:19.442   13 Jun 2027 09:23:23.541             4.099           936.219
       377   13 Jun 2027 09:23:56.766   13 Jun 2027 09:23:58.648             1.882           939.688
       378   13 Jun 2027 09:24:24.250   13 Jun 2027 09:24:27.226             2.976           483.500
       379   13 Jun 2027 10:54:00.568   13 Jun 2027 10:54:13.670            13.102          5952.438
       380   13 Jun 2027 10:55:17.836   13 Jun 2027 10:55:17.836             0.000             0.000
       381   13 Jun 2027 10:55:41.613   13 Jun 2027 10:55:44.927             3.314          1453.844
       382   13 Jun 2027 10:56:46.964   13 Jun 2027 10:56:54.893             7.929           447.000
       383   13 Jun 2027 10:57:43.440   13 Jun 2027 10:57:48.548             5.108           281.688
       384   13 Jun 2027 10:58:19.583   13 Jun 2027 10:58:20.414             0.831           234.531
       385   13 Jun 2027 10:58:30.291   13 Jun 2027 10:58:33.768             3.477           183.437
       386   13 Jun 2027 10:58:46.307   13 Jun 2027 10:58:47.610             1.303             8.313
       387   13 Jun 2027 10:59:11.297   13 Jun 2027 10:59:13.013             1.716           599.000
       388   13 Jun 2027 10:59:13.588   13 Jun 2027 10:59:16.448             2.860            17.969
       389   13 Jun 2027 11:00:31.126   13 Jun 2027 11:00:33.182             2.056           808.875
       390   13 Jun 2027 11:00:46.686   13 Jun 2027 11:00:49.312             2.626           336.969
       391   13 Jun 2027 11:00:53.862   13 Jun 2027 11:00:54.731             0.869            57.750
       392   13 Jun 2027 11:01:16.934   13 Jun 2027 11:01:17.507             0.573           286.500
