uniorb/output/strategy_4/Camera/Camera_KinoSat_110603.txt

KinoSat_110603
-------------------------
    Access    *     Start Time (UTCG)     *     Stop Time (UTCG)  *   Duration (s) *   Data (Mbytes)
         1   01 Jun 2027 04:03:05.662   01 Jun 2027 04:05:15.332           129.670         64835.000
         2   01 Jun 2027 05:37:48.812   01 Jun 2027 05:39:31.668           102.856         51428.000
         3   01 Jun 2027 05:39:40.690   01 Jun 2027 05:40:10.397            29.707         14853.500
         4   01 Jun 2027 05:40:57.331   01 Jun 2027 05:41:11.655            14.324          7162.000
         5   01 Jun 2027 05:42:48.371   01 Jun 2027 05:43:00.149            11.778          5889.000
         6   01 Jun 2027 05:44:42.113   01 Jun 2027 05:44:42.122             0.009             4.500
         7   01 Jun 2027 05:45:15.502   01 Jun 2027 05:45:20.135             4.633          2316.500
         8   01 Jun 2027 07:14:34.634   01 Jun 2027 07:17:00.654           146.020         73010.000
         9   01 Jun 2027 07:18:12.662   01 Jun 2027 07:18:36.567            23.905         11952.500
        10   01 Jun 2027 07:18:51.370   01 Jun 2027 07:18:52.902             1.532           766.000
        11   01 Jun 2027 07:19:38.456   01 Jun 2027 07:19:41.213             2.757          1378.500
        12   01 Jun 2027 08:52:50.559   01 Jun 2027 08:56:06.465           195.906         97953.000
        13   01 Jun 2027 08:56:35.050   01 Jun 2027 08:56:45.459            10.409          5204.500
        14   01 Jun 2027 10:26:09.451   01 Jun 2027 10:27:38.714            89.263         44631.500
        15   01 Jun 2027 10:28:06.911   01 Jun 2027 10:28:30.191            23.280         11640.000
        16   01 Jun 2027 10:30:44.744   01 Jun 2027 10:30:51.402             6.658          3329.000
        17   01 Jun 2027 10:31:46.272   01 Jun 2027 10:31:58.460            12.188          6094.000
        18   01 Jun 2027 10:32:45.566   01 Jun 2027 10:33:01.056            15.490          7745.000
        19   02 Jun 2027 04:13:06.437   02 Jun 2027 04:13:49.031            42.594         21297.000
        20   02 Jun 2027 04:15:26.660   02 Jun 2027 04:15:27.750             1.090           545.000
        21   02 Jun 2027 04:15:37.772   02 Jun 2027 04:15:46.279             8.507          4253.500
        22   02 Jun 2027 04:18:32.273   02 Jun 2027 04:18:48.177            15.904          7952.000
        23   02 Jun 2027 04:19:24.581   02 Jun 2027 04:19:40.263            15.682          7841.000
        24   02 Jun 2027 05:49:53.942   02 Jun 2027 05:52:12.744           138.802         69401.000
        25   02 Jun 2027 05:52:43.136   02 Jun 2027 05:53:28.898            45.762         22881.000
        26   02 Jun 2027 05:54:25.114   02 Jun 2027 05:54:25.123             0.009             4.500
        27   02 Jun 2027 05:56:16.010   02 Jun 2027 05:56:16.010             0.000             0.000
        28   02 Jun 2027 05:56:27.955   02 Jun 2027 05:56:41.486            13.531          6765.500
        29   02 Jun 2027 05:57:19.736   02 Jun 2027 05:57:20.003             0.267           133.500
        30   02 Jun 2027 07:26:54.985   02 Jun 2027 07:29:01.037           126.052         63026.000
        31   02 Jun 2027 07:30:17.069   02 Jun 2027 07:31:29.045            71.976         35988.000
        32   02 Jun 2027 07:32:36.471   02 Jun 2027 07:32:45.613             9.142          4571.000
        33   02 Jun 2027 07:32:54.947   02 Jun 2027 07:33:02.607             7.660          3830.000
        34   02 Jun 2027 09:04:48.425   02 Jun 2027 09:08:32.997           224.572        112222.688
        35   02 Jun 2027 10:38:05.131   02 Jun 2027 10:38:17.705            12.574          5436.844
        36   02 Jun 2027 10:41:26.123   02 Jun 2027 10:41:27.589             1.466           157.375
        37   03 Jun 2027 04:24:26.449   03 Jun 2027 04:26:10.573           104.124         52062.000
        38   03 Jun 2027 04:26:32.210   03 Jun 2027 04:26:32.210             0.000             0.000
        39   03 Jun 2027 04:26:38.381   03 Jun 2027 04:26:44.218             5.837          2918.500
        40   03 Jun 2027 04:28:09.158   03 Jun 2027 04:28:23.244            14.086          7043.000
        41   03 Jun 2027 04:29:33.675   03 Jun 2027 04:29:33.675             0.000             0.000
        42   03 Jun 2027 04:30:39.992   03 Jun 2027 04:31:03.761            23.769         11884.500
        43   03 Jun 2027 04:32:29.353   03 Jun 2027 04:32:36.010             6.657          3328.500
        44   03 Jun 2027 04:32:45.477   03 Jun 2027 04:33:00.073            14.596          7298.000
        45   03 Jun 2027 06:02:01.094   03 Jun 2027 06:04:56.203           175.109         87554.500
        46   03 Jun 2027 06:09:23.220   03 Jun 2027 06:09:23.573             0.353           176.500
        47   03 Jun 2027 07:38:44.216   03 Jun 2027 07:39:15.127            30.911         14195.500
        48   03 Jun 2027 07:42:12.430   03 Jun 2027 07:42:16.211             3.781           493.500
        49   03 Jun 2027 07:42:32.082   03 Jun 2027 07:42:33.288             1.206            57.344
        50   03 Jun 2027 07:43:32.869   03 Jun 2027 07:43:35.141             2.272          1093.125
        51   03 Jun 2027 07:44:14.800   03 Jun 2027 07:44:17.365             2.565           909.812
        52   03 Jun 2027 09:16:47.897   03 Jun 2027 09:17:02.101            14.204          5471.469
        53   03 Jun 2027 09:19:07.278   03 Jun 2027 09:19:09.135             1.857           290.781
        54   03 Jun 2027 09:20:49.285   03 Jun 2027 09:20:50.790             1.505           234.312
        55   03 Jun 2027 10:50:31.350   03 Jun 2027 10:50:31.541             0.191            21.031
        56   04 Jun 2027 03:01:01.830   04 Jun 2027 03:01:09.888             8.058          4029.000
        57   04 Jun 2027 03:03:04.750   04 Jun 2027 03:03:22.063            17.313          8656.500
        58   04 Jun 2027 04:35:56.279   04 Jun 2027 04:38:17.940           141.661         70830.500
        59   04 Jun 2027 04:39:11.505   04 Jun 2027 04:39:54.195            42.690         21345.000
        60   04 Jun 2027 04:40:37.536   04 Jun 2027 04:40:38.291             0.755           377.500
        61   04 Jun 2027 04:41:04.621   04 Jun 2027 04:41:11.726             7.105          3552.500
        62   04 Jun 2027 04:44:32.809   04 Jun 2027 04:44:35.127             2.318          1159.000
        63   04 Jun 2027 04:44:55.926   04 Jun 2027 04:45:26.669            30.743         15371.500
        64   04 Jun 2027 06:13:56.345   04 Jun 2027 06:15:11.059            74.714         35063.469
        65   04 Jun 2027 06:15:35.017   04 Jun 2027 06:15:35.017             0.000             0.000
        66   04 Jun 2027 06:16:18.812   04 Jun 2027 06:16:22.198             3.386          1430.469
        67   04 Jun 2027 06:16:30.007   04 Jun 2027 06:16:31.463             1.456            22.562
        68   04 Jun 2027 06:16:42.479   04 Jun 2027 06:16:42.479             0.000             0.000
        69   04 Jun 2027 06:17:06.273   04 Jun 2027 06:17:09.773             3.500           786.906
        70   04 Jun 2027 06:18:27.033   04 Jun 2027 06:18:30.659             3.626          1813.000
        71   04 Jun 2027 06:18:33.219   04 Jun 2027 06:18:40.222             7.003           126.188
        72   04 Jun 2027 06:19:38.246   04 Jun 2027 06:19:40.375             2.129           637.344
        73   04 Jun 2027 07:50:51.489   04 Jun 2027 07:50:56.319             4.830          1280.219
        74   04 Jun 2027 07:51:18.248   04 Jun 2027 07:51:19.251             1.003           243.750
        75   04 Jun 2027 07:54:08.354   04 Jun 2027 07:54:13.716             5.362           511.969
        76   04 Jun 2027 07:54:31.301   04 Jun 2027 07:54:35.194             3.893           549.531
        77   04 Jun 2027 07:55:36.236   04 Jun 2027 07:55:40.284             4.048          1907.563
        78   04 Jun 2027 07:56:58.476   04 Jun 2027 07:57:02.622             4.146          2059.813
        79   04 Jun 2027 09:28:25.371   04 Jun 2027 09:28:31.899             6.528          3082.750
        80   04 Jun 2027 11:02:48.880   04 Jun 2027 11:02:49.705             0.825           381.969
        81   05 Jun 2027 03:15:19.573   05 Jun 2027 03:15:48.196            28.623         14311.500
        82   05 Jun 2027 04:48:52.268   05 Jun 2027 04:51:37.491           165.223         82611.500
        83   05 Jun 2027 04:56:05.917   05 Jun 2027 04:56:22.852            16.935          8467.500
        84   05 Jun 2027 04:56:25.946   05 Jun 2027 04:57:26.408            60.462         30231.000
        85   05 Jun 2027 06:26:18.290   05 Jun 2027 06:27:03.577            45.287         21535.125
        86   05 Jun 2027 06:28:41.178   05 Jun 2027 06:28:43.993             2.815           329.188
        87   05 Jun 2027 06:29:14.804   05 Jun 2027 06:29:21.718             6.914           951.844
        88   05 Jun 2027 06:30:24.021   05 Jun 2027 06:30:24.981             0.960           191.625
        89   05 Jun 2027 08:03:20.671   05 Jun 2027 08:03:26.277             5.606          1001.094
        90   05 Jun 2027 08:06:22.654   05 Jun 2027 08:06:24.875             2.221           246.719
        91   05 Jun 2027 08:07:20.158   05 Jun 2027 08:07:24.857             4.699          1495.844
        92   05 Jun 2027 08:08:50.138   05 Jun 2027 08:08:53.979             3.841          1622.094
        93   05 Jun 2027 08:09:10.116   05 Jun 2027 08:09:11.154             1.038           124.344
        94   05 Jun 2027 09:40:08.805   05 Jun 2027 09:40:14.349             5.544          2537.219
        95   05 Jun 2027 11:15:24.090   05 Jun 2027 11:15:26.805             2.715          1006.656
        96   06 Jun 2027 03:27:25.778   06 Jun 2027 03:27:30.934             5.156          2578.000
        97   06 Jun 2027 03:28:19.960   06 Jun 2027 03:28:24.968             5.008          2504.000
        98   06 Jun 2027 03:30:05.342   06 Jun 2027 03:30:25.006            19.664          9832.000
        99   06 Jun 2027 04:59:35.306   06 Jun 2027 04:59:44.950             9.644          4822.000
       100   06 Jun 2027 05:01:30.947   06 Jun 2027 05:01:36.058             5.111          2555.500
       101   06 Jun 2027 05:01:52.222   06 Jun 2027 05:03:17.265            85.043         42521.500
       102   06 Jun 2027 05:03:46.374   06 Jun 2027 05:03:56.056             9.682          4841.000
       103   06 Jun 2027 05:06:01.264   06 Jun 2027 05:07:42.372           101.108         50554.000
       104   06 Jun 2027 05:08:53.279   06 Jun 2027 05:09:21.120            27.841         13920.500
       105   06 Jun 2027 06:38:29.293   06 Jun 2027 06:39:19.834            50.541         24098.844
       106   06 Jun 2027 08:15:34.506   06 Jun 2027 08:15:40.844             6.338          2148.813
       107   06 Jun 2027 08:18:49.031   06 Jun 2027 08:18:53.761             4.730           365.281
       108   06 Jun 2027 08:19:00.619   06 Jun 2027 08:19:01.950             1.331           214.313
       109   06 Jun 2027 08:20:23.326   06 Jun 2027 08:20:24.647             1.321           632.219
       110   06 Jun 2027 09:52:12.171   06 Jun 2027 09:52:23.910            11.739          3646.875
       111   06 Jun 2027 09:53:49.627   06 Jun 2027 09:53:49.764             0.137            55.250
       112   06 Jun 2027 09:54:28.203   06 Jun 2027 09:54:31.799             3.596          1119.156
       113   06 Jun 2027 11:30:31.534   06 Jun 2027 11:30:33.686             2.152          1041.719
       114   07 Jun 2027 03:39:33.301   07 Jun 2027 03:39:36.192             2.891          1445.500
       115   07 Jun 2027 03:40:27.611   07 Jun 2027 03:40:31.656             4.045          2022.500
       116   07 Jun 2027 03:40:32.123   07 Jun 2027 03:40:33.044             0.921           460.500
       117   07 Jun 2027 03:41:03.586   07 Jun 2027 03:41:30.168            26.582         13291.000
       118   07 Jun 2027 05:14:41.075   07 Jun 2027 05:15:55.610            74.535         37267.500
       119   07 Jun 2027 05:17:37.597   07 Jun 2027 05:18:28.398            50.801         25400.500
       120   07 Jun 2027 05:18:55.789   07 Jun 2027 05:19:59.733            63.944         31972.000
       121   07 Jun 2027 05:20:27.132   07 Jun 2027 05:20:55.270            28.138         14069.000
       122   07 Jun 2027 05:21:19.372   07 Jun 2027 05:21:24.486             5.114          2557.000
       123   07 Jun 2027 06:51:02.719   07 Jun 2027 06:52:07.730            65.011         32293.626
       124   07 Jun 2027 06:56:18.942   07 Jun 2027 06:56:24.818             5.876           846.812
       125   07 Jun 2027 06:57:18.215   07 Jun 2027 06:57:20.157             1.942            36.719
       126   07 Jun 2027 08:28:28.154   07 Jun 2027 08:28:32.616             4.462          2043.625
       127   07 Jun 2027 08:30:28.796   07 Jun 2027 08:30:33.985             5.189          1158.437
       128   07 Jun 2027 08:30:46.772   07 Jun 2027 08:30:47.707             0.935           182.531
       129   07 Jun 2027 08:31:44.721   07 Jun 2027 08:31:48.534             3.813          1356.469
       130   07 Jun 2027 08:32:24.343   07 Jun 2027 08:32:25.475             1.132           432.906
       131   07 Jun 2027 10:04:39.066   07 Jun 2027 10:04:53.287            14.221          6345.500
       132   07 Jun 2027 10:06:28.911   07 Jun 2027 10:06:33.437             4.526          1233.312
       133   07 Jun 2027 10:07:07.067   07 Jun 2027 10:07:09.279             2.212           692.000
       134   08 Jun 2027 03:51:36.055   08 Jun 2027 03:52:03.819            27.764         13882.000
       135   08 Jun 2027 03:52:57.801   08 Jun 2027 03:53:01.551             3.750          1875.000
       136   08 Jun 2027 05:26:47.958   08 Jun 2027 05:30:34.777           226.819        113409.500
       137   08 Jun 2027 05:33:07.105   08 Jun 2027 05:33:26.765            19.660          9830.000
       138   08 Jun 2027 07:02:43.630   08 Jun 2027 07:03:26.100            42.470         21132.000
       139   08 Jun 2027 07:04:04.882   08 Jun 2027 07:04:06.848             1.966           962.500
       140   08 Jun 2027 07:05:49.795   08 Jun 2027 07:05:52.749             2.954            88.688
       141   08 Jun 2027 07:06:27.874   08 Jun 2027 07:06:34.672             6.798          1085.375
       142   08 Jun 2027 07:07:48.394   08 Jun 2027 07:07:51.281             2.887           483.937
       143   08 Jun 2027 08:40:35.740   08 Jun 2027 08:40:46.028            10.288          3597.250
       144   08 Jun 2027 08:42:15.654   08 Jun 2027 08:42:19.074             3.420           625.219
       145   08 Jun 2027 08:42:45.015   08 Jun 2027 08:42:49.300             4.285           526.781
       146   08 Jun 2027 08:43:44.144   08 Jun 2027 08:43:47.660             3.516          1651.781
       147   08 Jun 2027 08:44:05.707   08 Jun 2027 08:44:06.330             0.623           225.781
       148   08 Jun 2027 08:44:50.820   08 Jun 2027 08:44:54.913             4.093          1390.313
       149   08 Jun 2027 10:16:33.494   08 Jun 2027 10:16:46.890            13.396          6636.469
       150   08 Jun 2027 10:19:14.081   08 Jun 2027 10:19:17.655             3.574          1382.813
       151   09 Jun 2027 04:03:19.941   09 Jun 2027 04:03:52.932            32.991         16495.500
       152   09 Jun 2027 05:38:03.183   09 Jun 2027 05:41:28.668           205.485        102742.500
       153   09 Jun 2027 05:41:55.759   09 Jun 2027 05:42:33.502            37.743         18871.500
       154   09 Jun 2027 05:44:56.589   09 Jun 2027 05:44:56.761             0.172            86.000
       155   09 Jun 2027 05:45:30.205   09 Jun 2027 05:45:34.848             4.643          2321.500
       156   09 Jun 2027 07:14:49.382   09 Jun 2027 07:15:30.421            41.039         19785.125
       157   09 Jun 2027 07:17:54.892   09 Jun 2027 07:17:57.495             2.603          1209.063
       158   09 Jun 2027 07:19:18.445   09 Jun 2027 07:19:23.842             5.397          1605.125
       159   09 Jun 2027 07:19:52.891   09 Jun 2027 07:19:55.121             2.230           228.812
       160   09 Jun 2027 08:53:05.040   09 Jun 2027 08:53:16.719            11.679          5720.844
       161   09 Jun 2027 08:54:42.731   09 Jun 2027 08:54:52.814            10.083          2263.125
       162   09 Jun 2027 08:55:06.079   09 Jun 2027 08:55:07.003             0.924            61.375
       163   09 Jun 2027 08:56:01.642   09 Jun 2027 08:56:02.928             1.286           400.781
       164   09 Jun 2027 10:26:24.018   09 Jun 2027 10:26:36.552            12.534          5907.594
       165   10 Jun 2027 04:13:20.988   10 Jun 2027 04:14:03.676            42.688         21344.000
       166   10 Jun 2027 04:14:34.544   10 Jun 2027 04:14:34.544             0.000             0.000
       167   10 Jun 2027 04:15:22.474   10 Jun 2027 04:15:23.682             1.208           604.000
       168   10 Jun 2027 04:17:04.612   10 Jun 2027 04:17:09.490             4.878          2439.000
       169   10 Jun 2027 04:18:48.351   10 Jun 2027 04:19:03.005            14.654          7327.000
       170   10 Jun 2027 05:50:08.820   10 Jun 2027 05:52:56.891           168.071         84035.500
       171   10 Jun 2027 05:56:56.112   10 Jun 2027 05:57:27.154            31.042         15521.000
       172   10 Jun 2027 05:57:34.432   10 Jun 2027 05:57:34.607             0.175            87.500
       173   10 Jun 2027 07:27:09.759   10 Jun 2027 07:28:33.407            83.648         40990.875
       174   10 Jun 2027 07:31:18.493   10 Jun 2027 07:31:24.245             5.752          1554.281
       175   10 Jun 2027 07:32:13.160   10 Jun 2027 07:32:16.504             3.344          1355.469
       176   10 Jun 2027 07:33:11.773   10 Jun 2027 07:33:12.806             1.033           340.812
       177   10 Jun 2027 09:05:03.172   10 Jun 2027 09:05:15.112            11.940          5747.844
       178   10 Jun 2027 09:07:28.095   10 Jun 2027 09:07:30.362             2.267           414.750
       179   10 Jun 2027 09:08:53.248   10 Jun 2027 09:08:55.031             1.783            44.156
       180   10 Jun 2027 10:38:20.490   10 Jun 2027 10:38:31.240            10.750          5170.281
       181   11 Jun 2027 04:24:40.770   11 Jun 2027 04:26:25.413           104.643         52321.500
       182   11 Jun 2027 04:26:48.986   11 Jun 2027 04:26:49.591             0.605           302.500
       183   11 Jun 2027 04:26:51.391   11 Jun 2027 04:26:59.156             7.765          3882.500
       184   11 Jun 2027 04:29:34.187   11 Jun 2027 04:29:34.187             0.000             0.000
       185   11 Jun 2027 04:29:48.411   11 Jun 2027 04:30:04.167            15.756          7878.000
       186   11 Jun 2027 04:32:50.826   11 Jun 2027 04:33:14.815            23.989         11994.500
       187   11 Jun 2027 06:02:15.575   11 Jun 2027 06:05:11.007           175.432         87716.000
       188   11 Jun 2027 06:08:54.390   11 Jun 2027 06:09:10.391            16.001          8000.500
       189   11 Jun 2027 07:38:58.840   11 Jun 2027 07:39:13.212            14.372          7049.719
       190   11 Jun 2027 07:42:44.739   11 Jun 2027 07:42:48.037             3.298          1503.812
       191   11 Jun 2027 07:43:13.828   11 Jun 2027 07:43:19.446             5.618           608.031
       192   11 Jun 2027 07:44:31.617   11 Jun 2027 07:44:34.304             2.687           968.094
       193   11 Jun 2027 07:45:03.758   11 Jun 2027 07:45:10.986             7.228           193.500
       194   11 Jun 2027 09:17:02.408   11 Jun 2027 09:17:13.274            10.866          4926.375
       195   11 Jun 2027 09:17:42.521   11 Jun 2027 09:17:43.015             0.494            82.594
       196   11 Jun 2027 09:19:59.326   11 Jun 2027 09:20:02.548             3.222          1102.281
       197   11 Jun 2027 09:21:04.257   11 Jun 2027 09:21:07.152             2.895           235.000
       198   11 Jun 2027 10:50:46.232   11 Jun 2027 10:50:50.612             4.380          1691.156
       199   12 Jun 2027 03:01:16.179   12 Jun 2027 03:01:24.780             8.601          4300.500
       200   12 Jun 2027 03:02:18.534   12 Jun 2027 03:02:21.691             3.157          1578.500
       201   12 Jun 2027 03:03:39.863   12 Jun 2027 03:03:59.326            19.463          9731.500
       202   12 Jun 2027 04:36:10.863   12 Jun 2027 04:38:32.310           141.447         70723.500
       203   12 Jun 2027 04:39:25.584   12 Jun 2027 04:39:49.402            23.818         11909.000
       204   12 Jun 2027 04:45:10.701   12 Jun 2027 04:45:41.363            30.662         15331.000
       205   12 Jun 2027 06:14:11.104   12 Jun 2027 06:15:48.875            97.771         48885.500
       206   12 Jun 2027 06:16:34.256   12 Jun 2027 06:16:39.501             5.245          1600.312
       207   12 Jun 2027 06:16:57.456   12 Jun 2027 06:16:57.456             0.000             0.000
       208   12 Jun 2027 06:16:58.528   12 Jun 2027 06:17:00.407             1.879           437.281
       209   12 Jun 2027 06:18:41.966   12 Jun 2027 06:18:48.655             6.689          2500.687
       210   12 Jun 2027 06:19:17.559   12 Jun 2027 06:19:21.263             3.704           903.250
       211   12 Jun 2027 06:19:52.377   12 Jun 2027 06:19:54.191             1.814           603.125
       212   12 Jun 2027 07:51:05.809   12 Jun 2027 07:51:06.908             1.099           421.656
       213   12 Jun 2027 07:55:28.192   12 Jun 2027 07:55:28.980             0.788            85.969
       214   12 Jun 2027 07:57:13.020   12 Jun 2027 07:57:18.345             5.325          2025.344
       215   12 Jun 2027 09:28:39.863   12 Jun 2027 09:28:46.632             6.769          2923.437
       216   12 Jun 2027 09:29:47.757   12 Jun 2027 09:29:51.935             4.178          1405.844
       217   12 Jun 2027 11:03:02.624   12 Jun 2027 11:03:03.485             0.861           398.469
       218   13 Jun 2027 03:15:34.027   13 Jun 2027 03:15:37.926             3.899          1949.500
       219   13 Jun 2027 03:16:03.303   13 Jun 2027 03:16:03.657             0.354           177.000
       220   13 Jun 2027 03:16:38.355   13 Jun 2027 03:16:43.223             4.868          2434.000
       221   13 Jun 2027 03:16:48.201   13 Jun 2027 03:16:48.201             0.000             0.000
       222   13 Jun 2027 03:17:33.492   13 Jun 2027 03:17:48.809            15.317          7658.500
       223   13 Jun 2027 04:49:07.134   13 Jun 2027 04:51:46.347           159.213         79606.500
       224   13 Jun 2027 04:52:22.741   13 Jun 2027 04:52:32.729             9.988          4994.000
       225   13 Jun 2027 04:53:52.438   13 Jun 2027 04:54:04.445            12.007          6003.500
       226   13 Jun 2027 04:56:20.235   13 Jun 2027 04:56:37.694            17.459          8729.500
       227   13 Jun 2027 04:56:40.388   13 Jun 2027 04:57:20.525            40.137         20068.500
       228   13 Jun 2027 04:57:39.954   13 Jun 2027 04:57:41.005             1.051           525.500
       229   13 Jun 2027 06:26:33.103   13 Jun 2027 06:27:23.263            50.160         24006.844
       230   13 Jun 2027 06:28:27.155   13 Jun 2027 06:28:28.688             1.533           556.094
       231   13 Jun 2027 06:28:46.384   13 Jun 2027 06:28:50.429             4.045           485.531
       232   13 Jun 2027 06:29:30.562   13 Jun 2027 06:29:37.740             7.178          1058.000
       233   13 Jun 2027 06:30:38.926   13 Jun 2027 06:30:39.920             0.994           160.406
       234   13 Jun 2027 06:30:51.768   13 Jun 2027 06:30:54.272             2.504           102.969
       235   13 Jun 2027 08:03:35.122   13 Jun 2027 08:03:38.750             3.628          1379.187
       236   13 Jun 2027 08:06:37.776   13 Jun 2027 08:06:40.751             2.975           164.437
       237   13 Jun 2027 08:07:06.446   13 Jun 2027 08:07:07.746             1.300            89.969
       238   13 Jun 2027 08:09:04.650   13 Jun 2027 08:09:09.006             4.356          1587.594
       239   13 Jun 2027 08:09:24.766   13 Jun 2027 08:09:25.202             0.436            90.750
       240   13 Jun 2027 09:40:23.955   13 Jun 2027 09:40:30.334             6.379          2579.219
       241   13 Jun 2027 11:15:40.262   13 Jun 2027 11:15:40.689             0.427            86.563
