uniorb/output/strategy_4/Camera/Camera_KinoSat_111007.txt

KinoSat_111007
-------------------------
    Access    *     Start Time (UTCG)     *     Stop Time (UTCG)  *   Duration (s) *   Data (Mbytes)
         1   01 Jun 2027 03:08:36.485   01 Jun 2027 03:09:22.741            46.256         23128.000
         2   01 Jun 2027 03:20:16.843   01 Jun 2027 03:21:42.338            85.495         42747.500
         3   01 Jun 2027 04:42:33.129   01 Jun 2027 04:43:09.770            36.641         18320.500
         4   01 Jun 2027 04:43:24.691   01 Jun 2027 04:43:29.503             4.812          2406.000
         5   01 Jun 2027 04:46:59.583   01 Jun 2027 04:47:06.286             6.703          3351.500
         6   01 Jun 2027 06:17:46.141   01 Jun 2027 06:18:33.198            47.057         23528.500
         7   01 Jun 2027 06:19:41.445   01 Jun 2027 06:20:44.539            63.094         31547.000
         8   01 Jun 2027 06:21:18.826   01 Jun 2027 06:21:18.826             0.000             0.000
         9   01 Jun 2027 06:22:36.700   01 Jun 2027 06:22:37.101             0.401           200.500
        10   01 Jun 2027 06:23:58.587   01 Jun 2027 06:24:17.249            18.662          9331.000
        11   01 Jun 2027 07:54:49.864   01 Jun 2027 07:56:42.725           112.861         56430.500
        12   01 Jun 2027 07:57:51.624   01 Jun 2027 07:58:04.778            13.154          6577.000
        13   01 Jun 2027 07:58:51.927   01 Jun 2027 07:59:15.178            23.251         11625.500
        14   01 Jun 2027 08:00:47.551   01 Jun 2027 08:00:50.923             3.372          1686.000
        15   01 Jun 2027 08:01:20.342   01 Jun 2027 08:01:37.243            16.901          8450.500
        16   01 Jun 2027 09:31:47.811   01 Jun 2027 09:33:04.569            76.758         38379.000
        17   01 Jun 2027 09:34:11.450   01 Jun 2027 09:35:48.118            96.668         48334.000
        18   01 Jun 2027 09:36:38.754   01 Jun 2027 09:36:42.672             3.918          1959.000
        19   01 Jun 2027 11:09:44.334   01 Jun 2027 11:12:14.157           149.823         74911.500
        20   01 Jun 2027 11:12:19.149   01 Jun 2027 11:12:23.349             4.200          2100.000
        21   02 Jun 2027 03:19:58.247   02 Jun 2027 03:20:41.743            43.496         21748.000
        22   02 Jun 2027 03:22:12.481   02 Jun 2027 03:22:15.096             2.615          1307.500
        23   02 Jun 2027 03:32:14.226   02 Jun 2027 03:33:09.598            55.372         27686.000
        24   02 Jun 2027 04:54:13.037   02 Jun 2027 04:55:34.431            81.394         40697.000
        25   02 Jun 2027 04:57:10.788   02 Jun 2027 04:57:13.706             2.918          1459.000
        26   02 Jun 2027 04:57:34.882   02 Jun 2027 04:57:50.572            15.690          7845.000
        27   02 Jun 2027 04:58:09.149   02 Jun 2027 04:58:40.536            31.387         15693.500
        28   02 Jun 2027 06:29:13.217   02 Jun 2027 06:32:32.703           199.486         99743.000
        29   02 Jun 2027 06:33:17.509   02 Jun 2027 06:33:25.578             8.069          4034.500
        30   02 Jun 2027 06:33:57.308   02 Jun 2027 06:34:23.769            26.461         13230.500
        31   02 Jun 2027 06:34:49.586   02 Jun 2027 06:34:51.662             2.076          1038.000
        32   02 Jun 2027 08:06:51.834   02 Jun 2027 08:09:45.264           173.430         86715.000
        33   02 Jun 2027 08:11:33.343   02 Jun 2027 08:11:33.343             0.000             0.000
        34   02 Jun 2027 08:12:19.823   02 Jun 2027 08:12:45.944            26.121         13060.500
        35   02 Jun 2027 08:14:00.058   02 Jun 2027 08:14:17.622            17.564          8782.000
        36   02 Jun 2027 09:43:38.162   02 Jun 2027 09:44:04.095            25.933         12758.156
        37   02 Jun 2027 09:44:29.510   02 Jun 2027 09:44:31.906             2.396           744.375
        38   02 Jun 2027 09:45:02.711   02 Jun 2027 09:45:04.386             1.675           583.531
        39   02 Jun 2027 09:46:39.435   02 Jun 2027 09:46:44.107             4.672           622.219
        40   02 Jun 2027 09:47:24.250   02 Jun 2027 09:47:25.081             0.831           301.094
        41   02 Jun 2027 09:47:44.515   02 Jun 2027 09:47:46.375             1.860           414.813
        42   02 Jun 2027 09:47:53.664   02 Jun 2027 09:47:58.960             5.296           221.875
        43   02 Jun 2027 09:48:43.028   02 Jun 2027 09:48:46.050             3.022           752.437
        44   02 Jun 2027 09:48:51.567   02 Jun 2027 09:49:00.439             8.872           126.062
        45   02 Jun 2027 09:49:22.928   02 Jun 2027 09:49:26.234             3.306           442.031
        46   02 Jun 2027 09:50:11.781   02 Jun 2027 09:50:15.578             3.797          1065.344
        47   02 Jun 2027 11:21:43.454   02 Jun 2027 11:21:59.613            16.159          7535.344
        48   02 Jun 2027 11:22:29.247   02 Jun 2027 11:22:32.112             2.865           143.750
        49   02 Jun 2027 11:23:27.345   02 Jun 2027 11:23:30.084             2.739          1073.469
        50   02 Jun 2027 11:23:59.856   02 Jun 2027 11:24:05.794             5.938           547.594
        51   02 Jun 2027 11:24:58.281   02 Jun 2027 11:25:01.330             3.049          1465.656
        52   02 Jun 2027 11:25:44.913   02 Jun 2027 11:25:47.788             2.875          1361.969
        53   02 Jun 2027 11:25:48.673   02 Jun 2027 11:25:51.210             2.537            27.656
        54   03 Jun 2027 03:32:05.594   03 Jun 2027 03:32:16.866            11.272          5636.000
        55   03 Jun 2027 03:44:37.928   03 Jun 2027 03:44:41.201             3.273          1636.500
        56   03 Jun 2027 05:05:54.693   03 Jun 2027 05:09:02.787           188.094         94047.000
        57   03 Jun 2027 05:10:06.087   03 Jun 2027 05:10:29.334            23.247         11623.500
        58   03 Jun 2027 05:10:36.584   03 Jun 2027 05:10:43.170             6.586          3293.000
        59   03 Jun 2027 06:40:46.809   03 Jun 2027 06:42:11.004            84.195         39475.688
        60   03 Jun 2027 06:42:49.498   03 Jun 2027 06:42:52.122             2.624          1202.938
        61   03 Jun 2027 06:43:30.864   03 Jun 2027 06:43:33.141             2.277           800.813
        62   03 Jun 2027 06:44:14.103   03 Jun 2027 06:44:18.688             4.585          1180.156
        63   03 Jun 2027 06:44:36.871   03 Jun 2027 06:44:38.345             1.474           533.250
        64   03 Jun 2027 06:44:52.211   03 Jun 2027 06:44:54.446             2.235           432.313
        65   03 Jun 2027 06:46:36.583   03 Jun 2027 06:46:43.137             6.554          3191.781
        66   03 Jun 2027 06:47:30.857   03 Jun 2027 06:47:33.849             2.992          1131.719
        67   03 Jun 2027 06:47:51.470   03 Jun 2027 06:47:55.175             3.705           513.875
        68   03 Jun 2027 06:48:46.827   03 Jun 2027 06:48:49.676             2.849          1380.344
        69   03 Jun 2027 06:49:20.965   03 Jun 2027 06:49:22.707             1.742           756.875
        70   03 Jun 2027 06:49:59.656   03 Jun 2027 06:50:01.739             2.083           768.000
        71   03 Jun 2027 08:18:53.027   03 Jun 2027 08:18:56.249             3.222           944.687
        72   03 Jun 2027 08:20:41.040   03 Jun 2027 08:20:45.168             4.128          1883.969
        73   03 Jun 2027 08:23:18.818   03 Jun 2027 08:23:22.022             3.204           759.813
        74   03 Jun 2027 08:24:06.745   03 Jun 2027 08:24:08.952             2.207          1061.969
        75   03 Jun 2027 08:25:00.545   03 Jun 2027 08:25:11.377            10.832           507.437
        76   03 Jun 2027 08:25:59.183   03 Jun 2027 08:26:02.377             3.194          1400.906
        77   03 Jun 2027 09:55:47.942   03 Jun 2027 09:55:59.285            11.343          4286.750
        78   03 Jun 2027 09:57:53.426   03 Jun 2027 09:57:57.402             3.976          1591.781
        79   03 Jun 2027 09:59:32.287   03 Jun 2027 09:59:36.760             4.473          1097.000
        80   03 Jun 2027 10:00:09.516   03 Jun 2027 10:00:11.593             2.077           317.719
        81   03 Jun 2027 10:00:36.946   03 Jun 2027 10:00:38.962             2.016           623.125
        82   03 Jun 2027 10:00:52.751   03 Jun 2027 10:00:53.598             0.847           378.906
        83   03 Jun 2027 10:01:42.713   03 Jun 2027 10:01:48.610             5.897          1413.563
        84   03 Jun 2027 11:32:56.061   03 Jun 2027 11:33:07.515            11.454          5345.812
        85   03 Jun 2027 11:36:04.208   03 Jun 2027 11:36:07.646             3.438           774.281
        86   03 Jun 2027 11:36:37.752   03 Jun 2027 11:36:40.327             2.575           750.563
        87   03 Jun 2027 11:37:26.630   03 Jun 2027 11:37:29.764             3.134            33.750
        88   03 Jun 2027 11:37:37.830   03 Jun 2027 11:37:39.398             1.568           252.062
        89   04 Jun 2027 03:44:01.384   04 Jun 2027 03:44:10.587             9.203          4601.500
        90   04 Jun 2027 03:45:21.436   04 Jun 2027 03:45:26.235             4.799          2399.500
        91   04 Jun 2027 05:20:14.991   04 Jun 2027 05:23:47.564           212.573        106286.500
        92   04 Jun 2027 06:53:47.754   04 Jun 2027 06:55:02.292            74.538         36800.250
        93   04 Jun 2027 06:56:02.235   04 Jun 2027 06:56:05.546             3.311            30.000
        94   04 Jun 2027 06:56:30.876   04 Jun 2027 06:56:30.876             0.000             0.000
        95   04 Jun 2027 06:56:54.205   04 Jun 2027 06:56:57.779             3.574          1226.781
        96   04 Jun 2027 06:58:35.611   04 Jun 2027 06:58:41.986             6.375          3057.250
        97   04 Jun 2027 06:59:11.997   04 Jun 2027 06:59:12.989             0.992           453.063
        98   04 Jun 2027 06:59:33.436   04 Jun 2027 06:59:35.531             2.095           542.437
        99   04 Jun 2027 07:00:03.288   04 Jun 2027 07:00:04.159             0.871           170.281
       100   04 Jun 2027 07:00:41.750   04 Jun 2027 07:00:42.204             0.454           227.000
       101   04 Jun 2027 07:01:19.119   04 Jun 2027 07:01:22.392             3.273          1512.344
       102   04 Jun 2027 07:02:03.226   04 Jun 2027 07:02:03.226             0.000             0.000
       103   04 Jun 2027 07:02:18.989   04 Jun 2027 07:02:21.245             2.256          1128.000
       104   04 Jun 2027 08:31:20.180   04 Jun 2027 08:31:25.757             5.577          2121.469
       105   04 Jun 2027 08:34:43.487   04 Jun 2027 08:34:47.788             4.301           137.812
       106   04 Jun 2027 08:36:11.227   04 Jun 2027 08:36:11.456             0.229           107.063
       107   04 Jun 2027 08:36:55.019   04 Jun 2027 08:36:58.196             3.177           423.938
       108   04 Jun 2027 08:37:13.645   04 Jun 2027 08:37:20.553             6.908           124.719
       109   04 Jun 2027 10:08:15.487   04 Jun 2027 10:08:28.447            12.960          6480.000
       110   04 Jun 2027 10:08:36.610   04 Jun 2027 10:08:41.113             4.503           339.000
       111   04 Jun 2027 10:11:17.942   04 Jun 2027 10:11:22.240             4.298          2065.813
       112   04 Jun 2027 10:11:56.808   04 Jun 2027 10:11:56.957             0.149            32.031
       113   04 Jun 2027 10:12:09.877   04 Jun 2027 10:12:11.524             1.647           233.812
       114   04 Jun 2027 10:12:59.365   04 Jun 2027 10:13:01.231             1.866           770.000
       115   04 Jun 2027 10:13:43.605   04 Jun 2027 10:13:47.228             3.623          1324.188
       116   04 Jun 2027 10:13:47.599   04 Jun 2027 10:13:51.678             4.079            11.594
       117   04 Jun 2027 11:45:09.603   04 Jun 2027 11:45:20.881            11.278          5120.375
       118   04 Jun 2027 11:48:08.074   04 Jun 2027 11:48:11.921             3.847          1026.625
       119   04 Jun 2027 11:49:09.145   04 Jun 2027 11:49:12.830             3.685          1670.875
       120   05 Jun 2027 03:55:52.533   05 Jun 2027 03:56:43.783            51.250         25625.000
       121   05 Jun 2027 05:32:19.706   05 Jun 2027 05:35:23.437           183.731         91865.500
       122   05 Jun 2027 07:04:27.402   05 Jun 2027 07:04:38.431            11.029          5514.500
       123   05 Jun 2027 07:06:26.489   05 Jun 2027 07:07:37.012            70.523         34876.156
       124   05 Jun 2027 07:08:00.455   05 Jun 2027 07:08:03.154             2.699           223.063
       125   05 Jun 2027 07:08:22.886   05 Jun 2027 07:08:25.164             2.278           111.312
       126   05 Jun 2027 07:08:55.925   05 Jun 2027 07:08:58.044             2.119           538.500
       127   05 Jun 2027 07:09:28.434   05 Jun 2027 07:09:30.452             2.018           852.937
       128   05 Jun 2027 07:09:49.601   05 Jun 2027 07:09:54.562             4.961            33.281
       129   05 Jun 2027 07:11:19.373   05 Jun 2027 07:11:24.345             4.972          2027.406
       130   05 Jun 2027 07:11:42.500   05 Jun 2027 07:11:44.133             1.633           387.406
       131   05 Jun 2027 07:12:26.958   05 Jun 2027 07:12:29.569             2.611          1005.844
       132   05 Jun 2027 07:12:54.856   05 Jun 2027 07:12:56.525             1.669           668.125
       133   05 Jun 2027 07:13:12.978   05 Jun 2027 07:13:14.552             1.574           513.781
       134   05 Jun 2027 07:13:37.232   05 Jun 2027 07:13:38.390             1.158           367.469
       135   05 Jun 2027 07:14:07.051   05 Jun 2027 07:14:09.150             2.099           895.656
       136   05 Jun 2027 08:43:25.010   05 Jun 2027 08:43:35.381            10.371          4697.344
       137   05 Jun 2027 08:46:05.649   05 Jun 2027 08:46:11.367             5.718           756.500
       138   05 Jun 2027 08:47:28.486   05 Jun 2027 08:47:30.565             2.079           674.562
       139   05 Jun 2027 08:48:29.585   05 Jun 2027 08:48:31.250             1.665           475.031
       140   05 Jun 2027 08:49:17.263   05 Jun 2027 08:49:20.691             3.428          1253.031
       141   05 Jun 2027 10:20:53.089   05 Jun 2027 10:21:05.139            12.050          5675.187
       142   05 Jun 2027 10:23:47.325   05 Jun 2027 10:23:48.571             1.246           320.406
       143   05 Jun 2027 10:24:17.719   05 Jun 2027 10:24:18.889             1.170           495.281
       144   05 Jun 2027 10:24:41.098   05 Jun 2027 10:24:44.772             3.674           694.031
       145   05 Jun 2027 11:57:12.981   05 Jun 2027 11:57:24.373            11.392          5066.094
       146   05 Jun 2027 11:59:47.671   05 Jun 2027 11:59:50.343             2.672           448.250
       147   06 Jun 2027 04:08:00.703   06 Jun 2027 04:08:48.730            48.027         24013.500
       148   06 Jun 2027 05:44:29.490   06 Jun 2027 05:47:12.301           162.811         81405.500
       149   06 Jun 2027 07:19:40.479   06 Jun 2027 07:21:27.714           107.235         52400.437
       150   06 Jun 2027 07:22:31.226   06 Jun 2027 07:22:31.226             0.000             0.000
       151   06 Jun 2027 07:22:40.264   06 Jun 2027 07:22:44.681             4.417          1966.625
       152   06 Jun 2027 07:23:29.138   06 Jun 2027 07:23:29.138             0.000             0.000
       153   06 Jun 2027 07:24:40.685   06 Jun 2027 07:24:48.517             7.832          3060.844
       154   06 Jun 2027 07:25:44.908   06 Jun 2027 07:25:48.307             3.399          1411.938
       155   06 Jun 2027 07:25:54.296   06 Jun 2027 07:25:57.271             2.975            34.281
       156   06 Jun 2027 07:26:09.175   06 Jun 2027 07:26:12.670             3.495           372.000
       157   06 Jun 2027 08:55:59.472   06 Jun 2027 08:56:13.679            14.207          6654.937
       158   06 Jun 2027 08:57:23.630   06 Jun 2027 08:57:27.089             3.459           712.781
       159   06 Jun 2027 08:57:56.570   06 Jun 2027 08:57:57.887             1.317           202.969
       160   06 Jun 2027 09:01:09.460   06 Jun 2027 09:01:18.224             8.764          2462.875
       161   06 Jun 2027 09:01:44.701   06 Jun 2027 09:01:46.645             1.944           770.656
       162   06 Jun 2027 10:33:22.821   06 Jun 2027 10:33:36.695            13.874          5714.344
       163   06 Jun 2027 10:36:11.311   06 Jun 2027 10:36:12.467             1.156           355.719
       164   06 Jun 2027 10:36:27.754   06 Jun 2027 10:36:29.984             2.230           218.062
       165   06 Jun 2027 10:36:50.620   06 Jun 2027 10:36:50.988             0.368           126.281
       166   06 Jun 2027 10:37:39.097   06 Jun 2027 10:37:39.927             0.830           358.625
       167   06 Jun 2027 10:37:54.917   06 Jun 2027 10:37:55.026             0.109             3.406
       168   07 Jun 2027 03:00:00.000   07 Jun 2027 03:00:06.822             6.822          3411.000
       169   07 Jun 2027 04:20:43.137   07 Jun 2027 04:21:18.548            35.411         17705.500
       170   07 Jun 2027 04:21:57.594   07 Jun 2027 04:22:48.432            50.838         25419.000
       171   07 Jun 2027 05:56:27.633   07 Jun 2027 05:59:14.009           166.376         83188.000
       172   07 Jun 2027 05:59:40.239   07 Jun 2027 05:59:53.313            13.074          6537.000
       173   07 Jun 2027 07:31:32.662   07 Jun 2027 07:32:10.102            37.440         18708.062
       174   07 Jun 2027 07:33:12.071   07 Jun 2027 07:33:14.325             2.254           520.219
       175   07 Jun 2027 07:34:12.044   07 Jun 2027 07:34:13.495             1.451           718.156
       176   07 Jun 2027 07:34:27.463   07 Jun 2027 07:34:27.921             0.458           188.031
       177   07 Jun 2027 07:35:30.619   07 Jun 2027 07:35:32.234             1.615           798.750
       178   07 Jun 2027 07:35:57.148   07 Jun 2027 07:36:00.553             3.405           500.875
       179   07 Jun 2027 07:36:51.795   07 Jun 2027 07:36:57.251             5.456           599.500
       180   07 Jun 2027 07:37:03.517   07 Jun 2027 07:37:07.154             3.637           118.125
       181   07 Jun 2027 07:37:27.541   07 Jun 2027 07:37:29.754             2.213           637.094
       182   07 Jun 2027 07:37:49.703   07 Jun 2027 07:37:51.136             1.433           553.312
       183   07 Jun 2027 07:38:06.904   07 Jun 2027 07:38:06.904             0.000             0.000
       184   07 Jun 2027 09:07:37.556   07 Jun 2027 09:07:50.705            13.149          5749.656
       185   07 Jun 2027 09:13:01.323   07 Jun 2027 09:13:05.642             4.319          2057.469
       186   07 Jun 2027 09:13:14.063   07 Jun 2027 09:13:15.650             1.587           263.156
       187   07 Jun 2027 10:45:35.507   07 Jun 2027 10:45:51.776            16.269          7970.875
       188   07 Jun 2027 10:48:01.036   07 Jun 2027 10:48:01.962             0.926            15.312
       189   07 Jun 2027 10:48:02.504   07 Jun 2027 10:48:07.852             5.348            16.938
       190   07 Jun 2027 10:49:38.329   07 Jun 2027 10:49:42.240             3.911          1630.313
       191   07 Jun 2027 10:49:46.321   07 Jun 2027 10:49:48.557             2.236           114.156
       192   08 Jun 2027 03:08:31.488   08 Jun 2027 03:09:43.595            72.107         36053.500
       193   08 Jun 2027 03:10:00.793   08 Jun 2027 03:10:00.793             0.000             0.000
       194   08 Jun 2027 03:11:18.929   08 Jun 2027 03:11:46.042            27.113         13556.500
       195   08 Jun 2027 04:31:49.784   08 Jun 2027 04:32:44.716            54.932         27466.000
       196   08 Jun 2027 04:35:14.046   08 Jun 2027 04:35:15.358             1.312           656.000
       197   08 Jun 2027 04:35:23.503   08 Jun 2027 04:35:26.285             2.782          1391.000
       198   08 Jun 2027 06:08:12.225   08 Jun 2027 06:10:45.522           153.297         76648.500
       199   08 Jun 2027 06:12:05.885   08 Jun 2027 06:12:17.759            11.874          4953.469
       200   08 Jun 2027 07:42:57.726   08 Jun 2027 07:43:05.963             8.237          3457.438
       201   08 Jun 2027 07:43:48.355   08 Jun 2027 07:44:00.681            12.326           342.156
       202   08 Jun 2027 07:45:32.350   08 Jun 2027 07:45:35.346             2.996           474.937
       203   08 Jun 2027 07:46:16.883   08 Jun 2027 07:46:18.762             1.879           409.594
       204   08 Jun 2027 07:47:07.130   08 Jun 2027 07:47:10.763             3.633          1400.625
       205   08 Jun 2027 07:47:34.616   08 Jun 2027 07:47:36.322             1.706           615.594
       206   08 Jun 2027 07:47:43.627   08 Jun 2027 07:47:46.266             2.639           228.281
       207   08 Jun 2027 07:48:27.111   08 Jun 2027 07:48:30.265             3.154          1276.406
       208   08 Jun 2027 07:49:00.983   08 Jun 2027 07:49:05.749             4.766           898.375
       209   08 Jun 2027 07:49:12.687   08 Jun 2027 07:49:13.333             0.646           215.844
       210   08 Jun 2027 07:49:39.780   08 Jun 2027 07:49:40.940             1.160           404.125
       211   08 Jun 2027 07:50:28.055   08 Jun 2027 07:50:30.519             2.464          1232.000
       212   08 Jun 2027 09:19:47.124   08 Jun 2027 09:19:57.894            10.770          5379.031
       213   08 Jun 2027 09:21:28.177   08 Jun 2027 09:21:31.485             3.308          1620.125
       214   08 Jun 2027 09:23:32.976   08 Jun 2027 09:23:34.104             1.128            64.031
       215   08 Jun 2027 09:24:09.491   08 Jun 2027 09:24:11.897             2.406           882.656
       216   08 Jun 2027 09:24:29.104   08 Jun 2027 09:24:32.554             3.450           524.125
       217   08 Jun 2027 09:24:53.331   08 Jun 2027 09:24:55.761             2.430           613.406
       218   08 Jun 2027 09:25:11.234   08 Jun 2027 09:25:12.414             1.180           339.500
       219   08 Jun 2027 09:26:04.304   08 Jun 2027 09:26:06.489             2.185          1092.500
       220   08 Jun 2027 10:57:57.753   08 Jun 2027 10:58:08.798            11.045          5448.813
       221   08 Jun 2027 11:00:02.513   08 Jun 2027 11:00:04.374             1.861           736.438
       222   08 Jun 2027 11:01:19.880   08 Jun 2027 11:01:25.536             5.656          2280.031
       223   08 Jun 2027 11:01:34.927   08 Jun 2027 11:01:35.597             0.670           213.219
       224   08 Jun 2027 11:01:50.036   08 Jun 2027 11:01:55.390             5.354           310.062
       225   09 Jun 2027 03:08:51.293   09 Jun 2027 03:08:58.008             6.715          3357.500
       226   09 Jun 2027 03:09:11.373   09 Jun 2027 03:09:35.936            24.563         12281.500
       227   09 Jun 2027 03:20:32.122   09 Jun 2027 03:21:56.487            84.365         42182.500
       228   09 Jun 2027 04:42:47.848   09 Jun 2027 04:44:03.510            75.662         37831.000
       229   09 Jun 2027 04:44:44.844   09 Jun 2027 04:44:57.142            12.298          6149.000
       230   09 Jun 2027 04:46:25.779   09 Jun 2027 04:46:25.779             0.000             0.000
       231   09 Jun 2027 04:46:53.813   09 Jun 2027 04:47:15.037            21.224         10612.000
       232   09 Jun 2027 06:18:00.278   09 Jun 2027 06:19:25.054            84.776         42388.000
       233   09 Jun 2027 06:20:15.309   09 Jun 2027 06:20:21.727             6.418          2206.750
       234   09 Jun 2027 06:21:22.923   09 Jun 2027 06:21:29.788             6.865          1912.375
       235   09 Jun 2027 06:21:45.484   09 Jun 2027 06:21:47.972             2.488           337.125
       236   09 Jun 2027 06:22:52.147   09 Jun 2027 06:22:52.147             0.000             0.000
       237   09 Jun 2027 06:23:05.696   09 Jun 2027 06:23:17.412            11.716          1971.875
       238   09 Jun 2027 06:24:15.835   09 Jun 2027 06:24:21.311             5.476          1385.312
       239   09 Jun 2027 06:24:47.776   09 Jun 2027 06:24:47.776             0.000             0.000
       240   09 Jun 2027 06:24:50.981   09 Jun 2027 06:24:51.400             0.419           209.500
       241   09 Jun 2027 07:55:04.800   09 Jun 2027 07:55:13.411             8.611          2696.906
       242   09 Jun 2027 07:55:49.075   09 Jun 2027 07:55:51.625             2.550           834.625
       243   09 Jun 2027 07:58:15.393   09 Jun 2027 07:58:17.364             1.971           216.687
       244   09 Jun 2027 07:59:08.919   09 Jun 2027 07:59:12.753             3.834          1477.031
       245   09 Jun 2027 07:59:33.164   09 Jun 2027 07:59:35.011             1.847           107.625
       246   09 Jun 2027 08:00:38.123   09 Jun 2027 08:00:42.765             4.642          1777.781
       247   09 Jun 2027 08:00:55.345   09 Jun 2027 08:01:00.949             5.604           357.156
       248   09 Jun 2027 08:01:05.826   09 Jun 2027 08:01:06.125             0.299           139.969
       249   09 Jun 2027 08:01:35.045   09 Jun 2027 08:01:38.608             3.563           826.562
       250   09 Jun 2027 08:02:02.643   09 Jun 2027 08:02:02.643             0.000             0.000
       251   09 Jun 2027 08:02:24.793   09 Jun 2027 08:02:28.929             4.136          1433.375
       252   09 Jun 2027 09:32:02.874   09 Jun 2027 09:32:17.331            14.457          6971.406
       253   09 Jun 2027 09:33:21.845   09 Jun 2027 09:33:22.033             0.188            40.219
       254   09 Jun 2027 09:34:28.936   09 Jun 2027 09:34:33.367             4.431          2090.719
       255   09 Jun 2027 09:35:49.108   09 Jun 2027 09:35:49.998             0.890            96.938
       256   09 Jun 2027 09:35:58.018   09 Jun 2027 09:36:01.793             3.775           250.625
       257   09 Jun 2027 09:36:32.456   09 Jun 2027 09:36:34.019             1.563           532.687
       258   09 Jun 2027 09:37:03.060   09 Jun 2027 09:37:20.400            17.340           907.531
       259   09 Jun 2027 11:09:59.198   09 Jun 2027 11:10:13.934            14.736          7257.313
       260   09 Jun 2027 11:10:43.809   09 Jun 2027 11:10:49.723             5.914           897.531
       261   09 Jun 2027 11:11:55.554   09 Jun 2027 11:11:59.538             3.984          1332.375
       262   09 Jun 2027 11:12:12.250   09 Jun 2027 11:12:18.757             6.507           397.250
       263   09 Jun 2027 11:13:19.673   09 Jun 2027 11:13:24.088             4.415           107.969
       264   09 Jun 2027 11:13:42.857   09 Jun 2027 11:13:45.686             2.829            85.437
       265   09 Jun 2027 11:13:56.217   09 Jun 2027 11:13:58.031             1.814           154.156
       266   10 Jun 2027 03:20:14.194   10 Jun 2027 03:20:16.066             1.872           936.000
       267   10 Jun 2027 03:21:36.249   10 Jun 2027 03:22:27.071            50.822         25411.000
       268   10 Jun 2027 03:32:29.341   10 Jun 2027 03:33:24.513            55.172         27586.000
       269   10 Jun 2027 04:54:29.109   10 Jun 2027 04:55:50.516            81.407         40703.500
       270   10 Jun 2027 04:56:35.006   10 Jun 2027 04:57:22.523            47.517         23758.500
       271   10 Jun 2027 04:59:54.918   10 Jun 2027 04:59:57.343             2.425          1212.500
       272   10 Jun 2027 06:29:28.072   10 Jun 2027 06:30:39.191            71.119         35559.500
       273   10 Jun 2027 06:31:04.317   10 Jun 2027 06:31:07.826             3.509           814.313
       274   10 Jun 2027 06:31:57.522   10 Jun 2027 06:32:00.869             3.347          1468.938
       275   10 Jun 2027 06:32:56.229   10 Jun 2027 06:32:56.705             0.476           227.688
       276   10 Jun 2027 06:33:09.206   10 Jun 2027 06:33:15.406             6.200           270.687
       277   10 Jun 2027 06:33:33.487   10 Jun 2027 06:33:36.448             2.961           456.000
       278   10 Jun 2027 06:34:47.548   10 Jun 2027 06:34:52.340             4.792          2003.594
       279   10 Jun 2027 06:35:08.761   10 Jun 2027 06:35:15.009             6.248           513.156
       280   10 Jun 2027 06:35:33.001   10 Jun 2027 06:35:33.001             0.000             0.000
       281   10 Jun 2027 06:36:26.377   10 Jun 2027 06:36:28.084             1.707           853.500
       282   10 Jun 2027 06:37:04.084   10 Jun 2027 06:37:08.844             4.760          2124.906
       283   10 Jun 2027 08:07:06.865   10 Jun 2027 08:07:12.685             5.820          2386.281
       284   10 Jun 2027 08:08:58.453   10 Jun 2027 08:09:05.090             6.637          2067.250
       285   10 Jun 2027 08:10:02.285   10 Jun 2027 08:10:06.153             3.868          1403.000
       286   10 Jun 2027 08:10:42.945   10 Jun 2027 08:10:46.285             3.340          1149.750
       287   10 Jun 2027 08:11:50.568   10 Jun 2027 08:11:53.207             2.639          1256.156
       288   10 Jun 2027 08:13:00.890   10 Jun 2027 08:13:04.067             3.177          1020.344
       289   10 Jun 2027 08:13:13.881   10 Jun 2027 08:13:15.928             2.047            83.125
       290   10 Jun 2027 08:14:12.345   10 Jun 2027 08:14:15.108             2.763          1374.906
       291   10 Jun 2027 09:43:53.480   10 Jun 2027 09:44:07.565            14.085          6632.406
       292   10 Jun 2027 09:46:32.236   10 Jun 2027 09:46:36.934             4.698          2300.719
       293   10 Jun 2027 09:46:52.752   10 Jun 2027 09:46:56.927             4.175           494.312
       294   10 Jun 2027 09:47:38.670   10 Jun 2027 09:47:39.686             1.016           155.594
       295   10 Jun 2027 09:48:00.262   10 Jun 2027 09:48:02.738             2.476            35.437
       296   10 Jun 2027 09:48:24.090   10 Jun 2027 09:48:26.528             2.438           532.219
       297   10 Jun 2027 09:48:57.548   10 Jun 2027 09:48:59.088             1.540           703.562
       298   10 Jun 2027 09:49:26.197   10 Jun 2027 09:49:27.924             1.727           584.219
       299   10 Jun 2027 09:50:26.582   10 Jun 2027 09:50:32.492             5.910          1020.313
       300   10 Jun 2027 11:21:56.535   10 Jun 2027 11:22:14.985            18.450          7672.031
       301   10 Jun 2027 11:22:45.364   10 Jun 2027 11:22:46.417             1.053           183.437
       302   10 Jun 2027 11:23:10.087   10 Jun 2027 11:23:10.564             0.477           167.312
       303   10 Jun 2027 11:24:21.698   10 Jun 2027 11:24:23.922             2.224           537.969
       304   10 Jun 2027 11:25:16.721   10 Jun 2027 11:25:17.705             0.984           302.750
       305   10 Jun 2027 11:25:52.236   10 Jun 2027 11:25:53.505             1.269           255.938
       306   10 Jun 2027 11:26:03.819   10 Jun 2027 11:26:04.588             0.769            27.094
       307   11 Jun 2027 03:32:20.770   11 Jun 2027 03:32:31.837            11.067          5533.500
       308   11 Jun 2027 03:32:59.104   11 Jun 2027 03:32:59.104             0.000             0.000
       309   11 Jun 2027 03:33:16.807   11 Jun 2027 03:33:26.719             9.912          4956.000
       310   11 Jun 2027 03:34:09.182   11 Jun 2027 03:34:15.404             6.222          3111.000
       311   11 Jun 2027 03:44:53.867   11 Jun 2027 03:44:55.948             2.081          1040.500
       312   11 Jun 2027 05:06:09.257   11 Jun 2027 05:09:31.707           202.450        101225.000
       313   11 Jun 2027 05:10:19.542   11 Jun 2027 05:10:36.534            16.992          8496.000
       314   11 Jun 2027 05:10:58.687   11 Jun 2027 05:11:04.076             5.389          2694.500
       315   11 Jun 2027 06:41:01.877   11 Jun 2027 06:42:05.100            63.223         31573.376
       316   11 Jun 2027 06:42:25.338   11 Jun 2027 06:42:28.870             3.532           468.906
       317   11 Jun 2027 06:43:22.663   11 Jun 2027 06:43:25.116             2.453           545.125
       318   11 Jun 2027 06:44:31.687   11 Jun 2027 06:44:34.993             3.306          1205.656
       319   11 Jun 2027 06:44:51.742   11 Jun 2027 06:44:53.093             1.351           495.750
       320   11 Jun 2027 06:45:08.602   11 Jun 2027 06:45:11.006             2.404           458.969
       321   11 Jun 2027 06:45:34.708   11 Jun 2027 06:45:36.721             2.013           695.281
       322   11 Jun 2027 06:46:40.885   11 Jun 2027 06:46:44.578             3.693          1737.344
       323   11 Jun 2027 06:47:11.731   11 Jun 2027 06:47:13.690             1.959           616.938
       324   11 Jun 2027 06:47:55.245   11 Jun 2027 06:48:01.895             6.650           268.187
       325   11 Jun 2027 06:48:20.038   11 Jun 2027 06:48:22.028             1.990           365.500
       326   11 Jun 2027 06:48:37.769   11 Jun 2027 06:48:42.596             4.827           245.844
       327   11 Jun 2027 06:49:02.703   11 Jun 2027 06:49:05.029             2.326           624.094
       328   11 Jun 2027 06:49:36.097   11 Jun 2027 06:49:37.691             1.594           691.344
       329   11 Jun 2027 06:50:14.211   11 Jun 2027 06:50:18.347             4.136           705.406
       330   11 Jun 2027 08:19:08.647   11 Jun 2027 08:19:10.742             2.095           929.875
       331   11 Jun 2027 08:20:57.216   11 Jun 2027 08:21:04.137             6.921          1847.000
       332   11 Jun 2027 08:23:35.917   11 Jun 2027 08:23:44.079             8.162           765.094
       333   11 Jun 2027 08:24:21.285   11 Jun 2027 08:24:25.050             3.765          1026.094
       334   11 Jun 2027 08:25:13.769   11 Jun 2027 08:25:14.779             1.010           458.438
       335   11 Jun 2027 08:25:28.991   11 Jun 2027 08:25:30.322             1.331           444.125
       336   11 Jun 2027 08:26:13.854   11 Jun 2027 08:26:16.955             3.101           986.844
       337   11 Jun 2027 09:56:03.637   11 Jun 2027 09:56:15.146            11.509          5688.969
       338   11 Jun 2027 09:59:11.415   11 Jun 2027 09:59:15.563             4.148           859.594
       339   11 Jun 2027 10:00:20.440   11 Jun 2027 10:00:24.373             3.933          1099.031
       340   11 Jun 2027 10:00:34.526   11 Jun 2027 10:00:36.808             2.282           317.281
       341   11 Jun 2027 10:00:52.727   11 Jun 2027 10:00:54.204             1.477           497.469
       342   11 Jun 2027 10:01:20.416   11 Jun 2027 10:01:24.603             4.187           420.000
       343   11 Jun 2027 10:01:56.339   11 Jun 2027 10:01:58.422             2.083           219.594
       344   11 Jun 2027 10:02:24.320   11 Jun 2027 10:02:27.067             2.747           793.531
       345   11 Jun 2027 11:33:11.191   11 Jun 2027 11:33:22.239            11.048          5389.406
       346   11 Jun 2027 11:34:09.128   11 Jun 2027 11:34:14.317             5.189           103.156
       347   11 Jun 2027 11:34:36.358   11 Jun 2027 11:34:39.380             3.022           688.781
       348   11 Jun 2027 11:35:54.740   11 Jun 2027 11:36:04.200             9.460          2026.781
       349   11 Jun 2027 11:36:53.371   11 Jun 2027 11:36:55.043             1.672           797.156
       350   11 Jun 2027 11:38:04.592   11 Jun 2027 11:38:05.107             0.515           257.500
       351   12 Jun 2027 03:44:15.959   12 Jun 2027 03:44:32.285            16.326          8163.000
       352   12 Jun 2027 05:20:30.871   12 Jun 2027 05:23:46.320           195.449         97724.500
       353   12 Jun 2027 06:54:03.221   12 Jun 2027 06:55:37.435            94.214         46456.437
       354   12 Jun 2027 06:56:25.257   12 Jun 2027 06:56:28.912             3.655           227.594
       355   12 Jun 2027 06:56:45.706   12 Jun 2027 06:56:49.963             4.257           470.781
       356   12 Jun 2027 06:57:22.942   12 Jun 2027 06:57:26.170             3.228           784.031
       357   12 Jun 2027 06:58:50.991   12 Jun 2027 06:58:58.543             7.552          2267.375
       358   12 Jun 2027 06:59:27.971   12 Jun 2027 06:59:27.971             0.000             0.000
       359   12 Jun 2027 06:59:32.567   12 Jun 2027 06:59:35.445             2.878           562.344
       360   12 Jun 2027 07:00:55.300   12 Jun 2027 07:00:59.900             4.600          2300.000
       361   12 Jun 2027 07:01:33.364   12 Jun 2027 07:01:37.187             3.823          1241.219
       362   12 Jun 2027 07:02:34.971   12 Jun 2027 07:02:36.413             1.442           721.000
       363   12 Jun 2027 08:31:35.823   12 Jun 2027 08:31:43.377             7.554          2535.156
       364   12 Jun 2027 08:33:14.555   12 Jun 2027 08:33:15.316             0.761            46.656
       365   12 Jun 2027 08:36:30.871   12 Jun 2027 08:36:32.512             1.641           640.875
       366   12 Jun 2027 08:37:08.481   12 Jun 2027 08:37:13.351             4.870           383.156
       367   12 Jun 2027 08:37:28.270   12 Jun 2027 08:37:28.482             0.212            65.906
       368   12 Jun 2027 08:37:59.420   12 Jun 2027 08:38:06.711             7.291           490.000
       369   12 Jun 2027 10:08:30.509   12 Jun 2027 10:08:46.457            15.948          6282.312
       370   12 Jun 2027 10:08:52.188   12 Jun 2027 10:08:52.601             0.413           179.094
       371   12 Jun 2027 10:11:55.055   12 Jun 2027 10:11:56.769             1.714           493.750
       372   12 Jun 2027 10:12:10.992   12 Jun 2027 10:12:12.314             1.322           444.469
       373   12 Jun 2027 10:12:14.705   12 Jun 2027 10:12:19.329             4.624            74.719
       374   12 Jun 2027 10:12:25.543   12 Jun 2027 10:12:26.132             0.589           188.219
       375   12 Jun 2027 10:12:37.729   12 Jun 2027 10:12:39.347             1.618           288.406
       376   12 Jun 2027 10:13:34.189   12 Jun 2027 10:13:36.324             2.135           993.125
       377   12 Jun 2027 10:13:58.265   12 Jun 2027 10:14:02.959             4.694           247.875
       378   12 Jun 2027 10:14:03.419   12 Jun 2027 10:14:03.581             0.162            14.375
       379   12 Jun 2027 11:45:24.930   12 Jun 2027 11:45:35.435            10.505          5186.906
       380   12 Jun 2027 11:47:33.947   12 Jun 2027 11:47:37.854             3.907          1217.969
       381   12 Jun 2027 11:48:32.747   12 Jun 2027 11:48:39.577             6.830           235.781
       382   12 Jun 2027 11:49:52.911   12 Jun 2027 11:49:53.772             0.861           144.063
       383   13 Jun 2027 03:56:07.746   13 Jun 2027 03:56:57.543            49.797         24898.500
       384   13 Jun 2027 05:32:34.933   13 Jun 2027 05:34:40.852           125.919         62959.500
       385   13 Jun 2027 05:35:29.378   13 Jun 2027 05:35:59.095            29.717         14858.500
       386   13 Jun 2027 07:04:42.961   13 Jun 2027 07:04:53.354            10.393          5196.500
       387   13 Jun 2027 07:06:41.946   13 Jun 2027 07:08:16.823            94.877         46982.688
       388   13 Jun 2027 07:08:35.403   13 Jun 2027 07:08:37.661             2.258           580.625
       389   13 Jun 2027 07:08:54.554   13 Jun 2027 07:08:56.777             2.223           527.906
       390   13 Jun 2027 07:09:19.149   13 Jun 2027 07:09:21.865             2.716           214.656
       391   13 Jun 2027 07:10:49.222   13 Jun 2027 07:10:55.121             5.899          2014.375
       392   13 Jun 2027 07:11:17.272   13 Jun 2027 07:11:21.175             3.903           188.219
       393   13 Jun 2027 07:12:12.481   13 Jun 2027 07:12:15.035             2.554          1131.313
       394   13 Jun 2027 07:13:09.751   13 Jun 2027 07:13:11.293             1.542           676.438
       395   13 Jun 2027 07:13:28.974   13 Jun 2027 07:13:29.761             0.787           393.500
       396   13 Jun 2027 07:13:32.886   13 Jun 2027 07:13:34.243             1.357            66.438
       397   13 Jun 2027 07:13:46.598   13 Jun 2027 07:13:50.384             3.786           222.281
       398   13 Jun 2027 07:14:23.400   13 Jun 2027 07:14:25.670             2.270           898.469
       399   13 Jun 2027 08:43:40.399   13 Jun 2027 08:43:49.827             9.428          4654.469
       400   13 Jun 2027 08:46:18.792   13 Jun 2027 08:46:24.710             5.918          1577.781
       401   13 Jun 2027 08:46:34.871   13 Jun 2027 08:46:36.459             1.588            83.531
       402   13 Jun 2027 08:46:44.393   13 Jun 2027 08:46:46.251             1.858           131.406
       403   13 Jun 2027 08:49:26.673   13 Jun 2027 08:49:32.582             5.909          2679.719
       404   13 Jun 2027 08:50:03.107   13 Jun 2027 08:50:05.870             2.763           953.906
       405   13 Jun 2027 10:21:11.427   13 Jun 2027 10:21:23.716            12.289          5634.219
       406   13 Jun 2027 10:24:14.147   13 Jun 2027 10:24:18.124             3.977           293.781
       407   13 Jun 2027 10:24:33.438   13 Jun 2027 10:24:37.715             4.277           450.500
       408   13 Jun 2027 10:24:37.758   13 Jun 2027 10:24:38.050             0.292             1.344
       409   13 Jun 2027 10:24:56.664   13 Jun 2027 10:24:58.421             1.757           513.219
       410   13 Jun 2027 11:57:29.838   13 Jun 2027 11:57:45.383            15.545          7712.875
