uniorb/output/strategy_4/Camera/Camera_KinoSat_111403.txt

KinoSat_111403
-------------------------
    Access    *     Start Time (UTCG)     *     Stop Time (UTCG)  *   Duration (s) *   Data (Mbytes)
         1   01 Jun 2027 03:42:41.616   01 Jun 2027 03:45:07.387           145.771         72885.500
         2   01 Jun 2027 03:45:52.972   01 Jun 2027 03:45:59.288             6.316          3158.000
         3   01 Jun 2027 03:46:41.047   01 Jun 2027 03:46:47.696             6.649          3324.500
         4   01 Jun 2027 03:49:39.835   01 Jun 2027 03:49:41.255             1.420           710.000
         5   01 Jun 2027 05:07:03.284   01 Jun 2027 05:08:06.033            62.749         31374.500
         6   01 Jun 2027 05:19:16.949   01 Jun 2027 05:19:48.665            31.716         15858.000
         7   01 Jun 2027 06:41:13.105   01 Jun 2027 06:42:27.961            74.856         37428.000
         8   01 Jun 2027 06:43:28.787   01 Jun 2027 06:43:46.511            17.724          8862.000
         9   01 Jun 2027 08:16:01.282   01 Jun 2027 08:18:02.725           121.443         60721.500
        10   01 Jun 2027 08:18:48.736   01 Jun 2027 08:19:02.550            13.814          6907.000
        11   01 Jun 2027 08:23:23.748   01 Jun 2027 08:23:23.748             0.000             0.000
        12   01 Jun 2027 08:24:55.561   01 Jun 2027 08:24:55.760             0.199            99.500
        13   01 Jun 2027 09:53:50.244   01 Jun 2027 09:55:54.044           123.800         61900.000
        14   01 Jun 2027 09:59:50.202   01 Jun 2027 10:00:50.539            60.337         30168.500
        15   01 Jun 2027 11:30:34.639   01 Jun 2027 11:30:55.839            21.200         10600.000
        16   01 Jun 2027 11:31:04.360   01 Jun 2027 11:31:22.737            18.377          9188.500
        17   01 Jun 2027 11:31:33.044   01 Jun 2027 11:31:44.147            11.103          5551.500
        18   01 Jun 2027 11:32:17.024   01 Jun 2027 11:34:01.472           104.448         52224.000
        19   01 Jun 2027 11:34:59.770   01 Jun 2027 11:34:59.934             0.164            82.000
        20   01 Jun 2027 11:35:09.219   01 Jun 2027 11:35:16.014             6.795          3397.500
        21   01 Jun 2027 11:36:55.478   01 Jun 2027 11:36:55.780             0.302           151.000
        22   02 Jun 2027 03:55:00.883   02 Jun 2027 03:57:08.724           127.841         63920.500
        23   02 Jun 2027 03:57:53.833   02 Jun 2027 03:58:13.634            19.801          9900.500
        24   02 Jun 2027 05:19:02.413   02 Jun 2027 05:20:02.980            60.567         30283.500
        25   02 Jun 2027 06:54:59.212   02 Jun 2027 06:58:52.879           233.667        116833.500
        26   02 Jun 2027 08:28:49.985   02 Jun 2027 08:31:22.439           152.454         76227.000
        27   02 Jun 2027 08:32:36.042   02 Jun 2027 08:33:30.207            54.165         27082.500
        28   02 Jun 2027 08:36:37.621   02 Jun 2027 08:37:15.672            38.051         15562.063
        29   02 Jun 2027 10:05:56.850   02 Jun 2027 10:06:15.111            18.261          8688.656
        30   02 Jun 2027 10:07:30.246   02 Jun 2027 10:07:32.029             1.783           495.281
        31   02 Jun 2027 10:07:58.610   02 Jun 2027 10:07:59.943             1.333           430.156
        32   02 Jun 2027 10:09:50.172   02 Jun 2027 10:09:57.381             7.209          2225.156
        33   02 Jun 2027 10:10:22.143   02 Jun 2027 10:10:25.986             3.843           570.875
        34   02 Jun 2027 10:10:57.109   02 Jun 2027 10:10:57.109             0.000             0.000
        35   02 Jun 2027 10:11:11.782   02 Jun 2027 10:11:20.381             8.599          1394.031
        36   02 Jun 2027 10:11:40.924   02 Jun 2027 10:11:42.590             1.666           641.969
        37   02 Jun 2027 10:11:59.828   02 Jun 2027 10:12:06.012             6.184           346.844
        38   02 Jun 2027 10:12:40.502   02 Jun 2027 10:12:42.172             1.670           773.281
        39   02 Jun 2027 10:12:45.739   02 Jun 2027 10:12:46.066             0.327           111.469
        40   02 Jun 2027 10:12:51.089   02 Jun 2027 10:12:51.338             0.249            10.094
        41   02 Jun 2027 11:42:59.514   02 Jun 2027 11:43:11.899            12.385          5682.875
        42   02 Jun 2027 11:43:24.512   02 Jun 2027 11:43:25.460             0.948           394.156
        43   02 Jun 2027 11:45:20.865   02 Jun 2027 11:45:25.142             4.277          1919.937
        44   02 Jun 2027 11:46:32.512   02 Jun 2027 11:46:36.222             3.710          1696.656
        45   02 Jun 2027 11:47:14.941   02 Jun 2027 11:47:21.915             6.974           959.094
        46   02 Jun 2027 11:47:36.585   02 Jun 2027 11:47:45.982             9.397           311.063
        47   02 Jun 2027 11:48:20.540   02 Jun 2027 11:48:22.776             2.236           127.313
        48   02 Jun 2027 11:48:45.166   02 Jun 2027 11:48:46.380             1.214           576.719
        49   03 Jun 2027 04:07:35.467   03 Jun 2027 04:10:51.616           196.149         98074.500
        50   03 Jun 2027 04:11:37.414   03 Jun 2027 04:11:42.778             5.364          2682.000
        51   03 Jun 2027 05:30:56.811   03 Jun 2027 05:31:49.151            52.340         26170.000
        52   03 Jun 2027 07:07:21.121   03 Jun 2027 07:08:41.651            80.530         39572.031
        53   03 Jun 2027 07:09:20.315   03 Jun 2027 07:09:24.515             4.200          1208.250
        54   03 Jun 2027 07:09:34.813   03 Jun 2027 07:09:38.411             3.598           265.812
        55   03 Jun 2027 07:09:46.417   03 Jun 2027 07:09:46.606             0.189            35.031
        56   03 Jun 2027 07:10:19.950   03 Jun 2027 07:10:19.950             0.000             0.000
        57   03 Jun 2027 08:41:02.190   03 Jun 2027 08:41:09.601             7.411          3083.281
        58   03 Jun 2027 08:43:01.606   03 Jun 2027 08:43:03.144             1.538           434.062
        59   03 Jun 2027 08:44:04.235   03 Jun 2027 08:44:07.859             3.624          1487.969
        60   03 Jun 2027 08:44:41.787   03 Jun 2027 08:44:44.543             2.756          1060.250
        61   03 Jun 2027 08:46:14.520   03 Jun 2027 08:46:14.520             0.000             0.000
        62   03 Jun 2027 08:47:03.572   03 Jun 2027 08:47:13.993            10.421          3252.281
        63   03 Jun 2027 08:47:59.423   03 Jun 2027 08:48:03.351             3.928           395.187
        64   03 Jun 2027 08:48:48.116   03 Jun 2027 08:48:57.783             9.667          1169.094
        65   03 Jun 2027 10:18:23.127   03 Jun 2027 10:18:37.715            14.588          5894.781
        66   03 Jun 2027 10:20:22.619   03 Jun 2027 10:20:24.941             2.322           121.281
        67   03 Jun 2027 10:21:07.097   03 Jun 2027 10:21:08.715             1.618           429.156
        68   03 Jun 2027 10:21:35.539   03 Jun 2027 10:21:37.512             1.973           334.094
        69   03 Jun 2027 10:22:53.534   03 Jun 2027 10:22:59.820             6.286          1554.313
        70   03 Jun 2027 10:23:27.470   03 Jun 2027 10:23:30.782             3.312           506.750
        71   03 Jun 2027 10:24:33.704   03 Jun 2027 10:24:37.149             3.445          1285.656
        72   03 Jun 2027 10:24:56.380   03 Jun 2027 10:24:56.830             0.450           182.063
        73   03 Jun 2027 11:55:20.121   03 Jun 2027 11:55:39.508            19.387          6983.937
        74   03 Jun 2027 11:57:09.377   03 Jun 2027 11:57:10.990             1.613           381.188
        75   03 Jun 2027 11:57:29.462   03 Jun 2027 11:57:32.863             3.401           406.094
        76   03 Jun 2027 11:58:32.397   03 Jun 2027 11:58:36.245             3.848          1166.062
        77   03 Jun 2027 11:59:05.992   03 Jun 2027 11:59:14.143             8.151           929.594
        78   03 Jun 2027 11:59:34.544   03 Jun 2027 11:59:37.075             2.531           384.063
        79   03 Jun 2027 11:59:59.149   03 Jun 2027 12:00:00.000             0.851           425.500
        80   04 Jun 2027 04:19:50.151   04 Jun 2027 04:22:06.712           136.561         68280.500
        81   04 Jun 2027 04:23:09.068   04 Jun 2027 04:23:21.514            12.446          6223.000
        82   04 Jun 2027 04:23:35.169   04 Jun 2027 04:23:50.171            15.002          7501.000
        83   04 Jun 2027 05:42:44.205   04 Jun 2027 05:43:41.387            57.182         28591.000
        84   04 Jun 2027 07:19:23.071   04 Jun 2027 07:20:57.074            94.003         46696.250
        85   04 Jun 2027 07:21:11.046   04 Jun 2027 07:21:11.949             0.903            44.187
        86   04 Jun 2027 07:21:26.723   04 Jun 2027 07:21:26.723             0.000             0.000
        87   04 Jun 2027 07:22:09.043   04 Jun 2027 07:22:12.892             3.849          1532.281
        88   04 Jun 2027 08:54:22.640   04 Jun 2027 08:54:30.165             7.525          3036.437
        89   04 Jun 2027 08:55:24.433   04 Jun 2027 08:55:25.862             1.429           488.406
        90   04 Jun 2027 08:56:09.576   04 Jun 2027 08:56:17.890             8.314           937.688
        91   04 Jun 2027 08:57:38.395   04 Jun 2027 08:57:41.660             3.265          1505.281
        92   04 Jun 2027 08:58:20.266   04 Jun 2027 08:58:23.458             3.192           748.687
        93   04 Jun 2027 08:59:56.102   04 Jun 2027 09:00:01.285             5.183          2528.313
        94   04 Jun 2027 09:00:31.146   04 Jun 2027 09:00:35.059             3.913           286.094
        95   04 Jun 2027 09:01:05.902   04 Jun 2027 09:01:06.926             1.024            79.500
        96   04 Jun 2027 10:30:30.802   04 Jun 2027 10:30:40.759             9.957          4538.250
        97   04 Jun 2027 10:33:08.620   04 Jun 2027 10:33:09.641             1.021           274.281
        98   04 Jun 2027 10:33:37.526   04 Jun 2027 10:33:42.519             4.993           644.938
        99   04 Jun 2027 10:35:18.440   04 Jun 2027 10:35:22.097             3.657           335.000
       100   04 Jun 2027 10:36:24.754   04 Jun 2027 10:36:29.673             4.919          1597.031
       101   04 Jun 2027 10:36:40.118   04 Jun 2027 10:36:42.973             2.855           326.406
       102   04 Jun 2027 10:36:53.042   04 Jun 2027 10:36:55.493             2.451           314.656
       103   05 Jun 2027 04:31:36.355   05 Jun 2027 04:32:07.491            31.136         15568.000
       104   05 Jun 2027 04:32:25.911   05 Jun 2027 04:34:16.653           110.742         55371.000
       105   05 Jun 2027 04:35:13.700   05 Jun 2027 04:35:27.835            14.135          7067.500
       106   05 Jun 2027 05:54:58.737   05 Jun 2027 05:55:54.374            55.637         27818.500
       107   05 Jun 2027 07:31:30.525   05 Jun 2027 07:33:02.592            92.067         45889.437
       108   05 Jun 2027 07:33:15.249   05 Jun 2027 07:33:15.850             0.601            53.125
       109   05 Jun 2027 07:34:22.600   05 Jun 2027 07:34:27.528             4.928          1312.500
       110   05 Jun 2027 09:06:40.714   05 Jun 2027 09:06:49.168             8.454          4219.594
       111   05 Jun 2027 09:08:03.385   05 Jun 2027 09:08:10.765             7.380          2033.781
       112   05 Jun 2027 09:09:38.152   05 Jun 2027 09:09:41.016             2.864          1146.000
       113   05 Jun 2027 09:09:58.978   05 Jun 2027 09:09:58.978             0.000             0.000
       114   05 Jun 2027 09:10:35.726   05 Jun 2027 09:10:38.318             2.592          1225.875
       115   05 Jun 2027 09:11:58.931   05 Jun 2027 09:12:01.369             2.438          1058.250
       116   05 Jun 2027 09:12:28.286   05 Jun 2027 09:12:29.724             1.438           324.969
       117   05 Jun 2027 09:13:06.185   05 Jun 2027 09:13:08.908             2.723           324.031
       118   05 Jun 2027 10:43:04.792   05 Jun 2027 10:43:14.913            10.121          5037.219
       119   05 Jun 2027 10:44:58.129   05 Jun 2027 10:44:59.118             0.989           487.750
       120   05 Jun 2027 10:46:36.765   05 Jun 2027 10:46:42.246             5.481          2545.313
       121   05 Jun 2027 10:47:17.689   05 Jun 2027 10:47:25.646             7.957           744.781
       122   05 Jun 2027 10:48:18.912   05 Jun 2027 10:48:22.123             3.211          1247.656
       123   05 Jun 2027 10:48:35.902   05 Jun 2027 10:48:40.399             4.497           347.063
       124   05 Jun 2027 10:48:51.027   05 Jun 2027 10:48:54.893             3.866            87.687
       125   06 Jun 2027 03:05:23.398   06 Jun 2027 03:05:30.316             6.918          3459.000
       126   06 Jun 2027 03:06:24.340   06 Jun 2027 03:07:07.866            43.526         21763.000
       127   06 Jun 2027 03:07:14.407   06 Jun 2027 03:07:19.973             5.566          2783.000
       128   06 Jun 2027 03:08:31.742   06 Jun 2027 03:08:43.780            12.038          6019.000
       129   06 Jun 2027 03:08:48.477   06 Jun 2027 03:09:00.831            12.354          6177.000
       130   06 Jun 2027 03:09:18.661   06 Jun 2027 03:09:21.247             2.586          1293.000
       131   06 Jun 2027 03:10:08.115   06 Jun 2027 03:10:20.329            12.214          6107.000
       132   06 Jun 2027 03:10:34.343   06 Jun 2027 03:10:58.609            24.266         12133.000
       133   06 Jun 2027 03:12:57.096   06 Jun 2027 03:13:00.793             3.697          1848.500
       134   06 Jun 2027 03:13:24.253   06 Jun 2027 03:14:21.302            57.049         28524.500
       135   06 Jun 2027 04:43:33.202   06 Jun 2027 04:44:12.093            38.891         19445.500
       136   06 Jun 2027 04:44:34.471   06 Jun 2027 04:46:28.763           114.292         57122.969
       137   06 Jun 2027 06:07:28.665   06 Jun 2027 06:07:54.507            25.842         11946.594
       138   06 Jun 2027 06:09:46.023   06 Jun 2027 06:09:49.059             3.036          1518.000
       139   06 Jun 2027 07:43:23.434   06 Jun 2027 07:43:32.850             9.416          3905.938
       140   06 Jun 2027 07:44:35.063   06 Jun 2027 07:44:42.033             6.970          1887.000
       141   06 Jun 2027 07:45:03.805   06 Jun 2027 07:45:05.951             2.146           278.625
       142   06 Jun 2027 07:45:56.955   06 Jun 2027 07:45:59.677             2.722          1310.281
       143   06 Jun 2027 07:46:39.066   06 Jun 2027 07:46:41.750             2.684          1230.906
       144   06 Jun 2027 07:47:08.410   06 Jun 2027 07:47:08.410             0.000             0.000
       145   06 Jun 2027 09:18:19.424   06 Jun 2027 09:18:25.516             6.092          3039.844
       146   06 Jun 2027 09:20:11.861   06 Jun 2027 09:20:18.508             6.647          2745.938
       147   06 Jun 2027 09:20:58.389   06 Jun 2027 09:21:05.045             6.656           850.125
       148   06 Jun 2027 09:21:17.550   06 Jun 2027 09:21:17.849             0.299            57.750
       149   06 Jun 2027 09:22:01.427   06 Jun 2027 09:22:04.679             3.252           862.156
       150   06 Jun 2027 09:23:55.845   06 Jun 2027 09:24:02.528             6.683          2408.781
       151   06 Jun 2027 10:54:38.635   06 Jun 2027 10:54:49.894            11.259          5230.625
       152   06 Jun 2027 10:56:45.522   06 Jun 2027 10:56:50.430             4.908          1796.000
       153   06 Jun 2027 10:57:07.560   06 Jun 2027 10:57:08.227             0.667           119.406
       154   06 Jun 2027 10:57:33.299   06 Jun 2027 10:57:37.903             4.604           783.500
       155   06 Jun 2027 10:57:49.872   06 Jun 2027 10:57:50.878             1.006           374.031
       156   06 Jun 2027 10:58:38.795   06 Jun 2027 10:58:41.989             3.194          1049.875
       157   06 Jun 2027 10:59:17.678   06 Jun 2027 10:59:19.391             1.713           711.688
       158   06 Jun 2027 11:00:25.526   06 Jun 2027 11:00:30.351             4.825          1373.469
       159   06 Jun 2027 11:00:35.364   06 Jun 2027 11:00:37.040             1.676            31.250
       160   06 Jun 2027 11:01:00.435   06 Jun 2027 11:01:02.011             1.576           731.094
       161   07 Jun 2027 03:18:27.994   07 Jun 2027 03:21:00.736           152.742         76371.000
       162   07 Jun 2027 03:21:07.559   07 Jun 2027 03:21:31.429            23.870         11935.000
       163   07 Jun 2027 03:24:56.889   07 Jun 2027 03:25:12.647            15.758          7879.000
       164   07 Jun 2027 03:26:03.323   07 Jun 2027 03:26:05.123             1.800           900.000
       165   07 Jun 2027 04:44:16.957   07 Jun 2027 04:44:48.231            31.274         15637.000
       166   07 Jun 2027 04:55:29.200   07 Jun 2027 04:57:03.999            94.799         46677.406
       167   07 Jun 2027 04:58:24.408   07 Jun 2027 04:58:26.325             1.917           546.156
       168   07 Jun 2027 06:18:05.978   07 Jun 2027 06:18:13.027             7.049          3524.500
       169   07 Jun 2027 06:19:04.121   07 Jun 2027 06:19:07.517             3.396          1687.156
       170   07 Jun 2027 06:19:26.370   07 Jun 2027 06:19:35.759             9.389           545.469
       171   07 Jun 2027 06:20:40.841   07 Jun 2027 06:20:47.203             6.362          1696.938
       172   07 Jun 2027 06:22:23.562   07 Jun 2027 06:22:29.067             5.505          2349.531
       173   07 Jun 2027 07:53:41.575   07 Jun 2027 07:53:47.223             5.648          1624.250
       174   07 Jun 2027 07:55:11.529   07 Jun 2027 07:55:16.373             4.844          1926.187
       175   07 Jun 2027 07:56:10.780   07 Jun 2027 07:56:15.955             5.175           722.250
       176   07 Jun 2027 07:56:50.656   07 Jun 2027 07:56:53.571             2.915          1084.406
       177   07 Jun 2027 07:58:03.516   07 Jun 2027 07:58:08.798             5.282           551.344
       178   07 Jun 2027 07:58:17.271   07 Jun 2027 07:58:17.685             0.414           117.125
       179   07 Jun 2027 07:59:17.555   07 Jun 2027 07:59:23.626             6.071          1598.375
       180   07 Jun 2027 07:59:24.518   07 Jun 2027 07:59:26.265             1.747             5.656
       181   07 Jun 2027 09:29:52.807   07 Jun 2027 09:29:58.510             5.703          2836.188
       182   07 Jun 2027 09:30:44.224   07 Jun 2027 09:30:49.069             4.845           639.156
       183   07 Jun 2027 09:33:03.469   07 Jun 2027 09:33:07.705             4.236          1598.875
       184   07 Jun 2027 09:33:33.064   07 Jun 2027 09:33:36.061             2.997           160.188
       185   07 Jun 2027 09:34:03.616   07 Jun 2027 09:34:06.404             2.788            61.531
       186   07 Jun 2027 09:35:10.205   07 Jun 2027 09:35:12.345             2.140           987.656
       187   07 Jun 2027 09:35:46.882   07 Jun 2027 09:35:49.938             3.056           548.688
       188   07 Jun 2027 09:35:51.719   07 Jun 2027 09:35:54.686             2.967            42.594
       189   07 Jun 2027 09:36:45.399   07 Jun 2027 09:36:50.097             4.698          1584.781
       190   07 Jun 2027 09:37:26.483   07 Jun 2027 09:37:27.800             1.317           533.438
       191   07 Jun 2027 11:06:58.613   07 Jun 2027 11:07:16.436            17.823          7426.937
       192   07 Jun 2027 11:09:03.091   07 Jun 2027 11:09:04.469             1.378            69.938
       193   07 Jun 2027 11:09:34.915   07 Jun 2027 11:09:41.096             6.181           764.438
       194   07 Jun 2027 11:10:09.076   07 Jun 2027 11:10:11.001             1.925           835.156
       195   07 Jun 2027 11:10:46.051   07 Jun 2027 11:10:47.750             1.699           272.094
       196   07 Jun 2027 11:11:19.036   07 Jun 2027 11:11:28.755             9.719           713.594
       197   07 Jun 2027 11:11:47.302   07 Jun 2027 11:11:50.458             3.156           562.344
       198   07 Jun 2027 11:12:57.093   07 Jun 2027 11:13:02.038             4.945          2082.344
       199   08 Jun 2027 03:30:57.499   08 Jun 2027 03:34:20.100           202.601        101300.500
       200   08 Jun 2027 03:34:31.644   08 Jun 2027 03:34:37.020             5.376          2688.000
       201   08 Jun 2027 03:35:06.657   08 Jun 2027 03:35:07.349             0.692           346.000
       202   08 Jun 2027 03:36:25.926   08 Jun 2027 03:36:51.945            26.019         13009.500
       203   08 Jun 2027 03:37:43.808   08 Jun 2027 03:37:45.895             2.087          1043.500
       204   08 Jun 2027 04:55:48.995   08 Jun 2027 04:55:56.628             7.633          3816.500
       205   08 Jun 2027 05:07:31.795   08 Jun 2027 05:08:38.563            66.768         33384.000
       206   08 Jun 2027 06:29:45.469   08 Jun 2027 06:30:14.087            28.618         13481.219
       207   08 Jun 2027 06:31:45.708   08 Jun 2027 06:31:51.064             5.356          2059.406
       208   08 Jun 2027 06:32:00.899   08 Jun 2027 06:32:02.578             1.679           262.250
       209   08 Jun 2027 06:33:50.263   08 Jun 2027 06:33:54.110             3.847          1923.500
       210   08 Jun 2027 06:34:39.524   08 Jun 2027 06:34:49.448             9.924          2580.875
       211   08 Jun 2027 08:04:47.982   08 Jun 2027 08:04:55.351             7.369          2226.938
       212   08 Jun 2027 08:05:42.607   08 Jun 2027 08:05:45.788             3.181            44.813
       213   08 Jun 2027 08:06:26.288   08 Jun 2027 08:06:29.919             3.631           628.844
       214   08 Jun 2027 08:07:45.589   08 Jun 2027 08:07:49.789             4.200          1578.813
       215   08 Jun 2027 08:08:18.665   08 Jun 2027 08:08:21.409             2.744           751.781
       216   08 Jun 2027 08:08:49.356   08 Jun 2027 08:09:04.616            15.260           529.656
       217   08 Jun 2027 08:10:20.590   08 Jun 2027 08:10:22.258             1.668           657.594
       218   08 Jun 2027 08:11:17.727   08 Jun 2027 08:11:22.954             5.227          1548.188
       219   08 Jun 2027 09:42:12.390   08 Jun 2027 09:42:22.028             9.638          3575.594
       220   08 Jun 2027 09:44:12.175   08 Jun 2027 09:44:21.114             8.939          2697.031
       221   08 Jun 2027 09:45:24.823   08 Jun 2027 09:45:30.746             5.923           610.844
       222   08 Jun 2027 09:45:53.795   08 Jun 2027 09:45:57.972             4.177           400.594
       223   08 Jun 2027 09:46:52.706   08 Jun 2027 09:46:57.470             4.764          1475.063
       224   08 Jun 2027 09:48:18.916   08 Jun 2027 09:48:22.211             3.295          1522.250
       225   08 Jun 2027 09:48:24.252   08 Jun 2027 09:48:25.380             1.128            32.125
       226   08 Jun 2027 11:19:00.228   08 Jun 2027 11:19:11.709            11.481          5039.844
       227   08 Jun 2027 11:19:57.771   08 Jun 2027 11:20:03.669             5.898          1337.719
       228   08 Jun 2027 11:21:27.062   08 Jun 2027 11:21:32.541             5.479          1631.313
       229   08 Jun 2027 11:22:33.398   08 Jun 2027 11:22:42.435             9.037          1610.156
       230   08 Jun 2027 11:22:55.146   08 Jun 2027 11:22:56.698             1.552           295.063
       231   08 Jun 2027 11:23:21.829   08 Jun 2027 11:23:25.607             3.778           753.813
       232   08 Jun 2027 11:23:46.472   08 Jun 2027 11:23:48.884             2.412           652.031
       233   08 Jun 2027 11:24:20.413   08 Jun 2027 11:24:25.753             5.340           941.250
       234   08 Jun 2027 11:25:01.294   08 Jun 2027 11:25:05.086             3.792           712.094
       235   09 Jun 2027 03:42:58.314   09 Jun 2027 03:45:57.887           179.573         89786.500
       236   09 Jun 2027 03:46:17.803   09 Jun 2027 03:46:30.192            12.389          6194.500
       237   09 Jun 2027 03:46:56.804   09 Jun 2027 03:47:04.089             7.285          3642.500
       238   09 Jun 2027 03:49:50.200   09 Jun 2027 03:49:50.200             0.000             0.000
       239   09 Jun 2027 03:49:56.738   09 Jun 2027 03:50:03.439             6.701          3350.500
       240   09 Jun 2027 05:07:20.305   09 Jun 2027 05:07:59.580            39.275         19637.500
       241   09 Jun 2027 05:19:33.414   09 Jun 2027 05:20:04.982            31.568         15784.000
       242   09 Jun 2027 06:41:28.402   09 Jun 2027 06:42:01.120            32.718         16359.000
       243   09 Jun 2027 06:42:19.136   09 Jun 2027 06:42:22.794             3.658          1686.594
       244   09 Jun 2027 06:43:31.485   09 Jun 2027 06:43:33.985             2.500          1215.563
       245   09 Jun 2027 06:43:43.423   09 Jun 2027 06:43:45.081             1.658           163.156
       246   09 Jun 2027 06:44:12.167   09 Jun 2027 06:44:12.167             0.000             0.000
       247   09 Jun 2027 06:44:44.549   09 Jun 2027 06:44:51.063             6.514          1858.375
       248   09 Jun 2027 06:46:25.448   09 Jun 2027 06:46:33.137             7.689          2193.375
       249   09 Jun 2027 08:16:16.623   09 Jun 2027 08:16:21.437             4.814          2238.531
       250   09 Jun 2027 08:17:08.145   09 Jun 2027 08:17:11.182             3.037          1267.781
       251   09 Jun 2027 08:18:23.950   09 Jun 2027 08:18:23.950             0.000             0.000
       252   09 Jun 2027 08:19:21.299   09 Jun 2027 08:19:25.942             4.643          2013.469
       253   09 Jun 2027 08:20:05.382   09 Jun 2027 08:20:08.941             3.559           777.531
       254   09 Jun 2027 08:20:50.195   09 Jun 2027 08:20:54.448             4.253           906.844
       255   09 Jun 2027 08:22:08.837   09 Jun 2027 08:22:11.145             2.308           763.719
       256   09 Jun 2027 08:23:02.381   09 Jun 2027 08:23:04.690             2.309          1017.125
       257   09 Jun 2027 08:23:22.415   09 Jun 2027 08:23:23.879             1.464           553.906
       258   09 Jun 2027 08:24:10.033   09 Jun 2027 08:24:14.516             4.483          1442.313
       259   09 Jun 2027 08:24:38.587   09 Jun 2027 08:24:40.238             1.651           587.094
       260   09 Jun 2027 08:25:00.739   09 Jun 2027 08:25:01.944             1.205           524.531
       261   09 Jun 2027 09:54:06.509   09 Jun 2027 09:54:17.299            10.790          5202.844
       262   09 Jun 2027 09:57:09.206   09 Jun 2027 09:57:19.103             9.897          4348.313
       263   09 Jun 2027 09:58:22.280   09 Jun 2027 09:58:24.856             2.576          1191.000
       264   09 Jun 2027 09:59:09.503   09 Jun 2027 09:59:10.457             0.954           140.156
       265   09 Jun 2027 10:00:03.241   09 Jun 2027 10:00:07.917             4.676          1540.781
       266   09 Jun 2027 10:00:59.915   09 Jun 2027 10:01:04.669             4.754          1055.844
       267   09 Jun 2027 11:30:51.010   09 Jun 2027 11:31:03.437            12.427          5769.313
       268   09 Jun 2027 11:31:41.161   09 Jun 2027 11:31:47.870             6.709          1080.937
       269   09 Jun 2027 11:32:34.257   09 Jun 2027 11:32:36.577             2.320          1011.062
       270   09 Jun 2027 11:34:44.605   09 Jun 2027 11:34:50.911             6.306          1057.563
       271   09 Jun 2027 11:35:14.328   09 Jun 2027 11:35:15.405             1.077           466.594
       272   09 Jun 2027 11:35:33.802   09 Jun 2027 11:35:38.105             4.303           514.094
       273   09 Jun 2027 11:35:45.299   09 Jun 2027 11:35:52.476             7.177           224.813
       274   09 Jun 2027 11:36:27.559   09 Jun 2027 11:36:30.565             3.006          1096.344
       275   09 Jun 2027 11:37:11.423   09 Jun 2027 11:37:17.637             6.214           977.125
       276   09 Jun 2027 11:37:29.209   09 Jun 2027 11:37:36.970             7.761            16.875
       277   10 Jun 2027 03:55:19.485   10 Jun 2027 03:56:36.661            77.176         38588.000
       278   10 Jun 2027 03:57:23.347   10 Jun 2027 03:57:58.823            35.476         17738.000
       279   10 Jun 2027 03:59:14.664   10 Jun 2027 04:00:30.234            75.570         37785.000
       280   10 Jun 2027 05:19:18.632   10 Jun 2027 05:19:54.178            35.546         17773.000
       281   10 Jun 2027 06:55:15.521   10 Jun 2027 06:56:43.488            87.967         42411.094
       282   10 Jun 2027 06:57:45.424   10 Jun 2027 06:57:49.258             3.834          1854.344
       283   10 Jun 2027 06:58:00.258   10 Jun 2027 06:58:02.081             1.823           343.750
       284   10 Jun 2027 06:58:12.450   10 Jun 2027 06:58:14.016             1.566           200.281
       285   10 Jun 2027 06:58:19.551   10 Jun 2027 06:58:19.551             0.000             0.000
       286   10 Jun 2027 08:29:04.906   10 Jun 2027 08:29:12.866             7.960          2916.750
       287   10 Jun 2027 08:30:33.445   10 Jun 2027 08:30:36.274             2.829           405.062
       288   10 Jun 2027 08:31:31.463   10 Jun 2027 08:31:32.968             1.505           568.438
       289   10 Jun 2027 08:32:23.446   10 Jun 2027 08:32:28.917             5.471          1415.063
       290   10 Jun 2027 08:33:46.188   10 Jun 2027 08:33:51.439             5.251          2155.969
       291   10 Jun 2027 08:34:33.896   10 Jun 2027 08:34:36.563             2.667          1125.156
       292   10 Jun 2027 08:35:03.887   10 Jun 2027 08:35:04.830             0.943           166.188
       293   10 Jun 2027 08:35:46.635   10 Jun 2027 08:35:47.714             1.079           510.875
       294   10 Jun 2027 08:36:53.505   10 Jun 2027 08:36:58.825             5.320          1311.750
       295   10 Jun 2027 10:06:13.705   10 Jun 2027 10:06:28.349            14.644          5318.125
       296   10 Jun 2027 10:08:54.457   10 Jun 2027 10:08:57.296             2.839          1396.781
       297   10 Jun 2027 10:09:06.495   10 Jun 2027 10:09:10.439             3.944           245.844
       298   10 Jun 2027 10:09:48.630   10 Jun 2027 10:09:51.405             2.775          1165.531
       299   10 Jun 2027 10:10:20.067   10 Jun 2027 10:10:28.767             8.700           631.781
       300   10 Jun 2027 10:11:29.072   10 Jun 2027 10:11:37.785             8.713          1566.625
       301   10 Jun 2027 10:11:54.038   10 Jun 2027 10:11:55.124             1.086           496.844
       302   10 Jun 2027 10:12:14.878   10 Jun 2027 10:12:20.774             5.896           359.906
       303   10 Jun 2027 10:12:58.316   10 Jun 2027 10:13:01.005             2.689           875.125
       304   10 Jun 2027 11:43:16.516   10 Jun 2027 11:43:28.028            11.512          5719.344
       305   10 Jun 2027 11:43:41.714   10 Jun 2027 11:43:43.077             1.363           423.656
       306   10 Jun 2027 11:45:37.207   10 Jun 2027 11:45:41.890             4.683          1884.375
       307   10 Jun 2027 11:45:52.798   10 Jun 2027 11:45:54.159             1.361           340.875
       308   10 Jun 2027 11:46:34.670   10 Jun 2027 11:46:36.024             1.354           622.531
       309   10 Jun 2027 11:46:52.329   10 Jun 2027 11:46:54.014             1.685           197.344
       310   10 Jun 2027 11:47:31.917   10 Jun 2027 11:47:37.448             5.531           958.188
       311   10 Jun 2027 11:47:53.818   10 Jun 2027 11:48:00.262             6.444           291.750
       312   10 Jun 2027 11:48:38.261   10 Jun 2027 11:48:39.884             1.623           105.188
       313   10 Jun 2027 11:48:59.930   10 Jun 2027 11:49:02.103             2.173           536.062
       314   11 Jun 2027 04:07:51.056   11 Jun 2027 04:10:49.391           178.335         89167.500
       315   11 Jun 2027 04:11:08.005   11 Jun 2027 04:11:20.523            12.518          6259.000
       316   11 Jun 2027 04:11:51.974   11 Jun 2027 04:12:08.466            16.492          8246.000
       317   11 Jun 2027 05:31:12.006   11 Jun 2027 05:32:05.271            53.265         26632.500
       318   11 Jun 2027 07:07:37.065   11 Jun 2027 07:08:57.865            80.800         37650.000
       319   11 Jun 2027 07:09:36.598   11 Jun 2027 07:09:39.085             2.487          1210.406
       320   11 Jun 2027 07:09:50.405   11 Jun 2027 07:09:53.008             2.603           282.500
       321   11 Jun 2027 07:10:03.552   11 Jun 2027 07:10:04.594             1.042            37.625
       322   11 Jun 2027 07:10:36.363   11 Jun 2027 07:10:36.811             0.448           224.000
       323   11 Jun 2027 08:41:25.314   11 Jun 2027 08:41:36.478            11.164          2403.531
       324   11 Jun 2027 08:43:05.270   11 Jun 2027 08:43:08.107             2.837          1389.500
       325   11 Jun 2027 08:43:32.263   11 Jun 2027 08:43:36.894             4.631           424.344
       326   11 Jun 2027 08:44:22.123   11 Jun 2027 08:44:24.493             2.370          1185.000
       327   11 Jun 2027 08:44:36.538   11 Jun 2027 08:44:39.548             3.010           599.156
       328   11 Jun 2027 08:45:59.686   11 Jun 2027 08:46:03.793             4.107          1881.000
       329   11 Jun 2027 08:46:51.808   11 Jun 2027 08:46:54.504             2.696          1255.406
       330   11 Jun 2027 08:48:10.579   11 Jun 2027 08:48:17.896             7.317          2376.875
       331   11 Jun 2027 08:48:21.994   11 Jun 2027 08:48:24.331             2.337           128.063
       332   11 Jun 2027 08:49:05.932   11 Jun 2027 08:49:12.431             6.499          1173.813
       333   11 Jun 2027 10:18:40.187   11 Jun 2027 10:18:52.644            12.457          4358.188
       334   11 Jun 2027 10:21:40.680   11 Jun 2027 10:21:47.938             7.258          1241.062
       335   11 Jun 2027 10:23:45.147   11 Jun 2027 10:23:46.427             1.280           572.406
       336   11 Jun 2027 10:24:49.873   11 Jun 2027 10:24:55.761             5.888          1341.750
       337   11 Jun 2027 10:25:12.131   11 Jun 2027 10:25:12.363             0.232            38.031
       338   11 Jun 2027 11:55:40.840   11 Jun 2027 11:55:56.463            15.623          6093.562
       339   11 Jun 2027 11:56:42.907   11 Jun 2027 11:56:47.664             4.757          1096.656
       340   11 Jun 2027 11:57:32.707   11 Jun 2027 11:57:35.395             2.688           465.500
       341   11 Jun 2027 11:58:32.552   11 Jun 2027 11:58:33.242             0.690           277.062
       342   11 Jun 2027 11:58:41.300   11 Jun 2027 11:58:42.379             1.079            49.000
       343   11 Jun 2027 11:59:22.690   11 Jun 2027 11:59:29.034             6.344           865.906
       344   11 Jun 2027 11:59:50.125   11 Jun 2027 11:59:51.691             1.566           337.375
       345   12 Jun 2027 04:20:06.398   12 Jun 2027 04:22:23.931           137.533         68766.500
       346   12 Jun 2027 04:23:26.844   12 Jun 2027 04:23:40.049            13.205          6602.500
       347   12 Jun 2027 05:43:00.214   12 Jun 2027 05:43:55.922            55.708         27854.000
       348   12 Jun 2027 07:19:38.925   12 Jun 2027 07:21:26.803           107.878         53939.000
       349   12 Jun 2027 07:21:35.859   12 Jun 2027 07:21:37.025             1.166           496.125
       350   12 Jun 2027 07:22:25.554   12 Jun 2027 07:22:28.710             3.156          1272.031
       351   12 Jun 2027 08:54:39.835   12 Jun 2027 08:54:52.826            12.991          3047.375
       352   12 Jun 2027 08:55:24.335   12 Jun 2027 08:55:31.380             7.045           414.156
       353   12 Jun 2027 08:56:27.136   12 Jun 2027 08:56:34.317             7.181           926.563
       354   12 Jun 2027 08:57:57.604   12 Jun 2027 08:58:03.325             5.721          1545.812
       355   12 Jun 2027 08:58:35.157   12 Jun 2027 08:58:38.955             3.798           646.094
       356   12 Jun 2027 09:00:13.290   12 Jun 2027 09:00:18.985             5.695          2514.281
       357   12 Jun 2027 09:00:43.417   12 Jun 2027 09:00:50.646             7.229           108.469
       358   12 Jun 2027 09:01:24.022   12 Jun 2027 09:01:24.645             0.623            82.500
       359   12 Jun 2027 09:01:25.858   12 Jun 2027 09:01:27.909             2.051            37.906
       360   12 Jun 2027 10:30:49.692   12 Jun 2027 10:31:00.036            10.344          4788.906
       361   12 Jun 2027 10:32:57.237   12 Jun 2027 10:32:59.257             2.020           236.813
       362   12 Jun 2027 10:33:24.687   12 Jun 2027 10:33:25.769             1.082           263.313
       363   12 Jun 2027 10:33:34.433   12 Jun 2027 10:33:35.187             0.754           270.750
       364   12 Jun 2027 10:35:05.093   12 Jun 2027 10:35:09.995             4.902          2241.031
       365   12 Jun 2027 10:35:32.469   12 Jun 2027 10:35:34.122             1.653           288.625
       366   12 Jun 2027 10:36:41.132   12 Jun 2027 10:36:45.097             3.965          1558.625
       367   12 Jun 2027 10:37:23.307   12 Jun 2027 10:37:26.389             3.082           933.625
       368   13 Jun 2027 04:31:52.515   13 Jun 2027 04:32:24.490            31.975         15987.500
       369   13 Jun 2027 04:32:41.941   13 Jun 2027 04:34:33.764           111.823         55911.500
       370   13 Jun 2027 04:35:43.015   13 Jun 2027 04:35:43.522             0.507           253.500
       371   13 Jun 2027 05:55:14.538   13 Jun 2027 05:56:09.974            55.436         27718.000
       372   13 Jun 2027 05:56:19.701   13 Jun 2027 05:56:19.701             0.000             0.000
       373   13 Jun 2027 05:58:05.349   13 Jun 2027 05:58:12.590             7.241          3620.500
       374   13 Jun 2027 07:31:47.019   13 Jun 2027 07:33:19.860            92.841         45984.437
       375   13 Jun 2027 07:33:30.555   13 Jun 2027 07:33:31.462             0.907            64.281
       376   13 Jun 2027 07:34:10.328   13 Jun 2027 07:34:14.918             4.590          1214.563
       377   13 Jun 2027 07:34:46.712   13 Jun 2027 07:34:49.311             2.599           993.562
       378   13 Jun 2027 07:35:17.015   13 Jun 2027 07:35:18.431             1.416           421.344
       379   13 Jun 2027 09:06:57.525   13 Jun 2027 09:07:02.464             4.939          2435.719
       380   13 Jun 2027 09:07:13.683   13 Jun 2027 09:07:14.213             0.530           247.750
       381   13 Jun 2027 09:08:25.491   13 Jun 2027 09:08:28.451             2.960           123.781
       382   13 Jun 2027 09:09:19.609   13 Jun 2027 09:09:29.646            10.037          1598.687
       383   13 Jun 2027 09:10:10.989   13 Jun 2027 09:10:17.133             6.144           515.781
       384   13 Jun 2027 09:10:53.577   13 Jun 2027 09:11:00.963             7.386          1138.875
       385   13 Jun 2027 09:12:14.463   13 Jun 2027 09:12:19.437             4.974          1049.594
       386   13 Jun 2027 09:12:42.440   13 Jun 2027 09:12:43.174             0.734           283.063
       387   13 Jun 2027 09:13:22.022   13 Jun 2027 09:13:24.492             2.470           249.375
       388   13 Jun 2027 10:43:19.528   13 Jun 2027 10:43:34.409            14.881          5913.812
       389   13 Jun 2027 10:45:14.516   13 Jun 2027 10:45:17.224             2.708            84.219
       390   13 Jun 2027 10:46:29.092   13 Jun 2027 10:46:34.440             5.348          1755.969
       391   13 Jun 2027 10:47:10.799   13 Jun 2027 10:47:13.979             3.180           579.500
       392   13 Jun 2027 10:47:18.290   13 Jun 2027 10:47:19.299             1.009           132.344
       393   13 Jun 2027 10:47:59.642   13 Jun 2027 10:48:01.858             2.216           794.281
       394   13 Jun 2027 10:48:39.178   13 Jun 2027 10:48:40.411             1.233           526.000
       395   13 Jun 2027 10:49:16.446   13 Jun 2027 10:49:21.477             5.031           874.469
