uniorb/output/strategy_4/Camera/Camera_KinoSat_110405.txt

KinoSat_110405
-------------------------
    Access    *     Start Time (UTCG)     *     Stop Time (UTCG)  *   Duration (s) *   Data (Mbytes)
         1   01 Jun 2027 03:49:11.773   01 Jun 2027 03:49:22.107            10.334          5167.000
         2   01 Jun 2027 03:51:09.795   01 Jun 2027 03:52:50.263           100.468         50234.000
         3   01 Jun 2027 03:53:35.042   01 Jun 2027 03:53:35.042             0.000             0.000
         4   01 Jun 2027 03:54:12.440   01 Jun 2027 03:54:36.146            23.706         11853.000
         5   01 Jun 2027 03:55:05.690   01 Jun 2027 03:55:11.665             5.975          2987.500
         6   01 Jun 2027 03:55:41.456   01 Jun 2027 03:55:41.780             0.324           162.000
         7   01 Jun 2027 03:57:17.941   01 Jun 2027 03:57:52.722            34.781         17390.500
         8   01 Jun 2027 03:58:07.571   01 Jun 2027 03:58:34.989            27.418         13709.000
         9   01 Jun 2027 03:58:58.603   01 Jun 2027 03:58:58.834             0.231           115.500
        10   01 Jun 2027 05:28:08.679   01 Jun 2027 05:31:02.602           173.923         86961.500
        11   01 Jun 2027 05:33:12.766   01 Jun 2027 05:33:52.519            39.753         19876.500
        12   01 Jun 2027 05:34:27.300   01 Jun 2027 05:34:46.938            19.638          9819.000
        13   01 Jun 2027 07:05:30.582   01 Jun 2027 07:07:59.987           149.405         74702.500
        14   01 Jun 2027 07:08:27.017   01 Jun 2027 07:08:33.550             6.533          3266.500
        15   01 Jun 2027 07:09:29.268   01 Jun 2027 07:09:33.872             4.604          2302.000
        16   01 Jun 2027 07:09:36.317   01 Jun 2027 07:09:41.309             4.992          2496.000
        17   01 Jun 2027 07:09:47.460   01 Jun 2027 07:10:06.574            19.114          9557.000
        18   01 Jun 2027 08:41:54.046   01 Jun 2027 08:44:35.548           161.502         80751.000
        19   01 Jun 2027 08:44:55.553   01 Jun 2027 08:45:02.706             7.153          3576.500
        20   01 Jun 2027 08:46:09.581   01 Jun 2027 08:46:41.751            32.170         16085.000
        21   01 Jun 2027 08:46:57.374   01 Jun 2027 08:46:59.435             2.061          1030.500
        22   01 Jun 2027 10:20:10.510   01 Jun 2027 10:20:51.048            40.538         20269.000
        23   02 Jun 2027 04:04:23.657   02 Jun 2027 04:11:00.991           397.334        198667.000
        24   02 Jun 2027 05:40:42.204   02 Jun 2027 05:44:59.216           257.012        128506.000
        25   02 Jun 2027 05:45:44.455   02 Jun 2027 05:45:45.530             1.075           537.500
        26   02 Jun 2027 05:46:56.375   02 Jun 2027 05:46:58.878             2.503          1251.500
        27   02 Jun 2027 07:18:05.118   02 Jun 2027 07:22:37.860           272.742        136371.000
        28   02 Jun 2027 08:55:00.275   02 Jun 2027 08:58:51.514           231.239        115619.500
        29   03 Jun 2027 04:16:25.023   03 Jun 2027 04:23:07.000           401.977        200988.500
        30   03 Jun 2027 05:52:20.705   03 Jun 2027 05:58:40.630           379.925        189962.500
        31   03 Jun 2027 07:30:50.002   03 Jun 2027 07:34:43.960           233.958        116979.000
        32   03 Jun 2027 09:06:11.488   03 Jun 2027 09:10:24.403           252.915        126457.500
        33   03 Jun 2027 09:10:30.358   03 Jun 2027 09:11:22.394            52.036         26018.000
        34   04 Jun 2027 04:27:40.512   04 Jun 2027 04:35:13.565           453.053        226526.500
        35   04 Jun 2027 06:04:30.329   04 Jun 2027 06:10:43.269           372.940        186470.000
        36   04 Jun 2027 07:42:55.974   04 Jun 2027 07:46:38.475           222.501        111250.500
        37   04 Jun 2027 09:15:59.654   04 Jun 2027 09:22:22.560           382.906        191453.000
        38   04 Jun 2027 09:22:39.578   04 Jun 2027 09:23:45.052            65.474         32737.000
        39   05 Jun 2027 03:02:49.277   05 Jun 2027 03:04:08.625            79.348         39674.000
        40   05 Jun 2027 03:04:40.097   05 Jun 2027 03:09:34.261           294.164        147082.000
        41   05 Jun 2027 04:39:48.327   05 Jun 2027 04:47:13.147           444.820        222410.000
        42   05 Jun 2027 06:16:47.098   05 Jun 2027 06:22:40.469           353.371        176685.500
        43   05 Jun 2027 07:55:06.124   05 Jun 2027 07:58:41.088           214.964        107482.000
        44   05 Jun 2027 09:28:02.415   05 Jun 2027 09:35:32.719           450.304        225152.000
        45   06 Jun 2027 03:14:12.507   06 Jun 2027 03:21:54.191           461.684        230842.000
        46   06 Jun 2027 03:22:26.472   06 Jun 2027 03:22:53.769            27.297         13648.500
        47   06 Jun 2027 04:51:50.186   06 Jun 2027 04:59:16.389           446.203        223101.500
        48   06 Jun 2027 06:28:51.648   06 Jun 2027 06:34:33.499           341.851        170925.500
        49   06 Jun 2027 06:34:52.358   06 Jun 2027 06:35:18.949            26.591         13295.500
        50   06 Jun 2027 08:06:54.602   06 Jun 2027 08:10:49.954           235.352        117676.000
        51   06 Jun 2027 09:40:29.550   06 Jun 2027 09:47:15.728           406.178        203089.000
        52   07 Jun 2027 03:25:45.203   07 Jun 2027 03:34:01.506           496.303        248151.500
        53   07 Jun 2027 03:34:20.594   07 Jun 2027 03:35:19.844            59.250         29625.000
        54   07 Jun 2027 05:03:50.920   07 Jun 2027 05:11:17.599           446.679        223339.500
        55   07 Jun 2027 06:40:58.615   07 Jun 2027 06:45:51.985           293.370        146685.000
        56   07 Jun 2027 06:46:03.422   07 Jun 2027 06:47:11.433            68.011         34005.500
        57   07 Jun 2027 08:17:58.327   07 Jun 2027 08:22:48.224           289.897        144948.500
        58   07 Jun 2027 09:52:44.529   07 Jun 2027 09:53:41.227            56.698         28349.000
        59   07 Jun 2027 09:54:47.556   07 Jun 2027 09:57:17.222           149.666         74833.000
        60   07 Jun 2027 09:57:56.123   07 Jun 2027 09:57:57.689             1.566           783.000
        61   08 Jun 2027 03:38:45.667   08 Jun 2027 03:47:19.181           513.514        256757.000
        62   08 Jun 2027 05:16:16.955   08 Jun 2027 05:23:03.084           406.129        203064.500
        63   08 Jun 2027 06:53:24.755   08 Jun 2027 06:57:42.713           257.958        128979.000
        64   08 Jun 2027 06:57:51.902   08 Jun 2027 06:59:04.322            72.420         36210.000
        65   08 Jun 2027 08:30:13.603   08 Jun 2027 08:34:42.422           268.819        134409.500
        66   08 Jun 2027 10:07:17.213   08 Jun 2027 10:09:44.460           147.247         73623.500
        67   09 Jun 2027 03:49:25.966   09 Jun 2027 03:49:36.698            10.732          5366.000
        68   09 Jun 2027 03:51:24.373   09 Jun 2027 03:58:12.448           408.075        204037.500
        69   09 Jun 2027 03:58:15.441   09 Jun 2027 03:59:13.476            58.035         29017.500
        70   09 Jun 2027 05:28:23.196   09 Jun 2027 05:35:07.646           404.450        202225.000
        71   09 Jun 2027 07:05:47.400   09 Jun 2027 07:09:48.658           241.258        120629.000
        72   09 Jun 2027 07:09:51.228   09 Jun 2027 07:10:30.049            38.821         19410.500
        73   09 Jun 2027 08:42:18.495   09 Jun 2027 08:47:13.925           295.430        147715.000
        74   09 Jun 2027 10:20:55.503   09 Jun 2027 10:21:04.908             9.405          4702.500
        75   10 Jun 2027 04:04:38.393   10 Jun 2027 04:11:15.635           397.242        198621.000
        76   10 Jun 2027 05:40:56.965   10 Jun 2027 05:47:13.570           376.605        188302.500
        77   10 Jun 2027 07:18:24.087   10 Jun 2027 07:22:52.640           268.553        134276.500
        78   10 Jun 2027 08:55:14.983   10 Jun 2027 08:59:06.402           231.419        115709.500
        79   11 Jun 2027 04:16:39.455   11 Jun 2027 04:23:21.749           402.294        201147.000
        80   11 Jun 2027 05:52:35.471   11 Jun 2027 05:58:55.446           379.975        189987.500
        81   11 Jun 2027 07:31:08.065   11 Jun 2027 07:34:58.542           230.477        115238.500
        82   11 Jun 2027 09:06:26.794   11 Jun 2027 09:10:38.991           252.197        126098.500
        83   11 Jun 2027 09:10:45.006   11 Jun 2027 09:11:37.304            52.298         26149.000
        84   12 Jun 2027 04:27:55.194   12 Jun 2027 04:35:28.197           453.003        226501.500
        85   12 Jun 2027 06:04:44.889   12 Jun 2027 06:11:04.221           379.332        189666.000
        86   12 Jun 2027 07:43:34.116   12 Jun 2027 07:46:53.117           199.001         99500.500
        87   12 Jun 2027 09:16:14.156   12 Jun 2027 09:22:37.487           383.331        191665.500
        88   12 Jun 2027 09:22:54.318   12 Jun 2027 09:23:59.902            65.584         32792.000
        89   13 Jun 2027 03:03:02.249   13 Jun 2027 03:04:23.137            80.888         40444.000
        90   13 Jun 2027 03:04:54.527   13 Jun 2027 03:09:48.967           294.440        147220.000
        91   13 Jun 2027 04:40:02.864   13 Jun 2027 04:47:28.039           445.175        222587.500
        92   13 Jun 2027 06:17:01.632   13 Jun 2027 06:22:55.341           353.709        176854.500
        93   13 Jun 2027 07:54:57.338   13 Jun 2027 07:59:03.504           246.166        123083.000
        94   13 Jun 2027 09:28:17.431   13 Jun 2027 09:35:47.328           449.897        224948.500
