uniorb/output/strategy_4/Camera/Camera_KinoSat_111102.txt

KinoSat_111102
-------------------------
    Access    *     Start Time (UTCG)     *     Stop Time (UTCG)  *   Duration (s) *   Data (Mbytes)
         1   01 Jun 2027 03:52:07.671   01 Jun 2027 03:54:12.440           124.769         62384.500
         2   01 Jun 2027 04:04:20.320   01 Jun 2027 04:04:51.998            31.678         15839.000
         3   01 Jun 2027 05:26:14.612   01 Jun 2027 05:27:28.185            73.573         36786.500
         4   01 Jun 2027 05:28:54.730   01 Jun 2027 05:28:58.808             4.078          2039.000
         5   01 Jun 2027 05:29:26.431   01 Jun 2027 05:29:34.787             8.356          4178.000
         6   01 Jun 2027 05:29:53.416   01 Jun 2027 05:30:23.870            30.454         15227.000
         7   01 Jun 2027 07:01:03.107   01 Jun 2027 07:02:57.300           114.193         57096.500
         8   01 Jun 2027 07:07:45.395   01 Jun 2027 07:07:52.272             6.877          3438.500
         9   01 Jun 2027 07:08:11.282   01 Jun 2027 07:08:30.301            19.019          9509.500
        10   01 Jun 2027 07:09:56.324   01 Jun 2027 07:10:06.720            10.396          5198.000
        11   01 Jun 2027 08:38:53.545   01 Jun 2027 08:41:00.604           127.059         63529.500
        12   01 Jun 2027 08:44:27.937   01 Jun 2027 08:44:37.209             9.272          4636.000
        13   01 Jun 2027 08:45:31.711   01 Jun 2027 08:46:17.370            45.659         22829.500
        14   01 Jun 2027 10:15:38.265   01 Jun 2027 10:17:40.833           122.568         61284.000
        15   01 Jun 2027 10:18:01.104   01 Jun 2027 10:18:06.293             5.189          2594.500
        16   01 Jun 2027 10:18:26.804   01 Jun 2027 10:18:52.428            25.624         12812.000
        17   01 Jun 2027 10:21:20.604   01 Jun 2027 10:21:25.940             5.336          2668.000
        18   01 Jun 2027 10:22:16.923   01 Jun 2027 10:22:16.923             0.000             0.000
        19   01 Jun 2027 11:53:46.844   01 Jun 2027 11:55:23.657            96.813         48406.500
        20   01 Jun 2027 11:55:28.969   01 Jun 2027 11:55:36.769             7.800          3900.000
        21   01 Jun 2027 11:56:21.479   01 Jun 2027 11:56:31.594            10.115          5057.500
        22   02 Jun 2027 04:04:05.414   02 Jun 2027 04:04:25.328            19.914          9957.000
        23   02 Jun 2027 04:04:54.014   02 Jun 2027 04:05:21.155            27.141         13570.500
        24   02 Jun 2027 05:40:02.682   02 Jun 2027 05:42:54.456           171.774         85887.000
        25   02 Jun 2027 07:13:51.293   02 Jun 2027 07:17:17.961           206.668        103334.000
        26   02 Jun 2027 07:18:03.627   02 Jun 2027 07:18:27.124            23.497         11748.500
        27   02 Jun 2027 07:21:37.403   02 Jun 2027 07:21:49.022            11.619          5809.500
        28   02 Jun 2027 08:51:00.749   02 Jun 2027 08:53:36.506           155.757         77878.500
        29   02 Jun 2027 08:55:04.439   02 Jun 2027 08:55:50.865            46.426         23213.000
        30   02 Jun 2027 08:56:08.953   02 Jun 2027 08:56:35.412            26.459         13229.500
        31   02 Jun 2027 08:57:47.640   02 Jun 2027 08:57:52.765             5.125          2562.500
        32   02 Jun 2027 10:28:03.632   02 Jun 2027 10:28:07.581             3.949          1974.500
        33   02 Jun 2027 10:28:29.024   02 Jun 2027 10:28:53.663            24.639         10230.781
        34   02 Jun 2027 10:29:37.337   02 Jun 2027 10:29:39.459             2.122           728.844
        35   02 Jun 2027 10:30:43.076   02 Jun 2027 10:30:43.454             0.378           103.812
        36   02 Jun 2027 10:31:38.630   02 Jun 2027 10:31:44.753             6.123          1306.406
        37   02 Jun 2027 10:31:57.909   02 Jun 2027 10:31:58.752             0.843           402.906
        38   02 Jun 2027 10:32:08.719   02 Jun 2027 10:32:09.852             1.133           311.469
        39   02 Jun 2027 10:32:10.745   02 Jun 2027 10:32:11.872             1.127            27.906
        40   02 Jun 2027 10:32:58.286   02 Jun 2027 10:33:07.858             9.572          1439.219
        41   02 Jun 2027 10:34:00.562   02 Jun 2027 10:34:07.217             6.655           158.437
        42   03 Jun 2027 04:15:58.073   03 Jun 2027 04:16:49.751            51.678         25839.000
        43   03 Jun 2027 05:52:20.455   03 Jun 2027 05:55:23.138           182.683         91341.500
        44   03 Jun 2027 07:26:12.211   03 Jun 2027 07:27:28.408            76.197         37182.594
        45   03 Jun 2027 07:28:09.426   03 Jun 2027 07:28:11.507             2.081            92.406
        46   03 Jun 2027 07:28:15.301   03 Jun 2027 07:28:19.016             3.715            73.094
        47   03 Jun 2027 07:28:59.056   03 Jun 2027 07:29:02.466             3.410          1041.594
        48   03 Jun 2027 07:29:35.842   03 Jun 2027 07:29:38.237             2.395           924.969
        49   03 Jun 2027 07:31:28.638   03 Jun 2027 07:31:35.061             6.423          2531.406
        50   03 Jun 2027 07:31:50.450   03 Jun 2027 07:31:52.968             2.518           272.969
        51   03 Jun 2027 07:32:48.083   03 Jun 2027 07:32:49.010             0.927           147.313
        52   03 Jun 2027 07:32:57.831   03 Jun 2027 07:32:58.842             1.011           239.375
        53   03 Jun 2027 07:33:40.768   03 Jun 2027 07:33:45.379             4.611          1310.188
        54   03 Jun 2027 07:34:14.776   03 Jun 2027 07:34:14.776             0.000             0.000
        55   03 Jun 2027 07:34:19.266   03 Jun 2027 07:34:22.317             3.051           479.250
        56   03 Jun 2027 09:03:27.359   03 Jun 2027 09:03:40.706            13.347          6511.000
        57   03 Jun 2027 09:07:53.870   03 Jun 2027 09:07:57.336             3.466          1467.719
        58   03 Jun 2027 09:08:32.356   03 Jun 2027 09:08:36.613             4.257           325.469
        59   03 Jun 2027 09:09:29.851   03 Jun 2027 09:09:33.024             3.173          1233.500
        60   03 Jun 2027 10:40:28.379   03 Jun 2027 10:40:42.961            14.582          5769.656
        61   03 Jun 2027 10:43:29.577   03 Jun 2027 10:43:32.477             2.900          1379.594
        62   03 Jun 2027 10:43:50.896   03 Jun 2027 10:43:53.175             2.279           281.688
        63   03 Jun 2027 10:43:56.172   03 Jun 2027 10:43:57.972             1.800            82.625
        64   03 Jun 2027 10:44:38.501   03 Jun 2027 10:44:41.128             2.627          1105.500
        65   03 Jun 2027 10:45:40.756   03 Jun 2027 10:45:45.260             4.504          1531.375
        66   04 Jun 2027 03:04:16.636   04 Jun 2027 03:05:12.984            56.348         28174.000
        67   04 Jun 2027 03:07:11.407   04 Jun 2027 03:07:51.113            39.706         19853.000
        68   04 Jun 2027 04:27:46.799   04 Jun 2027 04:28:32.713            45.914         22957.000
        69   04 Jun 2027 04:29:51.678   04 Jun 2027 04:29:59.269             7.591          3795.500
        70   04 Jun 2027 06:04:23.925   04 Jun 2027 06:07:19.603           175.678         87839.000
        71   04 Jun 2027 07:39:29.844   04 Jun 2027 07:39:45.568            15.724          7099.344
        72   04 Jun 2027 07:40:05.775   04 Jun 2027 07:40:07.176             1.401           631.469
        73   04 Jun 2027 07:40:35.085   04 Jun 2027 07:40:37.148             2.063           563.156
        74   04 Jun 2027 07:41:02.480   04 Jun 2027 07:41:07.815             5.335           463.875
        75   04 Jun 2027 07:41:43.764   04 Jun 2027 07:41:47.286             3.522          1123.406
        76   04 Jun 2027 07:42:51.769   04 Jun 2027 07:42:51.769             0.000             0.000
        77   04 Jun 2027 07:43:11.231   04 Jun 2027 07:43:14.825             3.594          1034.344
        78   04 Jun 2027 07:43:39.932   04 Jun 2027 07:43:53.414            13.482           304.500
        79   04 Jun 2027 07:45:02.124   04 Jun 2027 07:45:03.196             1.072           354.969
        80   04 Jun 2027 07:45:23.842   04 Jun 2027 07:45:26.699             2.857           645.187
        81   04 Jun 2027 07:45:55.412   04 Jun 2027 07:46:01.513             6.101           884.375
        82   04 Jun 2027 07:46:14.699   04 Jun 2027 07:46:18.399             3.700           191.937
        83   04 Jun 2027 09:15:50.629   04 Jun 2027 09:16:03.804            13.175          5532.437
        84   04 Jun 2027 09:18:05.658   04 Jun 2027 09:18:07.206             1.548           168.031
        85   04 Jun 2027 09:18:59.715   04 Jun 2027 09:19:03.123             3.408          1395.219
        86   04 Jun 2027 09:19:14.335   04 Jun 2027 09:19:15.264             0.929           129.813
        87   04 Jun 2027 09:19:43.367   04 Jun 2027 09:19:46.136             2.769           828.500
        88   04 Jun 2027 09:20:51.419   04 Jun 2027 09:21:01.251             9.832          1816.906
        89   04 Jun 2027 09:21:40.474   04 Jun 2027 09:21:42.578             2.104           628.313
        90   04 Jun 2027 10:53:20.322   04 Jun 2027 10:53:35.528            15.206          6452.438
        91   04 Jun 2027 10:54:07.540   04 Jun 2027 10:54:10.034             2.494           984.062
        92   04 Jun 2027 10:55:28.811   04 Jun 2027 10:55:30.605             1.794           285.531
        93   04 Jun 2027 10:56:14.775   04 Jun 2027 10:56:16.961             2.186           313.562
        94   04 Jun 2027 10:56:31.432   04 Jun 2027 10:56:38.898             7.466           116.313
        95   04 Jun 2027 10:57:25.233   04 Jun 2027 10:57:27.936             2.703          1220.031
        96   05 Jun 2027 03:17:45.575   05 Jun 2027 03:19:47.387           121.812         60906.000
        97   05 Jun 2027 04:40:00.629   05 Jun 2027 04:40:52.230            51.601         25800.500
        98   05 Jun 2027 04:41:01.041   05 Jun 2027 04:41:18.274            17.233          8616.500
        99   05 Jun 2027 04:41:24.689   05 Jun 2027 04:41:35.665            10.976          5488.000
       100   05 Jun 2027 06:16:33.859   05 Jun 2027 06:18:10.802            96.943         48083.500
       101   05 Jun 2027 06:18:33.276   05 Jun 2027 06:18:33.524             0.248           123.094
       102   05 Jun 2027 06:18:55.159   05 Jun 2027 06:19:00.421             5.262           206.875
       103   05 Jun 2027 06:19:07.487   05 Jun 2027 06:19:07.487             0.000             0.000
       104   05 Jun 2027 06:19:33.331   05 Jun 2027 06:19:37.049             3.718           985.063
       105   05 Jun 2027 07:51:44.107   05 Jun 2027 07:51:53.873             9.766          2049.500
       106   05 Jun 2027 07:53:12.647   05 Jun 2027 07:53:16.296             3.649           867.375
       107   05 Jun 2027 07:53:54.459   05 Jun 2027 07:53:56.330             1.871           687.125
       108   05 Jun 2027 07:54:59.257   05 Jun 2027 07:55:00.645             1.388           665.906
       109   05 Jun 2027 07:55:40.572   05 Jun 2027 07:55:44.357             3.785           839.969
       110   05 Jun 2027 07:56:29.751   05 Jun 2027 07:56:32.966             3.215           705.187
       111   05 Jun 2027 07:57:28.586   05 Jun 2027 07:57:33.073             4.487          1218.375
       112   05 Jun 2027 07:57:49.820   05 Jun 2027 07:57:51.151             1.331           311.156
       113   05 Jun 2027 07:58:07.816   05 Jun 2027 07:58:08.584             0.768           242.937
       114   05 Jun 2027 09:28:05.622   05 Jun 2027 09:28:17.274            11.652          4899.594
       115   05 Jun 2027 09:30:13.808   05 Jun 2027 09:30:17.899             4.091           680.313
       116   05 Jun 2027 09:30:47.527   05 Jun 2027 09:30:50.312             2.785           653.656
       117   05 Jun 2027 09:31:16.811   05 Jun 2027 09:31:20.503             3.692           828.094
       118   05 Jun 2027 09:32:48.969   05 Jun 2027 09:32:53.053             4.084          1579.469
       119   05 Jun 2027 09:33:19.989   05 Jun 2027 09:33:24.125             4.136           352.219
       120   05 Jun 2027 11:05:23.993   05 Jun 2027 11:05:36.624            12.631          6229.875
       121   05 Jun 2027 11:07:44.367   05 Jun 2027 11:07:50.201             5.834          1771.000
       122   05 Jun 2027 11:08:07.960   05 Jun 2027 11:08:08.709             0.749            69.469
       123   05 Jun 2027 11:08:11.699   05 Jun 2027 11:08:13.997             2.298            82.594
       124   05 Jun 2027 11:09:10.512   05 Jun 2027 11:09:25.233            14.721          1096.687
       125   05 Jun 2027 11:09:45.222   05 Jun 2027 11:09:47.164             1.942           260.875
       126   06 Jun 2027 03:28:36.038   06 Jun 2027 03:29:14.897            38.859         19429.500
       127   06 Jun 2027 03:29:37.053   06 Jun 2027 03:31:20.996           103.943         51971.500
       128   06 Jun 2027 03:32:00.200   06 Jun 2027 03:32:08.680             8.480          4240.000
       129   06 Jun 2027 04:52:30.265   06 Jun 2027 04:53:01.250            30.985         15492.500
       130   06 Jun 2027 04:53:49.296   06 Jun 2027 04:53:54.769             5.473          2736.500
       131   06 Jun 2027 06:28:25.036   06 Jun 2027 06:30:02.778            97.742         48379.562
       132   06 Jun 2027 06:30:51.938   06 Jun 2027 06:30:56.448             4.510          1318.000
       133   06 Jun 2027 06:31:11.654   06 Jun 2027 06:31:14.170             2.516           475.188
       134   06 Jun 2027 06:31:50.392   06 Jun 2027 06:31:52.778             2.386           361.469
       135   06 Jun 2027 08:03:18.803   06 Jun 2027 08:03:26.070             7.267          1923.156
       136   06 Jun 2027 08:03:49.553   06 Jun 2027 08:03:52.896             3.343           733.844
       137   06 Jun 2027 08:05:09.248   06 Jun 2027 08:05:14.460             5.212          2217.406
       138   06 Jun 2027 08:05:57.437   06 Jun 2027 08:05:59.601             2.164           990.219
       139   06 Jun 2027 08:06:26.246   06 Jun 2027 08:06:30.622             4.376           567.594
       140   06 Jun 2027 08:07:15.918   06 Jun 2027 08:07:20.459             4.541          1415.500
       141   06 Jun 2027 08:07:51.198   06 Jun 2027 08:07:57.584             6.386           951.875
       142   06 Jun 2027 08:09:10.854   06 Jun 2027 08:09:14.215             3.361           765.656
       143   06 Jun 2027 08:09:29.545   06 Jun 2027 08:09:30.708             1.163           401.688
       144   06 Jun 2027 08:10:20.097   06 Jun 2027 08:10:24.828             4.731          1020.125
       145   06 Jun 2027 09:39:41.659   06 Jun 2027 09:39:55.044            13.385          6089.844
       146   06 Jun 2027 09:42:43.068   06 Jun 2027 09:42:45.603             2.535           112.750
       147   06 Jun 2027 09:43:11.757   06 Jun 2027 09:43:13.094             1.337           277.438
       148   06 Jun 2027 09:43:22.638   06 Jun 2027 09:43:25.794             3.156           262.906
       149   06 Jun 2027 09:44:13.079   06 Jun 2027 09:44:17.216             4.137          1441.344
       150   06 Jun 2027 09:44:51.759   06 Jun 2027 09:44:53.283             1.524           437.250
       151   06 Jun 2027 09:45:07.964   06 Jun 2027 09:45:08.672             0.708           268.813
       152   06 Jun 2027 11:17:58.379   06 Jun 2027 11:18:08.263             9.884          4673.594
       153   06 Jun 2027 11:18:42.436   06 Jun 2027 11:18:47.338             4.902           655.312
       154   06 Jun 2027 11:20:09.522   06 Jun 2027 11:20:10.140             0.618           119.312
       155   06 Jun 2027 11:20:50.201   06 Jun 2027 11:20:55.360             5.159           328.094
       156   06 Jun 2027 11:21:17.318   06 Jun 2027 11:21:28.214            10.896           183.656
       157   06 Jun 2027 11:21:43.764   06 Jun 2027 11:21:44.467             0.703           235.438
       158   07 Jun 2027 03:29:15.339   07 Jun 2027 03:29:33.782            18.443          9221.500
       159   07 Jun 2027 03:40:31.898   07 Jun 2027 03:42:12.606           100.708         50354.000
       160   07 Jun 2027 03:43:10.168   07 Jun 2027 03:43:39.101            28.933         14466.500
       161   07 Jun 2027 05:03:07.751   07 Jun 2027 05:04:38.303            90.552         45276.000
       162   07 Jun 2027 06:38:42.428   07 Jun 2027 06:39:26.577            44.149         22074.500
       163   07 Jun 2027 06:40:08.864   07 Jun 2027 06:40:40.753            31.889         15130.812
       164   07 Jun 2027 06:41:04.224   07 Jun 2027 06:41:13.141             8.917           189.187
       165   07 Jun 2027 06:41:45.960   07 Jun 2027 06:41:49.212             3.252           997.687
       166   07 Jun 2027 06:42:18.174   07 Jun 2027 06:42:20.236             2.062           483.125
       167   07 Jun 2027 06:42:40.163   07 Jun 2027 06:42:51.524            11.361           606.062
       168   07 Jun 2027 06:43:13.952   07 Jun 2027 06:43:15.837             1.885           518.500
       169   07 Jun 2027 06:43:54.351   07 Jun 2027 06:43:59.484             5.133           489.656
       170   07 Jun 2027 08:14:55.152   07 Jun 2027 08:15:04.440             9.288          1637.125
       171   07 Jun 2027 08:15:58.113   07 Jun 2027 08:16:08.350            10.237           979.500
       172   07 Jun 2027 08:17:27.191   07 Jun 2027 08:17:29.639             2.448          1123.906
       173   07 Jun 2027 08:18:16.716   07 Jun 2027 08:18:18.457             1.741           601.281
       174   07 Jun 2027 08:19:17.878   07 Jun 2027 08:19:25.616             7.738          1662.312
       175   07 Jun 2027 08:19:49.432   07 Jun 2027 08:19:54.984             5.552           467.062
       176   07 Jun 2027 08:20:16.671   07 Jun 2027 08:20:17.567             0.896           402.562
       177   07 Jun 2027 08:20:41.398   07 Jun 2027 08:20:42.907             1.509           142.906
       178   07 Jun 2027 08:21:11.351   07 Jun 2027 08:21:13.999             2.648           694.406
       179   07 Jun 2027 08:21:23.499   07 Jun 2027 08:21:25.483             1.984           296.875
       180   07 Jun 2027 08:22:29.528   07 Jun 2027 08:22:29.657             0.129            64.500
       181   07 Jun 2027 09:52:01.529   07 Jun 2027 09:52:19.513            17.984          8346.969
       182   07 Jun 2027 09:54:39.149   07 Jun 2027 09:54:39.892             0.743           129.625
       183   07 Jun 2027 09:55:08.916   07 Jun 2027 09:55:12.061             3.145           175.500
       184   07 Jun 2027 09:56:07.217   07 Jun 2027 09:56:13.636             6.419          1200.937
       185   07 Jun 2027 09:56:41.467   07 Jun 2027 09:56:42.383             0.916           284.813
       186   07 Jun 2027 09:56:52.709   07 Jun 2027 09:56:53.791             1.082           268.000
       187   07 Jun 2027 09:57:17.222   07 Jun 2027 09:57:21.021             3.799           732.219
       188   07 Jun 2027 09:58:19.873   07 Jun 2027 09:58:22.180             2.307           739.281
       189   07 Jun 2027 11:29:59.479   07 Jun 2027 11:30:11.556            12.077          5919.906
       190   07 Jun 2027 11:30:54.185   07 Jun 2027 11:31:00.235             6.050           912.531
       191   07 Jun 2027 11:32:11.192   07 Jun 2027 11:32:11.407             0.215            27.969
       192   07 Jun 2027 11:33:24.299   07 Jun 2027 11:33:29.446             5.147          2017.281
       193   07 Jun 2027 11:33:30.955   07 Jun 2027 11:33:32.355             1.400            47.156
       194   08 Jun 2027 03:40:50.863   08 Jun 2027 03:41:08.426            17.563          8781.500
       195   08 Jun 2027 03:52:34.412   08 Jun 2027 03:53:40.948            66.536         33268.000
       196   08 Jun 2027 05:14:49.895   08 Jun 2027 05:15:56.363            66.468         33234.000
       197   08 Jun 2027 05:16:46.922   08 Jun 2027 05:19:00.512           133.590         66795.000
       198   08 Jun 2027 06:49:49.160   08 Jun 2027 06:50:20.158            30.998         14527.875
       199   08 Jun 2027 06:50:36.003   08 Jun 2027 06:50:36.212             0.209            48.687
       200   08 Jun 2027 06:50:59.874   08 Jun 2027 06:51:00.833             0.959           444.875
       201   08 Jun 2027 06:51:19.987   08 Jun 2027 06:51:21.314             1.327           532.937
       202   08 Jun 2027 06:51:52.708   08 Jun 2027 06:51:54.132             1.424           712.000
       203   08 Jun 2027 06:52:12.956   08 Jun 2027 06:52:22.142             9.186           678.875
       204   08 Jun 2027 06:53:34.462   08 Jun 2027 06:53:42.581             8.119          2043.094
       205   08 Jun 2027 06:54:55.842   08 Jun 2027 06:54:57.842             2.000          1000.000
       206   08 Jun 2027 06:55:17.109   08 Jun 2027 06:55:21.494             4.385          1891.500
       207   08 Jun 2027 06:55:42.138   08 Jun 2027 06:55:42.138             0.000             0.000
       208   08 Jun 2027 06:56:34.363   08 Jun 2027 06:56:38.293             3.930          1965.000
       209   08 Jun 2027 06:57:02.394   08 Jun 2027 06:57:05.436             3.042           840.281
       210   08 Jun 2027 08:27:15.113   08 Jun 2027 08:27:19.609             4.496          1734.812
       211   08 Jun 2027 08:29:09.891   08 Jun 2027 08:29:15.738             5.847          2923.500
       212   08 Jun 2027 08:30:09.413   08 Jun 2027 08:30:13.283             3.870          1842.875
       213   08 Jun 2027 08:30:34.337   08 Jun 2027 08:30:35.439             1.102           550.406
       214   08 Jun 2027 08:31:09.815   08 Jun 2027 08:31:14.007             4.192          1074.250
       215   08 Jun 2027 08:31:57.839   08 Jun 2027 08:32:00.821             2.982          1197.469
       216   08 Jun 2027 08:32:41.773   08 Jun 2027 08:32:44.015             2.242           473.719
       217   08 Jun 2027 08:33:03.931   08 Jun 2027 08:33:05.300             1.369           426.781
       218   08 Jun 2027 08:33:07.484   08 Jun 2027 08:33:10.586             3.102             9.187
       219   08 Jun 2027 08:33:23.660   08 Jun 2027 08:33:24.783             1.123           297.813
       220   08 Jun 2027 08:34:13.533   08 Jun 2027 08:34:21.118             7.585          1310.375
       221   08 Jun 2027 08:34:33.463   08 Jun 2027 08:34:33.609             0.146            49.375
       222   08 Jun 2027 10:04:01.992   08 Jun 2027 10:04:14.716            12.724          5362.344
       223   08 Jun 2027 10:05:29.695   08 Jun 2027 10:05:31.565             1.870           386.531
       224   08 Jun 2027 10:06:43.500   08 Jun 2027 10:06:49.002             5.502           156.094
       225   08 Jun 2027 10:07:11.516   08 Jun 2027 10:07:14.958             3.442           603.531
       226   08 Jun 2027 10:07:31.820   08 Jun 2027 10:07:42.175            10.355           429.156
       227   08 Jun 2027 10:07:42.178   08 Jun 2027 10:07:44.842             2.664             0.094
       228   08 Jun 2027 10:08:01.818   08 Jun 2027 10:08:03.495             1.677            96.812
       229   08 Jun 2027 10:08:23.008   08 Jun 2027 10:08:27.699             4.691           378.750
       230   08 Jun 2027 10:08:48.792   08 Jun 2027 10:08:49.975             1.183           479.313
       231   08 Jun 2027 10:09:30.131   08 Jun 2027 10:09:32.111             1.980           666.406
       232   08 Jun 2027 10:10:02.028   08 Jun 2027 10:10:06.212             4.184           360.062
       233   08 Jun 2027 11:42:00.060   08 Jun 2027 11:42:11.897            11.837          5669.625
       234   08 Jun 2027 11:43:44.254   08 Jun 2027 11:43:48.055             3.801          1391.219
       235   08 Jun 2027 11:44:09.812   08 Jun 2027 11:44:11.348             1.536           596.937
       236   08 Jun 2027 11:44:37.744   08 Jun 2027 11:44:41.983             4.239           824.875
       237   08 Jun 2027 11:45:19.968   08 Jun 2027 11:45:25.934             5.966           860.219
       238   08 Jun 2027 11:45:51.433   08 Jun 2027 11:45:54.468             3.035           545.312
       239   08 Jun 2027 11:46:05.110   08 Jun 2027 11:46:07.168             2.058           332.562
       240   09 Jun 2027 03:52:23.246   09 Jun 2027 03:53:06.791            43.545         21772.500
       241   09 Jun 2027 03:53:27.414   09 Jun 2027 03:53:27.414             0.000             0.000
       242   09 Jun 2027 03:54:27.607   09 Jun 2027 03:54:29.925             2.318          1159.000
       243   09 Jun 2027 04:04:35.866   09 Jun 2027 04:05:07.455            31.589         15794.500
       244   09 Jun 2027 05:26:29.731   09 Jun 2027 05:27:42.848            73.117         36558.500
       245   09 Jun 2027 05:28:32.556   09 Jun 2027 05:29:42.256            69.700         34850.000
       246   09 Jun 2027 05:29:52.724   09 Jun 2027 05:30:04.364            11.640          5820.000
       247   09 Jun 2027 05:31:00.767   09 Jun 2027 05:31:03.006             2.239          1119.500
       248   09 Jun 2027 07:01:17.670   09 Jun 2027 07:02:43.616            85.946         42666.000
       249   09 Jun 2027 07:03:24.215   09 Jun 2027 07:03:24.215             0.000             0.000
       250   09 Jun 2027 07:03:28.571   09 Jun 2027 07:03:35.986             7.415           476.531
       251   09 Jun 2027 07:04:37.566   09 Jun 2027 07:04:42.759             5.193          1655.469
       252   09 Jun 2027 07:04:47.697   09 Jun 2027 07:04:48.880             1.183            95.406
       253   09 Jun 2027 07:04:52.132   09 Jun 2027 07:04:52.132             0.000             0.000
       254   09 Jun 2027 07:05:09.218   09 Jun 2027 07:05:10.572             1.354           595.500
       255   09 Jun 2027 07:05:18.942   09 Jun 2027 07:05:22.495             3.553           261.562
       256   09 Jun 2027 07:06:19.406   09 Jun 2027 07:06:25.683             6.277          1396.719
       257   09 Jun 2027 07:07:43.595   09 Jun 2027 07:07:47.037             3.442          1668.188
       258   09 Jun 2027 07:08:48.200   09 Jun 2027 07:09:01.099            12.899          1731.969
       259   09 Jun 2027 07:09:10.146   09 Jun 2027 07:09:13.779             3.633           188.906
       260   09 Jun 2027 07:10:11.216   09 Jun 2027 07:10:15.332             4.116          1794.906
       261   09 Jun 2027 08:39:09.252   09 Jun 2027 08:39:14.754             5.502          2687.937
       262   09 Jun 2027 08:41:08.979   09 Jun 2027 08:41:13.359             4.380          1990.938
       263   09 Jun 2027 08:42:04.388   09 Jun 2027 08:42:07.523             3.135          1424.375
       264   09 Jun 2027 08:43:01.290   09 Jun 2027 08:43:05.799             4.509           647.625
       265   09 Jun 2027 08:43:25.264   09 Jun 2027 08:43:30.792             5.528           152.375
       266   09 Jun 2027 08:44:44.001   09 Jun 2027 08:44:50.018             6.017          1091.969
       267   09 Jun 2027 08:45:44.514   09 Jun 2027 08:45:49.043             4.529          1635.469
       268   09 Jun 2027 08:46:13.247   09 Jun 2027 08:46:15.769             2.522           711.719
       269   09 Jun 2027 08:46:27.502   09 Jun 2027 08:46:28.128             0.626            88.813
       270   09 Jun 2027 08:46:34.024   09 Jun 2027 08:46:34.290             0.266           133.000
       271   09 Jun 2027 10:15:53.699   09 Jun 2027 10:16:08.032            14.333          5661.656
       272   09 Jun 2027 10:16:25.685   09 Jun 2027 10:16:31.314             5.629            85.813
       273   09 Jun 2027 10:18:50.919   09 Jun 2027 10:18:56.863             5.944           442.563
       274   09 Jun 2027 10:19:28.718   09 Jun 2027 10:19:30.569             1.851            73.125
       275   09 Jun 2027 10:20:15.708   09 Jun 2027 10:20:16.534             0.826           396.781
       276   09 Jun 2027 10:20:35.687   09 Jun 2027 10:20:38.684             2.997           458.469
       277   09 Jun 2027 10:20:46.529   09 Jun 2027 10:20:46.899             0.370            45.469
       278   09 Jun 2027 10:20:47.672   09 Jun 2027 10:20:48.559             0.887            24.156
       279   09 Jun 2027 10:22:07.282   09 Jun 2027 10:22:10.977             3.695          1657.812
       280   09 Jun 2027 11:54:02.888   09 Jun 2027 11:54:17.264            14.376          5207.250
       281   09 Jun 2027 11:57:09.220   09 Jun 2027 11:57:13.052             3.832           725.875
       282   10 Jun 2027 04:04:20.617   10 Jun 2027 04:04:40.099            19.482          9741.000
       283   10 Jun 2027 04:04:54.950   10 Jun 2027 04:05:10.761            15.811          7905.500
       284   10 Jun 2027 04:05:35.646   10 Jun 2027 04:05:37.628             1.982           991.000
       285   10 Jun 2027 05:40:18.679   10 Jun 2027 05:43:22.030           183.351         91675.500
       286   10 Jun 2027 07:14:06.800   10 Jun 2027 07:15:48.290           101.490         50595.749
       287   10 Jun 2027 07:16:15.095   10 Jun 2027 07:16:19.730             4.635           703.094
       288   10 Jun 2027 07:16:48.287   10 Jun 2027 07:16:52.001             3.714           892.406
       289   10 Jun 2027 07:17:21.064   10 Jun 2027 07:17:21.839             0.775           223.313
       290   10 Jun 2027 07:18:21.584   10 Jun 2027 07:18:24.789             3.205          1471.656
       291   10 Jun 2027 07:18:57.445   10 Jun 2027 07:19:05.700             8.255           970.094
       292   10 Jun 2027 07:19:41.579   10 Jun 2027 07:19:44.017             2.438           576.469
       293   10 Jun 2027 07:20:36.902   10 Jun 2027 07:20:36.902             0.000             0.000
       294   10 Jun 2027 07:21:04.522   10 Jun 2027 07:21:11.961             7.439          2489.844
       295   10 Jun 2027 07:21:42.038   10 Jun 2027 07:21:44.016             1.978           939.906
       296   10 Jun 2027 08:51:16.332   10 Jun 2027 08:51:27.559            11.227          4809.063
       297   10 Jun 2027 08:52:39.824   10 Jun 2027 08:52:44.121             4.297          1398.469
       298   10 Jun 2027 08:53:51.504   10 Jun 2027 08:53:54.075             2.571           930.437
       299   10 Jun 2027 08:55:21.646   10 Jun 2027 08:55:27.962             6.316          2498.031
       300   10 Jun 2027 08:55:57.249   10 Jun 2027 08:56:03.399             6.150           219.719
       301   10 Jun 2027 08:56:38.633   10 Jun 2027 08:56:39.669             1.036           358.781
       302   10 Jun 2027 08:57:07.115   10 Jun 2027 08:57:08.976             1.861           803.563
       303   10 Jun 2027 08:57:38.665   10 Jun 2027 08:57:42.981             4.316           927.781
       304   10 Jun 2027 08:57:57.743   10 Jun 2027 08:58:04.446             6.703           103.844
       305   10 Jun 2027 08:58:33.598   10 Jun 2027 08:58:35.192             1.594           797.000
       306   10 Jun 2027 10:28:20.343   10 Jun 2027 10:28:27.130             6.787          3393.500
       307   10 Jun 2027 10:28:45.011   10 Jun 2027 10:28:55.275            10.264          3944.062
       308   10 Jun 2027 10:31:52.996   10 Jun 2027 10:32:01.952             8.956          1737.656
       309   10 Jun 2027 10:32:12.411   10 Jun 2027 10:32:13.674             1.263           297.219
       310   10 Jun 2027 10:32:27.398   10 Jun 2027 10:32:29.832             2.434           424.062
       311   10 Jun 2027 10:32:46.230   10 Jun 2027 10:32:47.382             1.152           157.438
       312   10 Jun 2027 10:32:48.261   10 Jun 2027 10:32:48.652             0.391            13.313
       313   10 Jun 2027 10:33:13.599   10 Jun 2027 10:33:24.447            10.848           722.625
       314   10 Jun 2027 10:34:05.760   10 Jun 2027 10:34:09.627             3.867          1117.000
       315   10 Jun 2027 10:34:15.490   10 Jun 2027 10:34:23.522             8.032           108.344
       316   11 Jun 2027 04:16:13.256   11 Jun 2027 04:16:45.044            31.788         15894.000
       317   11 Jun 2027 04:17:04.651   11 Jun 2027 04:17:38.627            33.976         16988.000
       318   11 Jun 2027 05:52:35.666   11 Jun 2027 05:55:38.659           182.993         91496.500
       319   11 Jun 2027 07:26:28.531   11 Jun 2027 07:27:28.213            59.682         28704.281
       320   11 Jun 2027 07:28:22.328   11 Jun 2027 07:28:25.580             3.252          1479.812
       321   11 Jun 2027 07:28:29.507   11 Jun 2027 07:28:31.708             2.201           122.719
       322   11 Jun 2027 07:28:40.704   11 Jun 2027 07:28:41.918             1.214           281.125
       323   11 Jun 2027 07:29:22.926   11 Jun 2027 07:29:25.375             2.449           175.438
       324   11 Jun 2027 07:29:48.299   11 Jun 2027 07:29:48.299             0.000             0.000
       325   11 Jun 2027 07:30:25.773   11 Jun 2027 07:30:29.151             3.378          1627.031
       326   11 Jun 2027 07:31:45.853   11 Jun 2027 07:31:50.548             4.695          2321.781
       327   11 Jun 2027 07:32:05.052   11 Jun 2027 07:32:07.443             2.391           208.094
       328   11 Jun 2027 07:33:19.508   11 Jun 2027 07:33:22.967             3.459           523.281
       329   11 Jun 2027 07:33:42.965   11 Jun 2027 07:33:45.264             2.299           539.969
       330   11 Jun 2027 07:33:54.045   11 Jun 2027 07:33:57.134             3.089           140.719
       331   11 Jun 2027 07:34:20.157   11 Jun 2027 07:34:22.129             1.972           712.500
       332   11 Jun 2027 07:34:35.098   11 Jun 2027 07:34:35.640             0.542           218.688
       333   11 Jun 2027 09:03:42.660   11 Jun 2027 09:03:52.093             9.433          4264.187
       334   11 Jun 2027 09:06:02.334   11 Jun 2027 09:06:13.689            11.355          2029.875
       335   11 Jun 2027 09:07:22.394   11 Jun 2027 09:07:24.677             2.283             9.656
       336   11 Jun 2027 09:09:07.569   11 Jun 2027 09:09:12.560             4.991           936.312
       337   11 Jun 2027 09:09:50.351   11 Jun 2027 09:09:56.197             5.846           246.750
       338   11 Jun 2027 10:40:44.666   11 Jun 2027 10:40:59.339            14.673          6679.031
       339   11 Jun 2027 10:43:35.696   11 Jun 2027 10:43:41.009             5.313           322.094
       340   11 Jun 2027 10:43:46.304   11 Jun 2027 10:43:47.600             1.296             7.000
       341   11 Jun 2027 10:44:18.898   11 Jun 2027 10:44:20.213             1.315           236.406
       342   11 Jun 2027 10:44:34.955   11 Jun 2027 10:44:37.017             2.062           260.844
       343   11 Jun 2027 10:44:48.232   11 Jun 2027 10:44:49.879             1.647           337.563
       344   11 Jun 2027 10:45:30.260   11 Jun 2027 10:45:34.566             4.306          1128.844
       345   11 Jun 2027 10:45:58.271   11 Jun 2027 10:46:02.314             4.043           720.500
       346   12 Jun 2027 03:05:08.561   12 Jun 2027 03:05:51.685            43.124         21562.000
       347   12 Jun 2027 03:07:06.785   12 Jun 2027 03:07:11.836             5.051          2525.500
       348   12 Jun 2027 03:08:05.736   12 Jun 2027 03:08:12.250             6.514          3257.000
       349   12 Jun 2027 03:08:30.460   12 Jun 2027 03:08:49.077            18.617          9308.500
       350   12 Jun 2027 04:28:02.719   12 Jun 2027 04:28:31.222            28.503         14251.500
       351   12 Jun 2027 04:29:27.884   12 Jun 2027 04:29:39.398            11.514          5757.000
       352   12 Jun 2027 06:04:38.983   12 Jun 2027 06:07:47.943           188.960         94480.000
       353   12 Jun 2027 07:39:46.219   12 Jun 2027 07:40:00.587            14.368          6339.344
       354   12 Jun 2027 07:40:22.489   12 Jun 2027 07:40:26.820             4.331           652.687
       355   12 Jun 2027 07:40:51.626   12 Jun 2027 07:40:54.218             2.592           614.250
       356   12 Jun 2027 07:41:20.732   12 Jun 2027 07:41:23.783             3.051           524.469
       357   12 Jun 2027 07:42:53.711   12 Jun 2027 07:43:02.944             9.233          1661.781
       358   12 Jun 2027 07:43:28.595   12 Jun 2027 07:43:31.067             2.472           639.000
       359   12 Jun 2027 07:43:56.775   12 Jun 2027 07:43:56.775             0.000             0.000
       360   12 Jun 2027 07:45:07.051   12 Jun 2027 07:45:12.988             5.937          2576.063
       361   12 Jun 2027 07:45:38.439   12 Jun 2027 07:45:39.815             1.376           627.375
       362   12 Jun 2027 07:45:50.543   12 Jun 2027 07:46:02.994            12.451           335.250
       363   12 Jun 2027 07:46:25.210   12 Jun 2027 07:46:26.995             1.785           408.469
       364   12 Jun 2027 09:16:06.655   12 Jun 2027 09:16:18.875            12.220          5580.812
       365   12 Jun 2027 09:16:56.349   12 Jun 2027 09:16:56.725             0.376           180.500
       366   12 Jun 2027 09:18:21.089   12 Jun 2027 09:18:22.937             1.848            71.125
       367   12 Jun 2027 09:19:14.687   12 Jun 2027 09:19:17.794             3.107          1389.281
       368   12 Jun 2027 09:19:35.086   12 Jun 2027 09:19:36.221             1.135           362.156
       369   12 Jun 2027 09:21:06.102   12 Jun 2027 09:21:17.284            11.182          1778.031
       370   12 Jun 2027 09:21:51.434   12 Jun 2027 09:21:54.286             2.852           490.188
       371   12 Jun 2027 09:22:28.537   12 Jun 2027 09:22:29.841             1.304           652.000
       372   12 Jun 2027 10:53:37.118   12 Jun 2027 10:53:52.225            15.107          5782.563
       373   12 Jun 2027 10:55:07.813   12 Jun 2027 10:55:12.094             4.281          1402.375
       374   12 Jun 2027 10:55:44.021   12 Jun 2027 10:55:45.929             1.908           313.781
       375   12 Jun 2027 10:56:30.344   12 Jun 2027 10:56:31.858             1.514           308.000
       376   12 Jun 2027 10:57:03.428   12 Jun 2027 10:57:07.951             4.523           615.469
       377   13 Jun 2027 03:17:44.026   13 Jun 2027 03:20:32.281           168.255         84127.500
       378   13 Jun 2027 04:40:15.622   13 Jun 2027 04:41:02.957            47.335         23667.500
       379   13 Jun 2027 04:42:42.820   13 Jun 2027 04:43:08.126            25.306         12653.000
       380   13 Jun 2027 06:16:50.074   13 Jun 2027 06:17:59.480            69.406         34703.000
       381   13 Jun 2027 06:18:46.498   13 Jun 2027 06:18:52.520             6.022          2434.093
       382   13 Jun 2027 06:19:07.570   13 Jun 2027 06:19:10.911             3.341           111.469
       383   13 Jun 2027 06:19:16.806   13 Jun 2027 06:19:16.806             0.000             0.000
       384   13 Jun 2027 06:19:24.921   13 Jun 2027 06:19:29.129             4.208           437.812
       385   13 Jun 2027 06:20:17.556   13 Jun 2027 06:20:18.904             1.348           674.000
       386   13 Jun 2027 07:51:59.444   13 Jun 2027 07:52:08.392             8.948          3133.813
       387   13 Jun 2027 07:53:24.128   13 Jun 2027 07:53:25.656             1.528           281.062
       388   13 Jun 2027 07:53:48.989   13 Jun 2027 07:53:50.820             1.831           729.156
       389   13 Jun 2027 07:54:50.533   13 Jun 2027 07:54:53.922             3.389          1223.437
       390   13 Jun 2027 07:55:13.334   13 Jun 2027 07:55:15.928             2.594           588.187
       391   13 Jun 2027 07:55:57.578   13 Jun 2027 07:56:01.855             4.277           829.406
       392   13 Jun 2027 07:57:04.649   13 Jun 2027 07:57:07.107             2.458           898.469
       393   13 Jun 2027 07:57:23.293   13 Jun 2027 07:57:24.871             1.578           505.813
       394   13 Jun 2027 07:57:57.807   13 Jun 2027 07:58:00.194             2.387           726.344
       395   13 Jun 2027 07:58:34.968   13 Jun 2027 07:58:35.423             0.455           227.500
       396   13 Jun 2027 09:28:20.783   13 Jun 2027 09:28:34.209            13.426          6551.188
       397   13 Jun 2027 09:32:14.331   13 Jun 2027 09:32:20.232             5.901          1660.312
       398   13 Jun 2027 09:33:28.558   13 Jun 2027 09:33:33.248             4.690          1210.031
       399   13 Jun 2027 11:05:38.501   13 Jun 2027 11:05:51.452            12.951          5710.562
       400   13 Jun 2027 11:07:01.562   13 Jun 2027 11:07:11.811            10.249          1473.438
       401   13 Jun 2027 11:08:21.456   13 Jun 2027 11:08:25.634             4.178          1930.875
       402   13 Jun 2027 11:08:59.015   13 Jun 2027 11:09:07.883             8.868          1043.156
       403   13 Jun 2027 11:09:55.546   13 Jun 2027 11:09:59.668             4.122          1331.094
       404   13 Jun 2027 11:10:05.393   13 Jun 2027 11:10:06.702             1.309           178.906
