uniorb/output/strategy_4/Camera/Camera_KinoSat_110508.txt

KinoSat_110508
-------------------------
    Access    *     Start Time (UTCG)     *     Stop Time (UTCG)  *   Duration (s) *   Data (Mbytes)
         1   01 Jun 2027 03:19:43.881   01 Jun 2027 03:20:51.089            67.208         33604.000
         2   01 Jun 2027 03:21:24.768   01 Jun 2027 03:21:28.767             3.999          1999.500
         3   01 Jun 2027 03:22:01.289   01 Jun 2027 03:22:22.246            20.957         10478.500
         4   01 Jun 2027 03:22:41.546   01 Jun 2027 03:22:51.670            10.124          5062.000
         5   01 Jun 2027 03:23:07.097   01 Jun 2027 03:23:07.097             0.000             0.000
         6   01 Jun 2027 04:54:41.631   01 Jun 2027 04:56:51.152           129.521         64760.500
         7   01 Jun 2027 04:57:23.975   01 Jun 2027 04:57:39.308            15.333          7666.500
         8   01 Jun 2027 04:58:13.594   01 Jun 2027 04:58:17.098             3.504          1752.000
         9   01 Jun 2027 04:59:30.560   01 Jun 2027 04:59:57.179            26.619         13309.500
        10   01 Jun 2027 05:00:29.483   01 Jun 2027 05:00:41.838            12.355          6177.500
        11   01 Jun 2027 05:01:39.642   01 Jun 2027 05:01:43.059             3.417          1708.500
        12   01 Jun 2027 06:30:53.732   01 Jun 2027 06:33:15.819           142.087         71043.500
        13   01 Jun 2027 06:33:54.507   01 Jun 2027 06:34:01.864             7.357          3678.500
        14   01 Jun 2027 06:34:28.541   01 Jun 2027 06:34:41.643            13.102          6551.000
        15   01 Jun 2027 06:34:58.947   01 Jun 2027 06:35:13.935            14.988          7494.000
        16   01 Jun 2027 06:36:25.716   01 Jun 2027 06:36:34.229             8.513          4256.500
        17   01 Jun 2027 06:36:58.104   01 Jun 2027 06:37:20.119            22.015         11007.500
        18   01 Jun 2027 08:08:54.099   01 Jun 2027 08:11:45.184           171.085         85542.500
        19   01 Jun 2027 08:12:14.243   01 Jun 2027 08:12:25.578            11.335          5667.500
        20   01 Jun 2027 09:44:35.109   01 Jun 2027 09:47:48.894           193.785         96892.500
        21   01 Jun 2027 09:47:54.746   01 Jun 2027 09:48:15.834            21.088         10544.000
        22   02 Jun 2027 03:30:19.932   02 Jun 2027 03:30:25.872             5.940          2970.000
        23   02 Jun 2027 03:31:29.479   02 Jun 2027 03:35:56.169           266.690        133345.000
        24   02 Jun 2027 05:06:15.434   02 Jun 2027 05:11:00.354           284.920        142460.000
        25   02 Jun 2027 05:11:34.950   02 Jun 2027 05:12:08.944            33.994         16997.000
        26   02 Jun 2027 05:13:06.085   02 Jun 2027 05:13:22.958            16.873          8436.500
        27   02 Jun 2027 05:13:44.425   02 Jun 2027 05:13:48.325             3.900          1950.000
        28   02 Jun 2027 06:43:14.774   02 Jun 2027 06:49:22.883           368.109        184054.500
        29   02 Jun 2027 08:21:15.792   02 Jun 2027 08:25:12.440           236.648        118324.000
        30   02 Jun 2027 09:54:31.112   02 Jun 2027 10:00:59.889           388.777        194388.500
        31   02 Jun 2027 10:01:35.144   02 Jun 2027 10:02:22.378            47.234         23617.000
        32   03 Jun 2027 03:41:12.790   03 Jun 2027 03:42:39.829            87.039         43519.500
        33   03 Jun 2027 03:43:12.951   03 Jun 2027 03:48:09.573           296.622        148311.000
        34   03 Jun 2027 05:18:22.905   03 Jun 2027 05:25:48.992           446.087        223043.500
        35   03 Jun 2027 06:55:34.517   03 Jun 2027 07:01:28.976           354.459        177229.500
        36   03 Jun 2027 08:33:40.738   03 Jun 2027 08:37:15.139           214.401        107200.500
        37   03 Jun 2027 10:06:40.613   03 Jun 2027 10:13:30.359           409.746        204873.000
        38   03 Jun 2027 10:14:14.164   03 Jun 2027 10:14:19.973             5.809          2904.500
        39   04 Jun 2027 03:52:41.619   04 Jun 2027 04:00:30.902           469.283        234641.500
        40   04 Jun 2027 04:01:22.482   04 Jun 2027 04:01:46.774            24.292         12146.000
        41   04 Jun 2027 05:30:24.185   04 Jun 2027 05:37:50.825           446.640        223320.000
        42   04 Jun 2027 07:07:25.555   04 Jun 2027 07:13:06.509           340.954        170477.000
        43   04 Jun 2027 07:13:51.284   04 Jun 2027 07:13:55.178             3.894          1947.000
        44   04 Jun 2027 08:45:47.228   04 Jun 2027 08:49:24.145           216.917        108458.500
        45   04 Jun 2027 10:19:18.040   04 Jun 2027 10:24:50.407           332.367        166183.500
        46   05 Jun 2027 04:05:24.957   05 Jun 2027 04:12:44.341           439.384        219692.000
        47   05 Jun 2027 04:13:15.337   05 Jun 2027 04:13:54.471            39.134         19567.000
        48   05 Jun 2027 05:42:27.441   05 Jun 2027 05:49:48.537           441.096        220548.000
        49   05 Jun 2027 07:19:37.689   05 Jun 2027 07:24:25.689           288.000        144000.000
        50   05 Jun 2027 07:24:52.574   05 Jun 2027 07:25:43.722            51.148         25574.000
        51   05 Jun 2027 08:56:28.504   05 Jun 2027 09:01:22.204           293.700        146850.000
        52   05 Jun 2027 10:31:27.657   05 Jun 2027 10:32:14.132            46.475         23237.500
        53   05 Jun 2027 10:33:10.676   05 Jun 2027 10:36:30.534           199.858         99929.000
        54   06 Jun 2027 04:17:21.276   06 Jun 2027 04:25:53.683           512.407        256203.500
        55   06 Jun 2027 05:54:53.465   06 Jun 2027 06:01:38.640           405.175        202587.500
        56   06 Jun 2027 07:32:54.240   06 Jun 2027 07:36:15.927           201.687        100843.500
        57   06 Jun 2027 07:36:21.348   06 Jun 2027 07:37:37.064            75.716         37858.000
        58   06 Jun 2027 09:08:44.387   06 Jun 2027 09:13:12.548           268.161        134080.500
        59   06 Jun 2027 10:46:13.667   06 Jun 2027 10:48:17.514           123.847         61923.500
        60   07 Jun 2027 04:30:00.851   07 Jun 2027 04:36:47.727           406.876        203438.000
        61   07 Jun 2027 04:36:59.398   07 Jun 2027 04:37:48.537            49.139         24569.500
        62   07 Jun 2027 06:06:59.360   07 Jun 2027 06:13:42.892           403.532        201766.000
        63   07 Jun 2027 07:45:11.956   07 Jun 2027 07:49:07.729           235.773        117886.500
        64   07 Jun 2027 09:20:49.263   07 Jun 2027 09:25:31.470           282.207        141103.500
        65   08 Jun 2027 03:08:03.391   08 Jun 2027 03:11:38.421           215.030        107515.000
        66   08 Jun 2027 04:43:13.455   08 Jun 2027 04:49:50.244           396.789        198394.500
        67   08 Jun 2027 06:20:34.211   08 Jun 2027 06:25:49.178           314.967        157483.500
        68   08 Jun 2027 07:56:53.703   08 Jun 2027 08:01:28.974           275.271        137635.500
        69   08 Jun 2027 09:33:24.901   08 Jun 2027 09:37:45.576           260.675        130337.500
        70   09 Jun 2027 03:19:58.354   09 Jun 2027 03:23:37.721           219.367        109683.500
        71   09 Jun 2027 04:54:55.884   09 Jun 2027 05:01:57.722           421.838        210919.000
        72   09 Jun 2027 06:32:03.919   09 Jun 2027 06:37:35.005           331.086        165543.000
        73   09 Jun 2027 08:09:09.174   09 Jun 2027 08:13:20.261           251.087        125543.500
        74   09 Jun 2027 09:45:08.413   09 Jun 2027 09:49:13.000           244.587        122293.500
        75   09 Jun 2027 09:49:19.377   09 Jun 2027 09:50:15.931            56.554         28277.000
        76   10 Jun 2027 03:30:34.362   10 Jun 2027 03:30:40.808             6.446          3223.000
        77   10 Jun 2027 03:31:44.069   10 Jun 2027 03:36:10.900           266.831        133415.500
        78   10 Jun 2027 05:06:29.622   10 Jun 2027 05:14:02.910           453.288        226644.000
        79   10 Jun 2027 06:44:01.112   10 Jun 2027 06:49:37.302           336.190        168095.000
        80   10 Jun 2027 08:21:49.340   10 Jun 2027 08:25:27.103           217.763        108881.500
        81   10 Jun 2027 09:54:45.329   10 Jun 2027 10:01:14.569           389.240        194620.000
        82   10 Jun 2027 10:01:50.065   10 Jun 2027 10:02:37.014            46.949         23474.500
        83   11 Jun 2027 03:41:26.549   11 Jun 2027 03:42:59.000            92.451         46225.500
        84   11 Jun 2027 03:43:27.436   11 Jun 2027 03:48:24.417           296.981        148490.500
        85   11 Jun 2027 05:18:37.656   11 Jun 2027 05:25:42.312           424.656        212328.000
        86   11 Jun 2027 05:26:03.101   11 Jun 2027 05:26:03.629             0.528           264.000
        87   11 Jun 2027 06:55:49.165   11 Jun 2027 07:01:43.591           354.426        177213.000
        88   11 Jun 2027 08:33:57.069   11 Jun 2027 08:37:29.684           212.615        106307.500
        89   11 Jun 2027 10:06:55.694   11 Jun 2027 10:14:06.463           430.769        215384.500
        90   12 Jun 2027 03:52:55.938   12 Jun 2027 04:00:45.621           469.683        234841.500
        91   12 Jun 2027 04:01:38.448   12 Jun 2027 04:02:01.466            23.018         11509.000
        92   12 Jun 2027 05:30:38.917   12 Jun 2027 05:38:05.433           446.516        223258.000
        93   12 Jun 2027 07:07:36.991   12 Jun 2027 07:13:21.054           344.063        172031.500
        94   12 Jun 2027 07:14:05.767   12 Jun 2027 07:14:09.850             4.083          2041.500
        95   12 Jun 2027 08:45:29.420   12 Jun 2027 08:49:38.766           249.346        124673.000
        96   12 Jun 2027 10:19:32.676   12 Jun 2027 10:25:04.811           332.135        166067.500
        97   13 Jun 2027 04:05:39.539   13 Jun 2027 04:12:59.026           439.487        219743.500
        98   13 Jun 2027 04:13:40.996   13 Jun 2027 04:14:09.078            28.082         14041.000
        99   13 Jun 2027 05:42:42.217   13 Jun 2027 05:50:03.060           440.843        220421.500
       100   13 Jun 2027 07:19:53.448   13 Jun 2027 07:24:40.234           286.786        143393.000
       101   13 Jun 2027 07:25:08.063   13 Jun 2027 07:25:58.142            50.079         25039.500
       102   13 Jun 2027 08:56:43.108   13 Jun 2027 09:01:36.791           293.683        146841.500
       103   13 Jun 2027 10:31:42.871   13 Jun 2027 10:32:28.683            45.812         22906.000
       104   13 Jun 2027 10:33:24.907   13 Jun 2027 10:36:44.970           200.063        100031.500
