uniorb/output/strategy_4/Camera/Camera_KinoSat_111001.txt

KinoSat_111001
-------------------------
    Access    *     Start Time (UTCG)     *     Stop Time (UTCG)  *   Duration (s) *   Data (Mbytes)
         1   01 Jun 2027 04:05:26.076   01 Jun 2027 04:07:12.318           106.242         53121.000
         2   01 Jun 2027 04:07:18.878   01 Jun 2027 04:07:21.802             2.924          1462.000
         3   01 Jun 2027 05:41:55.226   01 Jun 2027 05:43:52.014           116.788         58394.000
         4   01 Jun 2027 05:44:42.122   01 Jun 2027 05:44:51.892             9.770          4885.000
         5   01 Jun 2027 07:17:02.124   01 Jun 2027 07:19:38.456           156.332         78166.000
         6   01 Jun 2027 07:23:40.846   01 Jun 2027 07:23:47.187             6.341          3170.500
         7   01 Jun 2027 08:53:23.497   01 Jun 2027 08:55:57.553           154.056         77028.000
         8   01 Jun 2027 08:56:37.558   01 Jun 2027 08:57:00.060            22.502         11251.000
         9   01 Jun 2027 10:30:50.503   01 Jun 2027 10:33:08.506           138.003         69001.500
        10   01 Jun 2027 10:33:39.505   01 Jun 2027 10:33:47.512             8.007          4003.500
        11   01 Jun 2027 10:34:47.256   01 Jun 2027 10:35:13.537            26.281         13140.500
        12   02 Jun 2027 04:17:29.585   02 Jun 2027 04:18:05.064            35.479         17739.500
        13   02 Jun 2027 04:18:09.570   02 Jun 2027 04:18:16.953             7.383          3691.500
        14   02 Jun 2027 04:19:24.581   02 Jun 2027 04:19:24.581             0.000             0.000
        15   02 Jun 2027 05:53:58.604   02 Jun 2027 05:56:37.957           159.353         79676.500
        16   02 Jun 2027 05:57:01.671   02 Jun 2027 05:57:19.736            18.065          9032.500
        17   02 Jun 2027 07:29:09.433   02 Jun 2027 07:32:30.395           200.962        100481.000
        18   02 Jun 2027 07:32:56.095   02 Jun 2027 07:32:56.095             0.000             0.000
        19   02 Jun 2027 07:35:02.514   02 Jun 2027 07:35:17.052            14.538          7269.000
        20   02 Jun 2027 07:35:29.840   02 Jun 2027 07:35:45.861            16.021          8010.500
        21   02 Jun 2027 09:05:06.876   02 Jun 2027 09:09:04.409           237.533        118488.843
        22   02 Jun 2027 09:10:30.240   02 Jun 2027 09:10:31.376             1.136           568.000
        23   02 Jun 2027 10:42:57.158   02 Jun 2027 10:43:14.845            17.687          8493.156
        24   02 Jun 2027 10:45:27.209   02 Jun 2027 10:45:27.569             0.360            57.031
        25   02 Jun 2027 10:45:53.320   02 Jun 2027 10:45:55.187             1.867           804.719
        26   02 Jun 2027 10:46:27.634   02 Jun 2027 10:46:39.198            11.564           903.469
        27   02 Jun 2027 10:47:01.254   02 Jun 2027 10:47:04.165             2.911           689.250
        28   02 Jun 2027 10:47:15.224   02 Jun 2027 10:47:20.421             5.197           345.594
        29   03 Jun 2027 03:06:46.761   03 Jun 2027 03:07:10.662            23.901         11950.500
        30   03 Jun 2027 03:07:20.175   03 Jun 2027 03:07:26.786             6.611          3305.500
        31   03 Jun 2027 03:08:00.145   03 Jun 2027 03:08:39.447            39.302         19651.000
        32   03 Jun 2027 04:29:56.303   03 Jun 2027 04:30:39.992            43.689         21844.500
        33   03 Jun 2027 06:05:43.000   03 Jun 2027 06:08:27.657           164.657         82328.500
        34   03 Jun 2027 06:09:03.411   03 Jun 2027 06:09:11.753             8.342          4171.000
        35   03 Jun 2027 07:40:26.410   03 Jun 2027 07:40:50.828            24.418         12119.781
        36   03 Jun 2027 07:41:14.419   03 Jun 2027 07:41:17.256             2.837           156.125
        37   03 Jun 2027 07:42:35.674   03 Jun 2027 07:42:37.462             1.788           331.844
        38   03 Jun 2027 07:43:50.325   03 Jun 2027 07:43:52.280             1.955           170.656
        39   03 Jun 2027 07:44:59.495   03 Jun 2027 07:45:04.669             5.174           842.750
        40   03 Jun 2027 07:45:13.166   03 Jun 2027 07:45:15.666             2.500           108.375
        41   03 Jun 2027 07:46:01.431   03 Jun 2027 07:46:04.976             3.545           458.031
        42   03 Jun 2027 07:46:30.581   03 Jun 2027 07:46:34.475             3.894           757.219
        43   03 Jun 2027 07:47:11.190   03 Jun 2027 07:47:13.878             2.688           889.969
        44   03 Jun 2027 07:47:52.861   03 Jun 2027 07:47:56.505             3.644           664.531
        45   03 Jun 2027 09:17:11.157   03 Jun 2027 09:17:23.035            11.878          5839.969
        46   03 Jun 2027 09:20:56.887   03 Jun 2027 09:20:57.419             0.532           190.531
        47   03 Jun 2027 09:21:41.963   03 Jun 2027 09:21:45.700             3.737           964.156
        48   03 Jun 2027 09:22:04.546   03 Jun 2027 09:22:05.529             0.983           309.562
        49   03 Jun 2027 09:22:21.854   03 Jun 2027 09:22:22.598             0.744            42.219
        50   03 Jun 2027 10:55:28.025   03 Jun 2027 10:55:41.839            13.814          5251.156
        51   03 Jun 2027 10:56:12.233   03 Jun 2027 10:56:13.345             1.112           512.062
        52   03 Jun 2027 10:56:52.705   03 Jun 2027 10:56:58.560             5.855           917.531
        53   03 Jun 2027 10:57:28.047   03 Jun 2027 10:57:31.415             3.368           718.031
        54   03 Jun 2027 10:57:55.682   03 Jun 2027 10:57:59.826             4.144            87.250
        55   03 Jun 2027 10:58:57.355   03 Jun 2027 10:59:01.265             3.910           451.813
        56   03 Jun 2027 10:59:10.791   03 Jun 2027 10:59:15.718             4.927           190.156
        57   04 Jun 2027 03:06:22.520   04 Jun 2027 03:06:37.775            15.255          7627.500
        58   04 Jun 2027 03:07:42.156   04 Jun 2027 03:07:43.711             1.555           777.500
        59   04 Jun 2027 03:17:56.983   04 Jun 2027 03:19:25.479            88.496         44248.000
        60   04 Jun 2027 04:40:34.569   04 Jun 2027 04:41:32.843            58.274         29137.000
        61   04 Jun 2027 04:42:11.549   04 Jun 2027 04:43:18.517            66.968         33484.000
        62   04 Jun 2027 04:43:19.134   04 Jun 2027 04:43:23.381             4.247          2123.500
        63   04 Jun 2027 06:15:43.516   04 Jun 2027 06:16:57.128            73.612         35254.031
        64   04 Jun 2027 06:17:27.539   04 Jun 2027 06:17:31.392             3.853           664.562
        65   04 Jun 2027 06:18:30.659   04 Jun 2027 06:18:31.702             1.043           113.312
        66   04 Jun 2027 06:19:01.712   04 Jun 2027 06:19:06.126             4.414           890.406
        67   04 Jun 2027 06:19:41.468   04 Jun 2027 06:19:41.468             0.000             0.000
        68   04 Jun 2027 06:20:10.399   04 Jun 2027 06:20:15.646             5.247          1993.312
        69   04 Jun 2027 06:20:30.808   04 Jun 2027 06:20:31.730             0.922           375.875
        70   04 Jun 2027 06:21:39.334   04 Jun 2027 06:21:41.679             2.345          1172.500
        71   04 Jun 2027 06:22:01.126   04 Jun 2027 06:22:01.874             0.748           374.000
        72   04 Jun 2027 07:52:30.348   04 Jun 2027 07:52:37.370             7.022          2143.125
        73   04 Jun 2027 07:52:47.483   04 Jun 2027 07:52:48.371             0.888           192.156
        74   04 Jun 2027 07:54:25.252   04 Jun 2027 07:54:31.177             5.925          2209.469
        75   04 Jun 2027 07:56:34.392   04 Jun 2027 07:56:37.918             3.526          1579.781
        76   04 Jun 2027 07:57:21.880   04 Jun 2027 07:57:23.880             2.000           619.875
        77   04 Jun 2027 07:57:57.642   04 Jun 2027 07:58:01.508             3.866          1055.063
        78   04 Jun 2027 07:58:24.853   04 Jun 2027 07:58:28.449             3.596           621.344
        79   04 Jun 2027 07:59:51.227   04 Jun 2027 07:59:56.866             5.639          2586.812
        80   04 Jun 2027 09:29:31.378   04 Jun 2027 09:29:42.697            11.319          4988.875
        81   04 Jun 2027 09:30:53.840   04 Jun 2027 09:31:00.684             6.844           137.937
        82   04 Jun 2027 09:33:12.157   04 Jun 2027 09:33:13.320             1.163            30.281
        83   04 Jun 2027 09:33:45.502   04 Jun 2027 09:33:49.933             4.431           531.344
        84   04 Jun 2027 09:33:58.170   04 Jun 2027 09:34:01.954             3.784           207.812
        85   04 Jun 2027 09:34:22.147   04 Jun 2027 09:34:23.378             1.231           186.406
        86   04 Jun 2027 09:35:10.670   04 Jun 2027 09:35:13.464             2.794          1299.031
        87   04 Jun 2027 11:07:25.165   04 Jun 2027 11:07:35.914            10.749          4607.750
        88   04 Jun 2027 11:08:10.271   04 Jun 2027 11:08:14.937             4.666           927.250
        89   04 Jun 2027 11:09:26.552   04 Jun 2027 11:09:28.830             2.278           802.500
        90   04 Jun 2027 11:11:02.287   04 Jun 2027 11:11:03.573             1.286           371.813
        91   04 Jun 2027 11:11:19.200   04 Jun 2027 11:11:24.514             5.314           120.031
        92   05 Jun 2027 03:17:42.444   05 Jun 2027 03:18:24.200            41.756         20878.000
        93   05 Jun 2027 03:29:56.114   05 Jun 2027 03:30:54.756            58.642         29321.000
        94   05 Jun 2027 04:52:10.464   05 Jun 2027 04:53:17.819            67.355         33677.500
        95   05 Jun 2027 04:54:06.339   05 Jun 2027 04:54:46.903            40.564         20282.000
        96   05 Jun 2027 04:56:42.403   05 Jun 2027 04:56:52.844            10.441          5220.500
        97   05 Jun 2027 04:57:02.240   05 Jun 2027 04:57:02.240             0.000             0.000
        98   05 Jun 2027 06:27:03.577   05 Jun 2027 06:28:41.178            97.601         48800.500
        99   05 Jun 2027 06:28:44.345   05 Jun 2027 06:28:44.345             0.000             0.000
       100   05 Jun 2027 06:29:14.804   05 Jun 2027 06:29:21.718             6.914          1069.313
       101   05 Jun 2027 06:29:46.372   05 Jun 2027 06:29:50.149             3.777           486.313
       102   05 Jun 2027 06:30:17.889   05 Jun 2027 06:30:19.037             1.148            49.250
       103   05 Jun 2027 06:30:32.070   05 Jun 2027 06:30:32.958             0.888           251.531
       104   05 Jun 2027 06:30:40.903   05 Jun 2027 06:30:42.029             1.126           223.094
       105   05 Jun 2027 06:31:40.301   05 Jun 2027 06:31:43.536             3.235          1586.281
       106   05 Jun 2027 06:32:45.711   05 Jun 2027 06:32:47.741             2.030           943.875
       107   05 Jun 2027 06:33:51.026   05 Jun 2027 06:33:53.521             2.495          1247.500
       108   05 Jun 2027 06:34:30.722   05 Jun 2027 06:34:35.742             5.020          1879.031
       109   05 Jun 2027 08:04:38.188   05 Jun 2027 08:04:46.453             8.265          2447.625
       110   05 Jun 2027 08:05:17.167   05 Jun 2027 08:05:22.678             5.511           856.500
       111   05 Jun 2027 08:06:42.002   05 Jun 2027 08:06:45.624             3.622           535.219
       112   05 Jun 2027 08:10:09.012   05 Jun 2027 08:10:11.094             2.082           196.500
       113   05 Jun 2027 08:10:49.642   05 Jun 2027 08:10:51.575             1.933           674.187
       114   05 Jun 2027 08:11:54.728   05 Jun 2027 08:11:56.043             1.315           266.844
       115   05 Jun 2027 09:41:21.064   05 Jun 2027 09:41:31.939            10.875          5101.063
       116   05 Jun 2027 09:42:30.488   05 Jun 2027 09:42:31.726             1.238           600.250
       117   05 Jun 2027 09:43:59.341   05 Jun 2027 09:44:06.775             7.434          2308.000
       118   05 Jun 2027 09:44:30.759   05 Jun 2027 09:44:32.125             1.366           437.562
       119   05 Jun 2027 09:45:10.387   05 Jun 2027 09:45:12.842             2.455           812.344
       120   05 Jun 2027 09:45:29.617   05 Jun 2027 09:45:31.264             1.647            75.938
       121   05 Jun 2027 09:46:00.928   05 Jun 2027 09:46:03.587             2.659           917.281
       122   05 Jun 2027 09:47:01.312   05 Jun 2027 09:47:04.593             3.281          1500.687
       123   05 Jun 2027 09:47:54.031   05 Jun 2027 09:47:56.614             2.583          1090.875
       124   05 Jun 2027 11:19:25.100   05 Jun 2027 11:19:40.474            15.374          6012.437
       125   05 Jun 2027 11:21:24.924   05 Jun 2027 11:21:29.884             4.960          2246.062
       126   05 Jun 2027 11:21:49.497   05 Jun 2027 11:21:51.523             2.026           612.906
       127   05 Jun 2027 11:22:35.014   05 Jun 2027 11:22:42.225             7.211           130.687
       128   05 Jun 2027 11:23:09.811   05 Jun 2027 11:23:12.211             2.400           748.812
       129   05 Jun 2027 11:23:30.264   05 Jun 2027 11:23:34.436             4.172           349.656
       130   06 Jun 2027 03:29:48.195   06 Jun 2027 03:30:05.342            17.147          8573.500
       131   06 Jun 2027 03:30:49.561   06 Jun 2027 03:30:49.561             0.000             0.000
       132   06 Jun 2027 03:31:40.569   06 Jun 2027 03:31:42.364             1.795           897.500
       133   06 Jun 2027 03:42:11.029   06 Jun 2027 03:42:29.327            18.298          9149.000
       134   06 Jun 2027 05:03:39.191   06 Jun 2027 05:06:51.230           192.039         96019.500
       135   06 Jun 2027 05:07:17.970   06 Jun 2027 05:07:17.970             0.000             0.000
       136   06 Jun 2027 05:07:35.534   06 Jun 2027 05:07:44.234             8.700          4350.000
       137   06 Jun 2027 06:38:33.516   06 Jun 2027 06:39:52.931            79.415         39179.156
       138   06 Jun 2027 06:40:31.637   06 Jun 2027 06:40:34.992             3.355          1068.469
       139   06 Jun 2027 06:41:07.382   06 Jun 2027 06:41:07.759             0.377           188.500
       140   06 Jun 2027 06:41:14.472   06 Jun 2027 06:41:16.911             2.439           640.406
       141   06 Jun 2027 06:42:04.633   06 Jun 2027 06:42:09.661             5.028          1202.719
       142   06 Jun 2027 06:42:34.344   06 Jun 2027 06:42:35.605             1.261           277.219
       143   06 Jun 2027 06:43:00.626   06 Jun 2027 06:43:03.622             2.996           738.375
       144   06 Jun 2027 06:44:09.299   06 Jun 2027 06:44:15.287             5.988          1846.938
       145   06 Jun 2027 06:44:36.889   06 Jun 2027 06:44:38.057             1.168           563.437
       146   06 Jun 2027 06:45:12.644   06 Jun 2027 06:45:13.803             1.159           397.875
       147   06 Jun 2027 06:45:22.933   06 Jun 2027 06:45:25.608             2.675           180.125
       148   06 Jun 2027 06:45:46.761   06 Jun 2027 06:45:48.701             1.940           661.031
       149   06 Jun 2027 06:46:20.441   06 Jun 2027 06:46:21.907             1.466           656.875
       150   06 Jun 2027 06:47:29.914   06 Jun 2027 06:47:34.253             4.339          1887.750
       151   06 Jun 2027 08:16:33.199   06 Jun 2027 08:16:37.683             4.484           566.906
       152   06 Jun 2027 08:17:22.342   06 Jun 2027 08:17:28.388             6.046           903.437
       153   06 Jun 2027 08:20:28.329   06 Jun 2027 08:20:33.000             4.671          1988.438
       154   06 Jun 2027 08:21:25.667   06 Jun 2027 08:21:28.543             2.876          1062.375
       155   06 Jun 2027 08:22:52.672   06 Jun 2027 08:22:54.338             1.666           813.281
       156   06 Jun 2027 08:23:28.155   06 Jun 2027 08:23:32.267             4.112           635.000
       157   06 Jun 2027 08:23:39.104   06 Jun 2027 08:23:40.625             1.521            99.563
       158   06 Jun 2027 09:53:29.173   06 Jun 2027 09:53:40.838            11.665          5417.250
       159   06 Jun 2027 09:57:16.842   06 Jun 2027 09:57:21.169             4.327           989.906
       160   06 Jun 2027 09:58:08.106   06 Jun 2027 09:58:09.041             0.935           163.094
       161   06 Jun 2027 09:58:16.689   06 Jun 2027 09:58:17.482             0.793           110.500
       162   06 Jun 2027 09:58:30.687   06 Jun 2027 09:58:31.433             0.746           160.781
       163   06 Jun 2027 09:59:35.733   06 Jun 2027 09:59:39.633             3.900          1745.406
       164   06 Jun 2027 11:31:02.590   06 Jun 2027 11:31:21.718            19.128          6602.187
       165   06 Jun 2027 11:34:02.659   06 Jun 2027 11:34:05.314             2.655           512.875
       166   06 Jun 2027 11:34:27.910   06 Jun 2027 11:34:28.641             0.731           107.469
       167   06 Jun 2027 11:35:04.095   06 Jun 2027 11:35:05.942             1.847            33.531
       168   06 Jun 2027 11:35:30.468   06 Jun 2027 11:35:31.687             1.219           335.156
       169   07 Jun 2027 03:41:44.415   07 Jun 2027 03:42:05.999            21.584         10792.000
       170   07 Jun 2027 05:17:57.692   07 Jun 2027 05:21:05.420           187.728         93864.000
       171   07 Jun 2027 06:51:29.040   07 Jun 2027 06:53:16.100           107.060         53296.375
       172   07 Jun 2027 06:53:53.495   07 Jun 2027 06:53:54.792             1.297           407.969
       173   07 Jun 2027 06:54:14.155   07 Jun 2027 06:54:15.823             1.668           387.500
       174   07 Jun 2027 06:54:40.316   07 Jun 2027 06:54:41.060             0.744           123.000
       175   07 Jun 2027 06:55:43.671   07 Jun 2027 06:55:49.212             5.541          1697.750
       176   07 Jun 2027 06:57:40.296   07 Jun 2027 06:57:46.507             6.211          3105.500
       177   07 Jun 2027 06:58:35.712   07 Jun 2027 06:58:43.218             7.506          1543.750
       178   07 Jun 2027 06:59:07.034   07 Jun 2027 06:59:09.042             2.008           104.187
       179   07 Jun 2027 06:59:44.070   07 Jun 2027 06:59:48.291             4.221           909.656
       180   07 Jun 2027 06:59:52.293   07 Jun 2027 06:59:52.925             0.632           125.063
       181   07 Jun 2027 08:28:55.084   07 Jun 2027 08:28:59.888             4.804          1886.875
       182   07 Jun 2027 08:31:22.603   07 Jun 2027 08:31:26.566             3.963           469.531
       183   07 Jun 2027 08:33:26.845   07 Jun 2027 08:33:27.896             1.051           164.687
       184   07 Jun 2027 08:34:07.408   07 Jun 2027 08:34:13.192             5.784           278.312
       185   07 Jun 2027 08:34:53.198   07 Jun 2027 08:34:55.704             2.506           911.125
       186   07 Jun 2027 08:35:22.401   07 Jun 2027 08:35:25.354             2.953           286.438
       187   07 Jun 2027 08:35:33.907   07 Jun 2027 08:35:34.759             0.852           267.281
       188   07 Jun 2027 10:05:58.072   07 Jun 2027 10:06:12.007            13.935          6131.219
       189   07 Jun 2027 10:07:53.784   07 Jun 2027 10:07:58.047             4.263          2083.531
       190   07 Jun 2027 10:09:13.148   07 Jun 2027 10:09:15.093             1.945           274.938
       191   07 Jun 2027 10:09:33.739   07 Jun 2027 10:09:38.580             4.841           412.000
       192   07 Jun 2027 10:09:50.767   07 Jun 2027 10:09:51.496             0.729           167.719
       193   07 Jun 2027 10:10:04.013   07 Jun 2027 10:10:06.300             2.287           391.156
       194   07 Jun 2027 10:10:39.322   07 Jun 2027 10:10:42.553             3.231           730.563
       195   07 Jun 2027 10:11:27.521   07 Jun 2027 10:11:35.265             7.744          1157.094
       196   07 Jun 2027 11:42:45.223   07 Jun 2027 11:42:57.024            11.801          4830.406
       197   07 Jun 2027 11:45:16.160   07 Jun 2027 11:45:23.987             7.827          1696.031
       198   07 Jun 2027 11:45:57.828   07 Jun 2027 11:45:59.223             1.395           546.219
       199   07 Jun 2027 11:46:23.557   07 Jun 2027 11:46:25.088             1.531           637.000
       200   07 Jun 2027 11:47:19.955   07 Jun 2027 11:47:22.820             2.865           184.844
       201   08 Jun 2027 03:53:36.237   08 Jun 2027 03:54:28.468            52.231         26115.500
       202   08 Jun 2027 05:30:02.796   08 Jun 2027 05:32:16.284           133.488         66744.000
       203   08 Jun 2027 05:33:25.205   08 Jun 2027 05:33:34.980             9.775          4887.500
       204   08 Jun 2027 07:02:12.260   08 Jun 2027 07:02:22.585            10.325          5162.500
       205   08 Jun 2027 07:04:06.951   08 Jun 2027 07:05:56.697           109.746         54103.375
       206   08 Jun 2027 07:06:06.590   08 Jun 2027 07:06:09.612             3.022           272.469
       207   08 Jun 2027 07:06:38.152   08 Jun 2027 07:06:41.365             3.213           777.156
       208   08 Jun 2027 07:07:09.503   08 Jun 2027 07:07:11.750             2.247           807.219
       209   08 Jun 2027 07:09:01.991   08 Jun 2027 07:09:13.151            11.160          2763.063
       210   08 Jun 2027 07:09:28.666   08 Jun 2027 07:09:32.913             4.247           484.844
       211   08 Jun 2027 07:10:11.441   08 Jun 2027 07:10:16.383             4.942          1035.437
       212   08 Jun 2027 07:10:49.534   08 Jun 2027 07:10:53.779             4.245           841.594
       213   08 Jun 2027 07:11:07.939   08 Jun 2027 07:11:09.721             1.782           260.156
       214   08 Jun 2027 07:11:51.794   08 Jun 2027 07:11:54.364             2.570          1053.719
       215   08 Jun 2027 08:41:06.435   08 Jun 2027 08:41:18.195            11.760          4412.563
       216   08 Jun 2027 08:46:20.047   08 Jun 2027 08:46:29.283             9.236           644.094
       217   08 Jun 2027 08:47:34.524   08 Jun 2027 08:47:47.740            13.216          1035.250
       218   08 Jun 2027 10:18:09.395   08 Jun 2027 10:18:22.127            12.732          5723.938
       219   08 Jun 2027 10:22:01.100   08 Jun 2027 10:22:05.451             4.351          1879.594
       220   08 Jun 2027 10:22:55.658   08 Jun 2027 10:22:58.404             2.746          1060.125
       221   08 Jun 2027 10:23:04.876   08 Jun 2027 10:23:05.431             0.555            75.313
       222   08 Jun 2027 11:54:49.233   08 Jun 2027 11:55:05.154            15.921          7222.469
       223   08 Jun 2027 11:57:34.425   08 Jun 2027 11:57:35.557             1.132            84.188
       224   08 Jun 2027 11:58:22.013   08 Jun 2027 11:58:25.188             3.175           886.375
       225   08 Jun 2027 11:59:31.863   08 Jun 2027 11:59:33.012             1.149           383.938
       226   09 Jun 2027 04:05:41.620   09 Jun 2027 04:06:30.809            49.189         24594.500
       227   09 Jun 2027 05:42:10.435   09 Jun 2027 05:44:30.893           140.458         70229.000
       228   09 Jun 2027 07:17:17.979   09 Jun 2027 07:19:33.444           135.465         66855.312
       229   09 Jun 2027 07:20:25.576   09 Jun 2027 07:20:29.264             3.688           362.750
       230   09 Jun 2027 07:21:02.462   09 Jun 2027 07:21:04.079             1.617           543.563
       231   09 Jun 2027 07:22:23.047   09 Jun 2027 07:22:27.626             4.579          2227.625
       232   09 Jun 2027 07:23:35.008   09 Jun 2027 07:23:39.978             4.970          1746.156
       233   09 Jun 2027 07:23:41.644   09 Jun 2027 07:23:47.005             5.361            52.063
       234   09 Jun 2027 08:53:39.559   09 Jun 2027 08:53:50.027            10.468          4194.375
       235   09 Jun 2027 08:55:36.934   09 Jun 2027 08:55:37.911             0.977            24.000
       236   09 Jun 2027 08:56:39.751   09 Jun 2027 08:56:44.728             4.977           444.406
       237   09 Jun 2027 08:58:14.413   09 Jun 2027 08:58:16.195             1.782           403.250
       238   09 Jun 2027 08:59:07.387   09 Jun 2027 08:59:08.538             1.151           461.688
       239   09 Jun 2027 08:59:44.850   09 Jun 2027 08:59:47.624             2.774          1102.750
       240   09 Jun 2027 10:31:05.485   09 Jun 2027 10:31:22.431            16.946          5758.063
       241   09 Jun 2027 10:32:37.779   09 Jun 2027 10:32:38.628             0.849           413.687
       242   09 Jun 2027 10:33:21.465   09 Jun 2027 10:33:23.672             2.207           145.094
       243   09 Jun 2027 10:33:41.913   09 Jun 2027 10:33:44.603             2.690           181.437
       244   09 Jun 2027 10:35:01.989   09 Jun 2027 10:35:05.892             3.903          1641.844
       245   09 Jun 2027 10:35:08.665   09 Jun 2027 10:35:10.901             2.236            81.219
       246   10 Jun 2027 04:17:44.617   10 Jun 2027 04:18:19.890            35.273         17636.500
       247   10 Jun 2027 04:19:03.005   10 Jun 2027 04:19:07.533             4.528          2264.000
       248   10 Jun 2027 04:20:29.965   10 Jun 2027 04:20:35.164             5.199          2599.500
       249   10 Jun 2027 04:20:44.783   10 Jun 2027 04:20:46.766             1.983           991.500
       250   10 Jun 2027 05:54:13.484   10 Jun 2027 05:56:41.595           148.111         74055.500
       251   10 Jun 2027 05:57:17.106   10 Jun 2027 05:57:20.569             3.463          1731.500
       252   10 Jun 2027 07:29:24.924   10 Jun 2027 07:31:14.793           109.869         53720.437
       253   10 Jun 2027 07:31:43.585   10 Jun 2027 07:31:48.098             4.513           452.469
       254   10 Jun 2027 07:32:12.461   10 Jun 2027 07:32:13.160             0.699            63.469
       255   10 Jun 2027 07:32:47.429   10 Jun 2027 07:32:51.844             4.415           939.062
       256   10 Jun 2027 07:34:22.969   10 Jun 2027 07:34:32.109             9.140          2192.594
       257   10 Jun 2027 07:35:18.475   10 Jun 2027 07:35:21.201             2.726          1037.219
       258   10 Jun 2027 07:35:35.502   10 Jun 2027 07:35:35.784             0.282           141.000
       259   10 Jun 2027 07:35:49.802   10 Jun 2027 07:35:51.951             2.149           597.594
       260   10 Jun 2027 09:05:21.151   10 Jun 2027 09:05:31.062             9.911          4555.750
       261   10 Jun 2027 09:09:36.797   10 Jun 2027 09:09:42.072             5.275          1360.906
       262   10 Jun 2027 09:10:41.956   10 Jun 2027 09:10:45.183             3.227          1099.656
       263   10 Jun 2027 10:43:12.659   10 Jun 2027 10:43:27.342            14.683          5787.656
       264   10 Jun 2027 10:44:42.986   10 Jun 2027 10:44:45.995             3.009           322.000
       265   10 Jun 2027 10:45:40.612   10 Jun 2027 10:45:42.048             1.436           681.594
       266   10 Jun 2027 10:45:42.717   10 Jun 2027 10:45:44.770             2.053             1.875
       267   10 Jun 2027 10:46:08.020   10 Jun 2027 10:46:09.885             1.865           726.563
       268   10 Jun 2027 10:46:18.374   10 Jun 2027 10:46:20.218             1.844           103.563
       269   10 Jun 2027 10:46:54.653   10 Jun 2027 10:46:57.451             2.798           368.563
       270   10 Jun 2027 10:47:28.128   10 Jun 2027 10:47:29.485             1.357           267.375
       271   10 Jun 2027 10:47:39.739   10 Jun 2027 10:47:42.748             3.009           301.344
       272   11 Jun 2027 03:06:14.087   11 Jun 2027 03:06:38.893            24.806         12403.000
       273   11 Jun 2027 03:07:25.659   11 Jun 2027 03:08:17.404            51.745         25872.500
       274   11 Jun 2027 03:09:29.784   11 Jun 2027 03:09:45.831            16.047          8023.500
       275   11 Jun 2027 04:30:11.287   11 Jun 2027 04:30:36.211            24.924         12462.000
       276   11 Jun 2027 04:30:39.573   11 Jun 2027 04:30:55.037            15.464          7732.000
       277   11 Jun 2027 04:32:14.260   11 Jun 2027 04:32:24.840            10.580          5290.000
       278   11 Jun 2027 06:05:57.616   11 Jun 2027 06:08:53.907           176.291         86086.375
       279   11 Jun 2027 07:40:40.664   11 Jun 2027 07:40:48.431             7.767          3513.406
       280   11 Jun 2027 07:41:31.224   11 Jun 2027 07:41:38.151             6.927           902.469
       281   11 Jun 2027 07:44:05.558   11 Jun 2027 07:44:07.708             2.150           127.437
       282   11 Jun 2027 07:44:49.541   11 Jun 2027 07:44:50.605             1.064           185.594
       283   11 Jun 2027 07:46:22.272   11 Jun 2027 07:46:26.618             4.346          2059.844
       284   11 Jun 2027 07:47:52.127   11 Jun 2027 07:48:01.320             9.193          2168.250
       285   11 Jun 2027 09:17:26.596   11 Jun 2027 09:17:38.894            12.298          6096.844
       286   11 Jun 2027 09:21:12.446   11 Jun 2027 09:21:13.244             0.798            70.344
       287   11 Jun 2027 09:22:10.804   11 Jun 2027 09:22:12.496             1.692           444.500
       288   11 Jun 2027 09:23:00.216   11 Jun 2027 09:23:03.302             3.086          1415.156
       289   11 Jun 2027 10:55:42.480   11 Jun 2027 10:55:54.583            12.103          5905.563
       290   11 Jun 2027 10:56:11.358   11 Jun 2027 10:56:20.124             8.766           431.937
       291   11 Jun 2027 10:57:45.269   11 Jun 2027 10:57:48.702             3.433           763.406
       292   11 Jun 2027 10:58:58.567   11 Jun 2027 10:59:10.049            11.482          2183.281
       293   11 Jun 2027 10:59:19.308   11 Jun 2027 10:59:20.724             1.416           194.187
       294   11 Jun 2027 10:59:32.586   11 Jun 2027 10:59:34.456             1.870           112.188
       295   12 Jun 2027 03:06:36.314   12 Jun 2027 03:06:52.850            16.536          8268.000
       296   12 Jun 2027 03:07:15.624   12 Jun 2027 03:07:15.624             0.000             0.000
       297   12 Jun 2027 03:07:56.771   12 Jun 2027 03:07:56.771             0.000             0.000
       298   12 Jun 2027 03:18:12.276   12 Jun 2027 03:19:40.501            88.225         44112.500
       299   12 Jun 2027 04:40:48.765   12 Jun 2027 04:41:47.516            58.751         29375.500
       300   12 Jun 2027 04:42:26.932   12 Jun 2027 04:42:56.838            29.906         14953.000
       301   12 Jun 2027 04:45:20.652   12 Jun 2027 04:45:22.635             1.983           991.500
       302   12 Jun 2027 06:15:58.382   12 Jun 2027 06:17:12.501            74.119         37059.500
       303   12 Jun 2027 06:17:40.915   12 Jun 2027 06:18:16.882            35.967         17941.219
       304   12 Jun 2027 06:18:46.018   12 Jun 2027 06:18:46.018             0.000             0.000
       305   12 Jun 2027 06:18:48.655   12 Jun 2027 06:18:48.981             0.326           163.000
       306   12 Jun 2027 06:19:17.559   12 Jun 2027 06:19:21.263             3.704           939.094
       307   12 Jun 2027 06:19:58.739   12 Jun 2027 06:19:58.739             0.000             0.000
       308   12 Jun 2027 06:20:26.926   12 Jun 2027 06:20:34.228             7.302          1952.125
       309   12 Jun 2027 06:21:40.312   12 Jun 2027 06:21:44.683             4.371          2065.125
       310   12 Jun 2027 06:21:57.556   12 Jun 2027 06:21:59.594             2.038           284.438
       311   12 Jun 2027 06:22:30.946   12 Jun 2027 06:22:32.109             1.163           448.125
       312   12 Jun 2027 07:52:46.035   12 Jun 2027 07:52:51.143             5.108          2062.156
       313   12 Jun 2027 07:53:31.522   12 Jun 2027 07:53:34.819             3.297           834.062
       314   12 Jun 2027 07:55:59.006   12 Jun 2027 07:55:59.657             0.651           197.531
       315   12 Jun 2027 07:56:51.381   12 Jun 2027 07:56:55.475             4.094          1588.344
       316   12 Jun 2027 07:57:38.403   12 Jun 2027 07:57:41.748             3.345           669.156
       317   12 Jun 2027 07:58:43.285   12 Jun 2027 07:58:48.275             4.990          1890.469
       318   12 Jun 2027 07:59:20.325   12 Jun 2027 07:59:22.822             2.497           912.844
       319   12 Jun 2027 07:59:36.865   12 Jun 2027 07:59:44.616             7.751           150.875
       320   12 Jun 2027 08:00:11.661   12 Jun 2027 08:00:12.079             0.418           171.375
       321   12 Jun 2027 09:29:47.065   12 Jun 2027 09:29:59.181            12.116          5578.594
       322   12 Jun 2027 09:30:46.392   12 Jun 2027 09:30:52.171             5.779           724.594
       323   12 Jun 2027 09:32:15.734   12 Jun 2027 09:32:19.553             3.819           172.844
       324   12 Jun 2027 09:33:38.884   12 Jun 2027 09:33:43.043             4.159           273.781
       325   12 Jun 2027 09:34:01.024   12 Jun 2027 09:34:03.407             2.383           561.906
       326   12 Jun 2027 09:34:14.297   12 Jun 2027 09:34:16.686             2.389           223.406
       327   12 Jun 2027 09:35:29.739   12 Jun 2027 09:35:34.058             4.319          1658.000
       328   12 Jun 2027 11:07:40.450   12 Jun 2027 11:07:52.805            12.355          5046.406
       329   12 Jun 2027 11:09:17.050   12 Jun 2027 11:09:19.720             2.670           476.688
       330   12 Jun 2027 11:11:00.740   12 Jun 2027 11:11:04.910             4.170          2081.812
       331   12 Jun 2027 11:11:18.058   12 Jun 2027 11:11:23.325             5.267           410.875
       332   12 Jun 2027 11:11:30.776   12 Jun 2027 11:11:33.057             2.281           206.063
       333   13 Jun 2027 03:17:57.618   13 Jun 2027 03:17:57.944             0.326           163.000
       334   13 Jun 2027 03:19:18.688   13 Jun 2027 03:20:10.003            51.315         25657.500
       335   13 Jun 2027 03:30:11.338   13 Jun 2027 03:31:09.526            58.188         29094.000
       336   13 Jun 2027 04:52:24.642   13 Jun 2027 04:53:33.138            68.496         34248.000
       337   13 Jun 2027 04:54:21.146   13 Jun 2027 04:54:56.879            35.733         17866.500
       338   13 Jun 2027 04:56:46.579   13 Jun 2027 04:56:54.108             7.529          3764.500
       339   13 Jun 2027 04:57:20.525   13 Jun 2027 04:57:39.954            19.429          9714.500
       340   13 Jun 2027 06:27:18.328   13 Jun 2027 06:28:33.183            74.855         37427.500
       341   13 Jun 2027 06:28:53.202   13 Jun 2027 06:28:55.704             2.502          1130.657
       342   13 Jun 2027 06:29:30.562   13 Jun 2027 06:29:37.740             7.178          1058.000
       343   13 Jun 2027 06:30:03.772   13 Jun 2027 06:30:04.956             1.184           582.062
       344   13 Jun 2027 06:30:33.793   13 Jun 2027 06:30:36.040             2.247            61.500
       345   13 Jun 2027 06:30:48.473   13 Jun 2027 06:30:50.202             1.729           298.344
       346   13 Jun 2027 06:30:54.272   13 Jun 2027 06:30:54.272             0.000             0.000
       347   13 Jun 2027 06:31:15.922   13 Jun 2027 06:31:18.581             2.659           754.813
       348   13 Jun 2027 06:33:02.379   13 Jun 2027 06:33:09.218             6.839          3005.281
       349   13 Jun 2027 06:34:08.387   13 Jun 2027 06:34:12.126             3.739          1652.750
       350   13 Jun 2027 06:34:23.694   13 Jun 2027 06:34:23.952             0.258            22.281
       351   13 Jun 2027 06:34:46.832   13 Jun 2027 06:34:50.640             3.808           373.188
       352   13 Jun 2027 08:04:53.068   13 Jun 2027 08:05:00.944             7.876          2423.656
       353   13 Jun 2027 08:06:41.099   13 Jun 2027 08:06:46.602             5.503          2087.125
       354   13 Jun 2027 08:07:46.130   13 Jun 2027 08:07:49.807             3.677          1442.531
       355   13 Jun 2027 08:09:31.353   13 Jun 2027 08:09:37.156             5.803          1201.875
       356   13 Jun 2027 08:10:18.485   13 Jun 2027 08:10:18.558             0.073            36.500
       357   13 Jun 2027 08:10:53.771   13 Jun 2027 08:10:56.860             3.089          1519.938
       358   13 Jun 2027 08:12:01.122   13 Jun 2027 08:12:06.753             5.631          1675.125
       359   13 Jun 2027 08:12:15.247   13 Jun 2027 08:12:15.699             0.452           226.000
       360   13 Jun 2027 09:41:36.367   13 Jun 2027 09:41:48.084            11.717          5293.594
       361   13 Jun 2027 09:42:27.790   13 Jun 2027 09:42:31.365             3.575           734.781
       362   13 Jun 2027 09:43:01.357   13 Jun 2027 09:43:02.467             1.110           483.344
       363   13 Jun 2027 09:44:14.718   13 Jun 2027 09:44:16.450             1.732           301.312
       364   13 Jun 2027 09:44:43.960   13 Jun 2027 09:44:46.263             2.303           313.750
       365   13 Jun 2027 09:45:24.827   13 Jun 2027 09:45:25.754             0.927            41.594
       366   13 Jun 2027 09:45:47.354   13 Jun 2027 09:45:48.340             0.986            47.469
       367   13 Jun 2027 09:45:51.410   13 Jun 2027 09:45:55.674             4.264            86.563
       368   13 Jun 2027 09:46:05.934   13 Jun 2027 09:46:08.310             2.376           246.625
       369   13 Jun 2027 09:46:46.463   13 Jun 2027 09:46:48.709             2.246           920.219
       370   13 Jun 2027 09:46:57.091   13 Jun 2027 09:47:00.909             3.818           261.938
       371   13 Jun 2027 09:47:56.851   13 Jun 2027 09:48:03.486             6.635          1303.125
       372   13 Jun 2027 11:19:39.910   13 Jun 2027 11:19:54.838            14.928          6173.406
       373   13 Jun 2027 11:21:40.278   13 Jun 2027 11:21:45.413             5.135          2263.375
       374   13 Jun 2027 11:22:04.144   13 Jun 2027 11:22:06.601             2.457           531.344
       375   13 Jun 2027 11:22:51.079   13 Jun 2027 11:22:57.667             6.588           182.719
       376   13 Jun 2027 11:23:41.689   13 Jun 2027 11:23:44.766             3.077          1182.000
       377   13 Jun 2027 11:23:45.998   13 Jun 2027 11:23:47.965             1.967            38.500
