uniorb/output/strategy_4/Camera/Camera_KinoSat_110401.txt

KinoSat_110401
-------------------------
    Access    *     Start Time (UTCG)     *     Stop Time (UTCG)  *   Duration (s) *   Data (Mbytes)
         1   01 Jun 2027 04:29:57.825   01 Jun 2027 04:32:18.998           141.173         70586.500
         2   01 Jun 2027 04:32:34.500   01 Jun 2027 04:32:41.139             6.639          3319.500
         3   01 Jun 2027 04:35:17.263   01 Jun 2027 04:35:54.977            37.714         18857.000
         4   01 Jun 2027 04:36:10.886   01 Jun 2027 04:36:10.886             0.000             0.000
         5   01 Jun 2027 04:36:29.467   01 Jun 2027 04:36:34.856             5.389          2694.500
         6   01 Jun 2027 04:36:40.207   01 Jun 2027 04:36:48.528             8.321          4160.500
         7   01 Jun 2027 04:37:19.215   01 Jun 2027 04:37:23.983             4.768          2384.000
         8   01 Jun 2027 06:06:58.699   01 Jun 2027 06:09:41.910           163.211         81605.500
         9   01 Jun 2027 06:11:57.484   01 Jun 2027 06:12:28.728            31.244         15622.000
        10   01 Jun 2027 07:44:59.170   01 Jun 2027 07:48:07.939           188.769         94384.500
        11   01 Jun 2027 07:48:50.657   01 Jun 2027 07:48:56.003             5.346          2673.000
        12   01 Jun 2027 09:18:13.069   01 Jun 2027 09:21:32.539           199.470         99735.000
        13   01 Jun 2027 09:21:54.063   01 Jun 2027 09:22:11.975            17.912          8956.000
        14   01 Jun 2027 09:24:34.323   01 Jun 2027 09:24:52.531            18.208          9104.000
        15   01 Jun 2027 09:25:02.893   01 Jun 2027 09:25:07.459             4.566          2283.000
        16   01 Jun 2027 09:25:37.370   01 Jun 2027 09:25:50.724            13.354          6677.000
        17   02 Jun 2027 03:04:54.319   02 Jun 2027 03:06:28.409            94.090         47045.000
        18   02 Jun 2027 03:06:55.866   02 Jun 2027 03:11:45.296           289.430        144715.000
        19   02 Jun 2027 03:12:50.123   02 Jun 2027 03:13:04.714            14.591          7295.500
        20   02 Jun 2027 04:42:06.711   02 Jun 2027 04:44:45.183           158.472         79236.000
        21   02 Jun 2027 04:45:10.541   02 Jun 2027 04:45:11.657             1.116           558.000
        22   02 Jun 2027 04:46:24.360   02 Jun 2027 04:47:06.919            42.559         21279.500
        23   02 Jun 2027 04:47:58.251   02 Jun 2027 04:48:15.563            17.312          8656.000
        24   02 Jun 2027 04:48:33.218   02 Jun 2027 04:49:32.530            59.312         29656.000
        25   02 Jun 2027 06:19:03.888   02 Jun 2027 06:25:12.473           368.585        184292.500
        26   02 Jun 2027 07:57:22.242   02 Jun 2027 08:00:58.350           216.108        108054.000
        27   02 Jun 2027 09:30:31.297   02 Jun 2027 09:37:50.856           439.559        219779.500
        28   03 Jun 2027 03:16:23.899   03 Jun 2027 03:24:14.714           470.815        235407.500
        29   03 Jun 2027 03:24:40.245   03 Jun 2027 03:25:33.162            52.917         26458.500
        30   03 Jun 2027 04:54:08.508   03 Jun 2027 05:01:34.278           445.770        222885.000
        31   03 Jun 2027 06:31:03.066   03 Jun 2027 06:36:49.749           346.683        173341.500
        32   03 Jun 2027 06:36:57.725   03 Jun 2027 06:37:38.827            41.102         20551.000
        33   03 Jun 2027 08:09:10.065   03 Jun 2027 08:13:07.656           237.591        118795.500
        34   03 Jun 2027 09:43:01.590   03 Jun 2027 09:49:31.316           389.726        194863.000
        35   04 Jun 2027 03:29:08.349   04 Jun 2027 03:36:27.991           439.642        219821.000
        36   04 Jun 2027 03:36:49.900   04 Jun 2027 03:37:37.894            47.994         23997.000
        37   04 Jun 2027 05:06:11.453   04 Jun 2027 05:13:31.616           440.163        220081.500
        38   04 Jun 2027 06:43:21.938   04 Jun 2027 06:48:08.887           286.949        143474.500
        39   04 Jun 2027 06:48:19.984   04 Jun 2027 06:49:26.529            66.545         33272.500
        40   04 Jun 2027 08:20:13.967   04 Jun 2027 08:25:05.577           291.610        145805.000
        41   04 Jun 2027 09:55:13.603   04 Jun 2027 09:55:56.950            43.347         21673.500
        42   04 Jun 2027 09:56:53.453   04 Jun 2027 09:59:12.065           138.612         69306.000
        43   04 Jun 2027 09:59:57.790   04 Jun 2027 10:00:13.349            15.559          7779.500
        44   05 Jun 2027 03:41:06.292   05 Jun 2027 03:49:37.139           510.847        255423.500
        45   05 Jun 2027 05:18:37.128   05 Jun 2027 05:25:22.127           404.999        202499.500
        46   05 Jun 2027 06:55:46.366   05 Jun 2027 06:59:56.732           250.366        125183.000
        47   05 Jun 2027 07:00:02.975   05 Jun 2027 07:01:20.226            77.251         38625.500
        48   05 Jun 2027 08:32:30.931   05 Jun 2027 08:36:56.315           265.384        132692.000
        49   05 Jun 2027 10:10:00.862   05 Jun 2027 10:11:43.660           102.798         51399.000
        50   06 Jun 2027 03:53:55.942   06 Jun 2027 04:00:31.286           395.344        197672.000
        51   06 Jun 2027 04:00:34.510   06 Jun 2027 04:01:32.375            57.865         28932.500
        52   06 Jun 2027 05:30:43.807   06 Jun 2027 05:37:26.777           402.970        201485.000
        53   06 Jun 2027 07:08:42.329   06 Jun 2027 07:12:52.398           250.069        125034.500
        54   06 Jun 2027 08:44:37.279   06 Jun 2027 08:49:14.098           276.819        138409.500
        55   07 Jun 2027 04:06:57.101   07 Jun 2027 04:13:34.034           396.933        198466.500
        56   07 Jun 2027 05:43:19.599   07 Jun 2027 05:49:32.652           373.053        186526.500
        57   07 Jun 2027 07:20:43.236   07 Jun 2027 07:25:12.819           269.583        134791.500
        58   07 Jun 2027 08:56:49.551   07 Jun 2027 09:01:32.917           283.366        141683.000
        59   08 Jun 2027 04:18:38.871   08 Jun 2027 04:25:41.293           422.422        211211.000
        60   08 Jun 2027 05:54:51.496   08 Jun 2027 06:01:19.142           387.646        193823.000
        61   08 Jun 2027 07:33:30.958   08 Jun 2027 07:37:03.115           212.157        106078.500
        62   08 Jun 2027 09:08:45.401   08 Jun 2027 09:12:55.973           250.572        125286.000
        63   08 Jun 2027 09:13:19.939   08 Jun 2027 09:14:00.154            40.215         20107.500
        64   09 Jun 2027 04:30:12.283   09 Jun 2027 04:37:46.174           453.891        226945.500
        65   09 Jun 2027 06:07:13.446   09 Jun 2027 06:13:21.148           367.702        183851.000
        66   09 Jun 2027 07:45:55.372   09 Jun 2027 07:49:10.610           195.238         97619.000
        67   09 Jun 2027 09:18:27.262   09 Jun 2027 09:24:37.656           370.394        185197.000
        68   09 Jun 2027 09:24:38.456   09 Jun 2027 09:26:20.368           101.912         50956.000
        69   10 Jun 2027 03:05:08.696   10 Jun 2027 03:06:48.996           100.300         50150.000
        70   10 Jun 2027 03:07:10.338   10 Jun 2027 03:12:08.824           298.486        149243.000
        71   10 Jun 2027 03:13:09.104   10 Jun 2027 03:13:19.518            10.414          5207.000
        72   10 Jun 2027 04:42:21.464   10 Jun 2027 04:49:47.188           445.724        222862.000
        73   10 Jun 2027 06:19:18.225   10 Jun 2027 06:25:27.119           368.894        184447.000
        74   10 Jun 2027 07:57:21.472   10 Jun 2027 08:01:12.888           231.416        115708.000
        75   10 Jun 2027 09:30:45.931   10 Jun 2027 09:35:21.140           275.209        137604.500
        76   10 Jun 2027 09:35:23.880   10 Jun 2027 09:38:05.468           161.588         80794.000
        77   11 Jun 2027 03:16:38.213   11 Jun 2027 03:24:29.425           471.212        235606.000
        78   11 Jun 2027 03:24:54.886   11 Jun 2027 03:25:48.070            53.184         26592.000
        79   11 Jun 2027 04:54:23.350   11 Jun 2027 05:01:48.913           445.563        222781.500
        80   11 Jun 2027 06:31:17.354   11 Jun 2027 06:37:04.283           346.929        173464.500
        81   11 Jun 2027 06:37:12.123   11 Jun 2027 06:37:53.510            41.387         20693.500
        82   11 Jun 2027 08:09:14.803   11 Jun 2027 08:13:22.401           247.598        123799.000
        83   11 Jun 2027 09:43:16.249   11 Jun 2027 09:49:45.758           389.509        194754.500
        84   12 Jun 2027 03:29:23.029   12 Jun 2027 03:36:42.641           439.612        219806.000
        85   12 Jun 2027 03:37:07.443   12 Jun 2027 03:37:52.492            45.049         22524.500
        86   12 Jun 2027 05:06:26.231   12 Jun 2027 05:13:46.133           439.902        219951.000
        87   12 Jun 2027 06:43:38.835   12 Jun 2027 06:48:23.443           284.608        142304.000
        88   12 Jun 2027 06:48:34.242   12 Jun 2027 06:49:40.978            66.736         33368.000
        89   12 Jun 2027 08:20:36.214   12 Jun 2027 08:25:20.187           283.973        141986.500
        90   12 Jun 2027 09:55:28.540   12 Jun 2027 09:56:11.692            43.152         21576.000
        91   12 Jun 2027 09:57:24.196   12 Jun 2027 10:00:27.788           183.592         91796.000
        92   13 Jun 2027 03:41:21.000   13 Jun 2027 03:49:51.761           510.761        255380.500
        93   13 Jun 2027 05:18:52.030   13 Jun 2027 05:25:36.736           404.706        202353.000
        94   13 Jun 2027 06:56:02.915   13 Jun 2027 07:00:11.375           248.460        124230.000
        95   13 Jun 2027 07:00:16.919   13 Jun 2027 07:01:34.761            77.842         38921.000
        96   13 Jun 2027 08:32:46.135   13 Jun 2027 08:37:10.996           264.861        132430.500
        97   13 Jun 2027 10:10:15.516   13 Jun 2027 10:11:58.661           103.145         51572.500
