uniorb/output/strategy_4/Camera/Camera_KinoSat_110906.txt

KinoSat_110906
-------------------------
    Access    *     Start Time (UTCG)     *     Stop Time (UTCG)  *   Duration (s) *   Data (Mbytes)
         1   01 Jun 2027 03:21:26.235   01 Jun 2027 03:22:38.003            71.768         35884.000
         2   01 Jun 2027 03:23:14.376   01 Jun 2027 03:23:21.523             7.147          3573.500
         3   01 Jun 2027 04:57:48.616   01 Jun 2027 04:59:45.748           117.132         58566.000
         4   01 Jun 2027 05:00:53.479   01 Jun 2027 05:01:02.720             9.241          4620.500
         5   01 Jun 2027 06:31:43.679   01 Jun 2027 06:33:30.428           106.749         53374.500
         6   01 Jun 2027 06:34:20.227   01 Jun 2027 06:34:20.227             0.000             0.000
         7   01 Jun 2027 06:34:41.608   01 Jun 2027 06:34:50.094             8.486          4243.000
         8   01 Jun 2027 06:37:59.755   01 Jun 2027 06:38:02.262             2.507          1253.500
         9   01 Jun 2027 06:38:29.649   01 Jun 2027 06:38:38.341             8.692          4346.000
        10   01 Jun 2027 06:38:54.661   01 Jun 2027 06:39:06.559            11.898          5949.000
        11   01 Jun 2027 06:39:35.042   01 Jun 2027 06:39:40.047             5.005          2502.500
        12   01 Jun 2027 08:08:55.387   01 Jun 2027 08:11:15.303           139.916         69958.000
        13   01 Jun 2027 08:11:30.379   01 Jun 2027 08:11:38.722             8.343          4171.500
        14   01 Jun 2027 09:45:57.333   01 Jun 2027 09:47:46.627           109.294         54647.000
        15   01 Jun 2027 09:48:33.629   01 Jun 2027 09:49:29.644            56.015         28007.500
        16   01 Jun 2027 09:49:54.681   01 Jun 2027 09:50:07.534            12.853          6426.500
        17   01 Jun 2027 11:22:42.132   01 Jun 2027 11:25:12.729           150.597         75298.500
        18   01 Jun 2027 11:26:06.282   01 Jun 2027 11:26:41.253            34.971         17485.500
        19   02 Jun 2027 03:33:18.481   02 Jun 2027 03:33:39.289            20.808         10404.000
        20   02 Jun 2027 05:09:52.244   02 Jun 2027 05:13:04.524           192.280         96140.000
        21   02 Jun 2027 06:45:00.779   02 Jun 2027 06:48:08.479           187.700         93850.000
        22   02 Jun 2027 06:51:42.187   02 Jun 2027 06:51:49.167             6.980          3490.000
        23   02 Jun 2027 08:21:20.810   02 Jun 2027 08:25:57.359           276.549        137431.688
        24   02 Jun 2027 09:58:54.372   02 Jun 2027 09:59:22.718            28.346         13407.969
        25   02 Jun 2027 10:01:39.759   02 Jun 2027 10:01:46.340             6.581          2123.031
        26   02 Jun 2027 10:02:21.209   02 Jun 2027 10:02:21.665             0.456           181.844
        27   02 Jun 2027 10:03:10.380   02 Jun 2027 10:03:12.524             2.144          1062.094
        28   02 Jun 2027 11:34:58.317   02 Jun 2027 11:35:12.248            13.931          5788.500
        29   03 Jun 2027 03:45:27.892   03 Jun 2027 03:45:40.054            12.162          6081.000
        30   03 Jun 2027 05:22:02.854   03 Jun 2027 05:24:24.411           141.557         70778.500
        31   03 Jun 2027 06:57:12.626   03 Jun 2027 06:59:44.010           151.384         75317.125
        32   03 Jun 2027 06:59:56.015   03 Jun 2027 06:59:56.112             0.097            27.625
        33   03 Jun 2027 07:00:18.313   03 Jun 2027 07:00:19.631             1.318           307.219
        34   03 Jun 2027 07:01:58.911   03 Jun 2027 07:02:08.441             9.530          3102.500
        35   03 Jun 2027 07:03:10.593   03 Jun 2027 07:03:10.593             0.000             0.000
        36   03 Jun 2027 07:03:12.362   03 Jun 2027 07:03:16.357             3.995          1674.719
        37   03 Jun 2027 07:03:32.278   03 Jun 2027 07:03:33.750             1.472           368.063
        38   03 Jun 2027 08:33:33.814   03 Jun 2027 08:33:40.664             6.850          2224.500
        39   03 Jun 2027 08:35:17.838   03 Jun 2027 08:35:21.942             4.104          1899.437
        40   03 Jun 2027 08:36:01.860   03 Jun 2027 08:36:02.663             0.803           144.563
        41   03 Jun 2027 08:36:51.496   03 Jun 2027 08:36:55.787             4.291           175.469
        42   03 Jun 2027 08:38:06.788   03 Jun 2027 08:38:08.642             1.854           853.531
        43   03 Jun 2027 08:39:04.889   03 Jun 2027 08:39:08.500             3.611          1418.438
        44   03 Jun 2027 10:10:50.876   03 Jun 2027 10:11:03.635            12.759          5848.844
        45   03 Jun 2027 10:11:35.663   03 Jun 2027 10:11:40.608             4.945           466.219
        46   03 Jun 2027 10:13:10.781   03 Jun 2027 10:13:11.506             0.725           329.656
        47   03 Jun 2027 10:13:56.183   03 Jun 2027 10:14:04.649             8.466           266.500
        48   03 Jun 2027 10:14:48.444   03 Jun 2027 10:14:50.395             1.951           686.719
        49   03 Jun 2027 10:15:12.908   03 Jun 2027 10:15:17.069             4.161           627.969
        50   03 Jun 2027 10:15:30.128   03 Jun 2027 10:15:31.032             0.904            61.531
        51   03 Jun 2027 11:47:03.061   03 Jun 2027 11:47:15.009            11.948          5920.500
        52   03 Jun 2027 11:51:10.153   03 Jun 2027 11:51:11.817             1.664           544.094
        53   04 Jun 2027 03:57:59.409   04 Jun 2027 03:58:08.279             8.870          4435.000
        54   04 Jun 2027 03:59:40.502   04 Jun 2027 04:00:09.701            29.199         14599.500
        55   04 Jun 2027 05:33:51.304   04 Jun 2027 05:35:54.969           123.665         61832.500
        56   04 Jun 2027 05:37:03.357   04 Jun 2027 05:37:59.181            55.824         27912.000
        57   04 Jun 2027 07:08:45.305   04 Jun 2027 07:10:28.375           103.070         50908.875
        58   04 Jun 2027 07:10:41.548   04 Jun 2027 07:10:42.746             1.198           357.187
        59   04 Jun 2027 07:12:08.089   04 Jun 2027 07:12:11.787             3.698          1248.875
        60   04 Jun 2027 07:12:20.552   04 Jun 2027 07:12:22.635             2.083           273.906
        61   04 Jun 2027 07:13:58.560   04 Jun 2027 07:14:11.245            12.685          2937.625
        62   04 Jun 2027 07:14:50.045   04 Jun 2027 07:14:53.368             3.323           883.031
        63   04 Jun 2027 07:15:25.921   04 Jun 2027 07:15:27.394             1.473           651.219
        64   04 Jun 2027 08:45:11.278   04 Jun 2027 08:45:20.299             9.021          4411.844
        65   04 Jun 2027 08:46:53.748   04 Jun 2027 08:46:56.355             2.607          1283.563
        66   04 Jun 2027 08:47:58.494   04 Jun 2027 08:48:00.668             2.174           921.750
        67   04 Jun 2027 08:48:56.203   04 Jun 2027 08:48:59.334             3.131           834.156
        68   04 Jun 2027 08:49:44.155   04 Jun 2027 08:49:47.684             3.529           609.969
        69   04 Jun 2027 08:50:07.662   04 Jun 2027 08:50:14.682             7.020           342.375
        70   04 Jun 2027 08:51:28.864   04 Jun 2027 08:51:34.439             5.575          2016.406
        71   04 Jun 2027 10:23:29.701   04 Jun 2027 10:23:41.634            11.933          5391.938
        72   04 Jun 2027 10:24:06.460   04 Jun 2027 10:24:08.316             1.856           245.188
        73   04 Jun 2027 10:25:17.132   04 Jun 2027 10:25:25.805             8.673          2056.437
        74   04 Jun 2027 10:25:40.289   04 Jun 2027 10:25:45.539             5.250           452.625
        75   04 Jun 2027 10:26:55.970   04 Jun 2027 10:26:57.284             1.314           468.562
        76   04 Jun 2027 10:27:16.672   04 Jun 2027 10:27:19.454             2.782           562.438
        77   04 Jun 2027 11:58:56.119   04 Jun 2027 11:59:06.352            10.233          4884.500
        78   05 Jun 2027 04:08:34.895   05 Jun 2027 04:08:45.727            10.832          5416.000
        79   05 Jun 2027 04:10:30.624   05 Jun 2027 04:10:41.833            11.209          5604.500
        80   05 Jun 2027 04:11:37.321   05 Jun 2027 04:11:57.146            19.825          9912.500
        81   05 Jun 2027 04:12:12.187   05 Jun 2027 04:12:12.187             0.000             0.000
        82   05 Jun 2027 05:44:07.600   05 Jun 2027 05:44:57.603            50.003         25001.500
        83   05 Jun 2027 05:45:35.703   05 Jun 2027 05:45:59.375            23.672         11836.000
        84   05 Jun 2027 05:46:14.799   05 Jun 2027 05:46:38.754            23.955         11977.500
        85   05 Jun 2027 05:46:54.290   05 Jun 2027 05:47:21.695            27.405         13702.500
        86   05 Jun 2027 05:49:54.195   05 Jun 2027 05:50:13.916            19.721          9860.500
        87   05 Jun 2027 07:20:25.143   05 Jun 2027 07:22:47.603           142.460         68548.406
        88   05 Jun 2027 07:23:32.083   05 Jun 2027 07:23:33.404             1.321           611.281
        89   05 Jun 2027 07:23:45.052   05 Jun 2027 07:23:45.052             0.000             0.000
        90   05 Jun 2027 07:24:15.174   05 Jun 2027 07:24:20.875             5.701          1305.313
        91   05 Jun 2027 07:25:40.104   05 Jun 2027 07:25:45.713             5.609          2424.156
        92   05 Jun 2027 07:26:24.669   05 Jun 2027 07:26:30.727             6.058           847.219
        93   05 Jun 2027 07:27:00.074   05 Jun 2027 07:27:00.074             0.000             0.000
        94   05 Jun 2027 07:27:13.168   05 Jun 2027 07:27:17.214             4.046          1304.656
        95   05 Jun 2027 08:57:30.878   05 Jun 2027 08:57:43.268            12.390          4500.469
        96   05 Jun 2027 08:59:58.865   05 Jun 2027 09:00:00.876             2.011           706.500
        97   05 Jun 2027 09:01:43.326   05 Jun 2027 09:01:46.529             3.203          1033.156
        98   05 Jun 2027 09:01:48.070   05 Jun 2027 09:01:48.546             0.476            48.156
        99   05 Jun 2027 09:02:23.140   05 Jun 2027 09:02:25.348             2.208           572.906
       100   05 Jun 2027 09:03:36.254   05 Jun 2027 09:03:37.140             0.886           279.625
       101   05 Jun 2027 10:35:28.180   05 Jun 2027 10:35:42.276            14.096          6146.062
       102   05 Jun 2027 10:37:22.880   05 Jun 2027 10:37:31.927             9.047          2500.937
       103   05 Jun 2027 10:38:14.025   05 Jun 2027 10:38:21.869             7.844            53.594
       104   05 Jun 2027 10:38:56.513   05 Jun 2027 10:38:59.160             2.647          1082.625
       105   05 Jun 2027 10:39:05.226   05 Jun 2027 10:39:07.596             2.370           189.563
       106   05 Jun 2027 10:39:19.056   05 Jun 2027 10:39:21.291             2.235           358.125
       107   06 Jun 2027 04:20:18.106   06 Jun 2027 04:21:07.133            49.027         24513.500
       108   06 Jun 2027 04:22:37.199   06 Jun 2027 04:22:44.815             7.616          3808.000
       109   06 Jun 2027 04:23:13.606   06 Jun 2027 04:23:50.892            37.286         18643.000
       110   06 Jun 2027 04:24:14.433   06 Jun 2027 04:24:14.433             0.000             0.000
       111   06 Jun 2027 04:24:19.997   06 Jun 2027 04:24:20.967             0.970           485.000
       112   06 Jun 2027 04:24:48.786   06 Jun 2027 04:24:50.677             1.891           945.500
       113   06 Jun 2027 04:25:24.531   06 Jun 2027 04:25:30.444             5.913          2956.500
       114   06 Jun 2027 05:55:16.207   06 Jun 2027 05:57:02.138           105.931         52965.500
       115   06 Jun 2027 05:57:31.157   06 Jun 2027 05:57:31.157             0.000             0.000
       116   06 Jun 2027 05:58:31.435   06 Jun 2027 05:58:33.024             1.589           794.500
       117   06 Jun 2027 05:58:44.091   06 Jun 2027 05:58:52.447             8.356          4178.000
       118   06 Jun 2027 06:00:13.362   06 Jun 2027 06:00:23.775            10.413          5206.500
       119   06 Jun 2027 06:00:33.252   06 Jun 2027 06:00:46.781            13.529          6764.500
       120   06 Jun 2027 06:02:22.737   06 Jun 2027 06:02:36.611            13.874          6937.000
       121   06 Jun 2027 06:03:13.327   06 Jun 2027 06:03:37.583            24.256         12128.000
       122   06 Jun 2027 07:32:44.443   06 Jun 2027 07:33:28.064            43.621         21064.125
       123   06 Jun 2027 07:34:36.433   06 Jun 2027 07:34:38.481             2.048           669.969
       124   06 Jun 2027 07:37:55.773   06 Jun 2027 07:38:00.073             4.300          1827.750
       125   06 Jun 2027 07:38:27.401   06 Jun 2027 07:38:30.707             3.306           394.719
       126   06 Jun 2027 09:09:29.485   06 Jun 2027 09:09:43.617            14.132          6199.188
       127   06 Jun 2027 09:13:01.122   06 Jun 2027 09:13:06.392             5.270          1964.000
       128   06 Jun 2027 09:13:25.342   06 Jun 2027 09:13:28.356             3.014           428.563
       129   06 Jun 2027 09:13:28.592   06 Jun 2027 09:13:28.768             0.176             7.375
       130   06 Jun 2027 09:14:25.145   06 Jun 2027 09:14:29.141             3.996          1060.344
       131   06 Jun 2027 09:15:04.304   06 Jun 2027 09:15:07.848             3.544          1063.406
       132   06 Jun 2027 09:15:33.918   06 Jun 2027 09:15:39.571             5.653           151.281
       133   06 Jun 2027 09:15:46.301   06 Jun 2027 09:15:51.740             5.439           112.938
       134   06 Jun 2027 10:47:27.700   06 Jun 2027 10:47:40.261            12.561          5875.875
       135   06 Jun 2027 10:48:06.679   06 Jun 2027 10:48:11.665             4.986           376.312
       136   06 Jun 2027 10:49:24.090   06 Jun 2027 10:49:28.082             3.992          1843.281
       137   06 Jun 2027 10:50:30.111   06 Jun 2027 10:50:37.343             7.232          1938.406
       138   06 Jun 2027 10:50:58.397   06 Jun 2027 10:51:00.712             2.315           602.000
       139   06 Jun 2027 10:51:20.895   06 Jun 2027 10:51:21.352             0.457           168.219
       140   07 Jun 2027 03:10:04.309   07 Jun 2027 03:10:35.791            31.482         15741.000
       141   07 Jun 2027 04:31:52.254   07 Jun 2027 04:33:10.863            78.609         39304.500
       142   07 Jun 2027 04:33:59.299   07 Jun 2027 04:34:16.880            17.581          8790.500
       143   07 Jun 2027 04:36:00.076   07 Jun 2027 04:36:43.769            43.693         21846.500
       144   07 Jun 2027 04:36:56.029   07 Jun 2027 04:36:59.398             3.369          1684.500
       145   07 Jun 2027 06:06:44.085   07 Jun 2027 06:08:25.757           101.672         50836.000
       146   07 Jun 2027 06:08:36.216   07 Jun 2027 06:08:54.703            18.487          8178.750
       147   07 Jun 2027 06:10:39.364   07 Jun 2027 06:10:39.364             0.000             0.000
       148   07 Jun 2027 06:11:05.142   07 Jun 2027 06:11:14.375             9.233          4076.219
       149   07 Jun 2027 06:12:48.205   07 Jun 2027 06:12:54.689             6.484          2348.563
       150   07 Jun 2027 06:13:06.975   07 Jun 2027 06:13:06.975             0.000             0.000
       151   07 Jun 2027 06:13:44.734   07 Jun 2027 06:13:48.996             4.262          1563.906
       152   07 Jun 2027 06:14:21.849   07 Jun 2027 06:14:21.849             0.000             0.000
       153   07 Jun 2027 06:15:07.176   07 Jun 2027 06:15:11.795             4.619          2016.281
       154   07 Jun 2027 06:15:37.783   07 Jun 2027 06:15:40.656             2.873           505.219
       155   07 Jun 2027 07:44:37.478   07 Jun 2027 07:44:41.035             3.557           775.375
       156   07 Jun 2027 07:46:14.312   07 Jun 2027 07:46:19.119             4.807          2074.531
       157   07 Jun 2027 07:46:50.780   07 Jun 2027 07:46:51.839             1.059           354.750
       158   07 Jun 2027 07:47:59.655   07 Jun 2027 07:48:01.895             2.240           467.937
       159   07 Jun 2027 07:48:21.999   07 Jun 2027 07:48:25.532             3.533           511.187
       160   07 Jun 2027 07:48:30.555   07 Jun 2027 07:48:31.426             0.871           155.344
       161   07 Jun 2027 07:50:00.172   07 Jun 2027 07:50:02.798             2.626           222.469
       162   07 Jun 2027 09:21:21.361   07 Jun 2027 09:21:33.434            12.073          5161.438
       163   07 Jun 2027 09:22:36.100   07 Jun 2027 09:22:37.266             1.166           210.563
       164   07 Jun 2027 09:23:56.606   07 Jun 2027 09:23:57.713             1.107           112.188
       165   07 Jun 2027 09:25:00.343   07 Jun 2027 09:25:05.319             4.976          1839.687
       166   07 Jun 2027 09:25:26.155   07 Jun 2027 09:25:29.273             3.118           386.562
       167   07 Jun 2027 09:25:33.359   07 Jun 2027 09:25:35.968             2.609           121.594
       168   07 Jun 2027 09:25:50.875   07 Jun 2027 09:25:51.590             0.715            35.344
       169   07 Jun 2027 09:26:09.212   07 Jun 2027 09:26:12.116             2.904           488.375
       170   07 Jun 2027 09:27:18.759   07 Jun 2027 09:27:24.514             5.755          1121.875
       171   07 Jun 2027 10:59:27.998   07 Jun 2027 10:59:38.183            10.185          4794.250
       172   07 Jun 2027 11:01:21.821   07 Jun 2027 11:01:25.894             4.073          1924.531
       173   07 Jun 2027 11:03:22.138   07 Jun 2027 11:03:26.055             3.917          1618.656
       174   08 Jun 2027 03:09:47.964   08 Jun 2027 03:09:51.370             3.406          1703.000
       175   08 Jun 2027 03:10:53.924   08 Jun 2027 03:11:02.042             8.118          4059.000
       176   08 Jun 2027 04:45:48.784   08 Jun 2027 04:49:12.769           203.985        101992.500
       177   08 Jun 2027 06:19:36.143   08 Jun 2027 06:20:54.341            78.198         38266.375
       178   08 Jun 2027 06:21:49.618   08 Jun 2027 06:21:51.277             1.659           277.094
       179   08 Jun 2027 06:22:10.401   08 Jun 2027 06:22:12.664             2.263           560.063
       180   08 Jun 2027 06:22:34.686   08 Jun 2027 06:22:36.606             1.920           346.656
       181   08 Jun 2027 06:23:06.965   08 Jun 2027 06:23:11.572             4.607           865.156
       182   08 Jun 2027 06:24:02.726   08 Jun 2027 06:24:05.125             2.399           879.906
       183   08 Jun 2027 06:24:27.219   08 Jun 2027 06:24:27.219             0.000             0.000
       184   08 Jun 2027 06:25:01.196   08 Jun 2027 06:25:05.779             4.583          1388.625
       185   08 Jun 2027 06:25:11.217   08 Jun 2027 06:25:12.036             0.819            52.781
       186   08 Jun 2027 06:25:49.973   08 Jun 2027 06:25:52.237             2.264          1073.844
       187   08 Jun 2027 06:26:20.267   08 Jun 2027 06:26:21.714             1.447           645.375
       188   08 Jun 2027 06:26:55.174   08 Jun 2027 06:26:55.309             0.135            67.500
       189   08 Jun 2027 06:27:17.809   08 Jun 2027 06:27:22.798             4.989          1526.531
       190   08 Jun 2027 06:28:03.145   08 Jun 2027 06:28:06.656             3.511           472.719
       191   08 Jun 2027 07:56:44.924   08 Jun 2027 07:56:48.471             3.547           251.531
       192   08 Jun 2027 07:58:33.017   08 Jun 2027 07:58:34.480             1.463           628.281
       193   08 Jun 2027 08:00:31.365   08 Jun 2027 08:00:33.778             2.413           150.687
       194   08 Jun 2027 08:01:45.733   08 Jun 2027 08:01:47.672             1.939           790.125
       195   08 Jun 2027 08:02:20.396   08 Jun 2027 08:02:21.945             1.549           138.281
       196   08 Jun 2027 09:33:59.283   08 Jun 2027 09:34:09.321            10.038          4801.781
       197   08 Jun 2027 09:36:22.748   08 Jun 2027 09:36:25.971             3.223           716.656
       198   08 Jun 2027 09:37:36.796   08 Jun 2027 09:37:45.576             8.780          1085.094
       199   08 Jun 2027 09:38:07.960   08 Jun 2027 09:38:13.049             5.089           163.500
       200   08 Jun 2027 09:38:20.982   08 Jun 2027 09:38:21.358             0.376            98.375
       201   08 Jun 2027 09:38:41.009   08 Jun 2027 09:38:42.627             1.618           300.187
       202   08 Jun 2027 11:10:41.779   08 Jun 2027 11:10:52.789            11.010          5016.781
       203   08 Jun 2027 11:12:10.310   08 Jun 2027 11:12:11.980             1.670            34.813
       204   08 Jun 2027 11:14:07.499   08 Jun 2027 11:14:10.544             3.045           954.188
       205   08 Jun 2027 11:15:22.726   08 Jun 2027 11:15:28.246             5.520          2115.156
       206   09 Jun 2027 03:21:40.926   09 Jun 2027 03:21:52.816            11.890          5945.000
       207   09 Jun 2027 04:58:02.211   09 Jun 2027 05:00:06.920           124.709         62354.500
       208   09 Jun 2027 05:01:02.441   09 Jun 2027 05:01:31.541            29.100         14550.000
       209   09 Jun 2027 06:31:59.606   09 Jun 2027 06:34:07.368           127.762         63791.531
       210   09 Jun 2027 06:34:26.861   09 Jun 2027 06:34:28.274             1.413           328.125
       211   09 Jun 2027 06:34:57.515   09 Jun 2027 06:35:07.098             9.583           610.875
       212   09 Jun 2027 06:35:08.825   09 Jun 2027 06:35:09.847             1.022            53.969
       213   09 Jun 2027 06:35:52.247   09 Jun 2027 06:35:53.915             1.668           443.313
       214   09 Jun 2027 06:37:04.253   09 Jun 2027 06:37:15.402            11.149          1524.906
       215   09 Jun 2027 06:38:13.760   09 Jun 2027 06:38:17.033             3.273          1346.250
       216   09 Jun 2027 06:38:43.529   09 Jun 2027 06:38:48.051             4.522           828.000
       217   09 Jun 2027 06:39:49.522   09 Jun 2027 06:39:52.686             3.164          1360.813
       218   09 Jun 2027 08:09:10.385   09 Jun 2027 08:09:14.000             3.615           293.813
       219   09 Jun 2027 08:10:58.585   09 Jun 2027 08:11:02.757             4.172           722.125
       220   09 Jun 2027 08:13:34.819   09 Jun 2027 08:13:39.917             5.098          1380.000
       221   09 Jun 2027 08:14:34.572   09 Jun 2027 08:14:38.680             4.108          1591.625
       222   09 Jun 2027 09:46:10.529   09 Jun 2027 09:46:24.924            14.395          6263.750
       223   09 Jun 2027 09:46:49.176   09 Jun 2027 09:46:52.756             3.580           263.156
       224   09 Jun 2027 09:49:08.168   09 Jun 2027 09:49:09.976             1.808           460.594
       225   09 Jun 2027 09:49:33.924   09 Jun 2027 09:49:35.503             1.579           748.375
       226   09 Jun 2027 09:49:43.910   09 Jun 2027 09:49:44.889             0.979           180.125
       227   09 Jun 2027 09:49:55.841   09 Jun 2027 09:49:57.219             1.378           225.375
       228   09 Jun 2027 09:50:22.673   09 Jun 2027 09:50:24.276             1.603           403.531
       229   09 Jun 2027 09:51:22.375   09 Jun 2027 09:51:28.945             6.570          1321.906
       230   09 Jun 2027 11:22:56.655   09 Jun 2027 11:23:12.791            16.136          7400.844
       231   09 Jun 2027 11:25:40.677   09 Jun 2027 11:25:43.308             2.631           848.156
       232   09 Jun 2027 11:26:11.628   09 Jun 2027 11:26:15.755             4.127           758.094
       233   10 Jun 2027 03:33:34.057   10 Jun 2027 03:33:53.944            19.887          9943.500
       234   10 Jun 2027 05:10:07.364   10 Jun 2027 05:10:27.457            20.093         10046.500
       235   10 Jun 2027 05:12:48.953   10 Jun 2027 05:13:40.293            51.340         25670.000
       236   10 Jun 2027 06:45:16.223   10 Jun 2027 06:48:51.232           215.009        106576.438
       237   10 Jun 2027 06:50:14.418   10 Jun 2027 06:50:25.568            11.150          2285.063
       238   10 Jun 2027 06:51:13.675   10 Jun 2027 06:51:19.704             6.029          1268.563
       239   10 Jun 2027 06:51:38.014   10 Jun 2027 06:51:40.447             2.433           572.187
       240   10 Jun 2027 06:51:57.364   10 Jun 2027 06:52:01.986             4.622           273.531
       241   10 Jun 2027 08:21:36.241   10 Jun 2027 08:21:45.143             8.902          4150.781
       242   10 Jun 2027 08:24:53.129   10 Jun 2027 08:24:54.080             0.951           434.812
       243   10 Jun 2027 08:25:49.940   10 Jun 2027 08:25:53.632             3.692          1742.406
       244   10 Jun 2027 08:26:51.210   10 Jun 2027 08:26:53.779             2.569           695.063
       245   10 Jun 2027 08:27:27.450   10 Jun 2027 08:27:33.454             6.004           399.094
       246   10 Jun 2027 09:59:10.737   10 Jun 2027 09:59:19.901             9.164          4565.813
       247   10 Jun 2027 10:02:28.725   10 Jun 2027 10:02:30.597             1.872           395.125
       248   10 Jun 2027 10:02:36.353   10 Jun 2027 10:02:37.014             0.661           179.875
       249   10 Jun 2027 10:03:26.221   10 Jun 2027 10:03:28.219             1.998           987.969
       250   10 Jun 2027 11:35:13.572   10 Jun 2027 11:35:26.835            13.263          6003.250
       251   11 Jun 2027 03:45:42.497   11 Jun 2027 03:45:54.703            12.206          6103.000
       252   11 Jun 2027 05:23:04.615   11 Jun 2027 05:23:09.086             4.471          2235.500
       253   11 Jun 2027 05:24:32.310   11 Jun 2027 05:25:45.550            73.240         36620.000
       254   11 Jun 2027 06:57:27.923   11 Jun 2027 07:01:16.297           228.374        109185.813
       255   11 Jun 2027 07:02:36.182   11 Jun 2027 07:02:36.182             0.000             0.000
       256   11 Jun 2027 07:03:26.381   11 Jun 2027 07:03:31.181             4.800          2243.219
       257   11 Jun 2027 07:03:48.087   11 Jun 2027 07:03:50.203             2.116           360.969
       258   11 Jun 2027 08:33:48.777   11 Jun 2027 08:33:57.974             9.197          4235.094
       259   11 Jun 2027 08:36:16.317   11 Jun 2027 08:36:21.133             4.816           119.906
       260   11 Jun 2027 08:38:21.367   11 Jun 2027 08:38:24.500             3.133           812.031
       261   11 Jun 2027 08:38:46.986   11 Jun 2027 08:38:49.958             2.972            96.125
       262   11 Jun 2027 10:11:05.546   11 Jun 2027 10:11:19.609            14.063          5897.750
       263   11 Jun 2027 10:11:48.382   11 Jun 2027 10:11:49.300             0.918           357.625
       264   11 Jun 2027 10:12:28.214   11 Jun 2027 10:12:30.282             2.068          1000.062
       265   11 Jun 2027 10:13:10.612   11 Jun 2027 10:13:13.952             3.340          1054.031
       266   11 Jun 2027 10:13:40.699   11 Jun 2027 10:13:42.870             2.171           403.531
       267   11 Jun 2027 10:14:46.722   11 Jun 2027 10:14:51.701             4.979           560.281
       268   11 Jun 2027 10:15:08.037   11 Jun 2027 10:15:09.205             1.168            48.656
       269   11 Jun 2027 10:15:37.229   11 Jun 2027 10:15:39.867             2.638           875.750
       270   11 Jun 2027 11:47:17.994   11 Jun 2027 11:47:27.439             9.445          4698.625
       271   12 Jun 2027 03:58:31.035   12 Jun 2027 03:58:45.505            14.470          7235.000
       272   12 Jun 2027 03:59:51.783   12 Jun 2027 03:59:55.258             3.475          1737.500
       273   12 Jun 2027 04:00:24.310   12 Jun 2027 04:00:30.074             5.764          2882.000
       274   12 Jun 2027 05:34:05.458   12 Jun 2027 05:37:00.265           174.807         87403.500
       275   12 Jun 2027 05:37:30.779   12 Jun 2027 05:37:30.779             0.000             0.000
       276   12 Jun 2027 07:08:58.698   12 Jun 2027 07:10:55.596           116.898         57147.406
       277   12 Jun 2027 07:11:26.192   12 Jun 2027 07:11:28.189             1.997           896.000
       278   12 Jun 2027 07:12:11.105   12 Jun 2027 07:12:14.073             2.968           162.781
       279   12 Jun 2027 07:12:37.255   12 Jun 2027 07:12:37.760             0.505           225.406
       280   12 Jun 2027 07:13:02.578   12 Jun 2027 07:13:02.578             0.000             0.000
       281   12 Jun 2027 07:14:14.221   12 Jun 2027 07:14:25.945            11.724          2927.250
       282   12 Jun 2027 07:15:06.004   12 Jun 2027 07:15:06.004             0.000             0.000
       283   12 Jun 2027 07:15:21.542   12 Jun 2027 07:15:26.044             4.502          1323.594
       284   12 Jun 2027 08:45:27.307   12 Jun 2027 08:45:37.130             9.823          4443.031
       285   12 Jun 2027 08:46:27.418   12 Jun 2027 08:46:28.917             1.499           633.594
       286   12 Jun 2027 08:47:43.698   12 Jun 2027 08:47:44.187             0.489            16.844
       287   12 Jun 2027 08:48:56.246   12 Jun 2027 08:48:58.532             2.286           877.719
       288   12 Jun 2027 08:49:39.888   12 Jun 2027 08:49:41.716             1.828           888.156
       289   12 Jun 2027 08:50:11.241   12 Jun 2027 08:50:16.566             5.325           350.438
       290   12 Jun 2027 08:50:39.686   12 Jun 2027 08:50:41.683             1.997           529.969
       291   12 Jun 2027 10:23:45.135   12 Jun 2027 10:24:01.510            16.375          6970.500
       292   12 Jun 2027 10:24:13.866   12 Jun 2027 10:24:15.229             1.363           276.125
       293   12 Jun 2027 10:24:26.854   12 Jun 2027 10:24:27.813             0.959           152.781
       294   12 Jun 2027 10:25:41.000   12 Jun 2027 10:25:45.554             4.554           215.781
       295   12 Jun 2027 10:26:56.331   12 Jun 2027 10:27:00.480             4.149          1938.000
       296   12 Jun 2027 10:27:16.594   12 Jun 2027 10:27:20.060             3.466           161.656
       297   12 Jun 2027 10:27:33.976   12 Jun 2027 10:27:34.285             0.309            46.875
       298   12 Jun 2027 11:59:12.218   12 Jun 2027 11:59:24.415            12.197          4900.844
       299   13 Jun 2027 04:08:49.952   13 Jun 2027 04:09:22.613            32.661         16330.500
       300   13 Jun 2027 04:09:47.220   13 Jun 2027 04:09:47.220             0.000             0.000
       301   13 Jun 2027 04:09:50.037   13 Jun 2027 04:09:54.087             4.050          2025.000
       302   13 Jun 2027 04:11:59.192   13 Jun 2027 04:12:12.029            12.837          6418.500
       303   13 Jun 2027 05:44:21.691   13 Jun 2027 05:45:12.424            50.733         25366.500
       304   13 Jun 2027 05:45:50.553   13 Jun 2027 05:46:30.959            40.406         20203.000
       305   13 Jun 2027 05:46:53.340   13 Jun 2027 05:47:09.277            15.937          7968.500
       306   13 Jun 2027 05:47:35.844   13 Jun 2027 05:48:11.585            35.741         17870.500
       307   13 Jun 2027 05:48:23.756   13 Jun 2027 05:48:30.143             6.387          3193.500
       308   13 Jun 2027 07:20:40.794   13 Jun 2027 07:22:51.035           130.241         65120.500
       309   13 Jun 2027 07:23:28.620   13 Jun 2027 07:23:34.082             5.462          2449.531
       310   13 Jun 2027 07:23:42.987   13 Jun 2027 07:23:47.875             4.888           278.281
       311   13 Jun 2027 07:23:49.884   13 Jun 2027 07:23:49.884             0.000             0.000
       312   13 Jun 2027 07:24:00.050   13 Jun 2027 07:24:00.050             0.000             0.000
       313   13 Jun 2027 07:24:33.428   13 Jun 2027 07:24:38.054             4.626          1423.531
       314   13 Jun 2027 07:26:13.187   13 Jun 2027 07:26:18.683             5.496          2069.219
       315   13 Jun 2027 07:27:16.686   13 Jun 2027 07:27:19.646             2.960          1082.188
       316   13 Jun 2027 08:57:47.589   13 Jun 2027 08:57:58.956            11.367          4394.719
       317   13 Jun 2027 08:59:14.849   13 Jun 2027 08:59:16.637             1.788           454.063
       318   13 Jun 2027 08:59:37.521   13 Jun 2027 08:59:39.440             1.919           638.937
       319   13 Jun 2027 09:00:14.058   13 Jun 2027 09:00:15.746             1.688           644.344
       320   13 Jun 2027 09:01:25.617   13 Jun 2027 09:01:30.095             4.478           416.156
       321   13 Jun 2027 09:01:56.304   13 Jun 2027 09:01:57.801             1.497           183.406
       322   13 Jun 2027 09:02:01.767   13 Jun 2027 09:02:02.544             0.777           123.938
       323   13 Jun 2027 09:02:20.176   13 Jun 2027 09:02:27.500             7.324           508.344
       324   13 Jun 2027 09:03:41.132   13 Jun 2027 09:03:46.353             5.221          1954.469
       325   13 Jun 2027 09:04:05.140   13 Jun 2027 09:04:06.790             1.650           382.187
       326   13 Jun 2027 10:35:43.074   13 Jun 2027 10:35:57.006            13.932          5724.094
       327   13 Jun 2027 10:37:39.805   13 Jun 2027 10:37:43.034             3.229           767.094
       328   13 Jun 2027 10:38:57.295   13 Jun 2027 10:39:02.214             4.919          2079.500
       329   13 Jun 2027 10:39:19.682   13 Jun 2027 10:39:24.258             4.576           158.906
       330   13 Jun 2027 10:39:34.836   13 Jun 2027 10:39:35.950             1.114           294.188
