uniorb/output/strategy_4/Camera/Camera_KinoSat_112003.txt

KinoSat_112003
-------------------------
    Access    *     Start Time (UTCG)     *     Stop Time (UTCG)  *   Duration (s) *   Data (Mbytes)
         1   01 Jun 2027 03:15:59.213   01 Jun 2027 03:17:18.269            79.056         39528.000
         2   01 Jun 2027 03:18:30.523   01 Jun 2027 03:18:52.429            21.906         10953.000
         3   01 Jun 2027 03:19:18.146   01 Jun 2027 03:19:25.480             7.334          3667.000
         4   01 Jun 2027 03:19:56.090   01 Jun 2027 03:20:04.850             8.760          4380.000
         5   01 Jun 2027 03:20:17.610   01 Jun 2027 03:20:31.916            14.306          7153.000
         6   01 Jun 2027 03:21:30.784   01 Jun 2027 03:21:40.344             9.560          4780.000
         7   01 Jun 2027 03:22:30.968   01 Jun 2027 03:22:37.858             6.890          3445.000
         8   01 Jun 2027 04:53:42.717   01 Jun 2027 04:53:52.797            10.080          5040.000
         9   01 Jun 2027 04:54:04.819   01 Jun 2027 04:55:06.441            61.622         30811.000
        10   01 Jun 2027 04:55:11.740   01 Jun 2027 04:55:32.250            20.510         10255.000
        11   01 Jun 2027 04:55:53.432   01 Jun 2027 04:55:55.325             1.893           946.500
        12   01 Jun 2027 04:57:39.308   01 Jun 2027 04:57:48.523             9.215          4607.500
        13   01 Jun 2027 04:59:16.627   01 Jun 2027 04:59:18.914             2.287          1143.500
        14   01 Jun 2027 06:32:15.969   01 Jun 2027 06:34:28.252           132.283         66141.500
        15   01 Jun 2027 07:56:01.330   01 Jun 2027 07:57:36.436            95.106         47553.000
        16   01 Jun 2027 07:57:41.825   01 Jun 2027 07:58:00.238            18.413          9206.500
        17   01 Jun 2027 07:58:04.778   01 Jun 2027 07:58:16.810            12.032          6016.000
        18   01 Jun 2027 09:32:00.449   01 Jun 2027 09:33:03.087            62.638         31319.000
        19   01 Jun 2027 09:33:08.933   01 Jun 2027 09:34:31.888            82.955         41477.500
        20   01 Jun 2027 11:05:45.570   01 Jun 2027 11:07:31.222           105.652         52826.000
        21   01 Jun 2027 11:11:54.896   01 Jun 2027 11:11:54.896             0.000             0.000
        22   01 Jun 2027 11:13:11.092   01 Jun 2027 11:14:19.859            68.767         34383.500
        23   02 Jun 2027 03:28:03.474   02 Jun 2027 03:28:31.396            27.922         13961.000
        24   02 Jun 2027 03:29:57.860   02 Jun 2027 03:31:57.833           119.973         59986.500
        25   02 Jun 2027 03:32:31.551   02 Jun 2027 03:32:35.806             4.255          2127.500
        26   02 Jun 2027 03:35:06.404   02 Jun 2027 03:35:32.291            25.887         12943.500
        27   02 Jun 2027 05:06:10.837   02 Jun 2027 05:06:39.336            28.499         14249.500
        28   02 Jun 2027 05:06:45.441   02 Jun 2027 05:08:21.385            95.944         47972.000
        29   02 Jun 2027 05:10:15.823   02 Jun 2027 05:11:38.818            82.995         41497.500
        30   02 Jun 2027 06:44:11.554   02 Jun 2027 06:47:10.347           178.793         89396.500
        31   02 Jun 2027 06:47:51.517   02 Jun 2027 06:48:18.245            26.728         13364.000
        32   02 Jun 2027 08:07:52.969   02 Jun 2027 08:09:21.812            88.843         44421.500
        33   02 Jun 2027 09:44:15.137   02 Jun 2027 09:45:00.011            44.874         22437.000
        34   02 Jun 2027 09:46:06.168   02 Jun 2027 09:46:27.603            21.435         10717.500
        35   02 Jun 2027 09:47:20.622   02 Jun 2027 09:47:27.987             7.365          3594.594
        36   02 Jun 2027 11:18:21.756   02 Jun 2027 11:18:38.228            16.472          6538.813
        37   02 Jun 2027 11:22:08.247   02 Jun 2027 11:22:18.444            10.197          3769.813
        38   02 Jun 2027 11:22:35.739   02 Jun 2027 11:22:36.560             0.821           352.687
        39   02 Jun 2027 11:22:52.994   02 Jun 2027 11:22:53.881             0.887           113.000
        40   02 Jun 2027 11:23:26.388   02 Jun 2027 11:23:27.345             0.957           265.375
        41   02 Jun 2027 11:23:47.220   02 Jun 2027 11:23:52.030             4.810           621.094
        42   02 Jun 2027 11:24:53.114   02 Jun 2027 11:24:58.281             5.167          1908.875
        43   02 Jun 2027 11:25:06.937   02 Jun 2027 11:25:08.564             1.627           270.500
        44   02 Jun 2027 11:26:03.406   02 Jun 2027 11:26:11.165             7.759          1713.812
        45   02 Jun 2027 11:26:16.246   02 Jun 2027 11:26:18.767             2.521           158.781
        46   03 Jun 2027 03:40:06.838   03 Jun 2027 03:40:55.217            48.379         24189.500
        47   03 Jun 2027 03:41:25.697   03 Jun 2027 03:44:09.250           163.553         81776.500
        48   03 Jun 2027 03:44:51.938   03 Jun 2027 03:45:20.373            28.435         14217.500
        49   03 Jun 2027 05:18:17.072   03 Jun 2027 05:18:42.677            25.605         12802.500
        50   03 Jun 2027 05:19:14.841   03 Jun 2027 05:19:20.746             5.905          2952.500
        51   03 Jun 2027 05:19:27.581   03 Jun 2027 05:20:16.120            48.539         24269.500
        52   03 Jun 2027 05:20:50.617   03 Jun 2027 05:21:46.899            56.282         26230.250
        53   03 Jun 2027 05:24:29.323   03 Jun 2027 05:24:34.700             5.377          2688.500
        54   03 Jun 2027 06:57:25.329   03 Jun 2027 06:57:45.071            19.742          8506.906
        55   03 Jun 2027 06:58:02.961   03 Jun 2027 06:58:05.427             2.466           559.062
        56   03 Jun 2027 06:59:05.247   03 Jun 2027 06:59:07.777             2.530           846.094
        57   03 Jun 2027 06:59:40.545   03 Jun 2027 06:59:41.347             0.802           325.500
        58   03 Jun 2027 07:00:21.157   03 Jun 2027 07:00:26.333             5.176          1244.063
        59   03 Jun 2027 08:19:56.894   03 Jun 2027 08:20:09.852            12.958          6457.031
        60   03 Jun 2027 08:21:22.973   03 Jun 2027 08:21:29.317             6.344          2042.250
        61   03 Jun 2027 08:21:41.208   03 Jun 2027 08:21:41.613             0.405            76.250
        62   03 Jun 2027 09:56:26.076   03 Jun 2027 09:56:32.959             6.883          2826.437
        63   03 Jun 2027 09:57:58.015   03 Jun 2027 09:58:04.653             6.638          1837.438
        64   03 Jun 2027 09:58:55.376   03 Jun 2027 09:59:08.965            13.589          1051.656
        65   03 Jun 2027 11:33:00.253   03 Jun 2027 11:33:16.956            16.703          7956.125
        66   03 Jun 2027 11:35:29.403   03 Jun 2027 11:35:34.239             4.836          2179.688
        67   03 Jun 2027 11:36:03.133   03 Jun 2027 11:36:04.208             1.075           451.500
        68   03 Jun 2027 11:37:25.550   03 Jun 2027 11:37:30.452             4.902          2273.188
        69   03 Jun 2027 11:38:11.070   03 Jun 2027 11:38:14.045             2.975          1126.406
        70   04 Jun 2027 03:52:05.208   04 Jun 2027 03:52:24.693            19.485          9742.500
        71   04 Jun 2027 03:52:49.325   04 Jun 2027 03:55:55.521           186.196         93098.000
        72   04 Jun 2027 03:56:44.456   04 Jun 2027 03:56:49.652             5.196          2598.000
        73   04 Jun 2027 05:30:20.729   04 Jun 2027 05:31:01.631            40.902         20451.000
        74   04 Jun 2027 05:31:25.191   04 Jun 2027 05:33:01.679            96.488         47495.312
        75   04 Jun 2027 05:33:35.895   04 Jun 2027 05:33:37.305             1.410           283.688
        76   04 Jun 2027 05:36:12.229   04 Jun 2027 05:36:22.529            10.300          3819.469
        77   04 Jun 2027 07:08:32.879   04 Jun 2027 07:08:46.230            13.351          6395.500
        78   04 Jun 2027 07:09:25.081   04 Jun 2027 07:09:26.239             1.158           425.219
        79   04 Jun 2027 07:10:58.986   04 Jun 2027 07:11:00.598             1.612           683.219
        80   04 Jun 2027 07:11:28.986   04 Jun 2027 07:11:28.986             0.000             0.000
        81   04 Jun 2027 07:11:43.628   04 Jun 2027 07:11:48.411             4.783           561.906
        82   04 Jun 2027 08:32:02.347   04 Jun 2027 08:32:30.926            28.579          9239.375
        83   04 Jun 2027 08:33:13.617   04 Jun 2027 08:33:15.364             1.747           264.188
        84   04 Jun 2027 08:33:39.511   04 Jun 2027 08:33:42.183             2.672           554.250
        85   04 Jun 2027 08:34:53.485   04 Jun 2027 08:35:00.079             6.594           888.187
        86   04 Jun 2027 10:08:31.073   04 Jun 2027 10:08:41.113            10.040          4122.750
        87   04 Jun 2027 10:10:13.761   04 Jun 2027 10:10:19.503             5.742          2329.344
        88   04 Jun 2027 10:10:42.593   04 Jun 2027 10:10:43.076             0.483           214.813
        89   04 Jun 2027 11:50:03.975   04 Jun 2027 11:50:17.555            13.580          6790.000
        90   05 Jun 2027 04:04:07.970   05 Jun 2027 04:07:27.425           199.455         99727.500
        91   05 Jun 2027 04:08:25.439   05 Jun 2027 04:09:19.859            54.420         27210.000
        92   05 Jun 2027 05:43:25.542   05 Jun 2027 05:44:37.787            72.245         36122.500
        93   05 Jun 2027 05:49:37.738   05 Jun 2027 05:50:30.031            52.293         25958.343
        94   05 Jun 2027 07:09:43.573   05 Jun 2027 07:09:54.562            10.989          4362.281
        95   05 Jun 2027 07:20:30.246   05 Jun 2027 07:20:35.436             5.190          1947.750
        96   05 Jun 2027 07:21:38.093   05 Jun 2027 07:21:45.817             7.724           774.844
        97   05 Jun 2027 07:22:05.010   05 Jun 2027 07:22:07.128             2.118           149.938
        98   05 Jun 2027 07:22:51.646   05 Jun 2027 07:22:53.818             2.172           474.156
        99   05 Jun 2027 07:23:40.347   05 Jun 2027 07:23:42.827             2.480           731.625
       100   05 Jun 2027 07:23:58.061   05 Jun 2027 07:24:00.053             1.992           476.063
       101   05 Jun 2027 08:44:29.451   05 Jun 2027 08:44:50.441            20.990          9291.750
       102   05 Jun 2027 08:45:07.754   05 Jun 2027 08:45:08.769             1.015           335.094
       103   05 Jun 2027 08:46:47.934   05 Jun 2027 08:46:55.301             7.367          2612.781
       104   05 Jun 2027 10:20:15.321   05 Jun 2027 10:20:30.261            14.940          4625.625
       105   05 Jun 2027 10:22:02.987   05 Jun 2027 10:22:10.432             7.445          2013.063
       106   05 Jun 2027 10:23:19.835   05 Jun 2027 10:23:25.435             5.600           406.875
       107   05 Jun 2027 11:55:40.136   05 Jun 2027 11:56:02.568            22.432         10840.563
       108   05 Jun 2027 11:58:46.743   05 Jun 2027 11:58:55.772             9.029          4490.719
       109   06 Jun 2027 04:16:48.420   06 Jun 2027 04:19:50.484           182.064         91032.000
       110   06 Jun 2027 04:20:40.502   06 Jun 2027 04:20:43.613             3.111          1555.500
       111   06 Jun 2027 05:55:46.862   06 Jun 2027 05:58:10.446           143.584         71792.000
       112   06 Jun 2027 06:01:11.572   06 Jun 2027 06:01:14.531             2.959          1479.500
       113   06 Jun 2027 06:01:31.360   06 Jun 2027 06:02:09.552            38.192         16237.282
       114   06 Jun 2027 07:20:59.533   06 Jun 2027 07:21:18.423            18.890          9097.844
       115   06 Jun 2027 07:21:37.332   06 Jun 2027 07:21:40.608             3.276           500.094
       116   06 Jun 2027 07:32:31.125   06 Jun 2027 07:32:38.913             7.788          2974.781
       117   06 Jun 2027 07:33:35.455   06 Jun 2027 07:33:37.509             2.054           634.000
       118   06 Jun 2027 08:55:08.477   06 Jun 2027 08:55:31.817            23.340         10637.250
       119   06 Jun 2027 08:57:10.109   06 Jun 2027 08:57:15.101             4.992          1652.438
       120   06 Jun 2027 08:58:54.829   06 Jun 2027 08:58:59.358             4.529          2229.500
       121   06 Jun 2027 10:30:35.044   06 Jun 2027 10:30:48.540            13.496          6390.312
       122   06 Jun 2027 10:32:57.123   06 Jun 2027 10:33:00.591             3.468          1484.500
       123   06 Jun 2027 10:35:57.279   06 Jun 2027 10:36:07.019             9.740          4034.031
       124   06 Jun 2027 10:36:18.174   06 Jun 2027 10:36:18.174             0.000             0.000
       125   06 Jun 2027 10:36:35.890   06 Jun 2027 10:36:40.615             4.725           731.969
       126   07 Jun 2027 04:29:04.461   07 Jun 2027 04:29:05.172             0.711           355.500
       127   07 Jun 2027 04:29:33.768   07 Jun 2027 04:31:34.145           120.377         60188.500
       128   07 Jun 2027 04:32:43.419   07 Jun 2027 04:32:52.876             9.457          4728.500
       129   07 Jun 2027 04:34:19.190   07 Jun 2027 04:35:00.481            41.291         20645.500
       130   07 Jun 2027 06:08:03.477   07 Jun 2027 06:10:41.099           157.622         78616.031
       131   07 Jun 2027 06:11:45.998   07 Jun 2027 06:11:49.812             3.814          1884.438
       132   07 Jun 2027 06:12:35.471   07 Jun 2027 06:12:37.365             1.894           806.594
       133   07 Jun 2027 06:13:29.310   07 Jun 2027 06:13:33.713             4.403          1055.719
       134   07 Jun 2027 07:32:16.024   07 Jun 2027 07:32:28.112            12.088          5997.000
       135   07 Jun 2027 07:33:18.704   07 Jun 2027 07:33:22.360             3.656          1156.969
       136   07 Jun 2027 07:34:22.803   07 Jun 2027 07:34:26.000             3.197          1495.938
       137   07 Jun 2027 07:44:28.673   07 Jun 2027 07:44:35.358             6.685          2241.469
       138   07 Jun 2027 09:06:44.219   07 Jun 2027 09:07:13.377            29.158         14244.250
       139   07 Jun 2027 09:08:39.923   07 Jun 2027 09:08:48.019             8.096          1427.750
       140   07 Jun 2027 09:09:12.200   07 Jun 2027 09:09:20.900             8.700           278.656
       141   07 Jun 2027 09:09:23.836   07 Jun 2027 09:09:25.192             1.356            91.750
       142   07 Jun 2027 09:10:53.639   07 Jun 2027 09:10:58.759             5.120          2010.000
       143   07 Jun 2027 09:11:44.189   07 Jun 2027 09:11:46.410             2.221           187.031
       144   07 Jun 2027 10:41:36.618   07 Jun 2027 10:41:43.439             6.821          2942.312
       145   07 Jun 2027 10:43:07.941   07 Jun 2027 10:43:14.850             6.909          1328.688
       146   07 Jun 2027 10:47:16.732   07 Jun 2027 10:47:33.927            17.195          7368.500
       147   07 Jun 2027 10:48:26.107   07 Jun 2027 10:48:30.042             3.935           737.594
       148   07 Jun 2027 10:49:42.896   07 Jun 2027 10:49:46.321             3.425          1507.750
       149   07 Jun 2027 10:50:06.932   07 Jun 2027 10:50:07.897             0.965            18.500
       150   08 Jun 2027 03:04:17.805   08 Jun 2027 03:04:28.272            10.467          5233.500
       151   08 Jun 2027 03:06:22.175   08 Jun 2027 03:06:32.483            10.308          5154.000
       152   08 Jun 2027 03:06:45.313   08 Jun 2027 03:06:59.497            14.184          7092.000
       153   08 Jun 2027 03:07:05.274   08 Jun 2027 03:07:07.232             1.958           979.000
       154   08 Jun 2027 03:07:18.098   08 Jun 2027 03:07:39.391            21.293         10646.500
       155   08 Jun 2027 03:08:22.170   08 Jun 2027 03:08:42.161            19.991          9995.500
       156   08 Jun 2027 04:41:23.801   08 Jun 2027 04:41:36.870            13.069          6534.500
       157   08 Jun 2027 04:41:51.171   08 Jun 2027 04:44:39.947           168.776         84388.000
       158   08 Jun 2027 06:20:10.338   08 Jun 2027 06:22:01.448           111.110         51346.907
       159   08 Jun 2027 06:22:16.462   08 Jun 2027 06:22:18.069             1.607            23.906
       160   08 Jun 2027 06:22:51.208   08 Jun 2027 06:22:53.340             2.132           776.719
       161   08 Jun 2027 06:23:47.570   08 Jun 2027 06:23:50.381             2.811          1036.031
       162   08 Jun 2027 06:24:05.125   08 Jun 2027 06:24:15.184            10.059            87.813
       163   08 Jun 2027 06:24:58.841   08 Jun 2027 06:25:01.196             2.355          1000.000
       164   08 Jun 2027 07:44:22.062   08 Jun 2027 07:44:33.877            11.815          5890.062
       165   08 Jun 2027 07:45:16.097   08 Jun 2027 07:45:17.894             1.797           590.281
       166   08 Jun 2027 07:46:03.776   08 Jun 2027 07:46:08.819             5.043           888.438
       167   08 Jun 2027 07:56:53.796   08 Jun 2027 07:56:55.479             1.683           841.500
       168   08 Jun 2027 09:18:12.675   08 Jun 2027 09:18:29.594            16.919          8396.219
       169   08 Jun 2027 09:20:17.925   08 Jun 2027 09:20:18.289             0.364           182.000
       170   08 Jun 2027 09:20:41.001   08 Jun 2027 09:20:47.738             6.737          2549.375
       171   08 Jun 2027 09:21:13.984   08 Jun 2027 09:21:16.762             2.778           685.688
       172   08 Jun 2027 09:22:13.200   08 Jun 2027 09:22:16.400             3.200          1580.844
       173   08 Jun 2027 09:22:51.589   08 Jun 2027 09:22:52.721             1.132           560.094
       174   08 Jun 2027 09:23:35.988   08 Jun 2027 09:23:36.626             0.638           256.000
       175   08 Jun 2027 10:53:06.594   08 Jun 2027 10:53:14.893             8.299          3826.812
       176   08 Jun 2027 10:53:44.549   08 Jun 2027 10:53:50.582             6.033           262.469
       177   08 Jun 2027 10:55:34.299   08 Jun 2027 10:55:39.983             5.684          2563.219
       178   08 Jun 2027 10:58:58.116   08 Jun 2027 10:59:16.317            18.201          6191.656
       179   08 Jun 2027 11:00:25.344   08 Jun 2027 11:00:26.349             1.005           319.000
       180   08 Jun 2027 11:00:51.419   08 Jun 2027 11:00:53.202             1.783           690.156
       181   08 Jun 2027 11:02:05.441   08 Jun 2027 11:02:07.314             1.873           481.406
       182   09 Jun 2027 03:16:16.940   09 Jun 2027 03:16:35.710            18.770          9385.000
       183   09 Jun 2027 03:16:37.656   09 Jun 2027 03:16:40.665             3.009          1504.500
       184   09 Jun 2027 03:18:32.385   09 Jun 2027 03:18:37.971             5.586          2793.000
       185   09 Jun 2027 03:18:45.448   09 Jun 2027 03:19:28.851            43.403         21701.500
       186   09 Jun 2027 03:20:19.631   09 Jun 2027 03:21:55.875            96.244         48122.000
       187   09 Jun 2027 03:22:01.758   09 Jun 2027 03:22:11.066             9.308          4654.000
       188   09 Jun 2027 03:23:26.749   09 Jun 2027 03:23:35.451             8.702          4351.000
       189   09 Jun 2027 04:54:01.683   09 Jun 2027 04:54:08.705             7.022          3511.000
       190   09 Jun 2027 04:54:23.093   09 Jun 2027 04:54:31.733             8.640          4320.000
       191   09 Jun 2027 04:54:33.151   09 Jun 2027 04:55:24.336            51.185         25592.500
       192   09 Jun 2027 04:55:29.188   09 Jun 2027 04:56:13.076            43.888         21944.000
       193   09 Jun 2027 04:59:28.220   09 Jun 2027 04:59:38.274            10.054          5027.000
       194   09 Jun 2027 06:32:47.878   09 Jun 2027 06:33:48.582            60.704         29626.657
       195   09 Jun 2027 06:34:28.411   09 Jun 2027 06:34:29.956             1.545           739.687
       196   09 Jun 2027 06:35:54.336   09 Jun 2027 06:36:00.291             5.955          1817.500
       197   09 Jun 2027 06:36:07.394   09 Jun 2027 06:36:09.146             1.752           221.969
       198   09 Jun 2027 06:36:46.014   09 Jun 2027 06:36:48.946             2.932           896.406
       199   09 Jun 2027 07:56:18.181   09 Jun 2027 07:56:28.381            10.200          4780.531
       200   09 Jun 2027 07:57:38.223   09 Jun 2027 07:57:44.831             6.608          1454.844
       201   09 Jun 2027 07:58:00.479   09 Jun 2027 07:58:00.479             0.000             0.000
       202   09 Jun 2027 09:32:30.741   09 Jun 2027 09:32:41.565            10.824          4895.250
       203   09 Jun 2027 09:33:20.525   09 Jun 2027 09:33:26.628             6.103          1019.313
       204   09 Jun 2027 09:33:47.730   09 Jun 2027 09:33:51.006             3.276           551.094
       205   09 Jun 2027 09:34:48.497   09 Jun 2027 09:34:51.814             3.317          1227.813
       206   09 Jun 2027 09:35:36.190   09 Jun 2027 09:35:39.314             3.124          1004.594
       207   09 Jun 2027 11:06:02.707   09 Jun 2027 11:06:11.615             8.908          3999.906
       208   09 Jun 2027 11:08:04.931   09 Jun 2027 11:08:04.931             0.000             0.000
       209   09 Jun 2027 11:08:39.700   09 Jun 2027 11:08:44.588             4.888          1940.875
       210   09 Jun 2027 11:12:11.275   09 Jun 2027 11:12:24.150            12.875          6409.031
       211   09 Jun 2027 11:12:28.163   09 Jun 2027 11:12:29.037             0.874           125.406
       212   09 Jun 2027 11:13:06.237   09 Jun 2027 11:13:10.176             3.939           574.250
       213   09 Jun 2027 11:13:28.118   09 Jun 2027 11:13:28.227             0.109            54.500
       214   09 Jun 2027 11:13:28.996   09 Jun 2027 11:13:29.776             0.780           320.125
       215   09 Jun 2027 11:14:37.527   09 Jun 2027 11:14:37.672             0.145            72.500
       216   10 Jun 2027 03:28:21.635   10 Jun 2027 03:28:32.885            11.250          5625.000
       217   10 Jun 2027 03:29:05.306   10 Jun 2027 03:29:21.048            15.742          7871.000
       218   10 Jun 2027 03:30:12.820   10 Jun 2027 03:31:31.633            78.813         39406.500
       219   10 Jun 2027 03:31:46.067   10 Jun 2027 03:33:09.738            83.671         41835.500
       220   10 Jun 2027 03:33:20.574   10 Jun 2027 03:33:20.910             0.336           168.000
       221   10 Jun 2027 03:34:28.291   10 Jun 2027 03:35:20.873            52.582         26291.000
       222   10 Jun 2027 05:07:49.552   10 Jun 2027 05:08:36.137            46.585         23292.500
       223   10 Jun 2027 05:09:00.613   10 Jun 2027 05:09:20.015            19.402          9701.000
       224   10 Jun 2027 05:10:27.457   10 Jun 2027 05:11:19.315            51.858         25929.000
       225   10 Jun 2027 05:12:19.894   10 Jun 2027 05:12:28.532             8.638          3621.219
       226   10 Jun 2027 06:44:29.197   10 Jun 2027 06:44:54.403            25.206         12353.188
       227   10 Jun 2027 06:45:00.040   10 Jun 2027 06:45:00.512             0.472           176.156
       228   10 Jun 2027 06:45:30.523   10 Jun 2027 06:45:34.025             3.502           244.375
       229   10 Jun 2027 06:47:00.641   10 Jun 2027 06:47:03.772             3.131           960.000
       230   10 Jun 2027 06:47:49.843   10 Jun 2027 06:47:52.019             2.176           716.250
       231   10 Jun 2027 06:48:48.347   10 Jun 2027 06:48:52.142             3.795          1760.250
       232   10 Jun 2027 08:08:10.097   10 Jun 2027 08:08:21.002            10.905          5129.500
       233   10 Jun 2027 08:09:39.602   10 Jun 2027 08:09:43.425             3.823          1738.594
       234   10 Jun 2027 08:10:06.153   10 Jun 2027 08:10:08.550             2.397           120.875
       235   10 Jun 2027 09:44:34.247   10 Jun 2027 09:44:43.132             8.885          4167.500
       236   10 Jun 2027 09:46:28.171   10 Jun 2027 09:46:36.934             8.763          2981.438
       237   10 Jun 2027 09:47:38.895   10 Jun 2027 09:47:43.739             4.844          1712.062
       238   10 Jun 2027 11:16:46.666   10 Jun 2027 11:16:54.179             7.513          3677.719
       239   10 Jun 2027 11:20:22.258   10 Jun 2027 11:20:34.920            12.662          6238.469
       240   10 Jun 2027 11:22:32.957   10 Jun 2027 11:22:41.780             8.823          3550.562
       241   10 Jun 2027 11:23:35.210   10 Jun 2027 11:23:43.108             7.898          1669.688
       242   10 Jun 2027 11:24:04.483   10 Jun 2027 11:24:06.524             2.041           667.969
       243   10 Jun 2027 11:25:13.880   10 Jun 2027 11:25:17.705             3.825          1424.187
       244   10 Jun 2027 11:25:44.046   10 Jun 2027 11:25:48.460             4.414           659.313
       245   10 Jun 2027 11:26:04.901   10 Jun 2027 11:26:06.693             1.792           395.781
       246   10 Jun 2027 11:26:33.715   10 Jun 2027 11:26:36.080             2.365           312.469
       247   11 Jun 2027 03:40:24.724   11 Jun 2027 03:40:39.000            14.276          7138.000
       248   11 Jun 2027 03:41:11.956   11 Jun 2027 03:41:37.646            25.690         12845.000
       249   11 Jun 2027 03:41:40.745   11 Jun 2027 03:44:26.250           165.505         82752.500
       250   11 Jun 2027 03:45:06.435   11 Jun 2027 03:45:11.652             5.217          2608.500
       251   11 Jun 2027 03:46:06.442   11 Jun 2027 03:46:34.280            27.838         13919.000
       252   11 Jun 2027 05:18:34.499   11 Jun 2027 05:19:09.365            34.866         17433.000
       253   11 Jun 2027 05:20:56.523   11 Jun 2027 05:22:20.280            83.757         41841.532
       254   11 Jun 2027 06:57:42.878   11 Jun 2027 06:58:08.471            25.593         10145.313
       255   11 Jun 2027 06:58:33.364   11 Jun 2027 06:58:35.427             2.063           489.750
       256   11 Jun 2027 06:59:21.743   11 Jun 2027 06:59:24.034             2.291           902.594
       257   11 Jun 2027 06:59:56.031   11 Jun 2027 06:59:58.661             2.630           354.375
       258   11 Jun 2027 07:00:36.338   11 Jun 2027 07:00:42.639             6.301          1177.406
       259   11 Jun 2027 08:20:15.661   11 Jun 2027 08:20:27.848            12.187          6020.188
       260   11 Jun 2027 08:21:40.737   11 Jun 2027 08:21:46.166             5.429          2111.750
       261   11 Jun 2027 08:21:58.416   11 Jun 2027 08:21:59.006             0.590           147.313
       262   11 Jun 2027 08:23:14.037   11 Jun 2027 08:23:16.300             2.263           455.656
       263   11 Jun 2027 09:56:44.757   11 Jun 2027 09:56:55.811            11.054          4036.438
       264   11 Jun 2027 09:58:17.287   11 Jun 2027 09:58:21.907             4.620          1886.469
       265   11 Jun 2027 09:58:41.020   11 Jun 2027 09:58:43.908             2.888            91.344
       266   11 Jun 2027 09:59:44.173   11 Jun 2027 09:59:47.746             3.573           894.062
       267   11 Jun 2027 11:32:09.611   11 Jun 2027 11:32:28.536            18.925          6836.938
       268   11 Jun 2027 11:38:28.376   11 Jun 2027 11:38:36.920             8.544          4272.000
       269   12 Jun 2027 03:52:22.687   12 Jun 2027 03:53:06.276            43.589         21794.500
       270   12 Jun 2027 03:53:09.945   12 Jun 2027 03:55:18.416           128.471         64235.500
       271   12 Jun 2027 05:30:39.316   12 Jun 2027 05:31:20.649            41.333         20666.500
       272   12 Jun 2027 05:31:42.716   12 Jun 2027 05:33:35.405           112.689         55855.281
       273   12 Jun 2027 05:33:53.520   12 Jun 2027 05:33:54.222             0.702           318.250
       274   12 Jun 2027 07:08:51.950   12 Jun 2027 07:09:07.494            15.544          6876.844
       275   12 Jun 2027 07:09:57.061   12 Jun 2027 07:10:00.731             3.670           503.625
       276   12 Jun 2027 07:11:15.410   12 Jun 2027 07:11:17.138             1.728           737.281
       277   12 Jun 2027 07:12:00.150   12 Jun 2027 07:12:03.489             3.339           622.875
       278   12 Jun 2027 08:32:19.280   12 Jun 2027 08:32:45.248            25.968         10465.813
       279   12 Jun 2027 08:33:33.797   12 Jun 2027 08:33:35.207             1.410           334.469
       280   12 Jun 2027 08:33:56.912   12 Jun 2027 08:33:59.900             2.988           637.562
       281   12 Jun 2027 08:35:10.002   12 Jun 2027 08:35:12.053             2.051           870.688
       282   12 Jun 2027 10:08:48.137   12 Jun 2027 10:08:58.389            10.252          4830.250
       283   12 Jun 2027 10:10:29.968   12 Jun 2027 10:10:36.757             6.789          2284.406
       284   12 Jun 2027 10:11:01.878   12 Jun 2027 10:11:06.105             4.227           202.937
       285   12 Jun 2027 11:43:59.932   12 Jun 2027 11:44:00.205             0.273           136.500
       286   12 Jun 2027 11:44:04.541   12 Jun 2027 11:44:17.294            12.753          6376.500
       287   12 Jun 2027 11:50:21.067   12 Jun 2027 11:50:35.891            14.824          7412.000
       288   13 Jun 2027 04:04:26.663   13 Jun 2027 04:07:41.690           195.027         97513.500
       289   13 Jun 2027 04:09:07.410   13 Jun 2027 04:09:10.943             3.533          1766.500
       290   13 Jun 2027 04:09:44.788   13 Jun 2027 04:10:26.353            41.565         20782.500
       291   13 Jun 2027 04:10:32.086   13 Jun 2027 04:10:32.790             0.704           352.000
       292   13 Jun 2027 04:11:02.966   13 Jun 2027 04:11:12.807             9.841          4920.500
       293   13 Jun 2027 05:43:43.918   13 Jun 2027 05:45:05.908            81.990         40995.000
       294   13 Jun 2027 05:45:31.311   13 Jun 2027 05:45:57.688            26.377         13188.500
       295   13 Jun 2027 05:46:32.844   13 Jun 2027 05:46:42.010             9.166          4583.000
       296   13 Jun 2027 05:49:53.560   13 Jun 2027 05:50:13.749            20.189          8404.438
       297   13 Jun 2027 05:50:36.817   13 Jun 2027 05:50:38.748             1.931           655.656
       298   13 Jun 2027 07:09:57.780   13 Jun 2027 07:10:15.118            17.338          6833.562
       299   13 Jun 2027 07:20:47.779   13 Jun 2027 07:20:53.590             5.811          2577.062
       300   13 Jun 2027 07:21:53.695   13 Jun 2027 07:21:55.715             2.020           805.000
       301   13 Jun 2027 07:22:19.745   13 Jun 2027 07:22:23.028             3.283           118.875
       302   13 Jun 2027 07:23:07.996   13 Jun 2027 07:23:11.159             3.163           525.688
       303   13 Jun 2027 07:23:36.393   13 Jun 2027 07:23:36.393             0.000             0.000
       304   13 Jun 2027 07:23:55.246   13 Jun 2027 07:23:59.320             4.074           714.813
       305   13 Jun 2027 08:44:46.279   13 Jun 2027 08:45:09.463            23.184         10349.750
       306   13 Jun 2027 08:45:57.847   13 Jun 2027 08:46:00.953             3.106          1005.781
       307   13 Jun 2027 10:20:32.241   13 Jun 2027 10:20:39.749             7.508          3732.688
       308   13 Jun 2027 10:22:18.959   13 Jun 2027 10:22:25.381             6.422          1962.875
       309   13 Jun 2027 10:23:40.002   13 Jun 2027 10:23:41.029             1.027           424.625
       310   13 Jun 2027 11:56:38.697   13 Jun 2027 11:56:38.697             0.000             0.000
       311   13 Jun 2027 11:59:10.291   13 Jun 2027 11:59:20.303            10.012          5006.000
