uniorb/output/strategy_4/Camera/Camera_KinoSat_110408.txt

KinoSat_110408
-------------------------
    Access    *     Start Time (UTCG)     *     Stop Time (UTCG)  *   Duration (s) *   Data (Mbytes)
         1   01 Jun 2027 03:20:57.963   01 Jun 2027 03:22:01.289            63.326         31663.000
         2   01 Jun 2027 03:22:22.246   01 Jun 2027 03:22:41.546            19.300          9650.000
         3   01 Jun 2027 03:22:51.670   01 Jun 2027 03:22:51.670             0.000             0.000
         4   01 Jun 2027 03:23:07.097   01 Jun 2027 03:23:12.009             4.912          2456.000
         5   01 Jun 2027 03:23:21.523   01 Jun 2027 03:23:24.962             3.439          1719.500
         6   01 Jun 2027 03:24:34.543   01 Jun 2027 03:24:47.173            12.630          6315.000
         7   01 Jun 2027 03:25:19.721   01 Jun 2027 03:25:45.065            25.344         12672.000
         8   01 Jun 2027 03:26:55.288   01 Jun 2027 03:26:58.066             2.778          1389.000
         9   01 Jun 2027 03:27:01.975   01 Jun 2027 03:27:10.338             8.363          4181.500
        10   01 Jun 2027 03:28:29.002   01 Jun 2027 03:29:01.854            32.852         16426.000
        11   01 Jun 2027 03:29:44.832   01 Jun 2027 03:29:48.046             3.214          1607.000
        12   01 Jun 2027 03:29:51.274   01 Jun 2027 03:30:05.910            14.636          7318.000
        13   01 Jun 2027 04:58:52.355   01 Jun 2027 05:00:51.928           119.573         59786.500
        14   01 Jun 2027 05:01:29.944   01 Jun 2027 05:01:39.642             9.698          4849.000
        15   01 Jun 2027 05:02:27.677   01 Jun 2027 05:02:36.806             9.129          4564.500
        16   01 Jun 2027 05:02:59.051   01 Jun 2027 05:03:07.768             8.717          4358.500
        17   01 Jun 2027 05:05:14.206   01 Jun 2027 05:05:45.840            31.634         15817.000
        18   01 Jun 2027 05:06:08.098   01 Jun 2027 05:06:17.722             9.624          4812.000
        19   01 Jun 2027 06:35:36.482   01 Jun 2027 06:38:35.736           179.254         89627.000
        20   01 Jun 2027 06:39:06.559   01 Jun 2027 06:39:14.647             8.088          4044.000
        21   01 Jun 2027 06:39:49.941   01 Jun 2027 06:39:50.941             1.000           500.000
        22   01 Jun 2027 06:40:50.456   01 Jun 2027 06:41:09.728            19.272          9636.000
        23   01 Jun 2027 06:41:35.902   01 Jun 2027 06:41:51.929            16.027          8013.500
        24   01 Jun 2027 08:13:30.004   01 Jun 2027 08:15:54.875           144.871         72435.500
        25   01 Jun 2027 08:17:10.491   01 Jun 2027 08:17:16.778             6.287          3143.500
        26   01 Jun 2027 09:49:27.836   01 Jun 2027 09:52:20.070           172.234         86117.000
        27   01 Jun 2027 09:52:47.768   01 Jun 2027 09:52:57.906            10.138          5069.000
        28   01 Jun 2027 09:53:10.527   01 Jun 2027 09:53:26.620            16.093          8046.500
        29   02 Jun 2027 03:33:50.967   02 Jun 2027 03:39:58.623           367.656        183828.000
        30   02 Jun 2027 03:40:34.322   02 Jun 2027 03:40:49.518            15.196          7598.000
        31   02 Jun 2027 03:41:42.291   02 Jun 2027 03:41:47.655             5.364          2682.000
        32   02 Jun 2027 03:42:02.808   02 Jun 2027 03:42:06.351             3.543          1771.500
        33   02 Jun 2027 03:42:21.047   02 Jun 2027 03:42:21.540             0.493           246.500
        34   02 Jun 2027 05:11:00.815   02 Jun 2027 05:13:44.425           163.610         81805.000
        35   02 Jun 2027 05:15:04.999   02 Jun 2027 05:16:53.218           108.219         54109.500
        36   02 Jun 2027 06:48:15.143   02 Jun 2027 06:52:45.627           270.484        135242.000
        37   02 Jun 2027 06:53:01.708   02 Jun 2027 06:54:06.576            64.868         32434.000
        38   02 Jun 2027 08:25:07.926   02 Jun 2027 08:29:48.432           280.506        140253.000
        39   02 Jun 2027 10:01:54.056   02 Jun 2027 10:04:50.865           176.809         88404.500
        40   03 Jun 2027 03:46:17.242   03 Jun 2027 03:53:14.809           417.567        208783.500
        41   03 Jun 2027 03:53:35.864   03 Jun 2027 03:54:19.875            44.011         22005.500
        42   03 Jun 2027 05:23:25.532   03 Jun 2027 05:30:07.524           401.992        200996.000
        43   03 Jun 2027 07:00:23.548   03 Jun 2027 07:05:33.866           310.318        155159.000
        44   03 Jun 2027 08:37:22.140   03 Jun 2027 08:41:41.533           259.393        129696.500
        45   03 Jun 2027 10:15:56.834   03 Jun 2027 10:16:21.741            24.907         12453.500
        46   04 Jun 2027 03:59:30.607   04 Jun 2027 04:05:16.228           345.621        172810.500
        47   04 Jun 2027 04:05:16.424   04 Jun 2027 04:06:19.781            63.357         31678.500
        48   04 Jun 2027 05:35:51.112   04 Jun 2027 05:42:13.500           382.388        191194.000
        49   04 Jun 2027 07:13:25.142   04 Jun 2027 07:17:47.554           262.412        131206.000
        50   04 Jun 2027 08:49:34.311   04 Jun 2027 08:53:40.105           245.794        122897.000
        51   05 Jun 2027 04:11:42.539   05 Jun 2027 04:18:18.253           395.714        197857.000
        52   05 Jun 2027 05:48:02.138   05 Jun 2027 05:53:46.373           344.235        172117.500
        53   05 Jun 2027 07:25:29.011   05 Jun 2027 07:30:01.629           272.618        136309.000
        54   05 Jun 2027 09:01:32.573   05 Jun 2027 09:05:43.037           250.464        125232.000
        55   05 Jun 2027 09:06:03.590   05 Jun 2027 09:06:25.132            21.542         10771.000
        56   06 Jun 2027 04:23:11.685   06 Jun 2027 04:25:39.249           147.564         73782.000
        57   06 Jun 2027 04:26:36.370   06 Jun 2027 04:30:27.619           231.249        115624.500
        58   06 Jun 2027 05:59:42.046   06 Jun 2027 06:06:05.993           383.947        191973.500
        59   06 Jun 2027 07:38:00.073   06 Jun 2027 07:41:43.228           223.155        111577.500
        60   06 Jun 2027 09:13:25.457   06 Jun 2027 09:17:28.871           243.414        121707.000
        61   06 Jun 2027 09:18:01.836   06 Jun 2027 09:18:48.472            46.636         23318.000
        62   07 Jun 2027 03:00:04.086   07 Jun 2027 03:04:44.355           280.269        140134.500
        63   07 Jun 2027 04:34:55.797   07 Jun 2027 04:42:28.223           452.426        226213.000
        64   07 Jun 2027 06:12:01.862   07 Jun 2027 06:18:05.670           363.808        181904.000
        65   07 Jun 2027 07:49:57.373   07 Jun 2027 07:53:55.536           238.163        119081.500
        66   07 Jun 2027 09:23:02.987   07 Jun 2027 09:29:23.786           380.799        190399.500
        67   07 Jun 2027 09:30:17.520   07 Jun 2027 09:30:49.069            31.549         15774.500
        68   08 Jun 2027 03:09:43.343   08 Jun 2027 03:11:40.697           117.354         58677.000
        69   08 Jun 2027 03:11:48.593   08 Jun 2027 03:17:06.737           318.144        159072.000
        70   08 Jun 2027 03:17:47.436   08 Jun 2027 03:18:07.308            19.872          9936.000
        71   08 Jun 2027 04:47:13.181   08 Jun 2027 04:54:31.837           438.656        219328.000
        72   08 Jun 2027 06:23:57.903   08 Jun 2027 06:29:15.660           317.757        158878.500
        73   08 Jun 2027 06:30:05.134   08 Jun 2027 06:30:10.270             5.136          2568.000
        74   08 Jun 2027 06:30:14.087   08 Jun 2027 06:30:31.321            17.234          8617.000
        75   08 Jun 2027 08:01:56.717   08 Jun 2027 08:06:07.487           250.770        125385.000
        76   08 Jun 2027 09:35:34.161   08 Jun 2027 09:42:48.980           434.819        217409.500
        77   09 Jun 2027 03:21:12.412   09 Jun 2027 03:29:16.515           484.103        242051.500
        78   09 Jun 2027 03:29:49.346   09 Jun 2027 03:30:34.872            45.526         22763.000
        79   09 Jun 2027 04:59:07.076   09 Jun 2027 05:06:32.525           445.449        222724.500
        80   09 Jun 2027 06:35:51.367   09 Jun 2027 06:41:35.401           344.034        172017.000
        81   09 Jun 2027 06:42:17.435   09 Jun 2027 06:42:34.338            16.903          8451.500
        82   09 Jun 2027 08:13:44.746   09 Jun 2027 08:18:06.748           262.002        131001.000
        83   09 Jun 2027 09:49:42.653   09 Jun 2027 09:54:02.193           259.540        129770.000
        84   10 Jun 2027 03:34:05.454   10 Jun 2027 03:42:36.209           510.755        255377.500
        85   10 Jun 2027 05:11:16.006   10 Jun 2027 05:18:31.770           435.764        217882.000
        86   10 Jun 2027 06:48:30.097   10 Jun 2027 06:53:00.072           269.975        134987.500
        87   10 Jun 2027 06:53:26.322   10 Jun 2027 06:54:21.169            54.847         27423.500
        88   10 Jun 2027 08:25:28.108   10 Jun 2027 08:30:03.157           275.049        137524.500
        89   10 Jun 2027 10:02:09.067   10 Jun 2027 10:05:05.355           176.288         88144.000
        90   11 Jun 2027 03:46:33.015   11 Jun 2027 03:53:29.678           416.663        208331.500
        91   11 Jun 2027 03:53:50.232   11 Jun 2027 03:54:34.459            44.227         22113.500
        92   11 Jun 2027 05:23:40.173   11 Jun 2027 05:30:22.236           402.063        201031.500
        93   11 Jun 2027 07:00:38.003   11 Jun 2027 07:05:36.468           298.465        149232.500
        94   11 Jun 2027 08:37:25.373   11 Jun 2027 08:41:56.240           270.867        135433.500
        95   11 Jun 2027 10:15:35.746   11 Jun 2027 10:16:36.333            60.587         30293.500
        96   12 Jun 2027 03:59:45.162   12 Jun 2027 04:05:30.943           345.781        172890.500
        97   12 Jun 2027 04:05:31.036   12 Jun 2027 04:06:34.487            63.451         31725.500
        98   12 Jun 2027 05:36:05.672   12 Jun 2027 05:42:28.219           382.547        191273.500
        99   12 Jun 2027 07:13:39.732   12 Jun 2027 07:18:02.489           262.757        131378.500
       100   12 Jun 2027 08:49:49.517   12 Jun 2027 08:53:55.133           245.616        122808.000
       101   13 Jun 2027 04:11:57.140   13 Jun 2027 04:18:32.941           395.801        197900.500
       102   13 Jun 2027 05:48:15.377   13 Jun 2027 05:54:01.043           345.666        172833.000
       103   13 Jun 2027 07:25:43.857   13 Jun 2027 07:30:16.360           272.503        136251.500
       104   13 Jun 2027 09:01:47.230   13 Jun 2027 09:05:57.666           250.436        125218.000
       105   13 Jun 2027 09:06:25.827   13 Jun 2027 09:06:40.265            14.438          7219.000
