uniorb/output/strategy_4/Camera/Camera_KinoSat_110904.txt

KinoSat_110904
-------------------------
    Access    *     Start Time (UTCG)     *     Stop Time (UTCG)  *   Duration (s) *   Data (Mbytes)
         1   01 Jun 2027 03:40:39.538   01 Jun 2027 03:41:48.622            69.084         34542.000
         2   01 Jun 2027 03:42:28.074   01 Jun 2027 03:42:48.276            20.202         10101.000
         3   01 Jun 2027 03:43:19.873   01 Jun 2027 03:43:44.602            24.729         12364.500
         4   01 Jun 2027 05:17:09.634   01 Jun 2027 05:18:56.787           107.153         53576.500
         5   01 Jun 2027 06:52:19.927   01 Jun 2027 06:54:15.642           115.715         57857.500
         6   01 Jun 2027 06:54:37.938   01 Jun 2027 06:54:49.992            12.054          6027.000
         7   01 Jun 2027 06:57:46.877   01 Jun 2027 06:58:05.536            18.659          9329.500
         8   01 Jun 2027 06:58:28.109   01 Jun 2027 06:58:28.189             0.080            40.000
         9   01 Jun 2027 06:58:47.529   01 Jun 2027 06:58:53.664             6.135          3067.500
        10   01 Jun 2027 08:28:40.777   01 Jun 2027 08:31:05.391           144.614         72307.000
        11   01 Jun 2027 08:33:49.921   01 Jun 2027 08:33:50.416             0.495           247.500
        12   01 Jun 2027 10:06:00.164   01 Jun 2027 10:08:18.936           138.772         69386.000
        13   01 Jun 2027 10:08:44.496   01 Jun 2027 10:08:48.173             3.677          1838.500
        14   01 Jun 2027 10:09:54.090   01 Jun 2027 10:10:08.009            13.919          6959.500
        15   01 Jun 2027 11:42:11.923   01 Jun 2027 11:44:37.479           145.556         72778.000
        16   01 Jun 2027 11:45:04.383   01 Jun 2027 11:45:06.310             1.927           963.500
        17   01 Jun 2027 11:46:33.759   01 Jun 2027 11:46:46.351            12.592          6296.000
        18   02 Jun 2027 03:53:19.611   02 Jun 2027 03:53:49.974            30.363         15181.500
        19   02 Jun 2027 05:29:05.300   02 Jun 2027 05:32:00.601           175.301         87650.500
        20   02 Jun 2027 07:04:03.263   02 Jun 2027 07:07:47.907           224.644        112322.000
        21   02 Jun 2027 07:08:34.988   02 Jun 2027 07:09:07.640            32.652         16326.000
        22   02 Jun 2027 07:10:39.090   02 Jun 2027 07:11:04.061            24.971         12485.500
        23   02 Jun 2027 08:40:15.051   02 Jun 2027 08:43:47.118           212.067        104679.187
        24   02 Jun 2027 08:44:19.575   02 Jun 2027 08:44:23.041             3.466           593.250
        25   02 Jun 2027 08:45:39.632   02 Jun 2027 08:45:44.185             4.553          2188.187
        26   02 Jun 2027 08:46:01.313   02 Jun 2027 08:46:03.510             2.197           451.375
        27   02 Jun 2027 10:18:15.047   02 Jun 2027 10:18:39.490            24.443         10379.969
        28   02 Jun 2027 10:18:54.325   02 Jun 2027 10:18:56.178             1.853           197.906
        29   02 Jun 2027 10:19:17.583   02 Jun 2027 10:19:18.796             1.213            33.188
        30   02 Jun 2027 10:20:37.100   02 Jun 2027 10:20:43.442             6.342          1849.313
        31   02 Jun 2027 10:21:43.683   02 Jun 2027 10:21:55.915            12.232          1165.000
        32   02 Jun 2027 10:22:11.348   02 Jun 2027 10:22:14.453             3.105           255.625
        33   02 Jun 2027 10:22:24.413   02 Jun 2027 10:22:25.133             0.720            27.719
        34   02 Jun 2027 11:53:56.713   02 Jun 2027 11:54:07.513            10.800          4866.438
        35   02 Jun 2027 11:55:26.485   02 Jun 2027 11:55:34.872             8.387           742.125
        36   02 Jun 2027 11:55:51.106   02 Jun 2027 11:55:52.154             1.048           140.500
        37   02 Jun 2027 11:56:39.906   02 Jun 2027 11:56:42.681             2.775           977.000
        38   02 Jun 2027 11:58:03.794   02 Jun 2027 11:58:05.812             2.018           786.188
        39   02 Jun 2027 11:58:25.970   02 Jun 2027 11:58:29.244             3.274           115.937
        40   02 Jun 2027 11:58:37.218   02 Jun 2027 11:58:37.870             0.652           249.187
        41   02 Jun 2027 11:59:03.961   02 Jun 2027 11:59:05.842             1.881           607.969
        42   03 Jun 2027 04:04:09.548   03 Jun 2027 04:04:33.759            24.211         12105.500
        43   03 Jun 2027 04:04:59.835   03 Jun 2027 04:04:59.835             0.000             0.000
        44   03 Jun 2027 04:06:51.582   03 Jun 2027 04:06:57.678             6.096          3048.000
        45   03 Jun 2027 04:07:20.053   03 Jun 2027 04:07:43.254            23.201         11600.500
        46   03 Jun 2027 05:39:41.445   03 Jun 2027 05:39:46.973             5.528          2764.000
        47   03 Jun 2027 05:40:50.747   03 Jun 2027 05:43:19.168           148.421         74210.500
        48   03 Jun 2027 05:44:43.323   03 Jun 2027 05:44:52.882             9.559          4779.500
        49   03 Jun 2027 05:45:15.551   03 Jun 2027 05:45:17.145             1.594           797.000
        50   03 Jun 2027 07:15:36.850   03 Jun 2027 07:17:23.120           106.270         53025.313
        51   03 Jun 2027 07:17:40.506   03 Jun 2027 07:17:45.132             4.626           524.187
        52   03 Jun 2027 07:18:34.895   03 Jun 2027 07:18:40.774             5.879          1511.687
        53   03 Jun 2027 07:19:30.431   03 Jun 2027 07:19:34.500             4.069           258.375
        54   03 Jun 2027 07:21:06.911   03 Jun 2027 07:21:13.483             6.572          2182.031
        55   03 Jun 2027 07:22:10.491   03 Jun 2027 07:22:18.315             7.824          1201.156
        56   03 Jun 2027 08:52:29.695   03 Jun 2027 08:52:47.989            18.294          7806.594
        57   03 Jun 2027 08:53:39.800   03 Jun 2027 08:53:43.107             3.307           663.250
        58   03 Jun 2027 08:54:20.151   03 Jun 2027 08:54:22.534             2.383           723.500
        59   03 Jun 2027 08:55:07.787   03 Jun 2027 08:55:09.676             1.889           841.969
        60   03 Jun 2027 08:56:13.116   03 Jun 2027 08:56:16.988             3.872           626.156
        61   03 Jun 2027 08:56:56.716   03 Jun 2027 08:56:58.238             1.522            40.438
        62   03 Jun 2027 08:57:03.560   03 Jun 2027 08:57:04.839             1.279           166.313
        63   03 Jun 2027 08:58:42.082   03 Jun 2027 08:58:44.616             2.534          1267.000
        64   03 Jun 2027 10:30:36.919   03 Jun 2027 10:30:50.291            13.372          6245.813
        65   03 Jun 2027 10:31:12.845   03 Jun 2027 10:31:18.140             5.295           559.719
        66   03 Jun 2027 10:32:34.603   03 Jun 2027 10:32:36.175             1.572           167.031
        67   03 Jun 2027 10:34:00.345   03 Jun 2027 10:34:00.663             0.318           136.312
        68   03 Jun 2027 10:34:20.529   03 Jun 2027 10:34:25.080             4.551           248.188
        69   04 Jun 2027 04:15:25.544   04 Jun 2027 04:16:15.427            49.883         24941.500
        70   04 Jun 2027 04:18:19.804   04 Jun 2027 04:18:27.158             7.354          3677.000
        71   04 Jun 2027 04:19:20.000   04 Jun 2027 04:19:49.102            29.102         14551.000
        72   04 Jun 2027 05:50:35.852   04 Jun 2027 05:52:01.291            85.439         42719.500
        73   04 Jun 2027 05:52:34.394   04 Jun 2027 05:52:34.543             0.149            74.500
        74   04 Jun 2027 05:53:14.194   04 Jun 2027 05:53:41.228            27.034         13517.000
        75   04 Jun 2027 05:53:46.837   04 Jun 2027 05:54:01.285            14.448          7224.000
        76   04 Jun 2027 05:54:15.826   04 Jun 2027 05:54:27.552            11.726          5863.000
        77   04 Jun 2027 05:55:21.134   04 Jun 2027 05:55:26.504             5.370          2685.000
        78   04 Jun 2027 05:55:54.843   04 Jun 2027 05:56:01.610             6.767          3383.500
        79   04 Jun 2027 05:56:36.558   04 Jun 2027 05:57:01.827            25.269         12634.500
        80   04 Jun 2027 05:58:29.306   04 Jun 2027 05:58:33.567             4.261          2130.500
        81   04 Jun 2027 07:27:43.979   04 Jun 2027 07:28:45.318            61.339         29624.125
        82   04 Jun 2027 07:29:43.659   04 Jun 2027 07:29:45.318             1.659           617.781
        83   04 Jun 2027 07:30:42.222   04 Jun 2027 07:30:44.629             2.407           163.094
        84   04 Jun 2027 07:30:49.683   04 Jun 2027 07:30:49.683             0.000             0.000
        85   04 Jun 2027 07:31:25.566   04 Jun 2027 07:31:28.616             3.050          1279.281
        86   04 Jun 2027 07:32:02.880   04 Jun 2027 07:32:05.769             2.889           957.094
        87   04 Jun 2027 07:33:29.940   04 Jun 2027 07:33:31.967             2.027           764.844
        88   04 Jun 2027 07:33:57.159   04 Jun 2027 07:34:01.516             4.357           697.000
        89   04 Jun 2027 07:34:12.417   04 Jun 2027 07:34:15.840             3.423           174.281
        90   04 Jun 2027 09:04:41.633   04 Jun 2027 09:04:51.999            10.366          4296.031
        91   04 Jun 2027 09:05:49.982   04 Jun 2027 09:05:52.868             2.886          1192.656
        92   04 Jun 2027 09:06:18.005   04 Jun 2027 09:06:19.999             1.994           115.000
        93   04 Jun 2027 09:07:09.117   04 Jun 2027 09:07:10.112             0.995            47.500
        94   04 Jun 2027 09:08:24.888   04 Jun 2027 09:08:27.912             3.024           365.000
        95   04 Jun 2027 09:08:42.318   04 Jun 2027 09:08:44.320             2.002           399.531
        96   04 Jun 2027 09:08:58.885   04 Jun 2027 09:09:08.895            10.010           455.156
        97   04 Jun 2027 09:09:42.044   04 Jun 2027 09:09:44.276             2.232           287.375
        98   04 Jun 2027 09:10:48.893   04 Jun 2027 09:10:50.296             1.403           701.500
        99   04 Jun 2027 10:42:34.726   04 Jun 2027 10:42:44.989            10.263          4836.063
       100   04 Jun 2027 10:43:48.120   04 Jun 2027 10:43:53.699             5.579          1821.500
       101   04 Jun 2027 10:44:34.681   04 Jun 2027 10:44:35.509             0.828            31.250
       102   04 Jun 2027 10:46:06.414   04 Jun 2027 10:46:11.183             4.769           831.594
       103   04 Jun 2027 10:46:15.979   04 Jun 2027 10:46:18.749             2.770            12.125
       104   04 Jun 2027 10:46:20.893   04 Jun 2027 10:46:23.085             2.192             0.562
       105   05 Jun 2027 03:05:08.324   05 Jun 2027 03:06:01.189            52.865         26432.500
       106   05 Jun 2027 04:27:10.457   05 Jun 2027 04:27:56.712            46.255         23127.500
       107   05 Jun 2027 04:29:13.479   05 Jun 2027 04:29:24.468            10.989          5494.500
       108   05 Jun 2027 04:29:44.094   05 Jun 2027 04:29:54.554            10.460          5230.000
       109   05 Jun 2027 04:32:24.448   05 Jun 2027 04:32:45.793            21.345         10672.500
       110   05 Jun 2027 06:02:03.249   05 Jun 2027 06:04:24.026           140.777         70388.500
       111   05 Jun 2027 06:05:30.715   05 Jun 2027 06:05:39.823             9.108          4554.000
       112   05 Jun 2027 06:05:52.637   05 Jun 2027 06:06:00.557             7.920          3960.000
       113   05 Jun 2027 06:07:22.836   05 Jun 2027 06:07:31.779             8.943          4471.500
       114   05 Jun 2027 06:08:29.531   05 Jun 2027 06:08:31.881             2.350          1175.000
       115   05 Jun 2027 06:09:27.959   05 Jun 2027 06:09:30.633             2.674          1337.000
       116   05 Jun 2027 07:39:45.495   05 Jun 2027 07:40:00.033            14.538          7268.625
       117   05 Jun 2027 07:41:23.476   05 Jun 2027 07:41:28.276             4.800          2143.875
       118   05 Jun 2027 07:42:07.221   05 Jun 2027 07:42:09.063             1.842           640.969
       119   05 Jun 2027 07:43:33.754   05 Jun 2027 07:43:37.723             3.969           148.906
       120   05 Jun 2027 07:45:03.151   05 Jun 2027 07:45:13.749            10.598          1618.656
       121   05 Jun 2027 07:45:37.473   05 Jun 2027 07:45:46.545             9.072           718.625
       122   05 Jun 2027 07:46:48.029   05 Jun 2027 07:46:52.963             4.934          1785.406
       123   05 Jun 2027 09:16:33.569   05 Jun 2027 09:16:44.682            11.113          5384.406
       124   05 Jun 2027 09:19:30.141   05 Jun 2027 09:19:32.837             2.696           742.531
       125   05 Jun 2027 09:20:32.267   05 Jun 2027 09:20:34.750             2.483          1066.906
       126   05 Jun 2027 09:21:01.575   05 Jun 2027 09:21:14.137            12.562           355.344
       127   05 Jun 2027 09:21:36.796   05 Jun 2027 09:21:38.913             2.117           136.219
       128   05 Jun 2027 09:22:01.201   05 Jun 2027 09:22:03.530             2.329           669.750
       129   05 Jun 2027 10:54:35.143   05 Jun 2027 10:54:48.639            13.496          6166.531
       130   05 Jun 2027 10:55:14.222   05 Jun 2027 10:55:16.154             1.932            75.844
       131   05 Jun 2027 10:56:28.978   05 Jun 2027 10:56:31.586             2.608           504.313
       132   05 Jun 2027 10:56:39.580   05 Jun 2027 10:56:44.824             5.244           242.219
       133   05 Jun 2027 10:57:39.598   05 Jun 2027 10:57:42.170             2.572           197.344
       134   05 Jun 2027 10:58:28.322   05 Jun 2027 10:58:32.952             4.630          1222.500
       135   05 Jun 2027 10:58:36.781   05 Jun 2027 10:58:37.041             0.260            65.688
       136   06 Jun 2027 03:04:59.458   06 Jun 2027 03:05:08.048             8.590          4295.000
       137   06 Jun 2027 03:06:59.224   06 Jun 2027 03:07:01.794             2.570          1285.000
       138   06 Jun 2027 04:38:46.165   06 Jun 2027 04:41:21.220           155.055         77527.500
       139   06 Jun 2027 04:42:07.566   06 Jun 2027 04:42:22.443            14.877          7438.500
       140   06 Jun 2027 04:43:41.565   06 Jun 2027 04:43:50.271             8.706          4353.000
       141   06 Jun 2027 06:13:38.659   06 Jun 2027 06:15:31.693           113.034         55845.781
       142   06 Jun 2027 06:15:46.689   06 Jun 2027 06:15:49.528             2.839           360.125
       143   06 Jun 2027 06:17:03.212   06 Jun 2027 06:17:06.203             2.991           855.031
       144   06 Jun 2027 06:17:32.938   06 Jun 2027 06:17:34.454             1.516           173.031
       145   06 Jun 2027 06:18:01.218   06 Jun 2027 06:18:01.218             0.000             0.000
       146   06 Jun 2027 06:19:25.082   06 Jun 2027 06:19:34.715             9.633          3439.781
       147   06 Jun 2027 06:20:21.095   06 Jun 2027 06:20:29.056             7.961          1449.375
       148   06 Jun 2027 06:20:53.892   06 Jun 2027 06:20:56.144             2.252           408.938
       149   06 Jun 2027 06:21:29.867   06 Jun 2027 06:21:32.297             2.430           872.469
       150   06 Jun 2027 06:22:37.091   06 Jun 2027 06:22:41.687             4.596          1975.219
       151   06 Jun 2027 07:51:48.723   06 Jun 2027 07:51:50.149             1.426           151.906
       152   06 Jun 2027 07:54:25.853   06 Jun 2027 07:54:29.391             3.538          1163.188
       153   06 Jun 2027 07:55:33.230   06 Jun 2027 07:55:34.883             1.653           685.594
       154   06 Jun 2027 07:56:22.641   06 Jun 2027 07:56:25.476             2.835           455.531
       155   06 Jun 2027 07:57:48.802   06 Jun 2027 07:57:53.478             4.676          2087.813
       156   06 Jun 2027 07:58:04.975   06 Jun 2027 07:58:06.701             1.726           359.281
       157   06 Jun 2027 07:58:33.121   06 Jun 2027 07:58:33.413             0.292            89.687
       158   06 Jun 2027 09:28:43.481   06 Jun 2027 09:28:56.039            12.558          6246.906
       159   06 Jun 2027 09:29:45.258   06 Jun 2027 09:29:51.274             6.016           986.375
       160   06 Jun 2027 09:32:08.897   06 Jun 2027 09:32:15.114             6.217          1727.344
       161   06 Jun 2027 09:32:42.047   06 Jun 2027 09:32:43.958             1.911           837.344
       162   06 Jun 2027 09:32:48.898   06 Jun 2027 09:32:52.853             3.955           154.375
       163   06 Jun 2027 09:33:02.963   06 Jun 2027 09:33:07.111             4.148           306.969
       164   06 Jun 2027 09:33:24.239   06 Jun 2027 09:33:25.281             1.042           269.531
       165   06 Jun 2027 09:33:25.724   06 Jun 2027 09:33:26.230             0.506            13.844
       166   06 Jun 2027 09:34:24.987   06 Jun 2027 09:34:35.452            10.465          1805.000
       167   06 Jun 2027 11:05:49.929   06 Jun 2027 11:06:01.857            11.928          5566.625
       168   06 Jun 2027 11:08:43.977   06 Jun 2027 11:08:45.008             1.031           471.469
       169   06 Jun 2027 11:09:25.213   06 Jun 2027 11:09:27.440             2.227           690.656
       170   06 Jun 2027 11:10:10.386   06 Jun 2027 11:10:13.220             2.834           210.625
       171   06 Jun 2027 11:10:33.142   06 Jun 2027 11:10:34.471             1.329           567.844
       172   06 Jun 2027 11:10:37.234   06 Jun 2027 11:10:39.180             1.946            73.750
       173   07 Jun 2027 03:16:54.172   07 Jun 2027 03:17:01.338             7.166          3583.000
       174   07 Jun 2027 03:18:40.235   07 Jun 2027 03:18:46.649             6.414          3207.000
       175   07 Jun 2027 04:53:13.346   07 Jun 2027 04:56:41.996           208.650        104325.000
       176   07 Jun 2027 06:26:42.616   07 Jun 2027 06:27:52.912            70.296         35067.437
       177   07 Jun 2027 06:29:03.849   07 Jun 2027 06:29:07.782             3.933           372.562
       178   07 Jun 2027 06:29:28.564   07 Jun 2027 06:29:28.564             0.000             0.000
       179   07 Jun 2027 06:30:04.365   07 Jun 2027 06:30:13.321             8.956          1707.438
       180   07 Jun 2027 06:30:44.932   07 Jun 2027 06:30:50.101             5.169           886.562
       181   07 Jun 2027 06:32:05.337   07 Jun 2027 06:32:14.888             9.551          1857.687
       182   07 Jun 2027 06:32:51.263   07 Jun 2027 06:32:54.095             2.832          1136.719
       183   07 Jun 2027 06:33:37.121   07 Jun 2027 06:33:40.932             3.811          1144.969
       184   07 Jun 2027 06:34:10.154   07 Jun 2027 06:34:13.926             3.772           870.750
       185   07 Jun 2027 06:35:13.481   07 Jun 2027 06:35:15.206             1.725           311.000
       186   07 Jun 2027 08:04:14.944   07 Jun 2027 08:04:18.715             3.771          1043.438
       187   07 Jun 2027 08:07:13.951   07 Jun 2027 08:07:18.027             4.076          1930.375
       188   07 Jun 2027 08:07:43.720   07 Jun 2027 08:07:45.470             1.750           802.906
       189   07 Jun 2027 08:08:49.664   07 Jun 2027 08:08:53.806             4.142          1578.250
       190   07 Jun 2027 08:09:45.412   07 Jun 2027 08:09:51.152             5.740          1344.812
       191   07 Jun 2027 08:09:54.789   07 Jun 2027 08:09:55.189             0.400           113.656
       192   07 Jun 2027 08:10:19.602   07 Jun 2027 08:10:22.236             2.634           125.844
       193   07 Jun 2027 09:41:10.594   07 Jun 2027 09:41:29.290            18.696          6275.375
       194   07 Jun 2027 09:44:52.541   07 Jun 2027 09:44:53.079             0.538           194.875
       195   07 Jun 2027 09:45:04.528   07 Jun 2027 09:45:09.387             4.859           357.781
       196   07 Jun 2027 09:45:42.785   07 Jun 2027 09:45:43.716             0.931           377.438
       197   07 Jun 2027 09:45:55.010   07 Jun 2027 09:45:55.490             0.480            43.469
       198   07 Jun 2027 11:18:01.752   07 Jun 2027 11:18:15.488            13.736          5379.000
       199   07 Jun 2027 11:20:24.647   07 Jun 2027 11:20:27.757             3.110           922.156
       200   07 Jun 2027 11:21:03.961   07 Jun 2027 11:21:05.476             1.515           502.187
       201   07 Jun 2027 11:22:12.477   07 Jun 2027 11:22:17.189             4.712           558.031
       202   07 Jun 2027 11:22:31.595   07 Jun 2027 11:22:34.162             2.567             5.344
       203   08 Jun 2027 03:28:45.823   08 Jun 2027 03:29:02.603            16.780          8390.000
       204   08 Jun 2027 05:05:14.669   08 Jun 2027 05:06:03.105            48.436         24218.000
       205   08 Jun 2027 05:07:48.707   08 Jun 2027 05:08:46.934            58.227         29113.500
       206   08 Jun 2027 06:39:22.226   08 Jun 2027 06:42:18.418           176.192         87632.781
       207   08 Jun 2027 06:43:10.871   08 Jun 2027 06:43:12.826             1.955           639.313
       208   08 Jun 2027 06:43:30.652   08 Jun 2027 06:43:31.602             0.950           231.000
       209   08 Jun 2027 06:43:41.605   08 Jun 2027 06:43:44.824             3.219            42.875
       210   08 Jun 2027 06:44:06.983   08 Jun 2027 06:44:10.973             3.990           229.156
       211   08 Jun 2027 06:44:22.621   08 Jun 2027 06:44:24.690             2.069           364.000
       212   08 Jun 2027 06:45:23.065   08 Jun 2027 06:45:25.944             2.879          1392.969
       213   08 Jun 2027 06:46:11.859   08 Jun 2027 06:46:15.232             3.373           932.219
       214   08 Jun 2027 06:47:06.888   08 Jun 2027 06:47:09.669             2.781          1381.687
       215   08 Jun 2027 08:16:20.770   08 Jun 2027 08:16:23.315             2.545          1114.437
       216   08 Jun 2027 08:19:16.695   08 Jun 2027 08:19:18.334             1.639           787.531
       217   08 Jun 2027 08:19:38.655   08 Jun 2027 08:19:43.460             4.805           635.031
       218   08 Jun 2027 08:20:56.332   08 Jun 2027 08:20:58.780             2.448          1186.813
       219   08 Jun 2027 08:22:01.075   08 Jun 2027 08:22:04.900             3.825          1879.906
       220   08 Jun 2027 08:22:28.913   08 Jun 2027 08:22:29.776             0.863           354.875
       221   08 Jun 2027 08:22:35.850   08 Jun 2027 08:22:36.400             0.550           128.063
       222   08 Jun 2027 09:53:58.098   08 Jun 2027 09:54:16.584            18.486          5664.625
       223   08 Jun 2027 09:55:17.493   08 Jun 2027 09:55:19.636             2.143           706.125
       224   08 Jun 2027 09:57:34.122   08 Jun 2027 09:57:37.634             3.512          1437.688
       225   08 Jun 2027 11:30:05.181   08 Jun 2027 11:30:16.799            11.618          4910.938
       226   08 Jun 2027 11:30:58.882   08 Jun 2027 11:31:05.066             6.184           331.719
       227   08 Jun 2027 11:32:45.416   08 Jun 2027 11:32:47.144             1.728           830.937
       228   08 Jun 2027 11:34:36.239   08 Jun 2027 11:34:45.141             8.902           675.969
       229   09 Jun 2027 03:40:54.457   09 Jun 2027 03:41:03.516             9.059          4529.500
       230   09 Jun 2027 03:41:29.607   09 Jun 2027 03:41:45.278            15.671          7835.500
       231   09 Jun 2027 03:43:34.191   09 Jun 2027 03:43:59.827            25.636         12818.000
       232   09 Jun 2027 05:19:48.649   09 Jun 2027 05:21:00.208            71.559         35779.500
       233   09 Jun 2027 06:52:34.973   09 Jun 2027 06:55:42.743           187.770         93885.000
       234   09 Jun 2027 06:55:55.413   09 Jun 2027 06:55:56.998             1.585           594.781
       235   09 Jun 2027 06:57:23.450   09 Jun 2027 06:57:30.338             6.888          2484.250
       236   09 Jun 2027 06:58:38.218   09 Jun 2027 06:58:42.551             4.333          1710.813
       237   09 Jun 2027 06:58:43.910   09 Jun 2027 06:58:44.608             0.698            42.469
       238   09 Jun 2027 08:28:56.967   09 Jun 2027 08:29:13.571            16.604          4932.000
       239   09 Jun 2027 08:30:44.392   09 Jun 2027 08:30:48.641             4.249           999.344
       240   09 Jun 2027 08:31:20.280   09 Jun 2027 08:31:22.357             2.077           953.125
       241   09 Jun 2027 08:33:02.118   09 Jun 2027 08:33:08.147             6.029          1726.563
       242   09 Jun 2027 08:33:55.419   09 Jun 2027 08:33:56.951             1.532           676.844
       243   09 Jun 2027 08:34:42.089   09 Jun 2027 08:34:46.281             4.192          1106.719
       244   09 Jun 2027 10:06:15.195   09 Jun 2027 10:06:25.987            10.792          5049.188
       245   09 Jun 2027 10:06:40.606   09 Jun 2027 10:06:43.923             3.317           244.250
       246   09 Jun 2027 10:07:55.854   09 Jun 2027 10:07:59.322             3.468           482.812
       247   09 Jun 2027 10:08:43.639   09 Jun 2027 10:08:46.766             3.127           350.219
       248   09 Jun 2027 10:09:16.570   09 Jun 2027 10:09:18.512             1.942           931.375
       249   09 Jun 2027 10:10:03.663   09 Jun 2027 10:10:05.546             1.883           557.062
       250   09 Jun 2027 10:10:34.205   09 Jun 2027 10:10:36.098             1.893           745.031
       251   09 Jun 2027 10:10:44.629   09 Jun 2027 10:10:46.633             2.004           233.812
       252   09 Jun 2027 11:42:26.947   09 Jun 2027 11:42:37.638            10.691          5141.687
       253   09 Jun 2027 11:46:51.521   09 Jun 2027 11:46:54.657             3.136           507.844
       254   10 Jun 2027 03:53:34.316   10 Jun 2027 03:53:42.067             7.751          3875.500
       255   10 Jun 2027 03:54:53.662   10 Jun 2027 03:55:03.438             9.776          4888.000
       256   10 Jun 2027 03:55:37.930   10 Jun 2027 03:55:46.383             8.453          4226.500
       257   10 Jun 2027 03:55:54.841   10 Jun 2027 03:56:02.228             7.387          3693.500
       258   10 Jun 2027 05:29:20.029   10 Jun 2027 05:32:08.262           168.233         84116.500
       259   10 Jun 2027 05:32:18.545   10 Jun 2027 05:32:30.665            12.120          6060.000
       260   10 Jun 2027 07:04:17.606   10 Jun 2027 07:05:50.176            92.570         45493.687
       261   10 Jun 2027 07:06:29.655   10 Jun 2027 07:06:31.978             2.323          1078.469
       262   10 Jun 2027 07:07:27.861   10 Jun 2027 07:07:29.518             1.657           731.562
       263   10 Jun 2027 07:07:37.060   10 Jun 2027 07:07:39.187             2.127           227.656
       264   10 Jun 2027 07:09:23.313   10 Jun 2027 07:09:35.290            11.977          3070.469
       265   10 Jun 2027 07:10:22.751   10 Jun 2027 07:10:27.057             4.306          1132.281
       266   10 Jun 2027 07:10:53.857   10 Jun 2027 07:10:56.137             2.280           656.656
       267   10 Jun 2027 08:40:29.871   10 Jun 2027 08:40:38.238             8.367          3903.406
       268   10 Jun 2027 08:42:32.452   10 Jun 2027 08:42:36.029             3.577           599.438
       269   10 Jun 2027 08:43:05.353   10 Jun 2027 08:43:07.963             2.610           569.938
       270   10 Jun 2027 08:43:44.841   10 Jun 2027 08:43:47.679             2.838           705.156
       271   10 Jun 2027 08:44:34.791   10 Jun 2027 08:44:36.191             1.400           592.719
       272   10 Jun 2027 08:45:54.439   10 Jun 2027 08:45:58.842             4.403          2171.656
       273   10 Jun 2027 08:46:17.322   10 Jun 2027 08:46:20.700             3.378           494.875
       274   10 Jun 2027 10:18:30.536   10 Jun 2027 10:18:48.223            17.687          7116.781
       275   10 Jun 2027 10:19:02.739   10 Jun 2027 10:19:05.230             2.491           453.625
       276   10 Jun 2027 10:19:31.706   10 Jun 2027 10:19:33.535             1.829           685.875
       277   10 Jun 2027 10:20:49.921   10 Jun 2027 10:20:50.759             0.838           302.219
       278   10 Jun 2027 10:21:59.007   10 Jun 2027 10:22:11.467            12.460          1210.281
       279   10 Jun 2027 10:22:26.737   10 Jun 2027 10:22:27.846             1.109           175.063
       280   10 Jun 2027 10:22:40.228   10 Jun 2027 10:22:42.054             1.826            44.437
       281   10 Jun 2027 11:54:11.079   10 Jun 2027 11:54:28.850            17.771          6938.406
       282   11 Jun 2027 04:04:23.914   11 Jun 2027 04:04:55.330            31.416         15708.000
       283   11 Jun 2027 04:08:03.368   11 Jun 2027 04:08:23.568            20.200         10100.000
       284   11 Jun 2027 05:39:56.040   11 Jun 2027 05:40:02.265             6.225          3112.500
       285   11 Jun 2027 05:41:05.718   11 Jun 2027 05:43:33.340           147.622         73811.000
       286   11 Jun 2027 05:44:58.482   11 Jun 2027 05:45:08.424             9.942          4971.000
       287   11 Jun 2027 05:45:31.339   11 Jun 2027 05:45:32.377             1.038           519.000
       288   11 Jun 2027 07:15:51.366   11 Jun 2027 07:17:39.725           108.359         54179.500
       289   11 Jun 2027 07:17:58.224   11 Jun 2027 07:17:58.224             0.000             0.000
       290   11 Jun 2027 07:18:24.408   11 Jun 2027 07:18:30.097             5.689          1720.156
       291   11 Jun 2027 07:19:07.530   11 Jun 2027 07:19:09.181             1.651           558.219
       292   11 Jun 2027 07:19:47.128   11 Jun 2027 07:19:49.362             2.234           209.656
       293   11 Jun 2027 07:21:22.556   11 Jun 2027 07:21:28.748             6.192          2154.750
       294   11 Jun 2027 07:22:05.480   11 Jun 2027 07:22:08.039             2.559           642.062
       295   11 Jun 2027 07:22:42.488   11 Jun 2027 07:22:44.714             2.226           482.687
       296   11 Jun 2027 08:52:51.122   11 Jun 2027 08:53:03.476            12.354          4949.000
       297   11 Jun 2027 08:53:55.364   11 Jun 2027 08:53:58.015             2.651           689.438
       298   11 Jun 2027 08:54:57.413   11 Jun 2027 08:55:00.146             2.733          1092.469
       299   11 Jun 2027 08:56:28.430   11 Jun 2027 08:56:32.693             4.263           512.469
       300   11 Jun 2027 08:57:12.035   11 Jun 2027 08:57:12.742             0.707            23.687
       301   11 Jun 2027 08:57:18.729   11 Jun 2027 08:57:20.445             1.716           187.094
       302   11 Jun 2027 08:57:47.569   11 Jun 2027 08:57:53.051             5.482            46.625
       303   11 Jun 2027 10:30:52.172   11 Jun 2027 10:31:05.772            13.600          6248.000
       304   11 Jun 2027 10:32:49.785   11 Jun 2027 10:32:51.881             2.096           112.000
       305   11 Jun 2027 10:34:15.749   11 Jun 2027 10:34:16.998             1.249           132.312
       306   11 Jun 2027 10:34:35.017   11 Jun 2027 10:34:37.530             2.513           142.688
       307   12 Jun 2027 04:15:40.205   12 Jun 2027 04:16:10.918            30.713         15356.500
       308   12 Jun 2027 04:16:44.747   12 Jun 2027 04:16:51.964             7.217          3608.500
       309   12 Jun 2027 04:17:40.430   12 Jun 2027 04:18:04.493            24.063         12031.500
       310   12 Jun 2027 04:19:11.831   12 Jun 2027 04:19:11.831             0.000             0.000
       311   12 Jun 2027 04:19:34.909   12 Jun 2027 04:19:43.216             8.307          4153.500
       312   12 Jun 2027 05:50:48.288   12 Jun 2027 05:52:26.639            98.351         49175.500
       313   12 Jun 2027 05:52:49.157   12 Jun 2027 05:52:49.242             0.085            42.500
       314   12 Jun 2027 05:53:29.210   12 Jun 2027 05:53:57.171            27.961         13980.500
       315   12 Jun 2027 05:54:01.445   12 Jun 2027 05:54:15.064            13.619          6809.500
       316   12 Jun 2027 05:57:19.024   12 Jun 2027 05:57:45.785            26.761         13380.500
       317   12 Jun 2027 05:58:44.083   12 Jun 2027 05:58:50.513             6.430          3215.000
       318   12 Jun 2027 07:27:59.344   12 Jun 2027 07:29:13.459            74.115         36203.187
       319   12 Jun 2027 07:30:01.365   12 Jun 2027 07:30:03.335             1.970           672.188
       320   12 Jun 2027 07:30:53.581   12 Jun 2027 07:30:53.581             0.000             0.000
       321   12 Jun 2027 07:30:58.404   12 Jun 2027 07:31:01.062             2.658           461.938
       322   12 Jun 2027 07:31:43.820   12 Jun 2027 07:31:47.672             3.852          1336.188
       323   12 Jun 2027 07:32:19.536   12 Jun 2027 07:32:21.720             2.184           956.469
       324   12 Jun 2027 07:33:20.793   12 Jun 2027 07:33:22.011             1.218           284.156
       325   12 Jun 2027 07:33:52.231   12 Jun 2027 07:33:55.602             3.371           189.187
       326   12 Jun 2027 07:34:23.551   12 Jun 2027 07:34:25.196             1.645           272.375
       327   12 Jun 2027 07:34:47.334   12 Jun 2027 07:34:48.233             0.899           127.031
       328   12 Jun 2027 09:04:56.647   12 Jun 2027 09:05:08.257            11.610          4809.312
       329   12 Jun 2027 09:06:08.233   12 Jun 2027 09:06:09.091             0.858            86.375
       330   12 Jun 2027 09:06:33.401   12 Jun 2027 09:06:34.757             1.356            89.812
       331   12 Jun 2027 09:07:22.774   12 Jun 2027 09:07:24.182             1.408           477.594
       332   12 Jun 2027 09:08:31.736   12 Jun 2027 09:08:37.359             5.623          2076.406
       333   12 Jun 2027 09:08:44.934   12 Jun 2027 09:08:45.413             0.479           236.719
       334   12 Jun 2027 09:08:59.659   12 Jun 2027 09:09:00.609             0.950            90.969
       335   12 Jun 2027 09:09:06.014   12 Jun 2027 09:09:06.136             0.122            26.687
       336   12 Jun 2027 09:09:48.359   12 Jun 2027 09:09:52.174             3.815          1051.656
       337   12 Jun 2027 09:10:25.044   12 Jun 2027 09:10:27.879             2.835           860.656
       338   12 Jun 2027 10:42:49.665   12 Jun 2027 10:43:06.552            16.887          8279.156
       339   12 Jun 2027 10:44:51.587   12 Jun 2027 10:44:53.674             2.087            85.937
       340   12 Jun 2027 10:45:55.427   12 Jun 2027 10:45:57.832             2.405            74.344
       341   12 Jun 2027 10:46:17.881   12 Jun 2027 10:46:19.089             1.208           591.156
       342   12 Jun 2027 10:46:50.770   12 Jun 2027 10:46:51.457             0.687           343.500
       343   13 Jun 2027 03:06:12.538   13 Jun 2027 03:06:16.225             3.687          1843.500
       344   13 Jun 2027 04:27:25.133   13 Jun 2027 04:28:44.164            79.031         39515.500
       345   13 Jun 2027 04:29:28.221   13 Jun 2027 04:30:01.460            33.239         16619.500
       346   13 Jun 2027 04:30:10.359   13 Jun 2027 04:30:10.609             0.250           125.000
       347   13 Jun 2027 04:30:24.583   13 Jun 2027 04:30:39.923            15.340          7670.000
       348   13 Jun 2027 04:32:10.129   13 Jun 2027 04:32:10.683             0.554           277.000
       349   13 Jun 2027 04:32:22.657   13 Jun 2027 04:32:31.013             8.356          4178.000
       350   13 Jun 2027 06:02:17.634   13 Jun 2027 06:04:28.763           131.129         65564.500
       351   13 Jun 2027 06:04:48.734   13 Jun 2027 06:04:53.014             4.280          2140.000
       352   13 Jun 2027 06:05:37.802   13 Jun 2027 06:05:46.806             9.004          4502.000
       353   13 Jun 2027 06:06:43.582   13 Jun 2027 06:06:58.702            15.120          7560.000
       354   13 Jun 2027 06:07:36.704   13 Jun 2027 06:07:40.987             4.283          1234.344
       355   13 Jun 2027 06:09:35.230   13 Jun 2027 06:09:35.230             0.000             0.000
       356   13 Jun 2027 06:09:41.881   13 Jun 2027 06:09:46.789             4.908          2454.000
       357   13 Jun 2027 06:11:07.453   13 Jun 2027 06:11:17.196             9.743          3844.688
       358   13 Jun 2027 07:40:00.651   13 Jun 2027 07:40:04.424             3.773            99.719
       359   13 Jun 2027 07:42:04.402   13 Jun 2027 07:42:14.144             9.742           781.000
       360   13 Jun 2027 07:43:50.406   13 Jun 2027 07:43:53.725             3.319            99.000
       361   13 Jun 2027 07:45:18.720   13 Jun 2027 07:45:24.730             6.010          1580.094
       362   13 Jun 2027 07:45:54.832   13 Jun 2027 07:46:02.006             7.174           748.031
       363   13 Jun 2027 07:47:26.587   13 Jun 2027 07:47:27.210             0.623           311.500
       364   13 Jun 2027 09:16:48.849   13 Jun 2027 09:17:07.513            18.664          6388.344
       365   13 Jun 2027 09:18:01.658   13 Jun 2027 09:18:03.454             1.796           524.031
       366   13 Jun 2027 09:20:34.877   13 Jun 2027 09:20:40.192             5.315          2292.250
       367   13 Jun 2027 09:20:47.288   13 Jun 2027 09:20:48.659             1.371           110.906
       368   13 Jun 2027 09:21:17.363   13 Jun 2027 09:21:18.903             1.540           364.406
       369   13 Jun 2027 09:21:52.415   13 Jun 2027 09:21:52.767             0.352           173.156
       370   13 Jun 2027 09:22:15.478   13 Jun 2027 09:22:17.506             2.028           664.250
       371   13 Jun 2027 09:23:31.160   13 Jun 2027 09:23:31.530             0.370           185.000
       372   13 Jun 2027 10:54:50.852   13 Jun 2027 10:55:01.134            10.282          4813.594
       373   13 Jun 2027 10:55:29.000   13 Jun 2027 10:55:32.790             3.790            44.219
       374   13 Jun 2027 10:56:56.447   13 Jun 2027 10:56:57.391             0.944           296.625
       375   13 Jun 2027 10:58:04.456   13 Jun 2027 10:58:07.130             2.674           330.906
       376   13 Jun 2027 10:58:19.583   13 Jun 2027 10:58:20.414             0.831           234.531
       377   13 Jun 2027 10:58:51.609   13 Jun 2027 10:58:53.355             1.746           849.625
