uniorb/output/strategy_4/Camera/Camera_KinoSat_110310.txt

KinoSat_110310
-------------------------
    Access    *     Start Time (UTCG)     *     Stop Time (UTCG)  *   Duration (s) *   Data (Mbytes)
         1   01 Jun 2027 03:06:01.276   01 Jun 2027 03:06:34.393            33.117         16558.500
         2   01 Jun 2027 03:07:42.252   01 Jun 2027 03:08:17.626            35.374         17687.000
         3   01 Jun 2027 03:08:41.859   01 Jun 2027 03:08:56.296            14.437          7218.500
         4   01 Jun 2027 03:11:07.687   01 Jun 2027 03:11:13.181             5.494          2747.000
         5   01 Jun 2027 03:11:17.700   01 Jun 2027 03:11:34.269            16.569          8284.500
         6   01 Jun 2027 03:13:02.893   01 Jun 2027 03:13:27.124            24.231         12115.500
         7   01 Jun 2027 03:13:52.608   01 Jun 2027 03:14:13.261            20.653         10326.500
         8   01 Jun 2027 03:15:41.686   01 Jun 2027 03:15:44.576             2.890          1445.000
         9   01 Jun 2027 04:44:50.254   01 Jun 2027 04:47:05.873           135.619         67809.500
        10   01 Jun 2027 04:47:15.917   01 Jun 2027 04:48:04.355            48.438         24219.000
        11   01 Jun 2027 04:48:54.442   01 Jun 2027 04:48:58.277             3.835          1917.500
        12   01 Jun 2027 04:50:13.539   01 Jun 2027 04:50:17.395             3.856          1928.000
        13   01 Jun 2027 04:50:24.695   01 Jun 2027 04:50:40.111            15.416          7708.000
        14   01 Jun 2027 04:51:29.991   01 Jun 2027 04:51:32.227             2.236          1118.000
        15   01 Jun 2027 06:21:48.170   01 Jun 2027 06:24:23.580           155.410         77705.000
        16   01 Jun 2027 06:24:35.817   01 Jun 2027 06:24:38.937             3.120          1560.000
        17   01 Jun 2027 06:24:40.637   01 Jun 2027 06:24:48.567             7.930          3965.000
        18   01 Jun 2027 06:25:24.808   01 Jun 2027 06:25:28.257             3.449          1724.500
        19   01 Jun 2027 06:25:42.047   01 Jun 2027 06:25:50.110             8.063          4031.500
        20   01 Jun 2027 06:26:34.297   01 Jun 2027 06:26:37.166             2.869          1434.500
        21   01 Jun 2027 06:26:58.133   01 Jun 2027 06:26:58.424             0.291           145.500
        22   01 Jun 2027 07:58:35.393   01 Jun 2027 08:01:13.545           158.152         79076.000
        23   01 Jun 2027 08:02:37.367   01 Jun 2027 08:02:48.234            10.867          5433.500
        24   01 Jun 2027 09:36:45.851   01 Jun 2027 09:37:46.425            60.574         30287.000
        25   02 Jun 2027 03:20:55.270   02 Jun 2027 03:26:40.942           345.672        172836.000
        26   02 Jun 2027 03:26:41.125   02 Jun 2027 03:27:44.484            63.359         31679.500
        27   02 Jun 2027 04:57:15.785   02 Jun 2027 05:01:29.674           253.889        126944.500
        28   02 Jun 2027 06:34:49.826   02 Jun 2027 06:39:12.318           262.492        131246.000
        29   02 Jun 2027 08:10:53.198   02 Jun 2027 08:15:04.925           251.727        125863.500
        30   03 Jun 2027 03:33:07.237   03 Jun 2027 03:39:42.968           395.731        197865.500
        31   03 Jun 2027 05:09:25.966   03 Jun 2027 05:15:11.091           345.125        172562.500
        32   03 Jun 2027 05:15:20.503   03 Jun 2027 05:15:30.345             9.842          4921.000
        33   03 Jun 2027 06:47:04.187   03 Jun 2027 06:51:26.367           262.180        131090.000
        34   03 Jun 2027 08:23:07.111   03 Jun 2027 08:27:07.746           240.635        120317.500
        35   03 Jun 2027 08:27:15.172   03 Jun 2027 08:27:49.961            34.789         17394.500
        36   04 Jun 2027 03:44:36.281   04 Jun 2027 03:51:52.342           436.061        218030.500
        37   04 Jun 2027 05:21:06.721   04 Jun 2027 05:27:30.723           384.002        192001.000
        38   04 Jun 2027 06:59:47.348   04 Jun 2027 07:03:07.897           200.549        100274.500
        39   04 Jun 2027 08:35:11.663   04 Jun 2027 08:38:53.718           222.055        111027.500
        40   04 Jun 2027 08:40:08.399   04 Jun 2027 08:40:13.222             4.823          2411.500
        41   05 Jun 2027 03:56:20.560   05 Jun 2027 04:03:52.953           452.393        226196.500
        42   05 Jun 2027 05:33:26.595   05 Jun 2027 05:39:30.396           363.801        181900.500
        43   05 Jun 2027 07:11:31.723   05 Jun 2027 07:15:20.272           228.549        114274.500
        44   05 Jun 2027 08:44:27.882   05 Jun 2027 08:50:48.601           380.719        190359.500
        45   05 Jun 2027 08:51:57.477   05 Jun 2027 08:52:29.231            31.754         15877.000
        46   06 Jun 2027 04:08:37.850   06 Jun 2027 04:15:56.579           438.729        219364.500
        47   06 Jun 2027 05:45:22.612   06 Jun 2027 05:50:40.170           317.558        158779.000
        48   06 Jun 2027 05:50:42.030   06 Jun 2027 05:51:34.977            52.947         26473.500
        49   06 Jun 2027 05:51:38.802   06 Jun 2027 05:51:56.079            17.277          8638.500
        50   06 Jun 2027 07:23:44.418   06 Jun 2027 07:27:32.221           227.803        113901.500
        51   06 Jun 2027 08:56:58.902   06 Jun 2027 09:04:01.064           422.162        211081.000
        52   07 Jun 2027 04:20:31.841   07 Jun 2027 04:27:57.287           445.446        222723.000
        53   07 Jun 2027 05:57:16.263   07 Jun 2027 06:02:59.972           343.709        171854.500
        54   07 Jun 2027 06:03:02.660   07 Jun 2027 06:03:59.063            56.403         28201.500
        55   07 Jun 2027 07:35:09.430   07 Jun 2027 07:39:31.480           262.050        131025.000
        56   07 Jun 2027 09:11:07.425   07 Jun 2027 09:15:26.901           259.476        129738.000
        57   08 Jun 2027 03:00:00.000   08 Jun 2027 03:02:55.976           175.976         87988.000
        58   08 Jun 2027 03:03:00.900   08 Jun 2027 03:04:00.969            60.069         30034.500
        59   08 Jun 2027 04:32:41.036   08 Jun 2027 04:39:56.530           435.494        217747.000
        60   08 Jun 2027 06:09:55.005   08 Jun 2027 06:14:24.773           269.768        134884.000
        61   08 Jun 2027 06:14:59.380   08 Jun 2027 06:15:45.923            46.543         23271.500
        62   08 Jun 2027 07:46:35.503   08 Jun 2027 07:51:27.936           292.433        146216.500
        63   08 Jun 2027 09:23:34.104   08 Jun 2027 09:26:30.054           175.950         87975.000
        64   09 Jun 2027 03:06:16.430   09 Jun 2027 03:06:49.171            32.741         16370.500
        65   09 Jun 2027 03:07:57.870   09 Jun 2027 03:14:54.477           416.607        208303.500
        66   09 Jun 2027 03:15:04.712   09 Jun 2027 03:15:59.234            54.522         27261.000
        67   09 Jun 2027 04:45:04.937   09 Jun 2027 04:51:47.015           402.078        201039.000
        68   09 Jun 2027 06:22:02.687   09 Jun 2027 06:27:01.177           298.490        149245.000
        69   09 Jun 2027 07:58:50.191   09 Jun 2027 08:03:21.033           270.842        135421.000
        70   09 Jun 2027 09:37:22.396   09 Jun 2027 09:38:01.075            38.679         19339.500
        71   10 Jun 2027 03:21:09.894   10 Jun 2027 03:26:55.734           345.840        172920.000
        72   10 Jun 2027 03:26:55.802   10 Jun 2027 03:27:59.266            63.464         31732.000
        73   10 Jun 2027 04:57:30.422   10 Jun 2027 05:03:53.010           382.588        191294.000
        74   10 Jun 2027 06:35:18.087   10 Jun 2027 06:39:27.359           249.272        124636.000
        75   10 Jun 2027 08:11:07.821   10 Jun 2027 08:15:20.031           252.210        126105.000
        76   11 Jun 2027 03:33:21.900   11 Jun 2027 03:39:57.736           395.836        197918.000
        77   11 Jun 2027 05:09:39.865   11 Jun 2027 05:15:25.835           345.970        172985.000
        78   11 Jun 2027 06:47:18.694   11 Jun 2027 06:51:41.166           262.472        131236.000
        79   11 Jun 2027 08:23:22.143   11 Jun 2027 08:27:22.478           240.335        120167.500
        80   11 Jun 2027 08:27:29.903   11 Jun 2027 08:28:05.210            35.307         17653.500
        81   12 Jun 2027 03:44:50.729   12 Jun 2027 03:52:07.191           436.462        218231.000
        82   12 Jun 2027 05:21:21.385   12 Jun 2027 05:27:45.464           384.079        192039.500
        83   12 Jun 2027 07:00:01.984   12 Jun 2027 07:03:22.502           200.518        100259.000
        84   12 Jun 2027 08:35:18.967   12 Jun 2027 08:39:08.787           229.820        114910.000
        85   12 Jun 2027 08:39:39.477   12 Jun 2027 08:40:28.059            48.582         24291.000
        86   13 Jun 2027 03:56:35.373   13 Jun 2027 04:04:07.706           452.333        226166.500
        87   13 Jun 2027 05:33:41.372   13 Jun 2027 05:39:45.068           363.696        181848.000
        88   13 Jun 2027 07:12:01.056   13 Jun 2027 07:15:34.993           213.937        106968.500
        89   13 Jun 2027 08:44:42.732   13 Jun 2027 08:51:03.546           380.814        190407.000
        90   13 Jun 2027 08:52:14.421   13 Jun 2027 08:52:43.905            29.484         14742.000
