uniorb/output/strategy_4/Camera/Camera_KinoSat_110705.txt

KinoSat_110705
-------------------------
    Access    *     Start Time (UTCG)     *     Stop Time (UTCG)  *   Duration (s) *   Data (Mbytes)
         1   01 Jun 2027 03:37:20.091   01 Jun 2027 03:38:29.226            69.135         34567.500
         2   01 Jun 2027 03:38:49.485   01 Jun 2027 03:38:52.668             3.183          1591.500
         3   01 Jun 2027 03:39:33.572   01 Jun 2027 03:39:51.131            17.559          8779.500
         4   01 Jun 2027 05:12:12.488   01 Jun 2027 05:14:31.723           139.235         69617.500
         5   01 Jun 2027 05:15:27.486   01 Jun 2027 05:15:31.004             3.518          1759.000
         6   01 Jun 2027 05:15:45.480   01 Jun 2027 05:15:56.305            10.825          5412.500
         7   01 Jun 2027 05:16:18.481   01 Jun 2027 05:16:19.398             0.917           458.500
         8   01 Jun 2027 05:19:19.434   01 Jun 2027 05:19:19.434             0.000             0.000
         9   01 Jun 2027 05:21:00.502   01 Jun 2027 05:21:18.347            17.845          8922.500
        10   01 Jun 2027 06:50:48.021   01 Jun 2027 06:51:23.605            35.584         17792.000
        11   01 Jun 2027 06:52:31.023   01 Jun 2027 06:53:52.999            81.976         40988.000
        12   01 Jun 2027 06:54:27.682   01 Jun 2027 06:54:37.938            10.256          5128.000
        13   01 Jun 2027 06:54:49.992   01 Jun 2027 06:55:04.328            14.336          7168.000
        14   01 Jun 2027 08:27:17.056   01 Jun 2027 08:29:34.957           137.901         68950.500
        15   01 Jun 2027 08:30:04.991   01 Jun 2027 08:30:16.670            11.679          5839.500
        16   01 Jun 2027 08:33:19.161   01 Jun 2027 08:33:39.128            19.967          9983.500
        17   01 Jun 2027 10:04:23.597   01 Jun 2027 10:06:47.120           143.523         71761.500
        18   01 Jun 2027 10:07:53.224   01 Jun 2027 10:08:04.838            11.614          5807.000
        19   01 Jun 2027 11:39:21.800   01 Jun 2027 11:40:09.288            47.488         23744.000
        20   01 Jun 2027 11:41:05.952   01 Jun 2027 11:42:40.443            94.491         47245.500
        21   01 Jun 2027 11:44:00.755   01 Jun 2027 11:44:00.755             0.000             0.000
        22   02 Jun 2027 03:51:46.851   02 Jun 2027 03:51:52.441             5.590          2795.000
        23   02 Jun 2027 03:53:05.088   02 Jun 2027 03:53:14.186             9.098          4549.000
        24   02 Jun 2027 03:53:50.552   02 Jun 2027 03:53:56.443             5.891          2945.500
        25   02 Jun 2027 03:54:38.837   02 Jun 2027 03:54:48.696             9.859          4929.500
        26   02 Jun 2027 05:25:16.150   02 Jun 2027 05:27:57.824           161.674         80837.000
        27   02 Jun 2027 05:28:24.671   02 Jun 2027 05:28:52.372            27.701         13850.500
        28   02 Jun 2027 05:31:14.094   02 Jun 2027 05:31:17.324             3.230          1615.000
        29   02 Jun 2027 05:32:15.567   02 Jun 2027 05:32:20.235             4.668          2334.000
        30   02 Jun 2027 05:32:42.685   02 Jun 2027 05:32:59.553            16.868          8434.000
        31   02 Jun 2027 05:33:29.711   02 Jun 2027 05:33:48.787            19.076          9538.000
        32   02 Jun 2027 07:02:48.568   02 Jun 2027 07:04:30.717           102.149         51074.500
        33   02 Jun 2027 07:05:30.477   02 Jun 2027 07:06:29.218            58.741         29370.500
        34   02 Jun 2027 07:06:47.538   02 Jun 2027 07:06:49.487             1.949           974.500
        35   02 Jun 2027 07:07:13.267   02 Jun 2027 07:07:46.540            33.273         16636.500
        36   02 Jun 2027 07:08:11.858   02 Jun 2027 07:08:34.988            23.130         11565.000
        37   02 Jun 2027 08:39:43.805   02 Jun 2027 08:43:07.043           203.238        101619.000
        38   02 Jun 2027 08:44:00.591   02 Jun 2027 08:44:11.414            10.823          5411.500
        39   02 Jun 2027 08:44:16.396   02 Jun 2027 08:44:18.341             1.945           186.344
        40   02 Jun 2027 08:45:10.172   02 Jun 2027 08:45:21.772            11.600          1581.156
        41   02 Jun 2027 10:16:35.327   02 Jun 2027 10:16:54.972            19.645          8759.625
        42   02 Jun 2027 10:19:16.521   02 Jun 2027 10:19:18.796             2.275           693.625
        43   02 Jun 2027 10:20:26.839   02 Jun 2027 10:20:29.284             2.445           626.969
        44   02 Jun 2027 10:21:06.403   02 Jun 2027 10:21:07.801             1.398           699.000
        45   02 Jun 2027 11:54:07.797   02 Jun 2027 11:54:08.932             1.135           291.219
        46   02 Jun 2027 11:56:11.496   02 Jun 2027 11:56:12.828             1.332           225.813
        47   03 Jun 2027 04:03:47.972   03 Jun 2027 04:03:54.064             6.092          3046.000
        48   03 Jun 2027 04:04:39.899   03 Jun 2027 04:04:59.835            19.936          9968.000
        49   03 Jun 2027 04:06:51.582   03 Jun 2027 04:06:51.582             0.000             0.000
        50   03 Jun 2027 04:06:57.678   03 Jun 2027 04:07:20.053            22.375         11187.500
        51   03 Jun 2027 05:36:03.437   03 Jun 2027 05:36:03.781             0.344           172.000
        52   03 Jun 2027 05:37:55.595   03 Jun 2027 05:40:30.002           154.407         77203.500
        53   03 Jun 2027 05:41:04.177   03 Jun 2027 05:41:08.400             4.223          2111.500
        54   03 Jun 2027 05:44:26.267   03 Jun 2027 05:44:42.712            16.445          8222.500
        55   03 Jun 2027 05:44:52.882   03 Jun 2027 05:45:02.357             9.475          4737.500
        56   03 Jun 2027 05:45:37.198   03 Jun 2027 05:45:43.325             6.127          3063.500
        57   03 Jun 2027 07:14:54.185   03 Jun 2027 07:16:28.289            94.104         46630.813
        58   03 Jun 2027 07:17:46.521   03 Jun 2027 07:17:47.070             0.549           215.938
        59   03 Jun 2027 07:18:52.602   03 Jun 2027 07:18:54.044             1.442           553.344
        60   03 Jun 2027 07:19:05.612   03 Jun 2027 07:19:06.892             1.280           331.969
        61   03 Jun 2027 07:20:42.508   03 Jun 2027 07:20:43.593             1.085           204.344
        62   03 Jun 2027 08:52:30.407   03 Jun 2027 08:52:43.777            13.370          5826.719
        63   03 Jun 2027 08:54:53.120   03 Jun 2027 08:54:56.737             3.617          1526.469
        64   03 Jun 2027 08:56:58.238   03 Jun 2027 08:56:59.604             1.366            47.563
        65   03 Jun 2027 10:28:39.188   03 Jun 2027 10:28:51.525            12.337          6119.906
        66   04 Jun 2027 04:16:23.142   04 Jun 2027 04:17:07.120            43.978         21989.000
        67   04 Jun 2027 04:18:27.158   04 Jun 2027 04:18:57.014            29.856         14928.000
        68   04 Jun 2027 05:51:08.486   04 Jun 2027 05:53:14.194           125.708         62854.000
        69   04 Jun 2027 05:53:41.228   04 Jun 2027 05:53:46.837             5.609          2804.500
        70   04 Jun 2027 05:54:01.285   04 Jun 2027 05:54:15.826            14.541          7270.500
        71   04 Jun 2027 05:57:04.388   04 Jun 2027 05:57:45.328            40.940         20470.000
        72   04 Jun 2027 07:27:29.936   04 Jun 2027 07:28:36.153            66.217         32403.250
        73   04 Jun 2027 07:30:40.303   04 Jun 2027 07:30:42.222             1.919           904.219
        74   04 Jun 2027 07:31:07.651   04 Jun 2027 07:31:10.403             2.752           788.187
        75   04 Jun 2027 07:33:04.032   04 Jun 2027 07:33:05.465             1.433           218.562
        76   04 Jun 2027 09:04:48.694   04 Jun 2027 09:05:05.273            16.579          6655.062
        77   04 Jun 2027 09:06:14.165   04 Jun 2027 09:06:18.005             3.840           701.656
        78   04 Jun 2027 09:08:57.346   04 Jun 2027 09:08:58.885             1.539           612.437
        79   04 Jun 2027 10:41:00.443   04 Jun 2027 10:41:13.310            12.867          6143.000
        80   04 Jun 2027 10:42:51.820   04 Jun 2027 10:42:53.664             1.844           615.625
        81   05 Jun 2027 04:27:53.683   05 Jun 2027 04:29:44.094           110.411         55205.500
        82   05 Jun 2027 04:31:24.578   05 Jun 2027 04:31:28.411             3.833          1916.500
        83   05 Jun 2027 06:02:51.521   05 Jun 2027 06:05:22.810           151.289         75644.500
        84   05 Jun 2027 06:06:40.493   05 Jun 2027 06:07:22.836            42.343         21171.500
        85   05 Jun 2027 06:08:38.979   05 Jun 2027 06:08:38.979             0.000             0.000
        86   05 Jun 2027 06:08:58.164   05 Jun 2027 06:09:05.614             7.450          3725.000
        87   05 Jun 2027 06:09:49.307   05 Jun 2027 06:09:52.732             3.425          1712.500
        88   05 Jun 2027 07:39:03.505   05 Jun 2027 07:39:06.031             2.526          1034.656
        89   05 Jun 2027 07:40:34.920   05 Jun 2027 07:40:37.337             2.417           371.906
        90   05 Jun 2027 07:41:02.856   05 Jun 2027 07:41:10.852             7.996           775.531
        91   05 Jun 2027 07:42:00.845   05 Jun 2027 07:42:03.275             2.430          1201.031
        92   05 Jun 2027 07:42:49.288   05 Jun 2027 07:42:51.084             1.796           613.781
        93   05 Jun 2027 07:43:50.858   05 Jun 2027 07:43:55.573             4.715          1290.531
        94   05 Jun 2027 07:44:08.919   05 Jun 2027 07:44:11.248             2.329           357.937
        95   05 Jun 2027 07:45:05.860   05 Jun 2027 07:45:06.385             0.525           220.219
        96   05 Jun 2027 09:17:03.696   05 Jun 2027 09:17:24.976            21.280          6226.563
        97   05 Jun 2027 09:17:47.352   05 Jun 2027 09:17:47.444             0.092             8.531
        98   05 Jun 2027 09:19:11.766   05 Jun 2027 09:19:18.660             6.894          1573.656
        99   05 Jun 2027 09:19:58.126   05 Jun 2027 09:20:00.922             2.796           940.562
       100   05 Jun 2027 10:52:44.992   05 Jun 2027 10:53:00.519            15.527          7096.281
       101   05 Jun 2027 10:54:52.812   05 Jun 2027 10:54:59.372             6.560           519.406
       102   06 Jun 2027 03:03:15.830   06 Jun 2027 03:03:26.877            11.047          5523.500
       103   06 Jun 2027 03:03:43.132   06 Jun 2027 03:03:47.218             4.086          2043.000
       104   06 Jun 2027 03:06:45.615   06 Jun 2027 03:06:56.191            10.576          5288.000
       105   06 Jun 2027 04:38:29.771   06 Jun 2027 04:38:35.559             5.788          2894.000
       106   06 Jun 2027 04:39:39.227   06 Jun 2027 04:40:08.379            29.152         14576.000
       107   06 Jun 2027 04:41:15.902   06 Jun 2027 04:42:43.886            87.984         43992.000
       108   06 Jun 2027 04:43:45.360   06 Jun 2027 04:44:05.820            20.460         10230.000
       109   06 Jun 2027 06:14:25.243   06 Jun 2027 06:16:41.346           136.103         67726.125
       110   06 Jun 2027 06:18:24.550   06 Jun 2027 06:18:29.382             4.832          1796.625
       111   06 Jun 2027 06:18:57.310   06 Jun 2027 06:18:59.800             2.490           778.969
       112   06 Jun 2027 06:20:17.944   06 Jun 2027 06:20:21.095             3.151          1575.500
       113   06 Jun 2027 06:21:15.956   06 Jun 2027 06:21:21.020             5.064          1790.844
       114   06 Jun 2027 07:51:24.483   06 Jun 2027 07:51:28.820             4.337          1923.063
       115   06 Jun 2027 07:52:34.224   06 Jun 2027 07:52:40.816             6.592           363.187
       116   06 Jun 2027 07:53:44.786   06 Jun 2027 07:53:48.631             3.845           457.719
       117   06 Jun 2027 07:55:10.071   06 Jun 2027 07:55:17.668             7.597          1844.031
       118   06 Jun 2027 07:56:00.157   06 Jun 2027 07:56:02.944             2.787           841.469
       119   06 Jun 2027 07:56:41.992   06 Jun 2027 07:56:44.488             2.496          1220.250
       120   06 Jun 2027 09:29:25.470   06 Jun 2027 09:29:38.320            12.850          6423.937
       121   06 Jun 2027 09:30:19.497   06 Jun 2027 09:30:22.227             2.730           437.406
       122   06 Jun 2027 09:31:11.786   06 Jun 2027 09:31:14.889             3.103          1370.812
       123   06 Jun 2027 09:32:43.958   06 Jun 2027 09:32:45.650             1.692           792.906
       124   06 Jun 2027 09:33:19.246   06 Jun 2027 09:33:22.143             2.897           948.375
       125   06 Jun 2027 11:02:41.027   06 Jun 2027 11:02:53.014            11.987          4881.687
       126   07 Jun 2027 03:14:13.891   07 Jun 2027 03:14:19.132             5.241          2620.500
       127   07 Jun 2027 03:15:19.183   07 Jun 2027 03:15:23.839             4.656          2328.000
       128   07 Jun 2027 03:16:33.401   07 Jun 2027 03:16:36.166             2.765          1382.500
       129   07 Jun 2027 03:17:01.338   07 Jun 2027 03:17:11.628            10.290          5145.000
       130   07 Jun 2027 04:49:23.682   07 Jun 2027 04:50:49.647            85.965         42982.500
       131   07 Jun 2027 04:51:22.755   07 Jun 2027 04:53:30.420           127.665         63832.500
       132   07 Jun 2027 04:53:42.858   07 Jun 2027 04:53:51.706             8.848          4424.000
       133   07 Jun 2027 04:57:17.478   07 Jun 2027 04:57:21.270             3.792          1896.000
       134   07 Jun 2027 06:26:32.538   07 Jun 2027 06:27:37.073            64.535         32250.781
       135   07 Jun 2027 06:28:50.654   07 Jun 2027 06:28:54.926             4.272          1901.656
       136   07 Jun 2027 06:29:09.727   07 Jun 2027 06:29:13.817             4.090           183.688
       137   07 Jun 2027 06:30:00.267   07 Jun 2027 06:30:03.309             3.042          1084.656
       138   07 Jun 2027 06:31:25.037   07 Jun 2027 06:31:27.726             2.689          1344.500
       139   07 Jun 2027 06:31:37.543   07 Jun 2027 06:31:42.573             5.030          1483.281
       140   07 Jun 2027 06:32:14.888   07 Jun 2027 06:32:14.888             0.000             0.000
       141   07 Jun 2027 06:32:51.263   07 Jun 2027 06:32:56.120             4.857          1639.594
       142   07 Jun 2027 08:03:30.054   07 Jun 2027 08:03:33.051             2.997           596.031
       143   07 Jun 2027 08:04:13.335   07 Jun 2027 08:04:14.944             1.609           100.406
       144   07 Jun 2027 08:05:44.785   07 Jun 2027 08:05:50.951             6.166          1861.406
       145   07 Jun 2027 08:07:10.754   07 Jun 2027 08:07:13.951             3.197          1598.500
       146   07 Jun 2027 08:07:32.400   07 Jun 2027 08:07:35.589             3.189          1242.750
       147   07 Jun 2027 08:08:11.102   07 Jun 2027 08:08:13.230             2.128           976.906
       148   07 Jun 2027 08:09:02.378   07 Jun 2027 08:09:03.417             1.039           397.313
       149   07 Jun 2027 09:41:23.110   07 Jun 2027 09:41:36.750            13.640          5671.188
       150   07 Jun 2027 09:43:11.020   07 Jun 2027 09:43:13.407             2.387          1163.062
       151   07 Jun 2027 09:44:18.188   07 Jun 2027 09:44:19.532             1.344           468.531
       152   07 Jun 2027 09:44:46.366   07 Jun 2027 09:44:47.959             1.593            52.375
       153   07 Jun 2027 09:45:03.737   07 Jun 2027 09:45:04.528             0.791           349.875
       154   07 Jun 2027 11:14:50.191   07 Jun 2027 11:14:53.346             3.155          1193.312
       155   08 Jun 2027 03:25:58.857   08 Jun 2027 03:26:19.570            20.713         10356.500
       156   08 Jun 2027 03:31:09.861   08 Jun 2027 03:31:32.367            22.506         11253.000
       157   08 Jun 2027 05:00:51.519   08 Jun 2027 05:03:59.394           187.875         93937.500
       158   08 Jun 2027 05:08:28.678   08 Jun 2027 05:08:34.454             5.776          2888.000
       159   08 Jun 2027 05:09:23.999   08 Jun 2027 05:09:56.464            32.465         16232.500
       160   08 Jun 2027 06:38:33.918   08 Jun 2027 06:39:35.648            61.730         28090.063
       161   08 Jun 2027 06:39:52.831   08 Jun 2027 06:39:54.368             1.537           536.969
       162   08 Jun 2027 06:41:19.990   08 Jun 2027 06:41:19.990             0.000             0.000
       163   08 Jun 2027 06:41:36.652   08 Jun 2027 06:41:40.321             3.669          1705.156
       164   08 Jun 2027 06:43:23.260   08 Jun 2027 06:43:30.389             7.129          2993.219
       165   08 Jun 2027 06:43:40.233   08 Jun 2027 06:43:41.124             0.891           299.406
       166   08 Jun 2027 06:44:10.973   08 Jun 2027 06:44:13.080             2.107           917.750
       167   08 Jun 2027 06:44:38.490   08 Jun 2027 06:44:39.784             1.294           495.906
       168   08 Jun 2027 08:15:22.058   08 Jun 2027 08:15:28.432             6.374          2253.000
       169   08 Jun 2027 08:17:49.818   08 Jun 2027 08:17:54.122             4.304          1265.312
       170   08 Jun 2027 08:19:09.762   08 Jun 2027 08:19:14.239             4.477          1784.719
       171   08 Jun 2027 08:20:03.152   08 Jun 2027 08:20:06.529             3.377          1528.531
       172   08 Jun 2027 08:20:34.845   08 Jun 2027 08:20:36.826             1.981           669.469
       173   08 Jun 2027 08:21:40.502   08 Jun 2027 08:21:43.963             3.461          1380.312
       174   08 Jun 2027 09:53:23.683   08 Jun 2027 09:53:29.415             5.732          2606.562
       175   08 Jun 2027 09:53:55.785   08 Jun 2027 09:53:57.747             1.962           792.625
       176   08 Jun 2027 09:56:33.233   08 Jun 2027 09:56:35.501             2.268           214.438
       177   08 Jun 2027 09:57:07.125   08 Jun 2027 09:57:09.770             2.645           725.937
       178   08 Jun 2027 09:57:21.942   08 Jun 2027 09:57:24.201             2.259           262.750
       179   08 Jun 2027 11:27:16.477   08 Jun 2027 11:27:17.143             0.666            59.156
       180   09 Jun 2027 03:37:34.402   09 Jun 2027 03:37:42.758             8.356          4178.000
       181   09 Jun 2027 03:39:05.203   09 Jun 2027 03:39:07.306             2.103          1051.500
       182   09 Jun 2027 03:41:07.385   09 Jun 2027 03:41:29.607            22.222         11111.000
       183   09 Jun 2027 03:41:45.278   09 Jun 2027 03:41:45.278             0.000             0.000
       184   09 Jun 2027 03:43:34.191   09 Jun 2027 03:43:38.520             4.329          2164.500
       185   09 Jun 2027 05:12:27.002   09 Jun 2027 05:14:46.111           139.109         69554.500
       186   09 Jun 2027 05:15:42.226   09 Jun 2027 05:16:46.874            64.648         32324.000
       187   09 Jun 2027 05:17:53.679   09 Jun 2027 05:18:00.561             6.882          3441.000
       188   09 Jun 2027 05:21:23.820   09 Jun 2027 05:21:26.603             2.783          1391.500
       189   09 Jun 2027 05:21:35.770   09 Jun 2027 05:22:03.800            28.030         14015.000
       190   09 Jun 2027 06:50:37.155   09 Jun 2027 06:51:17.372            40.217         19731.531
       191   09 Jun 2027 06:51:55.762   09 Jun 2027 06:51:58.211             2.449           647.094
       192   09 Jun 2027 06:52:35.904   09 Jun 2027 06:52:36.959             1.055           428.500
       193   09 Jun 2027 06:53:30.019   09 Jun 2027 06:53:31.444             1.425           671.750
       194   09 Jun 2027 06:53:51.711   09 Jun 2027 06:53:53.355             1.644           426.594
       195   09 Jun 2027 06:54:42.030   09 Jun 2027 06:54:48.532             6.502           933.906
       196   09 Jun 2027 06:55:25.469   09 Jun 2027 06:55:26.431             0.962           481.000
       197   09 Jun 2027 06:55:33.789   09 Jun 2027 06:55:33.789             0.000             0.000
       198   09 Jun 2027 06:55:42.743   09 Jun 2027 06:55:45.267             2.524           892.625
       199   09 Jun 2027 06:56:03.954   09 Jun 2027 06:56:08.399             4.445           266.906
       200   09 Jun 2027 08:27:31.900   09 Jun 2027 08:27:37.660             5.760          2432.000
       201   09 Jun 2027 08:29:37.297   09 Jun 2027 08:29:39.910             2.613          1076.875
       202   09 Jun 2027 08:30:34.156   09 Jun 2027 08:30:37.514             3.358          1640.063
       203   09 Jun 2027 08:30:49.780   09 Jun 2027 08:30:51.507             1.727           168.375
       204   09 Jun 2027 08:31:20.706   09 Jun 2027 08:31:22.357             1.651           732.625
       205   09 Jun 2027 08:32:06.868   09 Jun 2027 08:32:07.807             0.939            89.125
       206   09 Jun 2027 08:32:46.898   09 Jun 2027 08:32:48.487             1.589           749.969
       207   09 Jun 2027 08:33:04.366   09 Jun 2027 08:33:05.099             0.733           153.750
       208   09 Jun 2027 10:04:38.288   09 Jun 2027 10:04:52.465            14.177          6039.281
       209   09 Jun 2027 10:06:14.991   09 Jun 2027 10:06:22.530             7.539           809.156
       210   09 Jun 2027 10:08:49.343   09 Jun 2027 10:08:50.987             1.644           489.594
       211   09 Jun 2027 11:39:37.244   09 Jun 2027 11:39:42.161             4.917          1491.156
       212   10 Jun 2027 03:52:01.780   10 Jun 2027 03:52:07.026             5.246          2623.000
       213   10 Jun 2027 03:53:04.035   10 Jun 2027 03:53:19.855            15.820          7910.000
       214   10 Jun 2027 03:55:03.438   10 Jun 2027 03:55:03.438             0.000             0.000
       215   10 Jun 2027 05:25:30.997   10 Jun 2027 05:28:12.478           161.481         80740.500
       216   10 Jun 2027 05:32:36.297   10 Jun 2027 05:32:44.136             7.839          3919.500
       217   10 Jun 2027 05:33:14.209   10 Jun 2027 05:34:03.476            49.267         24633.500
       218   10 Jun 2027 07:03:03.270   10 Jun 2027 07:04:31.277            88.007         39519.094
       219   10 Jun 2027 07:05:54.997   10 Jun 2027 07:05:59.009             4.012           496.750
       220   10 Jun 2027 07:07:04.451   10 Jun 2027 07:07:09.061             4.610          1518.906
       221   10 Jun 2027 07:08:27.508   10 Jun 2027 07:08:32.446             4.938          2055.250
       222   10 Jun 2027 07:09:07.975   10 Jun 2027 07:09:08.619             0.644           300.000
       223   10 Jun 2027 08:39:59.085   10 Jun 2027 08:40:08.403             9.318          3464.250
       224   10 Jun 2027 08:42:11.358   10 Jun 2027 08:42:19.071             7.713          2503.687
       225   10 Jun 2027 08:42:32.967   10 Jun 2027 08:42:36.029             3.062           434.250
       226   10 Jun 2027 08:44:42.672   10 Jun 2027 08:44:48.168             5.496          1970.719
       227   10 Jun 2027 08:45:24.728   10 Jun 2027 08:45:27.043             2.315           551.187
       228   10 Jun 2027 10:16:50.096   10 Jun 2027 10:17:01.801            11.705          5728.406
       229   10 Jun 2027 10:19:09.758   10 Jun 2027 10:19:10.813             1.055           219.344
       230   10 Jun 2027 10:21:20.278   10 Jun 2027 10:21:22.385             2.107           948.656
       231   10 Jun 2027 11:54:23.196   10 Jun 2027 11:54:28.850             5.654           691.500
       232   11 Jun 2027 04:04:03.150   11 Jun 2027 04:04:23.356            20.206         10103.000
       233   11 Jun 2027 04:04:55.330   11 Jun 2027 04:05:04.087             8.757          4378.500
       234   11 Jun 2027 04:07:12.543   11 Jun 2027 04:07:13.937             1.394           697.000
       235   11 Jun 2027 04:07:36.804   11 Jun 2027 04:07:37.997             1.193           596.500
       236   11 Jun 2027 05:38:10.583   11 Jun 2027 05:40:13.144           122.561         61280.500
       237   11 Jun 2027 05:40:44.712   11 Jun 2027 05:41:19.223            34.511         17255.500
       238   11 Jun 2027 05:44:40.924   11 Jun 2027 05:44:57.502            16.578          8289.000
       239   11 Jun 2027 05:45:08.424   11 Jun 2027 05:45:17.004             8.580          4290.000
       240   11 Jun 2027 05:45:52.026   11 Jun 2027 05:45:58.243             6.217          3108.500
       241   11 Jun 2027 07:15:09.108   11 Jun 2027 07:16:48.822            99.714         48052.563
       242   11 Jun 2027 07:17:51.083   11 Jun 2027 07:17:53.568             2.485           862.969
       243   11 Jun 2027 07:18:49.667   11 Jun 2027 07:18:58.392             8.725          1723.906
       244   11 Jun 2027 07:19:23.718   11 Jun 2027 07:19:27.424             3.706           443.813
       245   11 Jun 2027 07:21:44.934   11 Jun 2027 07:21:49.446             4.512          1632.156
       246   11 Jun 2027 08:52:47.375   11 Jun 2027 08:53:00.559            13.184          4382.469
       247   11 Jun 2027 08:55:08.396   11 Jun 2027 08:55:13.150             4.754          1547.031
       248   11 Jun 2027 08:57:12.742   11 Jun 2027 08:57:17.309             4.567            22.094
       249   11 Jun 2027 10:28:53.399   11 Jun 2027 10:29:05.866            12.467          6146.594
       250   12 Jun 2027 04:16:13.162   12 Jun 2027 04:16:44.747            31.585         15792.500
       251   12 Jun 2027 04:17:16.237   12 Jun 2027 04:17:23.660             7.423          3711.500
       252   12 Jun 2027 04:18:04.493   12 Jun 2027 04:18:04.493             0.000             0.000
       253   12 Jun 2027 04:18:41.819   12 Jun 2027 04:19:11.831            30.012         15006.000
       254   12 Jun 2027 05:51:23.253   12 Jun 2027 05:53:43.102           139.849         69924.500
       255   12 Jun 2027 05:54:00.739   12 Jun 2027 05:54:01.445             0.706           353.000
       256   12 Jun 2027 05:54:15.064   12 Jun 2027 05:54:17.889             2.825          1412.500
       257   12 Jun 2027 05:54:34.618   12 Jun 2027 05:54:41.180             6.562          3281.000
       258   12 Jun 2027 05:55:39.240   12 Jun 2027 05:55:39.240             0.000             0.000
       259   12 Jun 2027 05:56:56.570   12 Jun 2027 05:57:27.121            30.551         15275.500
       260   12 Jun 2027 05:57:58.503   12 Jun 2027 05:58:00.023             1.520           760.000
       261   12 Jun 2027 07:27:45.247   12 Jun 2027 07:29:00.936            75.689         37403.813
       262   12 Jun 2027 07:29:57.015   12 Jun 2027 07:30:01.365             4.350          1623.719
       263   12 Jun 2027 07:31:16.526   12 Jun 2027 07:31:23.729             7.203          1597.062
       264   12 Jun 2027 07:32:18.507   12 Jun 2027 07:32:19.011             0.504           200.719
       265   12 Jun 2027 07:33:21.174   12 Jun 2027 07:33:26.869             5.695          1112.875
       266   12 Jun 2027 09:05:03.481   12 Jun 2027 09:05:21.495            18.014          7043.000
       267   12 Jun 2027 09:06:30.527   12 Jun 2027 09:06:33.401             2.874            48.281
       268   12 Jun 2027 09:09:12.182   12 Jun 2027 09:09:13.893             1.711           597.781
       269   12 Jun 2027 10:41:15.223   12 Jun 2027 10:41:26.956            11.733          5660.187
       270   12 Jun 2027 10:43:03.295   12 Jun 2027 10:43:05.971             2.676           537.625
       271   12 Jun 2027 10:44:02.162   12 Jun 2027 10:44:05.686             3.524          1737.812
       272   13 Jun 2027 04:28:08.214   13 Jun 2027 04:30:10.359           122.145         61072.500
       273   13 Jun 2027 04:31:19.953   13 Jun 2027 04:31:35.960            16.007          8003.500
       274   13 Jun 2027 06:03:05.795   13 Jun 2027 06:05:46.355           160.560         80280.000
       275   13 Jun 2027 06:06:36.082   13 Jun 2027 06:06:43.582             7.500          3346.594
       276   13 Jun 2027 06:07:40.987   13 Jun 2027 06:07:40.987             0.000             0.000
       277   13 Jun 2027 06:08:45.299   13 Jun 2027 06:08:46.743             1.444           722.000
       278   13 Jun 2027 06:08:52.988   13 Jun 2027 06:08:54.485             1.497           748.500
       279   13 Jun 2027 06:09:35.230   13 Jun 2027 06:09:46.190            10.960          3801.594
       280   13 Jun 2027 07:39:18.092   13 Jun 2027 07:39:22.578             4.486           825.563
       281   13 Jun 2027 07:40:49.751   13 Jun 2027 07:40:51.803             2.052           372.031
       282   13 Jun 2027 07:42:15.045   13 Jun 2027 07:42:21.270             6.225          1188.281
       283   13 Jun 2027 07:43:27.638   13 Jun 2027 07:43:35.283             7.645          1358.438
       284   13 Jun 2027 07:44:23.441   13 Jun 2027 07:44:25.876             2.435           560.781
       285   13 Jun 2027 09:17:18.844   13 Jun 2027 09:17:30.625            11.781          5043.125
       286   13 Jun 2027 09:18:01.922   13 Jun 2027 09:18:03.454             1.532             1.719
       287   13 Jun 2027 09:19:26.606   13 Jun 2027 09:19:32.651             6.045          1527.375
       288   13 Jun 2027 09:20:15.460   13 Jun 2027 09:20:22.538             7.078           992.219
       289   13 Jun 2027 10:52:59.279   13 Jun 2027 10:53:15.007            15.728          7147.375
       290   13 Jun 2027 10:55:07.545   13 Jun 2027 10:55:08.595             1.050           487.750
       291   13 Jun 2027 10:55:39.385   13 Jun 2027 10:55:40.310             0.925           324.531
