uniorb/output/strategy_4/Camera/Camera_KinoSat_111010.txt

KinoSat_111010
-------------------------
    Access    *     Start Time (UTCG)     *     Stop Time (UTCG)  *   Duration (s) *   Data (Mbytes)
         1   01 Jun 2027 04:14:57.617   01 Jun 2027 04:16:29.285            91.668         45834.000
         2   01 Jun 2027 04:16:53.893   01 Jun 2027 04:16:55.923             2.030          1015.000
         3   01 Jun 2027 05:51:34.048   01 Jun 2027 05:53:16.679           102.631         51315.500
         4   01 Jun 2027 05:54:16.232   01 Jun 2027 05:54:34.444            18.212          9106.000
         5   01 Jun 2027 07:26:44.230   01 Jun 2027 07:29:30.413           166.183         83091.500
         6   01 Jun 2027 07:30:30.051   01 Jun 2027 07:30:30.801             0.750           375.000
         7   01 Jun 2027 07:32:21.491   01 Jun 2027 07:32:33.763            12.272          6136.000
         8   01 Jun 2027 07:32:46.441   01 Jun 2027 07:32:52.832             6.391          3195.500
         9   01 Jun 2027 07:33:06.069   01 Jun 2027 07:33:19.887            13.818          6909.000
        10   01 Jun 2027 09:03:01.817   01 Jun 2027 09:05:32.097           150.280         75140.000
        11   01 Jun 2027 09:05:48.689   01 Jun 2027 09:06:06.305            17.616          8808.000
        12   01 Jun 2027 10:40:31.242   01 Jun 2027 10:42:58.369           147.127         73563.500
        13   01 Jun 2027 10:43:01.563   01 Jun 2027 10:43:01.793             0.230           115.000
        14   01 Jun 2027 10:43:27.860   01 Jun 2027 10:43:46.972            19.112          9556.000
        15   02 Jun 2027 03:03:34.941   02 Jun 2027 03:04:11.552            36.611         18305.500
        16   02 Jun 2027 03:04:54.148   02 Jun 2027 03:04:57.271             3.123          1561.500
        17   02 Jun 2027 03:05:28.201   02 Jun 2027 03:05:41.652            13.451          6725.500
        18   02 Jun 2027 03:06:17.375   02 Jun 2027 03:06:49.360            31.985         15992.500
        19   02 Jun 2027 04:27:32.989   02 Jun 2027 04:28:14.092            41.103         20551.500
        20   02 Jun 2027 04:28:24.477   02 Jun 2027 04:28:26.743             2.266          1133.000
        21   02 Jun 2027 04:30:14.760   02 Jun 2027 04:30:15.142             0.382           191.000
        22   02 Jun 2027 06:03:18.525   02 Jun 2027 06:06:43.960           205.435        102717.500
        23   02 Jun 2027 07:38:12.992   02 Jun 2027 07:40:25.271           132.279         66139.500
        24   02 Jun 2027 07:40:31.133   02 Jun 2027 07:40:57.853            26.720         13360.000
        25   02 Jun 2027 07:41:25.888   02 Jun 2027 07:41:48.369            22.481         11240.500
        26   02 Jun 2027 07:42:06.419   02 Jun 2027 07:42:32.928            26.509         13254.500
        27   02 Jun 2027 07:44:56.366   02 Jun 2027 07:45:26.694            30.328         15164.000
        28   02 Jun 2027 09:14:43.809   02 Jun 2027 09:16:48.239           124.430         60601.657
        29   02 Jun 2027 09:17:15.350   02 Jun 2027 09:17:17.327             1.977           451.344
        30   02 Jun 2027 09:18:59.230   02 Jun 2027 09:19:02.810             3.580          1265.250
        31   02 Jun 2027 09:19:43.212   02 Jun 2027 09:19:46.600             3.388           468.438
        32   02 Jun 2027 09:20:04.471   02 Jun 2027 09:20:04.780             0.309           138.562
        33   02 Jun 2027 09:20:45.790   02 Jun 2027 09:20:46.843             1.053           173.500
        34   02 Jun 2027 10:53:02.256   02 Jun 2027 10:53:16.909            14.653          6701.062
        35   02 Jun 2027 10:53:47.381   02 Jun 2027 10:53:49.208             1.827           406.438
        36   02 Jun 2027 10:55:02.204   02 Jun 2027 10:55:04.528             2.324           722.594
        37   02 Jun 2027 10:55:07.465   02 Jun 2027 10:55:10.967             3.502            91.781
        38   02 Jun 2027 10:55:27.559   02 Jun 2027 10:55:30.458             2.899           349.562
        39   02 Jun 2027 10:55:46.897   02 Jun 2027 10:55:48.919             2.022           513.719
        40   02 Jun 2027 10:56:39.924   02 Jun 2027 10:56:43.164             3.240          1019.938
        41   02 Jun 2027 10:56:43.351   02 Jun 2027 10:56:44.947             1.596             5.844
        42   03 Jun 2027 03:04:06.952   03 Jun 2027 03:04:36.506            29.554         14777.000
        43   03 Jun 2027 03:15:31.163   03 Jun 2027 03:17:11.709           100.546         50273.000
        44   03 Jun 2027 04:38:07.403   03 Jun 2027 04:39:09.598            62.195         31097.500
        45   03 Jun 2027 04:39:56.423   03 Jun 2027 04:39:56.423             0.000             0.000
        46   03 Jun 2027 04:40:15.954   03 Jun 2027 04:40:17.794             1.840           920.000
        47   03 Jun 2027 04:40:53.777   03 Jun 2027 04:41:03.555             9.778          4889.000
        48   03 Jun 2027 04:41:34.160   03 Jun 2027 04:41:34.160             0.000             0.000
        49   03 Jun 2027 04:41:53.896   03 Jun 2027 04:42:15.845            21.949         10974.500
        50   03 Jun 2027 06:13:35.083   03 Jun 2027 06:14:28.266            53.183         26591.500
        51   03 Jun 2027 06:15:05.730   03 Jun 2027 06:15:49.527            43.797         20843.594
        52   03 Jun 2027 06:16:10.954   03 Jun 2027 06:16:12.595             1.641           279.250
        53   03 Jun 2027 06:17:38.180   03 Jun 2027 06:17:43.431             5.251          2341.875
        54   03 Jun 2027 06:18:04.470   03 Jun 2027 06:18:04.470             0.000             0.000
        55   03 Jun 2027 06:18:56.333   03 Jun 2027 06:19:01.221             4.888          1975.500
        56   03 Jun 2027 06:19:18.444   03 Jun 2027 06:19:21.195             2.751           538.219
        57   03 Jun 2027 07:49:58.012   03 Jun 2027 07:50:02.358             4.346          1731.469
        58   03 Jun 2027 07:50:48.633   03 Jun 2027 07:50:56.442             7.809           812.750
        59   03 Jun 2027 07:52:48.255   03 Jun 2027 07:52:49.290             1.035            45.437
        60   03 Jun 2027 07:53:25.759   03 Jun 2027 07:53:28.308             2.549           979.438
        61   03 Jun 2027 07:55:03.032   03 Jun 2027 07:55:07.449             4.417          1709.031
        62   03 Jun 2027 07:55:53.332   03 Jun 2027 07:56:00.375             7.043          1381.625
        63   03 Jun 2027 07:56:07.115   03 Jun 2027 07:56:08.339             1.224           139.844
        64   03 Jun 2027 07:57:22.003   03 Jun 2027 07:57:26.406             4.403          1641.625
        65   03 Jun 2027 09:27:03.986   03 Jun 2027 09:27:15.809            11.823          4859.406
        66   03 Jun 2027 09:27:49.706   03 Jun 2027 09:27:53.328             3.622           304.156
        67   03 Jun 2027 09:28:33.403   03 Jun 2027 09:28:34.069             0.666           262.063
        68   03 Jun 2027 09:30:43.219   03 Jun 2027 09:30:44.713             1.494            49.656
        69   03 Jun 2027 09:31:14.247   03 Jun 2027 09:31:15.903             1.656           256.094
        70   03 Jun 2027 09:31:23.508   03 Jun 2027 09:31:24.696             1.188           196.469
        71   03 Jun 2027 09:32:03.179   03 Jun 2027 09:32:07.265             4.086           977.125
        72   03 Jun 2027 09:32:35.011   03 Jun 2027 09:32:37.361             2.350           350.031
        73   03 Jun 2027 11:04:59.541   03 Jun 2027 11:05:13.368            13.827          5541.875
        74   03 Jun 2027 11:05:44.843   03 Jun 2027 11:05:50.680             5.837           930.187
        75   03 Jun 2027 11:06:29.086   03 Jun 2027 11:06:36.070             6.984           386.000
        76   03 Jun 2027 11:07:02.927   03 Jun 2027 11:07:07.094             4.167           680.312
        77   03 Jun 2027 11:07:28.714   03 Jun 2027 11:07:32.581             3.867            67.937
        78   03 Jun 2027 11:08:28.152   03 Jun 2027 11:08:30.251             2.099           206.625
        79   03 Jun 2027 11:08:51.782   03 Jun 2027 11:08:55.560             3.778           602.125
        80   04 Jun 2027 03:15:50.654   04 Jun 2027 03:15:58.504             7.850          3925.000
        81   04 Jun 2027 03:27:34.430   04 Jun 2027 03:28:33.241            58.811         29405.500
        82   04 Jun 2027 04:49:48.295   04 Jun 2027 04:50:54.501            66.206         33103.000
        83   04 Jun 2027 04:51:42.021   04 Jun 2027 04:53:56.468           134.447         67223.500
        84   04 Jun 2027 06:24:43.945   04 Jun 2027 06:25:19.528            35.583         16126.562
        85   04 Jun 2027 06:25:51.046   04 Jun 2027 06:25:52.554             1.508           290.500
        86   04 Jun 2027 06:25:54.013   04 Jun 2027 06:25:57.871             3.858            45.594
        87   04 Jun 2027 06:26:10.858   04 Jun 2027 06:26:12.037             1.179           188.562
        88   04 Jun 2027 06:26:50.231   04 Jun 2027 06:26:52.406             2.175          1068.500
        89   04 Jun 2027 06:28:23.834   04 Jun 2027 06:28:27.878             4.044          2021.469
        90   04 Jun 2027 06:28:34.528   04 Jun 2027 06:28:36.789             2.261           122.375
        91   04 Jun 2027 06:29:50.998   04 Jun 2027 06:29:53.520             2.522          1261.000
        92   04 Jun 2027 06:30:07.573   04 Jun 2027 06:30:12.261             4.688          1327.625
        93   04 Jun 2027 06:30:32.541   04 Jun 2027 06:30:40.034             7.493           621.844
        94   04 Jun 2027 06:31:11.721   04 Jun 2027 06:31:13.762             2.041           130.812
        95   04 Jun 2027 06:31:34.632   04 Jun 2027 06:31:37.713             3.081           547.469
        96   04 Jun 2027 06:31:52.866   04 Jun 2027 06:31:55.246             2.380           240.656
        97   04 Jun 2027 08:02:14.594   04 Jun 2027 08:02:21.182             6.588          3125.625
        98   04 Jun 2027 08:03:59.377   04 Jun 2027 08:04:11.850            12.473          2145.187
        99   04 Jun 2027 08:05:04.620   04 Jun 2027 08:05:08.057             3.437          1532.125
       100   04 Jun 2027 08:06:09.953   04 Jun 2027 08:06:12.256             2.303          1119.781
       101   04 Jun 2027 08:06:29.843   04 Jun 2027 08:06:30.648             0.805           103.031
       102   04 Jun 2027 08:07:04.505   04 Jun 2027 08:07:06.537             2.032           553.312
       103   04 Jun 2027 08:08:09.835   04 Jun 2027 08:08:13.063             3.228          1005.313
       104   04 Jun 2027 08:09:24.684   04 Jun 2027 08:09:29.956             5.272          2034.031
       105   04 Jun 2027 09:38:59.830   04 Jun 2027 09:39:10.716            10.886          5401.125
       106   04 Jun 2027 09:42:15.805   04 Jun 2027 09:42:21.970             6.165          1303.781
       107   04 Jun 2027 09:42:58.372   04 Jun 2027 09:43:01.762             3.390           292.125
       108   04 Jun 2027 09:43:06.979   04 Jun 2027 09:43:08.289             1.310           163.031
       109   04 Jun 2027 09:44:04.822   04 Jun 2027 09:44:13.927             9.105           937.281
       110   04 Jun 2027 09:44:58.614   04 Jun 2027 09:45:03.341             4.727          1396.469
       111   04 Jun 2027 11:16:58.836   04 Jun 2027 11:17:10.257            11.421          4733.688
       112   04 Jun 2027 11:17:44.895   04 Jun 2027 11:17:49.523             4.628           558.500
       113   04 Jun 2027 11:18:43.241   04 Jun 2027 11:18:46.266             3.025           948.844
       114   04 Jun 2027 11:19:15.146   04 Jun 2027 11:19:23.920             8.774           479.844
       115   04 Jun 2027 11:20:11.159   04 Jun 2027 11:20:11.882             0.723            41.094
       116   04 Jun 2027 11:20:55.158   04 Jun 2027 11:20:56.945             1.787           844.688
       117   04 Jun 2027 11:21:04.097   04 Jun 2027 11:21:04.497             0.400           144.500
       118   05 Jun 2027 03:27:23.786   05 Jun 2027 03:27:46.349            22.563         11281.500
       119   05 Jun 2027 03:39:39.609   05 Jun 2027 03:40:07.223            27.614         13807.000
       120   05 Jun 2027 05:01:20.447   05 Jun 2027 05:02:40.040            79.593         39796.500
       121   05 Jun 2027 05:03:28.254   05 Jun 2027 05:04:59.656            91.402         45701.000
       122   05 Jun 2027 05:06:17.293   05 Jun 2027 05:06:37.665            20.372         10186.000
       123   05 Jun 2027 06:36:13.772   05 Jun 2027 06:37:23.088            69.316         34658.000
       124   05 Jun 2027 06:37:36.356   05 Jun 2027 06:37:41.949             5.593          1864.375
       125   05 Jun 2027 06:38:21.184   05 Jun 2027 06:38:22.202             1.018           477.750
       126   05 Jun 2027 06:38:48.404   05 Jun 2027 06:38:50.392             1.988           537.563
       127   05 Jun 2027 06:39:41.516   05 Jun 2027 06:39:45.350             3.834          1358.031
       128   05 Jun 2027 06:40:04.873   05 Jun 2027 06:40:08.267             3.394           299.656
       129   05 Jun 2027 06:40:10.541   05 Jun 2027 06:40:10.541             0.000             0.000
       130   05 Jun 2027 06:40:34.692   05 Jun 2027 06:40:37.382             2.690           825.781
       131   05 Jun 2027 06:41:53.413   05 Jun 2027 06:41:59.491             6.078          2375.969
       132   05 Jun 2027 06:42:55.657   05 Jun 2027 06:42:58.800             3.143          1408.344
       133   05 Jun 2027 06:43:30.329   05 Jun 2027 06:43:32.638             2.309           985.281
       134   05 Jun 2027 06:43:54.540   05 Jun 2027 06:43:54.540             0.000             0.000
       135   05 Jun 2027 06:44:05.972   05 Jun 2027 06:44:09.012             3.040           933.313
       136   05 Jun 2027 08:14:09.144   05 Jun 2027 08:14:17.262             8.118          2725.875
       137   05 Jun 2027 08:15:58.471   05 Jun 2027 08:16:03.563             5.092          1971.969
       138   05 Jun 2027 08:17:57.480   05 Jun 2027 08:18:02.310             4.830          1775.969
       139   05 Jun 2027 08:18:57.400   05 Jun 2027 08:19:00.074             2.674          1283.094
       140   05 Jun 2027 08:20:01.540   05 Jun 2027 08:20:05.006             3.466          1490.938
       141   05 Jun 2027 08:21:23.692   05 Jun 2027 08:21:28.223             4.531          1652.594
       142   05 Jun 2027 09:50:56.311   05 Jun 2027 09:51:12.274            15.963          6425.156
       143   05 Jun 2027 09:52:18.991   05 Jun 2027 09:52:21.227             2.236           452.281
       144   05 Jun 2027 09:53:41.081   05 Jun 2027 09:53:46.012             4.931           277.125
       145   05 Jun 2027 09:54:53.562   05 Jun 2027 09:54:56.055             2.493           875.781
       146   05 Jun 2027 09:55:38.733   05 Jun 2027 09:55:41.991             3.258           898.625
       147   05 Jun 2027 09:56:12.629   05 Jun 2027 09:56:17.166             4.537           936.250
       148   05 Jun 2027 09:56:57.037   05 Jun 2027 09:56:57.630             0.593           234.187
       149   05 Jun 2027 09:57:27.003   05 Jun 2027 09:57:33.550             6.547           917.906
       150   05 Jun 2027 11:28:46.745   05 Jun 2027 11:28:59.718            12.973          6222.906
       151   05 Jun 2027 11:31:19.681   05 Jun 2027 11:31:21.305             1.624           698.281
       152   05 Jun 2027 11:31:29.163   05 Jun 2027 11:31:29.991             0.828           245.563
       153   05 Jun 2027 11:32:03.494   05 Jun 2027 11:32:07.164             3.670           614.031
       154   05 Jun 2027 11:32:34.682   05 Jun 2027 11:32:38.480             3.798            93.531
       155   05 Jun 2027 11:33:04.623   05 Jun 2027 11:33:06.393             1.770           327.469
       156   06 Jun 2027 03:39:19.350   06 Jun 2027 03:39:47.011            27.661         13830.500
       157   06 Jun 2027 05:15:19.067   06 Jun 2027 05:18:36.978           197.911         98955.500
       158   06 Jun 2027 06:49:07.099   06 Jun 2027 06:50:34.461            87.362         42738.969
       159   06 Jun 2027 06:51:29.934   06 Jun 2027 06:51:30.122             0.188            94.000
       160   06 Jun 2027 06:51:37.962   06 Jun 2027 06:51:39.623             1.661           719.594
       161   06 Jun 2027 06:51:49.941   06 Jun 2027 06:51:49.941             0.000             0.000
       162   06 Jun 2027 06:52:10.354   06 Jun 2027 06:52:12.897             2.543           923.719
       163   06 Jun 2027 06:52:37.331   06 Jun 2027 06:52:39.992             2.661           733.906
       164   06 Jun 2027 06:53:37.164   06 Jun 2027 06:53:37.164             0.000             0.000
       165   06 Jun 2027 06:54:35.174   06 Jun 2027 06:54:43.965             8.791          3414.063
       166   06 Jun 2027 06:55:23.963   06 Jun 2027 06:55:28.124             4.161           989.656
       167   06 Jun 2027 06:55:52.381   06 Jun 2027 06:55:52.381             0.000             0.000
       168   06 Jun 2027 06:56:02.393   06 Jun 2027 06:56:04.562             2.169           831.000
       169   06 Jun 2027 06:56:38.035   06 Jun 2027 06:56:38.035             0.000             0.000
       170   06 Jun 2027 06:56:59.255   06 Jun 2027 06:57:06.200             6.945          1561.750
       171   06 Jun 2027 06:57:21.759   06 Jun 2027 06:57:22.894             1.135           343.281
       172   06 Jun 2027 08:26:20.162   06 Jun 2027 08:26:24.961             4.799           894.906
       173   06 Jun 2027 08:28:45.724   06 Jun 2027 08:28:48.050             2.326           758.469
       174   06 Jun 2027 08:30:12.029   06 Jun 2027 08:30:16.822             4.793          2341.562
       175   06 Jun 2027 08:32:15.294   06 Jun 2027 08:32:19.800             4.506          1793.687
       176   06 Jun 2027 08:32:30.415   06 Jun 2027 08:32:37.623             7.208           254.656
       177   06 Jun 2027 08:32:50.456   06 Jun 2027 08:32:53.961             3.505           277.750
       178   06 Jun 2027 08:33:25.692   06 Jun 2027 08:33:32.286             6.594           991.594
       179   06 Jun 2027 10:03:33.088   06 Jun 2027 10:03:45.497            12.409          5488.719
       180   06 Jun 2027 10:05:50.883   06 Jun 2027 10:05:51.500             0.617           104.188
       181   06 Jun 2027 10:06:53.036   06 Jun 2027 10:06:57.019             3.983           401.625
       182   06 Jun 2027 10:07:12.569   06 Jun 2027 10:07:15.392             2.823           259.750
       183   06 Jun 2027 10:07:23.888   06 Jun 2027 10:07:24.936             1.048           126.031
       184   06 Jun 2027 10:07:49.623   06 Jun 2027 10:07:52.859             3.236           495.813
       185   06 Jun 2027 10:08:12.003   06 Jun 2027 10:08:19.444             7.441           502.062
       186   06 Jun 2027 10:08:50.461   06 Jun 2027 10:08:54.168             3.707           957.594
       187   06 Jun 2027 10:09:13.979   06 Jun 2027 10:09:19.217             5.238           468.719
       188   06 Jun 2027 11:40:14.180   06 Jun 2027 11:40:31.952            17.772          7852.219
       189   06 Jun 2027 11:42:53.663   06 Jun 2027 11:42:59.448             5.785          1845.000
       190   06 Jun 2027 11:43:23.732   06 Jun 2027 11:43:27.443             3.711           658.094
       191   06 Jun 2027 11:43:58.567   06 Jun 2027 11:44:10.356            11.789           528.844
       192   06 Jun 2027 11:45:01.540   06 Jun 2027 11:45:05.102             3.562           219.094
       193   07 Jun 2027 03:51:11.263   07 Jun 2027 03:51:14.815             3.552          1776.000
       194   07 Jun 2027 03:52:02.396   07 Jun 2027 03:52:12.797            10.401          5200.500
       195   07 Jun 2027 03:53:25.972   07 Jun 2027 03:53:25.972             0.000             0.000
       196   07 Jun 2027 05:27:32.692   07 Jun 2027 05:30:30.823           178.131         89065.500
       197   07 Jun 2027 05:30:48.611   07 Jun 2027 05:31:04.763            16.152          8076.000
       198   07 Jun 2027 07:01:36.369   07 Jun 2027 07:03:17.760           101.391         50193.407
       199   07 Jun 2027 07:03:28.519   07 Jun 2027 07:03:29.685             1.166           313.531
       200   07 Jun 2027 07:03:42.804   07 Jun 2027 07:03:45.552             2.748            81.906
       201   07 Jun 2027 07:04:17.197   07 Jun 2027 07:04:18.253             1.056           156.687
       202   07 Jun 2027 07:05:51.278   07 Jun 2027 07:05:56.308             5.030          2148.813
       203   07 Jun 2027 07:06:18.446   07 Jun 2027 07:06:19.198             0.752            68.031
       204   07 Jun 2027 07:07:39.170   07 Jun 2027 07:07:43.615             4.445          1969.563
       205   07 Jun 2027 07:08:12.558   07 Jun 2027 07:08:16.931             4.373           490.656
       206   07 Jun 2027 07:08:49.759   07 Jun 2027 07:08:52.104             2.345           984.000
       207   07 Jun 2027 07:09:26.351   07 Jun 2027 07:09:28.264             1.913           563.625
       208   07 Jun 2027 07:09:33.838   07 Jun 2027 07:09:36.742             2.904           168.188
       209   07 Jun 2027 08:38:42.362   07 Jun 2027 08:38:54.800            12.438          2825.906
       210   07 Jun 2027 08:41:01.122   07 Jun 2027 08:41:10.815             9.693          1201.969
       211   07 Jun 2027 08:42:25.859   07 Jun 2027 08:42:29.076             3.217          1268.625
       212   07 Jun 2027 08:43:28.748   07 Jun 2027 08:43:29.992             1.244           204.438
       213   07 Jun 2027 08:44:37.988   07 Jun 2027 08:44:47.391             9.403          1327.969
       214   07 Jun 2027 10:15:39.939   07 Jun 2027 10:15:54.495            14.556          6009.219
       215   07 Jun 2027 10:19:25.703   07 Jun 2027 10:19:29.488             3.785           345.813
       216   07 Jun 2027 10:19:38.658   07 Jun 2027 10:19:39.096             0.438           162.250
       217   07 Jun 2027 10:19:59.299   07 Jun 2027 10:20:03.625             4.326           552.375
       218   07 Jun 2027 10:20:32.557   07 Jun 2027 10:20:33.817             1.260           178.719
       219   07 Jun 2027 11:52:26.433   07 Jun 2027 11:52:45.202            18.769          7834.219
       220   07 Jun 2027 11:53:23.084   07 Jun 2027 11:53:24.547             1.463           220.594
       221   07 Jun 2027 11:55:22.493   07 Jun 2027 11:55:26.791             4.298          1061.344
       222   08 Jun 2027 04:03:13.963   08 Jun 2027 04:04:04.672            50.709         25354.500
       223   08 Jun 2027 05:39:39.291   08 Jun 2027 05:42:31.313           172.022         86011.000
       224   08 Jun 2027 07:14:47.344   08 Jun 2027 07:16:25.834            98.490         48598.937
       225   08 Jun 2027 07:17:49.006   08 Jun 2027 07:17:53.375             4.369          1832.531
       226   08 Jun 2027 07:18:18.870   08 Jun 2027 07:18:21.241             2.371           501.406
       227   08 Jun 2027 07:19:57.399   08 Jun 2027 07:20:04.200             6.801          2317.313
       228   08 Jun 2027 07:20:48.378   08 Jun 2027 07:20:50.931             2.553          1018.813
       229   08 Jun 2027 07:21:24.758   08 Jun 2027 07:21:25.620             0.862           431.000
       230   08 Jun 2027 08:51:08.202   08 Jun 2027 08:51:18.849            10.647          5067.156
       231   08 Jun 2027 08:53:12.516   08 Jun 2027 08:53:13.431             0.915           133.094
       232   08 Jun 2027 08:54:26.213   08 Jun 2027 08:54:26.912             0.699           142.875
       233   08 Jun 2027 08:55:05.253   08 Jun 2027 08:55:05.570             0.317           100.594
       234   08 Jun 2027 08:55:50.216   08 Jun 2027 08:55:51.317             1.101           482.250
       235   08 Jun 2027 08:56:28.584   08 Jun 2027 08:56:29.004             0.420            18.750
       236   08 Jun 2027 08:56:41.590   08 Jun 2027 08:56:42.929             1.339           262.000
       237   08 Jun 2027 08:57:17.186   08 Jun 2027 08:57:20.054             2.868           930.781
       238   08 Jun 2027 10:28:41.855   08 Jun 2027 10:28:53.658            11.803          5746.813
       239   08 Jun 2027 10:31:08.958   08 Jun 2027 10:31:11.279             2.321          1023.469
       240   08 Jun 2027 10:31:51.514   08 Jun 2027 10:31:54.134             2.620          1105.500
       241   08 Jun 2027 10:32:52.997   08 Jun 2027 10:32:59.080             6.083          1839.469
       242   09 Jun 2027 04:15:12.375   09 Jun 2027 04:16:00.530            48.155         24077.500
       243   09 Jun 2027 05:51:49.241   09 Jun 2027 05:53:31.285           102.044         51022.000
       244   09 Jun 2027 05:54:30.861   09 Jun 2027 05:55:08.178            37.317         18658.500
       245   09 Jun 2027 07:26:59.311   09 Jun 2027 07:28:57.370           118.059         58461.219
       246   09 Jun 2027 07:29:07.444   09 Jun 2027 07:29:12.333             4.889           201.969
       247   09 Jun 2027 07:30:42.796   09 Jun 2027 07:30:53.558            10.762          2368.687
       248   09 Jun 2027 07:32:18.901   09 Jun 2027 07:32:22.980             4.079           670.750
       249   09 Jun 2027 07:32:49.197   09 Jun 2027 07:32:51.996             2.799           675.688
       250   09 Jun 2027 07:33:09.445   09 Jun 2027 07:33:11.615             2.170           387.937
       251   09 Jun 2027 09:03:16.518   09 Jun 2027 09:03:28.602            12.084          5676.906
       252   09 Jun 2027 09:07:10.292   09 Jun 2027 09:07:13.086             2.794          1175.688
       253   09 Jun 2027 09:08:21.261   09 Jun 2027 09:08:23.704             2.443          1195.187
       254   09 Jun 2027 09:08:41.462   09 Jun 2027 09:08:45.116             3.654           554.938
       255   09 Jun 2027 09:09:11.521   09 Jun 2027 09:09:13.427             1.906           442.406
       256   09 Jun 2027 10:40:47.050   09 Jun 2027 10:41:01.797            14.747          6501.469
       257   09 Jun 2027 10:43:15.711   09 Jun 2027 10:43:20.575             4.864          2001.687
       258   09 Jun 2027 10:43:50.062   09 Jun 2027 10:43:52.710             2.648           234.313
       259   09 Jun 2027 10:44:22.286   09 Jun 2027 10:44:31.663             9.377           240.500
       260   09 Jun 2027 10:44:40.806   09 Jun 2027 10:44:49.506             8.700           285.719
       261   09 Jun 2027 10:45:05.901   09 Jun 2027 10:45:09.564             3.663           444.063
       262   10 Jun 2027 03:03:49.888   10 Jun 2027 03:04:12.273            22.385         11192.500
       263   10 Jun 2027 03:05:00.171   10 Jun 2027 03:05:07.772             7.601          3800.500
       264   10 Jun 2027 03:05:26.159   10 Jun 2027 03:05:43.049            16.890          8445.000
       265   10 Jun 2027 03:05:52.268   10 Jun 2027 03:05:57.594             5.326          2663.000
       266   10 Jun 2027 03:06:32.870   10 Jun 2027 03:06:32.896             0.026            13.000
       267   10 Jun 2027 03:07:06.232   10 Jun 2027 03:07:15.489             9.257          4628.500
       268   10 Jun 2027 03:07:22.743   10 Jun 2027 03:07:25.189             2.446          1223.000
       269   10 Jun 2027 04:27:48.452   10 Jun 2027 04:28:29.143            40.691         20345.500
       270   10 Jun 2027 04:29:14.965   10 Jun 2027 04:29:55.278            40.313         20156.500
       271   10 Jun 2027 06:03:33.271   10 Jun 2027 06:06:01.638           148.367         74183.500
       272   10 Jun 2027 06:06:07.749   10 Jun 2027 06:06:18.426            10.677          5338.500
       273   10 Jun 2027 06:06:59.456   10 Jun 2027 06:06:59.456             0.000             0.000
       274   10 Jun 2027 07:38:27.792   10 Jun 2027 07:38:47.698            19.906          7635.156
       275   10 Jun 2027 07:41:37.845   10 Jun 2027 07:41:39.932             2.087           728.938
       276   10 Jun 2027 07:42:23.437   10 Jun 2027 07:42:30.870             7.433           583.125
       277   10 Jun 2027 07:43:56.875   10 Jun 2027 07:44:02.106             5.231          2097.281
       278   10 Jun 2027 07:45:24.286   10 Jun 2027 07:45:29.892             5.606          2101.406
       279   10 Jun 2027 09:14:59.406   10 Jun 2027 09:15:15.534            16.128          6777.781
       280   10 Jun 2027 09:16:48.242   10 Jun 2027 09:16:53.129             4.887          1703.063
       281   10 Jun 2027 09:18:44.280   10 Jun 2027 09:18:44.672             0.392           148.844
       282   10 Jun 2027 09:19:33.391   10 Jun 2027 09:19:36.406             3.015          1235.906
       283   10 Jun 2027 09:19:58.500   10 Jun 2027 09:20:00.094             1.594           440.719
       284   10 Jun 2027 09:20:19.044   10 Jun 2027 09:20:20.604             1.560           131.063
       285   10 Jun 2027 09:20:56.558   10 Jun 2027 09:20:58.367             1.809             2.906
       286   10 Jun 2027 10:53:17.173   10 Jun 2027 10:53:29.529            12.356          5994.969
       287   10 Jun 2027 10:54:03.185   10 Jun 2027 10:54:04.031             0.846           416.781
       288   10 Jun 2027 10:55:21.580   10 Jun 2027 10:55:26.353             4.773           136.594
       289   10 Jun 2027 10:55:47.175   10 Jun 2027 10:55:48.186             1.011           153.906
       290   10 Jun 2027 10:56:56.294   10 Jun 2027 10:56:58.896             2.602          1055.687
       291   11 Jun 2027 03:04:20.822   11 Jun 2027 03:04:52.804            31.982         15991.000
       292   11 Jun 2027 03:15:46.363   11 Jun 2027 03:18:17.539           151.176         75588.000
       293   11 Jun 2027 04:38:23.693   11 Jun 2027 04:38:41.689            17.996          8998.000
       294   11 Jun 2027 04:39:07.541   11 Jun 2027 04:39:08.697             1.156           578.000
       295   11 Jun 2027 04:39:54.187   11 Jun 2027 04:40:12.890            18.703          9351.500
       296   11 Jun 2027 04:41:48.610   11 Jun 2027 04:41:48.610             0.000             0.000
       297   11 Jun 2027 04:42:09.430   11 Jun 2027 04:42:14.797             5.367          2683.500
       298   11 Jun 2027 04:42:59.064   11 Jun 2027 04:43:04.821             5.757          2878.500
       299   11 Jun 2027 06:13:48.121   11 Jun 2027 06:14:43.383            55.262         27631.000
       300   11 Jun 2027 06:15:18.886   11 Jun 2027 06:16:04.841            45.955         21618.000
       301   11 Jun 2027 06:16:22.254   11 Jun 2027 06:16:26.687             4.433           165.469
       302   11 Jun 2027 06:16:52.588   11 Jun 2027 06:16:54.607             2.019           809.406
       303   11 Jun 2027 06:17:54.681   11 Jun 2027 06:17:58.354             3.673          1760.750
       304   11 Jun 2027 06:18:21.581   11 Jun 2027 06:18:21.581             0.000             0.000
       305   11 Jun 2027 06:19:11.907   11 Jun 2027 06:19:16.579             4.672          1979.313
       306   11 Jun 2027 06:19:34.296   11 Jun 2027 06:19:43.230             8.934           552.719
       307   11 Jun 2027 07:50:13.692   11 Jun 2027 07:50:24.270            10.578          2562.062
       308   11 Jun 2027 07:51:05.572   11 Jun 2027 07:51:10.957             5.385           842.437
       309   11 Jun 2027 07:53:08.409   11 Jun 2027 07:53:09.964             1.555           162.125
       310   11 Jun 2027 07:53:31.151   11 Jun 2027 07:53:33.482             2.331            80.031
       311   11 Jun 2027 07:54:48.963   11 Jun 2027 07:54:53.461             4.498          2110.937
       312   11 Jun 2027 07:55:10.492   11 Jun 2027 07:55:12.804             2.312           532.219
       313   11 Jun 2027 07:55:55.612   11 Jun 2027 07:56:04.901             9.289          1111.906
       314   11 Jun 2027 07:57:37.562   11 Jun 2027 07:57:43.732             6.170          2493.656
       315   11 Jun 2027 09:27:19.868   11 Jun 2027 09:27:32.760            12.892          4783.688
       316   11 Jun 2027 09:31:00.643   11 Jun 2027 09:31:00.883             0.240            55.719
       317   11 Jun 2027 09:31:18.862   11 Jun 2027 09:31:20.614             1.752           561.844
       318   11 Jun 2027 09:31:26.148   11 Jun 2027 09:31:27.046             0.898           172.938
       319   11 Jun 2027 09:31:38.991   11 Jun 2027 09:31:40.310             1.319           192.906
       320   11 Jun 2027 09:32:18.934   11 Jun 2027 09:32:21.025             2.091           965.219
       321   11 Jun 2027 09:32:50.222   11 Jun 2027 09:32:53.497             3.275           368.375
       322   11 Jun 2027 11:05:14.950   11 Jun 2027 11:05:30.734            15.784          6517.781
       323   11 Jun 2027 11:06:37.379   11 Jun 2027 11:06:40.844             3.465          1248.781
       324   11 Jun 2027 11:07:20.165   11 Jun 2027 11:07:24.804             4.639           726.219
       325   11 Jun 2027 11:07:54.753   11 Jun 2027 11:07:56.507             1.754           288.625
       326   11 Jun 2027 11:08:57.814   11 Jun 2027 11:09:02.690             4.876          1279.812
       327   12 Jun 2027 03:15:59.074   12 Jun 2027 03:16:14.714            15.640          7820.000
       328   12 Jun 2027 03:17:06.129   12 Jun 2027 03:17:41.983            35.854         17927.000
       329   12 Jun 2027 03:27:48.005   12 Jun 2027 03:28:48.065            60.060         30030.000
       330   12 Jun 2027 04:50:03.069   12 Jun 2027 04:51:09.346            66.277         33138.500
       331   12 Jun 2027 04:51:57.260   12 Jun 2027 04:52:42.809            45.549         22774.500
       332   12 Jun 2027 04:53:11.828   12 Jun 2027 04:53:24.573            12.745          6372.500
       333   12 Jun 2027 04:54:34.163   12 Jun 2027 04:54:46.168            12.005          6002.500
       334   12 Jun 2027 06:24:57.455   12 Jun 2027 06:26:04.068            66.613         32543.437
       335   12 Jun 2027 06:27:05.133   12 Jun 2027 06:27:08.949             3.816          1742.875
       336   12 Jun 2027 06:28:40.116   12 Jun 2027 06:28:45.595             5.479          2347.187
       337   12 Jun 2027 06:30:08.953   12 Jun 2027 06:30:17.503             8.550          2604.938
       338   12 Jun 2027 06:31:23.517   12 Jun 2027 06:31:27.377             3.860          1838.844
       339   12 Jun 2027 06:31:32.710   12 Jun 2027 06:31:40.100             7.390           166.656
       340   12 Jun 2027 06:33:20.190   12 Jun 2027 06:33:24.629             4.439          2181.938
       341   12 Jun 2027 08:02:29.348   12 Jun 2027 08:02:32.473             3.125          1137.000
       342   12 Jun 2027 08:04:28.565   12 Jun 2027 08:04:31.903             3.338           427.281
       343   12 Jun 2027 08:05:21.564   12 Jun 2027 08:05:26.265             4.701          1500.031
       344   12 Jun 2027 08:06:44.853   12 Jun 2027 08:06:46.898             2.045           118.375
       345   12 Jun 2027 08:07:21.096   12 Jun 2027 08:07:25.824             4.728           857.500
       346   12 Jun 2027 08:08:11.358   12 Jun 2027 08:08:17.561             6.203           765.344
       347   12 Jun 2027 08:08:37.544   12 Jun 2027 08:08:39.107             1.563           624.469
       348   12 Jun 2027 08:09:47.611   12 Jun 2027 08:09:48.941             1.330           665.000
       349   12 Jun 2027 09:39:15.287   12 Jun 2027 09:39:29.651            14.364          5777.406
       350   12 Jun 2027 09:41:51.095   12 Jun 2027 09:41:52.763             1.668            50.781
       351   12 Jun 2027 09:43:03.489   12 Jun 2027 09:43:05.772             2.283          1082.719
       352   12 Jun 2027 09:43:22.431   12 Jun 2027 09:43:23.452             1.021           179.594
       353   12 Jun 2027 09:43:33.245   12 Jun 2027 09:43:36.312             3.067           107.219
       354   12 Jun 2027 09:44:20.600   12 Jun 2027 09:44:28.306             7.706           927.312
       355   12 Jun 2027 09:45:11.922   12 Jun 2027 09:45:14.991             3.069          1363.000
       356   12 Jun 2027 11:17:14.879   12 Jun 2027 11:17:28.596            13.717          6778.406
       357   12 Jun 2027 11:18:08.911   12 Jun 2027 11:18:09.845             0.934           240.656
       358   12 Jun 2027 11:18:59.007   12 Jun 2027 11:19:02.048             3.041           908.250
       359   12 Jun 2027 11:19:32.360   12 Jun 2027 11:19:39.010             6.650           537.688
       360   12 Jun 2027 11:20:27.191   12 Jun 2027 11:20:31.095             3.904            91.125
       361   12 Jun 2027 11:21:11.023   12 Jun 2027 11:21:12.884             1.861           862.250
       362   12 Jun 2027 11:21:20.138   12 Jun 2027 11:21:22.192             2.054            81.438
       363   13 Jun 2027 03:27:39.046   13 Jun 2027 03:28:01.294            22.248         11124.000
       364   13 Jun 2027 03:39:54.716   13 Jun 2027 03:40:22.359            27.643         13821.500
       365   13 Jun 2027 05:01:34.769   13 Jun 2027 05:02:55.002            80.233         40116.500
       366   13 Jun 2027 05:03:43.268   13 Jun 2027 05:05:03.855            80.587         40293.500
       367   13 Jun 2027 05:05:33.345   13 Jun 2027 05:05:45.148            11.803          5901.500
       368   13 Jun 2027 06:36:28.353   13 Jun 2027 06:38:01.361            93.008         45881.688
       369   13 Jun 2027 06:38:38.611   13 Jun 2027 06:38:44.759             6.148           530.906
       370   13 Jun 2027 06:39:44.959   13 Jun 2027 06:39:49.156             4.197          1784.344
       371   13 Jun 2027 06:40:20.351   13 Jun 2027 06:40:24.663             4.312           318.281
       372   13 Jun 2027 06:40:28.550   13 Jun 2027 06:40:28.550             0.000             0.000
       373   13 Jun 2027 06:40:50.737   13 Jun 2027 06:40:52.663             1.926           814.812
       374   13 Jun 2027 06:42:08.825   13 Jun 2027 06:42:13.966             5.141          2367.906
       375   13 Jun 2027 06:43:11.409   13 Jun 2027 06:43:14.202             2.793          1366.594
       376   13 Jun 2027 06:43:46.074   13 Jun 2027 06:43:48.169             2.095           973.719
       377   13 Jun 2027 06:44:10.583   13 Jun 2027 06:44:14.381             3.798           620.219
       378   13 Jun 2027 06:45:22.608   13 Jun 2027 06:45:24.966             2.358          1179.000
       379   13 Jun 2027 06:45:37.461   13 Jun 2027 06:45:43.195             5.734          1164.531
       380   13 Jun 2027 08:14:24.252   13 Jun 2027 08:14:30.088             5.836          1004.406
       381   13 Jun 2027 08:16:14.662   13 Jun 2027 08:16:19.935             5.273          1937.812
       382   13 Jun 2027 08:18:14.625   13 Jun 2027 08:18:21.467             6.842          1806.312
       383   13 Jun 2027 08:18:33.329   13 Jun 2027 08:18:37.591             4.262           162.250
       384   13 Jun 2027 08:19:40.671   13 Jun 2027 08:19:44.685             4.014          1198.094
       385   13 Jun 2027 08:20:12.499   13 Jun 2027 08:20:13.945             1.446           690.812
       386   13 Jun 2027 08:20:51.585   13 Jun 2027 08:20:54.191             2.606          1101.406
       387   13 Jun 2027 08:21:21.039   13 Jun 2027 08:21:23.615             2.576           769.531
       388   13 Jun 2027 09:51:11.858   13 Jun 2027 09:51:27.131            15.273          6380.062
       389   13 Jun 2027 09:55:09.422   13 Jun 2027 09:55:11.321             1.899           924.000
       390   13 Jun 2027 09:55:53.206   13 Jun 2027 09:55:55.333             2.127           865.531
       391   13 Jun 2027 09:56:28.597   13 Jun 2027 09:56:31.489             2.892          1039.500
       392   13 Jun 2027 09:57:12.068   13 Jun 2027 09:57:13.854             1.786           193.844
       393   13 Jun 2027 09:57:41.790   13 Jun 2027 09:57:44.300             2.510           873.000
       394   13 Jun 2027 11:29:02.192   13 Jun 2027 11:29:14.934            12.742          5753.875
       395   13 Jun 2027 11:31:22.452   13 Jun 2027 11:31:25.186             2.734           668.000
       396   13 Jun 2027 11:31:46.148   13 Jun 2027 11:31:50.392             4.244           319.281
       397   13 Jun 2027 11:32:19.039   13 Jun 2027 11:32:22.224             3.185           654.719
       398   13 Jun 2027 11:32:50.735   13 Jun 2027 11:32:52.520             1.785           106.719
       399   13 Jun 2027 11:33:22.347   13 Jun 2027 11:33:23.589             1.242           413.031
