uniorb/output/strategy_4/Camera/Camera_KinoSat_111101.txt

KinoSat_111101
-------------------------
    Access    *     Start Time (UTCG)     *     Stop Time (UTCG)  *   Duration (s) *   Data (Mbytes)
         1   01 Jun 2027 04:01:40.967   01 Jun 2027 04:02:58.843            77.876         38938.000
         2   01 Jun 2027 04:03:28.971   01 Jun 2027 04:03:45.417            16.446          8223.000
         3   01 Jun 2027 05:37:38.356   01 Jun 2027 05:40:07.460           149.104         74552.000
         4   01 Jun 2027 05:40:23.503   01 Jun 2027 05:40:23.503             0.000             0.000
         5   01 Jun 2027 07:11:28.093   01 Jun 2027 07:13:30.260           122.167         61083.500
         6   01 Jun 2027 07:13:58.880   01 Jun 2027 07:14:02.138             3.258          1629.000
         7   01 Jun 2027 07:15:37.272   01 Jun 2027 07:15:53.140            15.868          7934.000
         8   01 Jun 2027 07:16:03.513   01 Jun 2027 07:16:06.375             2.862          1431.000
         9   01 Jun 2027 07:17:01.543   01 Jun 2027 07:17:03.685             2.142          1071.000
        10   01 Jun 2027 07:17:54.797   01 Jun 2027 07:17:58.497             3.700          1850.000
        11   01 Jun 2027 07:18:36.567   01 Jun 2027 07:18:36.706             0.139            69.500
        12   01 Jun 2027 07:18:57.940   01 Jun 2027 07:18:58.029             0.089            44.500
        13   01 Jun 2027 07:19:16.411   01 Jun 2027 07:19:22.045             5.634          2817.000
        14   01 Jun 2027 08:48:31.629   01 Jun 2027 08:51:14.257           162.628         81314.000
        15   01 Jun 2027 08:53:54.050   01 Jun 2027 08:54:10.367            16.317          8158.500
        16   01 Jun 2027 10:25:26.335   01 Jun 2027 10:26:19.789            53.454         26727.000
        17   01 Jun 2027 10:26:47.744   01 Jun 2027 10:27:53.346            65.602         32801.000
        18   01 Jun 2027 10:29:12.877   01 Jun 2027 10:29:24.192            11.315          5657.500
        19   01 Jun 2027 10:29:26.869   01 Jun 2027 10:29:34.868             7.999          3999.500
        20   01 Jun 2027 10:29:56.653   01 Jun 2027 10:30:05.679             9.026          4513.000
        21   01 Jun 2027 10:31:26.723   01 Jun 2027 10:31:28.927             2.204          1102.000
        22   01 Jun 2027 10:31:35.636   01 Jun 2027 10:31:46.178            10.542          5271.000
        23   02 Jun 2027 04:13:34.999   02 Jun 2027 04:14:03.565            28.566         14283.000
        24   02 Jun 2027 04:14:19.653   02 Jun 2027 04:14:29.900            10.247          5123.500
        25   02 Jun 2027 05:49:57.045   02 Jun 2027 05:52:47.694           170.649         85324.500
        26   02 Jun 2027 07:23:26.248   02 Jun 2027 07:27:04.002           217.754        108877.000
        27   02 Jun 2027 07:27:53.343   02 Jun 2027 07:28:15.013            21.670         10835.000
        28   02 Jun 2027 07:31:55.145   02 Jun 2027 07:31:57.074             1.929           964.500
        29   02 Jun 2027 09:00:57.990   02 Jun 2027 09:04:41.092           223.102        111551.000
        30   02 Jun 2027 10:37:53.123   02 Jun 2027 10:38:22.396            29.273         13908.905
        31   02 Jun 2027 10:38:52.189   02 Jun 2027 10:38:56.049             3.860           353.813
        32   02 Jun 2027 10:39:49.224   02 Jun 2027 10:39:53.782             4.558           189.937
        33   02 Jun 2027 10:41:14.454   02 Jun 2027 10:41:19.361             4.907           996.219
        34   02 Jun 2027 10:41:21.087   02 Jun 2027 10:41:21.160             0.073            32.469
        35   02 Jun 2027 10:41:36.497   02 Jun 2027 10:41:37.155             0.658           324.187
        36   02 Jun 2027 10:42:11.773   02 Jun 2027 10:42:16.590             4.817          1081.812
        37   02 Jun 2027 10:43:14.845   02 Jun 2027 10:43:19.721             4.876          1487.813
        38   02 Jun 2027 10:43:33.301   02 Jun 2027 10:43:33.900             0.599            30.906
        39   03 Jun 2027 03:01:49.769   03 Jun 2027 03:02:07.225            17.456          8728.000
        40   03 Jun 2027 03:02:27.294   03 Jun 2027 03:02:48.224            20.930         10465.000
        41   03 Jun 2027 03:04:10.017   03 Jun 2027 03:04:12.312             2.295          1147.500
        42   03 Jun 2027 03:04:48.165   03 Jun 2027 03:05:26.980            38.815         19407.500
        43   03 Jun 2027 04:25:25.966   03 Jun 2027 04:26:14.266            48.300         24150.000
        44   03 Jun 2027 04:26:32.210   03 Jun 2027 04:26:38.381             6.171          3085.500
        45   03 Jun 2027 04:26:44.218   03 Jun 2027 04:26:57.446            13.228          6614.000
        46   03 Jun 2027 06:01:58.772   03 Jun 2027 06:05:00.413           181.641         90820.500
        47   03 Jun 2027 07:36:27.870   03 Jun 2027 07:36:49.808            21.938         10143.406
        48   03 Jun 2027 07:37:23.999   03 Jun 2027 07:37:28.831             4.832           938.594
        49   03 Jun 2027 07:37:53.510   03 Jun 2027 07:37:55.500             1.990           379.531
        50   03 Jun 2027 07:38:35.967   03 Jun 2027 07:38:41.862             5.895           961.312
        51   03 Jun 2027 07:39:16.288   03 Jun 2027 07:39:19.423             3.135          1075.813
        52   03 Jun 2027 07:40:29.149   03 Jun 2027 07:40:32.542             3.393           502.281
        53   03 Jun 2027 07:41:09.423   03 Jun 2027 07:41:11.211             1.788           763.937
        54   03 Jun 2027 07:42:25.055   03 Jun 2027 07:42:30.247             5.192          2207.375
        55   03 Jun 2027 07:42:55.255   03 Jun 2027 07:42:57.889             2.634           611.906
        56   03 Jun 2027 07:43:44.864   03 Jun 2027 07:43:46.013             1.149           571.781
        57   03 Jun 2027 09:13:05.376   03 Jun 2027 09:13:19.804            14.428          5458.813
        58   03 Jun 2027 09:16:56.420   03 Jun 2027 09:16:58.518             2.098           397.281
        59   03 Jun 2027 09:18:01.226   03 Jun 2027 09:18:06.305             5.079          1184.563
        60   03 Jun 2027 09:19:20.613   03 Jun 2027 09:19:23.993             3.380           754.781
        61   03 Jun 2027 10:50:46.990   03 Jun 2027 10:50:58.587            11.597          5797.625
        62   03 Jun 2027 10:52:23.637   03 Jun 2027 10:52:27.476             3.839          1257.500
        63   03 Jun 2027 10:53:08.541   03 Jun 2027 10:53:10.323             1.782           287.594
        64   03 Jun 2027 10:53:44.088   03 Jun 2027 10:53:45.517             1.429           162.406
        65   03 Jun 2027 10:54:06.000   03 Jun 2027 10:54:08.115             2.115           181.437
        66   03 Jun 2027 10:54:56.752   03 Jun 2027 10:55:05.340             8.588          1185.094
        67   04 Jun 2027 03:14:15.355   04 Jun 2027 03:14:41.329            25.974         12987.000
        68   04 Jun 2027 03:15:02.889   04 Jun 2027 03:16:04.313            61.424         30712.000
        69   04 Jun 2027 03:16:36.764   04 Jun 2027 03:17:25.343            48.579         24289.500
        70   04 Jun 2027 03:17:32.614   04 Jun 2027 03:17:49.447            16.833          8416.500
        71   04 Jun 2027 04:37:36.302   04 Jun 2027 04:38:20.296            43.994         21997.000
        72   04 Jun 2027 04:39:12.863   04 Jun 2027 04:39:31.338            18.475          9237.500
        73   04 Jun 2027 04:39:37.927   04 Jun 2027 04:40:04.044            26.117         13058.500
        74   04 Jun 2027 06:14:07.853   04 Jun 2027 06:15:29.691            81.838         39696.750
        75   04 Jun 2027 06:16:04.702   04 Jun 2027 06:16:06.777             2.075          1003.094
        76   04 Jun 2027 06:16:29.285   04 Jun 2027 06:16:30.007             0.722           327.281
        77   04 Jun 2027 06:16:42.479   04 Jun 2027 06:16:44.061             1.582           389.750
        78   04 Jun 2027 06:17:27.539   04 Jun 2027 06:17:31.392             3.853           664.562
        79   04 Jun 2027 07:49:16.995   04 Jun 2027 07:49:26.144             9.149          2234.812
        80   04 Jun 2027 07:50:27.808   04 Jun 2027 07:50:31.128             3.320          1413.625
        81   04 Jun 2027 07:50:43.149   04 Jun 2027 07:50:46.653             3.504           117.813
        82   04 Jun 2027 07:52:10.161   04 Jun 2027 07:52:14.892             4.731          2278.844
        83   04 Jun 2027 07:52:41.334   04 Jun 2027 07:52:43.294             1.960           826.312
        84   04 Jun 2027 07:53:14.549   04 Jun 2027 07:53:14.549             0.000             0.000
        85   04 Jun 2027 07:54:25.252   04 Jun 2027 07:54:35.194             9.942          3055.281
        86   04 Jun 2027 07:55:28.252   04 Jun 2027 07:55:35.888             7.636          1542.625
        87   04 Jun 2027 07:55:43.709   04 Jun 2027 07:55:44.422             0.713           244.406
        88   04 Jun 2027 09:25:40.533   04 Jun 2027 09:25:56.072            15.539          7109.062
        89   04 Jun 2027 09:27:12.431   04 Jun 2027 09:27:16.109             3.678          1823.562
        90   04 Jun 2027 09:27:45.477   04 Jun 2027 09:27:50.806             5.329           516.344
        91   04 Jun 2027 09:28:15.174   04 Jun 2027 09:28:16.134             0.960            45.094
        92   04 Jun 2027 09:28:49.641   04 Jun 2027 09:28:53.440             3.799           908.750
        93   04 Jun 2027 09:30:24.081   04 Jun 2027 09:30:27.576             3.495          1632.219
        94   04 Jun 2027 09:30:49.426   04 Jun 2027 09:30:53.200             3.774           591.344
        95   04 Jun 2027 09:31:52.704   04 Jun 2027 09:31:52.705             0.001             0.500
        96   04 Jun 2027 11:02:54.487   04 Jun 2027 11:03:04.963            10.476          4821.844
        97   04 Jun 2027 11:04:23.921   04 Jun 2027 11:04:27.311             3.390           375.281
        98   04 Jun 2027 11:05:18.352   04 Jun 2027 11:05:22.129             3.777            68.406
        99   04 Jun 2027 11:05:40.875   04 Jun 2027 11:05:42.943             2.068            26.781
       100   04 Jun 2027 11:05:46.143   04 Jun 2027 11:05:47.094             0.951            90.094
       101   04 Jun 2027 11:06:48.960   04 Jun 2027 11:07:08.827            19.867          1276.187
       102   04 Jun 2027 11:07:21.251   04 Jun 2027 11:07:22.704             1.453           388.250
       103   04 Jun 2027 11:07:31.346   04 Jun 2027 11:07:33.064             1.718           270.063
       104   05 Jun 2027 03:26:10.542   05 Jun 2027 03:26:48.281            37.739         18869.500
       105   05 Jun 2027 03:27:18.061   05 Jun 2027 03:27:55.532            37.471         18735.500
       106   05 Jun 2027 03:28:25.221   05 Jun 2027 03:28:53.887            28.666         14333.000
       107   05 Jun 2027 03:29:11.819   05 Jun 2027 03:29:46.606            34.787         17393.500
       108   05 Jun 2027 04:50:13.206   05 Jun 2027 04:51:11.237            58.031         29015.500
       109   05 Jun 2027 06:26:01.081   05 Jun 2027 06:27:31.091            90.010         44579.062
       110   05 Jun 2027 06:27:59.351   05 Jun 2027 06:28:02.431             3.080           653.969
       111   05 Jun 2027 06:28:16.386   05 Jun 2027 06:28:16.700             0.314           134.938
       112   05 Jun 2027 06:28:20.029   05 Jun 2027 06:28:20.029             0.000             0.000
       113   05 Jun 2027 06:28:37.615   05 Jun 2027 06:28:39.078             1.463           653.594
       114   05 Jun 2027 06:28:44.345   05 Jun 2027 06:28:45.542             1.197            98.969
       115   05 Jun 2027 06:29:30.810   05 Jun 2027 06:29:35.152             4.342           564.594
       116   05 Jun 2027 08:00:58.658   05 Jun 2027 08:01:07.733             9.075          1974.000
       117   05 Jun 2027 08:01:32.913   05 Jun 2027 08:01:36.973             4.060           163.063
       118   05 Jun 2027 08:02:22.664   05 Jun 2027 08:02:25.630             2.966            83.438
       119   05 Jun 2027 08:02:44.039   05 Jun 2027 08:02:44.746             0.707            40.062
       120   05 Jun 2027 08:03:48.936   05 Jun 2027 08:03:49.811             0.875           297.656
       121   05 Jun 2027 08:04:02.744   05 Jun 2027 08:04:04.239             1.495           385.938
       122   05 Jun 2027 08:04:49.759   05 Jun 2027 08:04:55.484             5.725          1365.531
       123   05 Jun 2027 08:05:22.678   05 Jun 2027 08:05:27.224             4.546           833.562
       124   05 Jun 2027 08:05:43.603   05 Jun 2027 08:05:44.873             1.270           422.531
       125   05 Jun 2027 08:06:47.096   05 Jun 2027 08:06:51.258             4.162           763.812
       126   05 Jun 2027 08:07:06.525   05 Jun 2027 08:07:10.979             4.454           459.031
       127   05 Jun 2027 08:07:48.066   05 Jun 2027 08:07:49.881             1.815           872.125
       128   05 Jun 2027 09:37:12.311   05 Jun 2027 09:37:23.842            11.531          5486.906
       129   05 Jun 2027 09:39:17.788   05 Jun 2027 09:39:20.925             3.137          1462.219
       130   05 Jun 2027 09:40:42.263   05 Jun 2027 09:40:45.623             3.360           912.500
       131   05 Jun 2027 09:40:59.057   05 Jun 2027 09:41:03.090             4.033           244.000
       132   05 Jun 2027 09:42:20.697   05 Jun 2027 09:42:27.753             7.056          1378.281
       133   05 Jun 2027 09:42:45.485   05 Jun 2027 09:42:47.569             2.084           468.656
       134   05 Jun 2027 11:15:32.425   05 Jun 2027 11:15:46.033            13.608          6107.031
       135   05 Jun 2027 11:16:31.716   05 Jun 2027 11:16:34.775             3.059           334.125
       136   05 Jun 2027 11:17:43.655   05 Jun 2027 11:17:44.164             0.509           241.500
       137   05 Jun 2027 11:17:56.978   05 Jun 2027 11:17:58.839             1.861           305.906
       138   05 Jun 2027 11:18:14.481   05 Jun 2027 11:18:16.542             2.061           433.375
       139   05 Jun 2027 11:19:05.795   05 Jun 2027 11:19:10.278             4.483          1368.313
       140   05 Jun 2027 11:19:19.103   05 Jun 2027 11:19:20.248             1.145           198.188
       141   06 Jun 2027 03:26:58.821   06 Jun 2027 03:27:02.054             3.233          1616.500
       142   06 Jun 2027 03:38:06.656   06 Jun 2027 03:39:49.285           102.629         51314.500
       143   06 Jun 2027 03:40:03.473   06 Jun 2027 03:41:25.836            82.363         41181.500
       144   06 Jun 2027 05:01:03.512   06 Jun 2027 05:01:21.455            17.943          8971.500
       145   06 Jun 2027 05:02:16.076   06 Jun 2027 05:02:33.581            17.505          8752.500
       146   06 Jun 2027 06:36:23.265   06 Jun 2027 06:36:48.903            25.638         12819.000
       147   06 Jun 2027 06:37:46.036   06 Jun 2027 06:38:47.827            61.791         28588.469
       148   06 Jun 2027 06:39:21.045   06 Jun 2027 06:39:31.621            10.576          1038.063
       149   06 Jun 2027 06:39:57.446   06 Jun 2027 06:39:58.879             1.433           455.469
       150   06 Jun 2027 06:40:34.992   06 Jun 2027 06:40:34.992             0.000             0.000
       151   06 Jun 2027 06:40:37.911   06 Jun 2027 06:40:40.092             2.181           931.625
       152   06 Jun 2027 06:41:07.382   06 Jun 2027 06:41:09.260             1.878           619.125
       153   06 Jun 2027 06:41:55.118   06 Jun 2027 06:41:58.455             3.337          1270.188
       154   06 Jun 2027 08:12:31.678   06 Jun 2027 08:12:36.663             4.985          1841.281
       155   06 Jun 2027 08:13:32.232   06 Jun 2027 08:13:39.414             7.182           799.656
       156   06 Jun 2027 08:14:37.871   06 Jun 2027 08:14:40.671             2.800           938.906
       157   06 Jun 2027 08:15:25.043   06 Jun 2027 08:15:27.873             2.830          1268.156
       158   06 Jun 2027 08:15:55.483   06 Jun 2027 08:16:00.474             4.991            85.250
       159   06 Jun 2027 08:16:51.777   06 Jun 2027 08:17:03.354            11.577          1603.219
       160   06 Jun 2027 08:18:23.819   06 Jun 2027 08:18:30.100             6.281          1921.156
       161   06 Jun 2027 08:19:30.564   06 Jun 2027 08:19:37.553             6.989          1780.625
       162   06 Jun 2027 09:49:34.065   06 Jun 2027 09:49:45.813            11.748          5121.563
       163   06 Jun 2027 09:52:32.668   06 Jun 2027 09:52:36.289             3.621          1133.094
       164   06 Jun 2027 09:52:59.897   06 Jun 2027 09:53:02.904             3.007           560.969
       165   06 Jun 2027 09:53:16.795   06 Jun 2027 09:53:17.636             0.841            59.344
       166   06 Jun 2027 09:54:10.416   06 Jun 2027 09:54:14.059             3.643           986.250
       167   06 Jun 2027 09:54:15.142   06 Jun 2027 09:54:15.949             0.807            33.844
       168   06 Jun 2027 09:54:23.174   06 Jun 2027 09:54:25.515             2.341           225.781
       169   06 Jun 2027 09:54:53.182   06 Jun 2027 09:54:55.908             2.726           780.594
       170   06 Jun 2027 09:55:40.718   06 Jun 2027 09:55:41.656             0.938           356.156
       171   06 Jun 2027 11:27:33.728   06 Jun 2027 11:27:50.243            16.515          6828.375
       172   06 Jun 2027 11:28:28.804   06 Jun 2027 11:28:34.061             5.257           857.844
       173   06 Jun 2027 11:29:52.910   06 Jun 2027 11:29:55.434             2.524           397.437
       174   06 Jun 2027 11:31:21.747   06 Jun 2027 11:31:24.755             3.008          1442.500
       175   07 Jun 2027 03:38:26.194   07 Jun 2027 03:38:42.700            16.506          8253.000
       176   07 Jun 2027 03:50:08.584   07 Jun 2027 03:51:27.693            79.109         39554.500
       177   07 Jun 2027 05:12:21.526   07 Jun 2027 05:13:34.038            72.512         36256.000
       178   07 Jun 2027 05:14:23.210   07 Jun 2027 05:15:14.556            51.346         25673.000
       179   07 Jun 2027 05:16:40.546   07 Jun 2027 05:16:40.546             0.000             0.000
       180   07 Jun 2027 06:47:27.814   07 Jun 2027 06:48:57.293            89.479         44739.500
       181   07 Jun 2027 06:49:29.928   07 Jun 2027 06:49:41.274            11.346          2323.000
       182   07 Jun 2027 06:51:08.708   07 Jun 2027 06:51:13.734             5.026          2409.250
       183   07 Jun 2027 06:51:18.506   07 Jun 2027 06:51:19.225             0.719           108.250
       184   07 Jun 2027 06:52:32.214   07 Jun 2027 06:52:32.214             0.000             0.000
       185   07 Jun 2027 06:52:50.742   07 Jun 2027 06:52:56.075             5.333          2548.469
       186   07 Jun 2027 06:53:16.100   07 Jun 2027 06:53:21.536             5.436           550.281
       187   07 Jun 2027 06:53:40.440   07 Jun 2027 06:53:40.440             0.000             0.000
       188   07 Jun 2027 06:53:53.495   07 Jun 2027 06:53:54.792             1.297           488.469
       189   07 Jun 2027 06:54:14.155   07 Jun 2027 06:54:15.823             1.668           387.500
       190   07 Jun 2027 08:24:43.304   07 Jun 2027 08:24:49.848             6.544          1820.750
       191   07 Jun 2027 08:25:34.012   07 Jun 2027 08:25:36.362             2.350           912.156
       192   07 Jun 2027 08:27:44.983   07 Jun 2027 08:27:52.341             7.358          1740.594
       193   07 Jun 2027 08:28:00.787   07 Jun 2027 08:28:02.436             1.649           244.125
       194   07 Jun 2027 08:28:13.051   07 Jun 2027 08:28:14.829             1.778           121.719
       195   07 Jun 2027 08:28:53.491   07 Jun 2027 08:28:57.158             3.667          1208.187
       196   07 Jun 2027 08:29:46.770   07 Jun 2027 08:29:50.629             3.859           619.063
       197   07 Jun 2027 08:30:26.824   07 Jun 2027 08:30:28.508             1.684           738.219
       198   07 Jun 2027 08:31:02.834   07 Jun 2027 08:31:05.228             2.394           501.937
       199   07 Jun 2027 08:32:07.182   07 Jun 2027 08:32:07.591             0.409           204.500
       200   07 Jun 2027 10:01:37.439   07 Jun 2027 10:01:50.821            13.382          6587.563
       201   07 Jun 2027 10:04:21.500   07 Jun 2027 10:04:27.538             6.038           911.750
       202   07 Jun 2027 10:04:39.990   07 Jun 2027 10:04:42.582             2.592           389.125
       203   07 Jun 2027 10:05:00.198   07 Jun 2027 10:05:00.959             0.761           303.813
       204   07 Jun 2027 10:05:24.696   07 Jun 2027 10:05:25.629             0.933           455.719
       205   07 Jun 2027 10:05:44.609   07 Jun 2027 10:05:46.198             1.589           311.219
       206   07 Jun 2027 10:05:58.717   07 Jun 2027 10:05:59.150             0.433           161.969
       207   07 Jun 2027 10:06:09.518   07 Jun 2027 10:06:12.007             2.489           250.500
       208   07 Jun 2027 10:06:47.111   07 Jun 2027 10:06:50.726             3.615           902.531
       209   07 Jun 2027 11:39:33.628   07 Jun 2027 11:39:46.967            13.339          5998.656
       210   07 Jun 2027 11:40:35.939   07 Jun 2027 11:40:38.907             2.968           802.125
       211   07 Jun 2027 11:40:56.104   07 Jun 2027 11:40:57.213             1.109           537.406
       212   07 Jun 2027 11:41:39.058   07 Jun 2027 11:41:44.686             5.628          1307.656
       213   07 Jun 2027 11:41:45.366   07 Jun 2027 11:41:46.331             0.965            21.250
       214   07 Jun 2027 11:42:46.415   07 Jun 2027 11:42:51.022             4.607          1510.156
       215   07 Jun 2027 11:43:09.683   07 Jun 2027 11:43:13.740             4.057           583.156
       216   07 Jun 2027 11:43:21.082   07 Jun 2027 11:43:22.337             1.255           229.437
       217   07 Jun 2027 11:43:28.386   07 Jun 2027 11:43:28.821             0.435           168.000
       218   08 Jun 2027 03:49:54.873   08 Jun 2027 03:50:12.019            17.146          8573.000
       219   08 Jun 2027 03:50:21.684   08 Jun 2027 03:50:21.684             0.000             0.000
       220   08 Jun 2027 03:50:43.347   08 Jun 2027 03:51:08.439            25.092         12546.000
       221   08 Jun 2027 04:02:05.300   08 Jun 2027 04:02:43.606            38.306         19153.000
       222   08 Jun 2027 05:24:06.918   08 Jun 2027 05:25:27.464            80.546         40273.000
       223   08 Jun 2027 05:26:09.535   08 Jun 2027 05:27:26.930            77.395         38697.500
       224   08 Jun 2027 05:28:18.568   08 Jun 2027 05:28:36.941            18.373          9186.500
       225   08 Jun 2027 06:58:57.079   08 Jun 2027 07:00:06.610            69.531         34520.781
       226   08 Jun 2027 07:00:47.526   08 Jun 2027 07:00:51.052             3.526          1208.437
       227   08 Jun 2027 07:01:26.247   08 Jun 2027 07:01:29.790             3.543          1099.844
       228   08 Jun 2027 07:02:09.908   08 Jun 2027 07:02:09.908             0.000             0.000
       229   08 Jun 2027 07:03:09.040   08 Jun 2027 07:03:18.054             9.014          3100.813
       230   08 Jun 2027 07:05:17.592   08 Jun 2027 07:05:19.168             1.576           788.000
       231   08 Jun 2027 07:06:19.456   08 Jun 2027 07:06:34.672            15.216          4825.406
       232   08 Jun 2027 07:06:43.672   08 Jun 2027 07:06:47.446             3.774           172.500
       233   08 Jun 2027 07:07:33.573   08 Jun 2027 07:07:36.401             2.828          1410.812
       234   08 Jun 2027 08:36:43.682   08 Jun 2027 08:36:48.838             5.156          2289.469
       235   08 Jun 2027 08:37:38.330   08 Jun 2027 08:37:42.245             3.915           979.062
       236   08 Jun 2027 08:38:30.698   08 Jun 2027 08:38:31.150             0.452            94.594
       237   08 Jun 2027 08:38:52.384   08 Jun 2027 08:38:52.384             0.000             0.000
       238   08 Jun 2027 08:39:39.478   08 Jun 2027 08:39:44.487             5.009          1747.062
       239   08 Jun 2027 08:40:59.891   08 Jun 2027 08:41:06.435             6.544           692.406
       240   08 Jun 2027 08:42:26.912   08 Jun 2027 08:42:34.840             7.928           958.531
       241   08 Jun 2027 08:42:51.287   08 Jun 2027 08:42:52.761             1.474           276.688
       242   08 Jun 2027 08:43:11.701   08 Jun 2027 08:43:17.539             5.838           591.875
       243   08 Jun 2027 08:43:30.878   08 Jun 2027 08:43:33.006             2.128           300.906
       244   08 Jun 2027 08:43:58.482   08 Jun 2027 08:43:59.715             1.233           448.062
       245   08 Jun 2027 08:44:04.400   08 Jun 2027 08:44:05.707             1.307            46.625
       246   08 Jun 2027 08:44:06.330   08 Jun 2027 08:44:08.967             2.637            19.469
       247   08 Jun 2027 10:13:28.843   08 Jun 2027 10:13:42.148            13.305          6624.469
       248   08 Jun 2027 10:14:33.157   08 Jun 2027 10:14:36.526             3.369          1315.375
       249   08 Jun 2027 10:16:18.486   08 Jun 2027 10:16:19.891             1.405            91.938
       250   08 Jun 2027 10:17:05.559   08 Jun 2027 10:17:11.139             5.580          1306.750
       251   08 Jun 2027 10:17:42.507   08 Jun 2027 10:17:43.165             0.658           298.219
       252   08 Jun 2027 10:18:00.967   08 Jun 2027 10:18:02.847             1.880           408.625
       253   08 Jun 2027 10:18:26.326   08 Jun 2027 10:18:28.663             2.337           181.125
       254   08 Jun 2027 10:18:50.824   08 Jun 2027 10:18:52.858             2.034             7.719
       255   08 Jun 2027 10:19:48.780   08 Jun 2027 10:19:52.771             3.991          1747.562
       256   08 Jun 2027 11:51:34.339   08 Jun 2027 11:51:43.807             9.468          4683.750
       257   08 Jun 2027 11:53:42.472   08 Jun 2027 11:53:44.163             1.691           489.594
       258   08 Jun 2027 11:54:25.664   08 Jun 2027 11:54:30.710             5.046           715.750
       259   09 Jun 2027 04:01:56.026   09 Jun 2027 04:02:35.978            39.952         19976.000
       260   09 Jun 2027 05:37:54.063   09 Jun 2027 05:41:08.032           193.969         96984.500
       261   09 Jun 2027 07:11:43.293   09 Jun 2027 07:13:09.775            86.482         42197.813
       262   09 Jun 2027 07:13:46.520   09 Jun 2027 07:13:53.675             7.155           798.250
       263   09 Jun 2027 07:14:22.846   09 Jun 2027 07:14:23.548             0.702           238.156
       264   09 Jun 2027 07:14:47.416   09 Jun 2027 07:14:49.382             1.966           730.063
       265   09 Jun 2027 07:16:31.809   09 Jun 2027 07:16:39.272             7.463          3025.500
       266   09 Jun 2027 07:17:37.792   09 Jun 2027 07:17:44.808             7.016          1280.500
       267   09 Jun 2027 07:18:46.779   09 Jun 2027 07:18:50.677             3.898          1820.656
       268   09 Jun 2027 08:48:47.906   09 Jun 2027 08:49:01.721            13.815          6385.844
       269   09 Jun 2027 08:49:45.287   09 Jun 2027 08:49:47.620             2.333           260.188
       270   09 Jun 2027 08:51:29.300   09 Jun 2027 08:51:31.841             2.541          1061.219
       271   09 Jun 2027 08:52:55.791   09 Jun 2027 08:53:04.460             8.669          2483.969
       272   09 Jun 2027 08:53:30.311   09 Jun 2027 08:53:31.926             1.615           130.531
       273   09 Jun 2027 08:54:03.926   09 Jun 2027 08:54:04.449             0.523           237.062
       274   09 Jun 2027 08:54:25.315   09 Jun 2027 08:54:32.722             7.407           652.062
       275   09 Jun 2027 08:55:35.065   09 Jun 2027 08:55:39.645             4.580          1818.500
       276   09 Jun 2027 08:55:48.817   09 Jun 2027 08:55:49.791             0.974            91.719
       277   09 Jun 2027 10:25:46.974   09 Jun 2027 10:26:02.759            15.785          6478.625
       278   09 Jun 2027 10:27:04.171   09 Jun 2027 10:27:06.139             1.968           863.094
       279   09 Jun 2027 10:28:38.637   09 Jun 2027 10:28:41.546             2.909           257.313
       280   09 Jun 2027 10:29:54.267   09 Jun 2027 10:29:57.765             3.498           785.625
       281   09 Jun 2027 10:30:22.012   09 Jun 2027 10:30:23.288             1.276           164.437
       282   09 Jun 2027 10:30:42.303   09 Jun 2027 10:30:43.674             1.371           594.219
       283   09 Jun 2027 10:31:50.570   09 Jun 2027 10:31:53.036             2.466           159.531
       284   10 Jun 2027 04:13:50.347   10 Jun 2027 04:14:34.544            44.197         22098.500
       285   10 Jun 2027 05:50:13.170   10 Jun 2027 05:52:56.450           163.280         81640.000
       286   10 Jun 2027 07:23:41.449   10 Jun 2027 07:25:19.891            98.442         49186.156
       287   10 Jun 2027 07:26:05.527   10 Jun 2027 07:26:10.851             5.324           392.406
       288   10 Jun 2027 07:26:50.809   10 Jun 2027 07:26:55.141             4.332          1066.875
       289   10 Jun 2027 07:27:25.523   10 Jun 2027 07:27:27.340             1.817           894.281
       290   10 Jun 2027 07:28:08.531   10 Jun 2027 07:28:10.505             1.974           299.031
       291   10 Jun 2027 07:28:33.407   10 Jun 2027 07:28:35.151             1.744           382.875
       292   10 Jun 2027 07:29:01.623   10 Jun 2027 07:29:06.211             4.588            61.406
       293   10 Jun 2027 07:30:44.229   10 Jun 2027 07:30:50.380             6.151          2633.531
       294   10 Jun 2027 07:31:29.106   10 Jun 2027 07:31:32.327             3.221          1210.188
       295   10 Jun 2027 07:32:10.430   10 Jun 2027 07:32:12.461             2.031           838.906
       296   10 Jun 2027 09:01:14.934   10 Jun 2027 09:01:27.522            12.588          5988.500
       297   10 Jun 2027 09:05:50.917   10 Jun 2027 09:05:57.246             6.329          1698.563
       298   10 Jun 2027 09:06:22.503   10 Jun 2027 09:06:23.665             1.162           340.656
       299   10 Jun 2027 09:07:14.823   10 Jun 2027 09:07:21.326             6.503          1016.812
       300   10 Jun 2027 09:07:49.848   10 Jun 2027 09:07:51.995             2.147           869.531
       301   10 Jun 2027 10:38:08.726   10 Jun 2027 10:38:31.240            22.514          7522.219
       302   10 Jun 2027 10:39:08.796   10 Jun 2027 10:39:10.705             1.909           421.250
       303   10 Jun 2027 10:40:31.385   10 Jun 2027 10:40:35.382             3.997          1034.281
       304   10 Jun 2027 10:41:21.570   10 Jun 2027 10:41:24.569             2.999          1418.125
       305   10 Jun 2027 10:42:09.682   10 Jun 2027 10:42:12.933             3.251          1365.406
       306   10 Jun 2027 10:42:48.488   10 Jun 2027 10:42:51.490             3.002           808.844
       307   10 Jun 2027 10:43:01.183   10 Jun 2027 10:43:03.527             2.344            66.844
       308   10 Jun 2027 10:43:32.629   10 Jun 2027 10:43:36.382             3.753           551.219
       309   10 Jun 2027 10:43:49.810   10 Jun 2027 10:43:50.450             0.640            81.094
       310   11 Jun 2027 03:02:42.416   11 Jun 2027 03:03:25.417            43.001         21500.500
       311   11 Jun 2027 03:04:42.660   11 Jun 2027 03:04:48.187             5.527          2763.500
       312   11 Jun 2027 03:05:41.606   11 Jun 2027 03:05:51.368             9.762          4881.000
       313   11 Jun 2027 03:06:00.949   11 Jun 2027 03:06:05.779             4.830          2415.000
       314   11 Jun 2027 03:06:38.893   11 Jun 2027 03:06:43.862             4.969          2484.500
       315   11 Jun 2027 04:25:39.574   11 Jun 2027 04:26:25.413            45.839         22919.500
       316   11 Jun 2027 04:26:48.986   11 Jun 2027 04:26:53.657             4.671          2335.500
       317   11 Jun 2027 04:26:59.156   11 Jun 2027 04:27:11.549            12.393          6196.500
       318   11 Jun 2027 06:02:14.625   11 Jun 2027 06:05:15.999           181.374         90687.000
       319   11 Jun 2027 07:36:57.425   11 Jun 2027 07:37:15.292            17.867          8146.250
       320   11 Jun 2027 07:38:08.434   11 Jun 2027 07:38:14.857             6.423           324.719
       321   11 Jun 2027 07:38:30.164   11 Jun 2027 07:38:31.727             1.563           264.094
       322   11 Jun 2027 07:38:58.525   11 Jun 2027 07:38:58.840             0.315           134.406
       323   11 Jun 2027 07:40:28.664   11 Jun 2027 07:40:32.978             4.314          1738.500
       324   11 Jun 2027 07:41:02.345   11 Jun 2027 07:41:03.860             1.515           526.719
       325   11 Jun 2027 07:41:45.868   11 Jun 2027 07:41:50.393             4.525           786.031
       326   11 Jun 2027 07:42:53.667   11 Jun 2027 07:42:58.822             5.155           384.969
       327   11 Jun 2027 07:43:43.266   11 Jun 2027 07:43:45.379             2.113           986.688
       328   11 Jun 2027 07:44:05.558   11 Jun 2027 07:44:07.708             2.150           127.437
       329   11 Jun 2027 09:13:21.165   11 Jun 2027 09:13:35.886            14.721          5140.875
       330   11 Jun 2027 09:17:39.878   11 Jun 2027 09:17:42.521             2.643           987.719
       331   11 Jun 2027 09:18:41.002   11 Jun 2027 09:18:45.421             4.419          1827.531
       332   11 Jun 2027 09:19:35.548   11 Jun 2027 09:19:39.210             3.662           734.312
       333   11 Jun 2027 10:51:03.737   11 Jun 2027 10:51:14.287            10.550          5146.656
       334   11 Jun 2027 10:51:58.813   11 Jun 2027 10:52:02.186             3.373          1311.469
       335   11 Jun 2027 10:53:13.675   11 Jun 2027 10:53:16.262             2.587           378.250
       336   11 Jun 2027 10:54:18.646   11 Jun 2027 10:54:26.802             8.156          1922.719
       337   11 Jun 2027 10:55:02.247   11 Jun 2027 10:55:04.276             2.029           736.531
       338   12 Jun 2027 03:15:18.136   12 Jun 2027 03:17:09.885           111.749         55874.500
       339   12 Jun 2027 03:17:32.366   12 Jun 2027 03:17:48.105            15.739          7869.500
       340   12 Jun 2027 04:37:51.551   12 Jun 2027 04:38:35.176            43.625         21812.500
       341   12 Jun 2027 04:39:27.854   12 Jun 2027 04:40:18.585            50.731         25365.500
       342   12 Jun 2027 06:14:23.409   12 Jun 2027 06:15:53.255            89.846         44519.281
       343   12 Jun 2027 06:16:21.987   12 Jun 2027 06:16:21.987             0.000             0.000
       344   12 Jun 2027 06:16:54.966   12 Jun 2027 06:16:57.456             2.490          1038.531
       345   12 Jun 2027 06:16:58.528   12 Jun 2027 06:16:58.528             0.000             0.000
       346   12 Jun 2027 06:17:21.944   12 Jun 2027 06:17:28.256             6.312           765.250
       347   12 Jun 2027 07:49:32.705   12 Jun 2027 07:49:45.524            12.819          1970.969
       348   12 Jun 2027 07:50:44.464   12 Jun 2027 07:50:48.242             3.778          1470.656
       349   12 Jun 2027 07:50:59.787   12 Jun 2027 07:51:04.751             4.964            67.500
       350   12 Jun 2027 07:51:43.294   12 Jun 2027 07:51:45.267             1.973           924.531
       351   12 Jun 2027 07:52:31.417   12 Jun 2027 07:52:32.150             0.733           178.562
       352   12 Jun 2027 07:53:04.832   12 Jun 2027 07:53:12.296             7.464           291.250
       353   12 Jun 2027 07:53:39.006   12 Jun 2027 07:53:44.521             5.515           469.031
       354   12 Jun 2027 07:54:22.748   12 Jun 2027 07:54:31.499             8.751           683.375
       355   12 Jun 2027 07:55:25.441   12 Jun 2027 07:55:28.980             3.539          1461.875
       356   12 Jun 2027 07:56:08.209   12 Jun 2027 07:56:09.689             1.480           740.000
       357   12 Jun 2027 09:25:57.026   12 Jun 2027 09:26:11.322            14.296          5306.812
       358   12 Jun 2027 09:29:02.770   12 Jun 2027 09:29:04.563             1.793           250.500
       359   12 Jun 2027 09:30:12.313   12 Jun 2027 09:30:18.328             6.015          2093.219
       360   12 Jun 2027 09:30:46.392   12 Jun 2027 09:30:52.171             5.779           724.594
       361   12 Jun 2027 09:31:26.935   12 Jun 2027 09:31:29.475             2.540           826.906
       362   12 Jun 2027 11:03:10.140   12 Jun 2027 11:03:24.232            14.092          6984.844
       363   12 Jun 2027 11:05:34.418   12 Jun 2027 11:05:34.819             0.401            42.937
       364   12 Jun 2027 11:06:00.727   12 Jun 2027 11:06:03.476             2.749           473.500
       365   12 Jun 2027 11:07:03.746   12 Jun 2027 11:07:26.542            22.796          1164.656
       366   12 Jun 2027 11:07:36.075   12 Jun 2027 11:07:38.234             2.159           267.125
       367   12 Jun 2027 11:07:46.600   12 Jun 2027 11:07:47.186             0.586           225.563
       368   13 Jun 2027 03:26:25.896   13 Jun 2027 03:27:03.873            37.977         18988.500
       369   13 Jun 2027 03:27:33.257   13 Jun 2027 03:29:26.415           113.158         56579.000
       370   13 Jun 2027 03:29:29.136   13 Jun 2027 03:29:49.810            20.674         10337.000
       371   13 Jun 2027 04:50:27.684   13 Jun 2027 04:50:59.955            32.271         16135.500
       372   13 Jun 2027 06:26:16.288   13 Jun 2027 06:27:30.810            74.522         37261.000
       373   13 Jun 2027 06:27:41.865   13 Jun 2027 06:27:47.803             5.938          2232.874
       374   13 Jun 2027 06:28:33.183   13 Jun 2027 06:28:37.192             4.009          1186.406
       375   13 Jun 2027 06:29:30.036   13 Jun 2027 06:29:37.740             7.704          1651.375
       376   13 Jun 2027 06:30:03.772   13 Jun 2027 06:30:04.956             1.184           582.062
       377   13 Jun 2027 08:01:13.588   13 Jun 2027 08:01:17.427             3.839          1419.937
       378   13 Jun 2027 08:01:42.390   13 Jun 2027 08:01:44.022             1.632           780.094
       379   13 Jun 2027 08:03:00.647   13 Jun 2027 08:03:05.541             4.894          2209.562
       380   13 Jun 2027 08:03:56.462   13 Jun 2027 08:04:00.125             3.663          1417.969
       381   13 Jun 2027 08:04:05.680   13 Jun 2027 08:04:07.629             1.949            65.438
       382   13 Jun 2027 08:04:21.548   13 Jun 2027 08:04:22.031             0.483            65.344
       383   13 Jun 2027 08:05:34.311   13 Jun 2027 08:05:39.756             5.445           850.781
       384   13 Jun 2027 08:06:05.904   13 Jun 2027 08:06:07.369             1.465           651.688
       385   13 Jun 2027 08:07:03.567   13 Jun 2027 08:07:05.976             2.409           805.969
       386   13 Jun 2027 08:07:22.149   13 Jun 2027 08:07:26.895             4.746           490.719
       387   13 Jun 2027 08:08:03.119   13 Jun 2027 08:08:05.939             2.820           874.188
       388   13 Jun 2027 09:37:28.702   13 Jun 2027 09:37:42.111            13.409          5490.156
       389   13 Jun 2027 09:40:55.635   13 Jun 2027 09:40:57.945             2.310          1064.563
       390   13 Jun 2027 09:41:52.477   13 Jun 2027 09:42:01.014             8.537          1620.594
       391   13 Jun 2027 09:42:27.790   13 Jun 2027 09:42:31.365             3.575           734.781
       392   13 Jun 2027 09:43:01.357   13 Jun 2027 09:43:02.467             1.110           483.344
       393   13 Jun 2027 11:15:47.628   13 Jun 2027 11:16:07.645            20.017          5892.344
       394   13 Jun 2027 11:16:47.765   13 Jun 2027 11:16:48.766             1.001           348.656
       395   13 Jun 2027 11:18:04.825   13 Jun 2027 11:18:05.832             1.007           270.313
       396   13 Jun 2027 11:19:00.244   13 Jun 2027 11:19:02.008             1.764            50.375
       397   13 Jun 2027 11:19:35.471   13 Jun 2027 11:19:36.938             1.467           552.125
       398   13 Jun 2027 11:19:37.670   13 Jun 2027 11:19:37.741             0.071            22.875
