uniorb/output/strategy_4/Camera/Camera_KinoSat_110609.txt

KinoSat_110609
-------------------------
    Access    *     Start Time (UTCG)     *     Stop Time (UTCG)  *   Duration (s) *   Data (Mbytes)
         1   01 Jun 2027 03:03:17.403   01 Jun 2027 03:03:51.803            34.400         17200.000
         2   01 Jun 2027 03:04:13.851   01 Jun 2027 03:04:17.469             3.618          1809.000
         3   01 Jun 2027 03:04:28.931   01 Jun 2027 03:04:32.364             3.433          1716.500
         4   01 Jun 2027 03:05:25.031   01 Jun 2027 03:05:37.230            12.199          6099.500
         5   01 Jun 2027 03:06:10.503   01 Jun 2027 03:06:10.503             0.000             0.000
         6   01 Jun 2027 03:06:38.440   01 Jun 2027 03:06:51.088            12.648          6324.000
         7   01 Jun 2027 03:07:42.902   01 Jun 2027 03:07:42.902             0.000             0.000
         8   01 Jun 2027 03:07:58.223   01 Jun 2027 03:08:01.172             2.949          1474.500
         9   01 Jun 2027 04:38:09.981   01 Jun 2027 04:40:05.360           115.379         57689.500
        10   01 Jun 2027 04:40:32.174   01 Jun 2027 04:40:40.623             8.449          4224.500
        11   01 Jun 2027 04:42:44.381   01 Jun 2027 04:42:44.381             0.000             0.000
        12   01 Jun 2027 04:43:12.972   01 Jun 2027 04:43:24.691            11.719          5859.500
        13   01 Jun 2027 04:47:06.286   01 Jun 2027 04:47:18.040            11.754          5877.000
        14   01 Jun 2027 06:16:16.646   01 Jun 2027 06:18:23.186           126.540         63270.000
        15   01 Jun 2027 06:19:00.836   01 Jun 2027 06:19:15.096            14.260          7130.000
        16   01 Jun 2027 06:23:22.079   01 Jun 2027 06:23:26.879             4.800          2400.000
        17   01 Jun 2027 07:53:11.612   01 Jun 2027 07:53:36.780            25.168         12584.000
        18   01 Jun 2027 07:53:43.972   01 Jun 2027 07:55:03.036            79.064         39532.000
        19   01 Jun 2027 07:55:59.877   01 Jun 2027 07:56:42.065            42.188         21094.000
        20   01 Jun 2027 07:57:21.536   01 Jun 2027 07:57:25.726             4.190          2095.000
        21   01 Jun 2027 09:30:19.258   01 Jun 2027 09:33:32.378           193.120         96560.000
        22   01 Jun 2027 11:05:12.563   01 Jun 2027 11:06:15.171            62.608         31304.000
        23   01 Jun 2027 11:07:01.351   01 Jun 2027 11:08:37.825            96.474         48237.000
        24   02 Jun 2027 03:17:38.875   02 Jun 2027 03:18:06.177            27.302         13651.000
        25   02 Jun 2027 03:20:41.743   02 Jun 2027 03:20:52.138            10.395          5197.500
        26   02 Jun 2027 03:20:59.045   02 Jun 2027 03:21:10.951            11.906          5953.000
        27   02 Jun 2027 04:51:11.168   02 Jun 2027 04:53:41.781           150.613         75306.500
        28   02 Jun 2027 04:54:55.971   02 Jun 2027 04:55:11.070            15.099          7549.500
        29   02 Jun 2027 04:58:40.536   02 Jun 2027 04:58:40.802             0.266           133.000
        30   02 Jun 2027 04:59:42.757   02 Jun 2027 04:59:44.319             1.562           781.000
        31   02 Jun 2027 06:28:43.750   02 Jun 2027 06:32:21.287           217.537        108768.500
        32   02 Jun 2027 06:32:43.510   02 Jun 2027 06:33:18.205            34.695         17347.500
        33   02 Jun 2027 06:33:59.452   02 Jun 2027 06:34:02.195             2.743          1371.500
        34   02 Jun 2027 08:05:38.510   02 Jun 2027 08:08:44.026           185.516         92758.000
        35   02 Jun 2027 08:09:39.950   02 Jun 2027 08:10:07.719            27.769         13884.500
        36   02 Jun 2027 08:10:12.319   02 Jun 2027 08:10:12.562             0.243           121.500
        37   02 Jun 2027 08:11:06.361   02 Jun 2027 08:11:19.176            12.815          5791.439
        38   02 Jun 2027 09:42:33.156   02 Jun 2027 09:42:43.913            10.757          5304.375
        39   02 Jun 2027 09:45:01.804   02 Jun 2027 09:45:02.711             0.907            40.812
        40   02 Jun 2027 09:46:39.511   02 Jun 2027 09:46:44.107             4.596           113.563
        41   02 Jun 2027 11:19:42.440   02 Jun 2027 11:19:44.975             2.535            56.719
        42   03 Jun 2027 03:29:42.872   03 Jun 2027 03:29:52.740             9.868          4934.000
        43   03 Jun 2027 03:31:52.571   03 Jun 2027 03:32:01.143             8.572          4286.000
        44   03 Jun 2027 05:01:50.666   03 Jun 2027 05:02:01.402            10.736          5368.000
        45   03 Jun 2027 05:03:49.814   03 Jun 2027 05:04:52.331            62.517         31258.500
        46   03 Jun 2027 05:05:07.606   03 Jun 2027 05:05:33.032            25.426         12713.000
        47   03 Jun 2027 05:06:14.158   03 Jun 2027 05:06:19.816             5.658          2829.000
        48   03 Jun 2027 05:08:24.259   03 Jun 2027 05:10:06.087           101.828         50914.000
        49   03 Jun 2027 05:10:21.600   03 Jun 2027 05:10:29.334             7.734          3867.000
        50   03 Jun 2027 05:10:36.584   03 Jun 2027 05:10:37.745             1.161           580.500
        51   03 Jun 2027 05:10:40.944   03 Jun 2027 05:10:45.940             4.996          2498.000
        52   03 Jun 2027 05:11:11.873   03 Jun 2027 05:11:20.547             8.674          4337.000
        53   03 Jun 2027 05:11:38.063   03 Jun 2027 05:11:38.536             0.473           236.500
        54   03 Jun 2027 06:40:48.277   03 Jun 2027 06:42:01.240            72.963         34750.219
        55   03 Jun 2027 08:18:18.662   03 Jun 2027 08:18:23.498             4.836          1511.000
        56   03 Jun 2027 08:20:52.729   03 Jun 2027 08:20:55.084             2.355           631.094
        57   03 Jun 2027 08:21:08.947   03 Jun 2027 08:21:14.000             5.053            70.531
        58   03 Jun 2027 09:54:37.125   03 Jun 2027 09:54:45.099             7.974          3871.438
        59   03 Jun 2027 11:32:52.051   03 Jun 2027 11:32:52.667             0.616           121.719
        60   04 Jun 2027 03:41:52.803   04 Jun 2027 03:42:13.413            20.610         10305.000
        61   04 Jun 2027 03:42:27.717   04 Jun 2027 03:42:31.082             3.365          1682.500
        62   04 Jun 2027 03:43:19.466   04 Jun 2027 03:43:44.890            25.424         12712.000
        63   04 Jun 2027 05:17:03.778   04 Jun 2027 05:19:04.832           121.054         60527.000
        64   04 Jun 2027 05:19:55.693   04 Jun 2027 05:20:51.204            55.511         27755.500
        65   04 Jun 2027 05:21:32.744   04 Jun 2027 05:22:14.866            42.122         21061.000
        66   04 Jun 2027 05:22:18.772   04 Jun 2027 05:22:40.322            21.550         10775.000
        67   04 Jun 2027 05:23:38.721   04 Jun 2027 05:23:40.843             2.122          1061.000
        68   04 Jun 2027 06:53:22.745   04 Jun 2027 06:54:05.434            42.689         17908.187
        69   04 Jun 2027 08:30:45.837   04 Jun 2027 08:30:52.076             6.239          2506.781
        70   04 Jun 2027 10:06:55.041   04 Jun 2027 10:07:09.122            14.081          5864.781
        71   04 Jun 2027 10:08:41.113   04 Jun 2027 10:08:47.213             6.100           467.375
        72   05 Jun 2027 03:53:50.161   05 Jun 2027 03:54:19.830            29.669         14834.500
        73   05 Jun 2027 03:56:43.783   05 Jun 2027 03:56:43.783             0.000             0.000
        74   05 Jun 2027 05:28:54.541   05 Jun 2027 05:32:35.707           221.166        110583.000
        75   05 Jun 2027 05:35:23.437   05 Jun 2027 05:35:47.630            24.193         12096.500
        76   05 Jun 2027 07:05:00.083   05 Jun 2027 07:05:55.029            54.946         26056.250
        77   05 Jun 2027 07:09:49.601   05 Jun 2027 07:09:54.562             4.961            33.281
        78   05 Jun 2027 07:10:14.143   05 Jun 2027 07:10:17.718             3.575           586.875
        79   05 Jun 2027 08:42:58.446   05 Jun 2027 08:43:05.250             6.804          2725.031
        80   05 Jun 2027 08:45:32.698   05 Jun 2027 08:45:36.263             3.565           856.687
        81   05 Jun 2027 08:46:05.649   05 Jun 2027 08:46:11.367             5.718           756.500
        82   05 Jun 2027 10:18:49.621   05 Jun 2027 10:19:02.676            13.055          6426.406
        83   06 Jun 2027 04:05:34.854   06 Jun 2027 04:06:10.720            35.866         17933.000
        84   06 Jun 2027 04:07:33.209   06 Jun 2027 04:07:33.209             0.000             0.000
        85   06 Jun 2027 04:08:48.730   06 Jun 2027 04:09:01.941            13.211          6605.500
        86   06 Jun 2027 04:09:09.213   06 Jun 2027 04:09:16.281             7.068          3534.000
        87   06 Jun 2027 05:40:20.667   06 Jun 2027 05:42:08.882           108.215         54107.500
        88   06 Jun 2027 05:42:43.715   06 Jun 2027 05:43:49.905            66.190         33095.000
        89   06 Jun 2027 05:47:49.235   06 Jun 2027 05:47:53.439             4.204          2102.000
        90   06 Jun 2027 07:17:10.179   06 Jun 2027 07:18:57.804           107.625         53024.657
        91   06 Jun 2027 07:19:35.843   06 Jun 2027 07:19:39.041             3.198           710.656
        92   06 Jun 2027 08:55:20.623   06 Jun 2027 08:55:31.817            11.194          4953.031
        93   06 Jun 2027 08:57:47.091   06 Jun 2027 08:57:47.346             0.255            77.094
        94   06 Jun 2027 08:58:38.503   06 Jun 2027 08:58:39.750             1.247           322.219
        95   06 Jun 2027 10:28:38.109   06 Jun 2027 10:28:51.364            13.255          5578.750
        96   07 Jun 2027 04:15:22.856   07 Jun 2027 04:15:53.374            30.518         15259.000
        97   07 Jun 2027 04:16:01.763   07 Jun 2027 04:16:06.118             4.355          2177.500
        98   07 Jun 2027 04:17:31.019   07 Jun 2027 04:17:41.256            10.237          5118.500
        99   07 Jun 2027 04:18:18.727   07 Jun 2027 04:18:43.900            25.173         12586.500
       100   07 Jun 2027 04:23:14.120   07 Jun 2027 04:23:17.000             2.880          1440.000
       101   07 Jun 2027 05:52:27.533   07 Jun 2027 05:55:09.752           162.219         81109.500
       102   07 Jun 2027 05:55:30.899   07 Jun 2027 05:56:04.844            33.945         16972.500
       103   07 Jun 2027 05:59:53.313   07 Jun 2027 05:59:53.839             0.526           263.000
       104   07 Jun 2027 07:29:25.652   07 Jun 2027 07:30:46.786            81.134         40459.719
       105   07 Jun 2027 07:34:31.605   07 Jun 2027 07:34:38.914             7.309          1736.469
       106   07 Jun 2027 07:35:32.234   07 Jun 2027 07:35:34.187             1.953           740.000
       107   07 Jun 2027 09:07:21.938   07 Jun 2027 09:07:34.831            12.893          5498.781
       108   07 Jun 2027 10:40:43.489   07 Jun 2027 10:40:52.682             9.193          4150.781
       109   08 Jun 2027 04:26:50.628   08 Jun 2027 04:28:23.584            92.956         46478.000
       110   08 Jun 2027 04:30:14.085   08 Jun 2027 04:30:14.615             0.530           265.000
       111   08 Jun 2027 04:30:40.988   08 Jun 2027 04:30:57.323            16.335          8167.500
       112   08 Jun 2027 04:32:54.201   08 Jun 2027 04:33:13.401            19.200          9600.000
       113   08 Jun 2027 04:33:57.249   08 Jun 2027 04:34:23.906            26.657         13328.500
       114   08 Jun 2027 04:35:20.581   08 Jun 2027 04:35:32.888            12.307          6153.500
       115   08 Jun 2027 06:04:29.581   08 Jun 2027 06:06:44.964           135.383         67691.500
       116   08 Jun 2027 06:07:36.225   08 Jun 2027 06:07:54.684            18.459          9229.500
       117   08 Jun 2027 06:08:10.492   08 Jun 2027 06:08:17.151             6.659          3329.500
       118   08 Jun 2027 06:08:22.617   08 Jun 2027 06:08:35.256            12.639          5939.281
       119   08 Jun 2027 06:08:58.428   08 Jun 2027 06:09:01.353             2.925           649.156
       120   08 Jun 2027 06:10:13.560   08 Jun 2027 06:10:18.881             5.321          2256.469
       121   08 Jun 2027 07:41:16.388   08 Jun 2027 07:41:23.996             7.608          1295.969
       122   08 Jun 2027 07:42:08.609   08 Jun 2027 07:42:11.204             2.595           491.188
       123   08 Jun 2027 09:19:19.010   08 Jun 2027 09:19:24.490             5.480          2733.531
       124   08 Jun 2027 09:22:32.169   08 Jun 2027 09:22:33.639             1.470           230.156
       125   08 Jun 2027 09:23:16.099   08 Jun 2027 09:23:18.102             2.003           195.313
       126   08 Jun 2027 10:53:09.747   08 Jun 2027 10:53:12.419             2.672          1009.844
       127   09 Jun 2027 03:03:31.739   09 Jun 2027 03:03:43.349            11.610          5805.000
       128   09 Jun 2027 03:06:25.162   09 Jun 2027 03:06:35.654            10.492          5246.000
       129   09 Jun 2027 03:08:04.348   09 Jun 2027 03:08:09.964             5.616          2808.000
       130   09 Jun 2027 04:38:24.567   09 Jun 2027 04:40:46.553           141.986         70993.000
       131   09 Jun 2027 04:42:06.143   09 Jun 2027 04:42:27.371            21.228         10614.000
       132   09 Jun 2027 04:46:59.725   09 Jun 2027 04:47:59.670            59.945         29972.500
       133   09 Jun 2027 06:16:31.523   09 Jun 2027 06:17:46.491            74.968         36381.687
       134   09 Jun 2027 06:18:56.271   09 Jun 2027 06:19:00.315             4.044          1625.625
       135   09 Jun 2027 06:19:09.307   09 Jun 2027 06:19:10.798             1.491           281.000
       136   09 Jun 2027 06:19:41.175   09 Jun 2027 06:19:45.700             4.525           780.312
       137   09 Jun 2027 06:21:03.959   09 Jun 2027 06:21:06.067             2.108            15.563
       138   09 Jun 2027 06:21:34.696   09 Jun 2027 06:21:38.254             3.558           894.656
       139   09 Jun 2027 06:22:02.596   09 Jun 2027 06:22:04.651             2.055           534.750
       140   09 Jun 2027 07:53:26.545   09 Jun 2027 07:53:34.654             8.109           794.312
       141   09 Jun 2027 07:53:47.903   09 Jun 2027 07:53:51.126             3.223           162.469
       142   09 Jun 2027 09:30:33.863   09 Jun 2027 09:30:45.459            11.596          2580.844
       143   09 Jun 2027 11:05:27.891   09 Jun 2027 11:05:31.221             3.330           688.188
       144   10 Jun 2027 03:17:53.538   10 Jun 2027 03:17:55.219             1.681           840.500
       145   10 Jun 2027 03:18:22.295   10 Jun 2027 03:18:56.493            34.198         17099.000
       146   10 Jun 2027 03:20:58.123   10 Jun 2027 03:20:58.123             0.000             0.000
       147   10 Jun 2027 04:51:25.945   10 Jun 2027 04:53:43.789           137.844         68922.000
       148   10 Jun 2027 04:56:16.388   10 Jun 2027 04:56:25.560             9.172          4586.000
       149   10 Jun 2027 04:58:33.541   10 Jun 2027 04:59:37.792            64.251         32125.500
       150   10 Jun 2027 04:59:54.918   10 Jun 2027 04:59:54.918             0.000             0.000
       151   10 Jun 2027 04:59:57.343   10 Jun 2027 04:59:58.946             1.603           801.500
       152   10 Jun 2027 06:28:58.554   10 Jun 2027 06:30:07.347            68.793         33837.594
       153   10 Jun 2027 06:31:04.317   10 Jun 2027 06:31:05.617             1.300           175.500
       154   10 Jun 2027 06:31:50.309   10 Jun 2027 06:31:55.380             5.071           965.063
       155   10 Jun 2027 08:05:53.153   10 Jun 2027 08:05:58.200             5.047          1586.969
       156   10 Jun 2027 09:42:46.843   10 Jun 2027 09:42:52.860             6.017          2754.812
       157   10 Jun 2027 11:19:56.948   10 Jun 2027 11:19:59.799             2.851           881.063
       158   11 Jun 2027 03:30:14.981   11 Jun 2027 03:30:28.711            13.730          6865.000
       159   11 Jun 2027 05:02:05.640   11 Jun 2027 05:02:15.906            10.266          5133.000
       160   11 Jun 2027 05:04:04.598   11 Jun 2027 05:07:05.692           181.094         90547.000
       161   11 Jun 2027 05:10:10.673   11 Jun 2027 05:10:36.534            25.861         12930.500
       162   11 Jun 2027 05:11:27.600   11 Jun 2027 05:11:27.600             0.000             0.000
       163   11 Jun 2027 05:11:35.724   11 Jun 2027 05:11:53.179            17.455          8727.500
       164   11 Jun 2027 06:41:03.027   11 Jun 2027 06:42:04.728            61.701         30458.438
       165   11 Jun 2027 06:46:57.684   11 Jun 2027 06:47:02.337             4.653          1054.500
       166   11 Jun 2027 06:47:38.753   11 Jun 2027 06:47:40.624             1.871           333.281
       167   11 Jun 2027 08:18:34.762   11 Jun 2027 08:18:37.459             2.697          1002.437
       168   11 Jun 2027 08:20:50.260   11 Jun 2027 08:20:51.150             0.890           184.000
       169   11 Jun 2027 08:21:21.308   11 Jun 2027 08:21:24.569             3.261           380.313
       170   11 Jun 2027 08:21:30.797   11 Jun 2027 08:21:32.834             2.037           194.625
       171   11 Jun 2027 09:54:52.762   11 Jun 2027 09:55:02.766            10.004          4472.344
       172   11 Jun 2027 11:33:06.728   11 Jun 2027 11:33:10.139             3.411           118.750
       173   12 Jun 2027 03:42:07.599   12 Jun 2027 03:42:28.457            20.858         10429.000
       174   12 Jun 2027 03:42:45.008   12 Jun 2027 03:42:45.813             0.805           402.500
       175   12 Jun 2027 03:43:36.255   12 Jun 2027 03:43:36.255             0.000             0.000
       176   12 Jun 2027 05:17:18.586   12 Jun 2027 05:18:28.217            69.631         34815.500
       177   12 Jun 2027 05:18:49.538   12 Jun 2027 05:19:20.577            31.039         15519.500
       178   12 Jun 2027 05:20:10.333   12 Jun 2027 05:21:06.452            56.119         28059.500
       179   12 Jun 2027 05:21:51.000   12 Jun 2027 05:22:34.389            43.389         21694.500
       180   12 Jun 2027 05:23:53.446   12 Jun 2027 05:23:55.479             2.033          1016.500
       181   12 Jun 2027 06:53:37.584   12 Jun 2027 06:55:12.039            94.455         46094.343
       182   12 Jun 2027 08:31:00.250   12 Jun 2027 08:31:06.942             6.692          2760.719
       183   12 Jun 2027 08:35:26.419   12 Jun 2027 08:35:27.244             0.825           232.875
       184   12 Jun 2027 10:07:09.797   12 Jun 2027 10:07:23.541            13.744          6304.719
       185   12 Jun 2027 10:08:18.806   12 Jun 2027 10:08:22.565             3.759           599.187
       186   13 Jun 2027 03:54:04.541   13 Jun 2027 03:54:34.606            30.065         15032.500
       187   13 Jun 2027 05:29:08.735   13 Jun 2027 05:30:55.422           106.687         53343.500
       188   13 Jun 2027 05:31:24.872   13 Jun 2027 05:31:46.470            21.598         10799.000
       189   13 Jun 2027 05:32:12.040   13 Jun 2027 05:33:09.245            57.205         28602.500
       190   13 Jun 2027 05:35:37.945   13 Jun 2027 05:36:02.424            24.479         12239.500
       191   13 Jun 2027 07:05:14.429   13 Jun 2027 07:06:40.922            86.493         43092.406
       192   13 Jun 2027 08:43:13.174   13 Jun 2027 08:43:18.423             5.249          2195.594
       193   13 Jun 2027 08:45:23.920   13 Jun 2027 08:45:24.586             0.666           200.687
       194   13 Jun 2027 10:19:04.107   13 Jun 2027 10:19:17.889            13.782          6078.313
