uniorb/output/strategy_4/Camera/Camera_KinoSat_111603.txt

KinoSat_111603
-------------------------
    Access    *     Start Time (UTCG)     *     Stop Time (UTCG)  *   Duration (s) *   Data (Mbytes)
         1   01 Jun 2027 03:33:44.241   01 Jun 2027 03:34:45.080            60.839         30419.500
         2   01 Jun 2027 03:34:50.756   01 Jun 2027 03:35:04.107            13.351          6675.500
         3   01 Jun 2027 03:35:21.319   01 Jun 2027 03:36:20.440            59.121         29560.500
         4   01 Jun 2027 03:36:41.932   01 Jun 2027 03:36:41.932             0.000             0.000
         5   01 Jun 2027 03:37:11.808   01 Jun 2027 03:37:16.565             4.757          2378.500
         6   01 Jun 2027 03:39:03.334   01 Jun 2027 03:39:07.148             3.814          1907.000
         7   01 Jun 2027 03:39:36.291   01 Jun 2027 03:39:50.379            14.088          7044.000
         8   01 Jun 2027 05:13:01.377   01 Jun 2027 05:14:29.664            88.287         44143.500
         9   01 Jun 2027 05:14:53.571   01 Jun 2027 05:15:11.946            18.375          9187.500
        10   01 Jun 2027 06:35:17.069   01 Jun 2027 06:36:13.232            56.163         28081.500
        11   01 Jun 2027 06:37:15.501   01 Jun 2027 06:37:21.746             6.245          3122.500
        12   01 Jun 2027 08:11:42.767   01 Jun 2027 08:14:04.854           142.087         71043.500
        13   01 Jun 2027 09:46:51.002   01 Jun 2027 09:47:55.996            64.994         32497.000
        14   01 Jun 2027 09:49:01.971   01 Jun 2027 09:50:00.886            58.915         29457.500
        15   01 Jun 2027 09:52:52.622   01 Jun 2027 09:53:20.318            27.696         13848.000
        16   01 Jun 2027 09:53:32.392   01 Jun 2027 09:53:38.951             6.559          3279.500
        17   01 Jun 2027 11:23:11.938   01 Jun 2027 11:25:23.879           131.941         65970.500
        18   01 Jun 2027 11:25:31.627   01 Jun 2027 11:25:55.461            23.834         11917.000
        19   02 Jun 2027 03:45:40.625   02 Jun 2027 03:46:34.736            54.111         27055.500
        20   02 Jun 2027 03:46:47.428   02 Jun 2027 03:48:04.696            77.268         38634.000
        21   02 Jun 2027 03:48:32.926   02 Jun 2027 03:48:41.027             8.101          4050.500
        22   02 Jun 2027 03:50:19.711   02 Jun 2027 03:50:31.489            11.778          5889.000
        23   02 Jun 2027 03:50:43.294   02 Jun 2027 03:51:06.601            23.307         11653.500
        24   02 Jun 2027 05:23:55.845   02 Jun 2027 05:24:32.182            36.337         18168.500
        25   02 Jun 2027 05:24:44.972   02 Jun 2027 05:27:41.692           176.720         88360.000
        26   02 Jun 2027 06:47:16.412   02 Jun 2027 06:48:05.290            48.878         24439.000
        27   02 Jun 2027 06:50:15.659   02 Jun 2027 06:50:30.074            14.415          7207.500
        28   02 Jun 2027 08:23:53.115   02 Jun 2027 08:26:28.193           155.078         77539.000
        29   02 Jun 2027 08:26:46.015   02 Jun 2027 08:27:20.509            34.494         17247.000
        30   02 Jun 2027 09:59:03.148   02 Jun 2027 09:59:46.643            43.495         21506.095
        31   02 Jun 2027 10:00:30.262   02 Jun 2027 10:00:31.822             1.560           474.719
        32   02 Jun 2027 10:01:13.451   02 Jun 2027 10:01:16.063             2.612          1016.000
        33   02 Jun 2027 10:02:50.257   02 Jun 2027 10:02:55.081             4.824          2198.000
        34   02 Jun 2027 10:05:25.976   02 Jun 2027 10:05:38.896            12.920          2444.250
        35   02 Jun 2027 11:35:20.365   02 Jun 2027 11:35:33.027            12.662          4807.219
        36   02 Jun 2027 11:36:12.566   02 Jun 2027 11:36:19.347             6.781           832.156
        37   02 Jun 2027 11:37:06.284   02 Jun 2027 11:37:14.000             7.716          1355.125
        38   02 Jun 2027 11:37:52.682   02 Jun 2027 11:37:54.722             2.040           693.406
        39   02 Jun 2027 11:38:04.469   02 Jun 2027 11:38:08.052             3.583           304.594
        40   02 Jun 2027 11:39:05.980   02 Jun 2027 11:39:10.059             4.079          1583.906
        41   02 Jun 2027 11:39:12.125   02 Jun 2027 11:39:13.817             1.692            46.906
        42   02 Jun 2027 11:39:50.432   02 Jun 2027 11:39:55.069             4.637           955.719
        43   02 Jun 2027 11:40:42.820   02 Jun 2027 11:40:45.991             3.171           549.844
        44   02 Jun 2027 11:40:53.955   02 Jun 2027 11:40:57.857             3.902           134.500
        45   02 Jun 2027 11:41:24.975   02 Jun 2027 11:41:26.794             1.819           847.438
        46   03 Jun 2027 03:58:46.277   03 Jun 2027 04:02:24.929           218.652        109326.000
        47   03 Jun 2027 04:05:38.092   03 Jun 2027 04:05:50.983            12.891          6445.500
        48   03 Jun 2027 05:25:08.593   03 Jun 2027 05:25:13.998             5.405          2702.500
        49   03 Jun 2027 05:35:52.504   03 Jun 2027 05:37:37.047           104.543         50940.657
        50   03 Jun 2027 05:38:13.622   03 Jun 2027 05:38:16.791             3.169           873.219
        51   03 Jun 2027 05:39:16.863   03 Jun 2027 05:39:19.459             2.596           979.344
        52   03 Jun 2027 06:59:52.695   03 Jun 2027 07:00:05.247            12.552          5860.531
        53   03 Jun 2027 07:00:19.631   03 Jun 2027 07:00:20.590             0.959            41.187
        54   03 Jun 2027 07:01:58.911   03 Jun 2027 07:02:08.441             9.530          3072.531
        55   03 Jun 2027 08:35:37.344   03 Jun 2027 08:35:43.047             5.703          2652.281
        56   03 Jun 2027 08:37:42.778   03 Jun 2027 08:37:50.695             7.917          3401.000
        57   03 Jun 2027 08:37:59.170   03 Jun 2027 08:38:00.350             1.180            27.344
        58   03 Jun 2027 08:38:26.312   03 Jun 2027 08:38:28.663             2.351           533.875
        59   03 Jun 2027 10:10:30.908   03 Jun 2027 10:10:37.038             6.130          2943.188
        60   03 Jun 2027 10:12:16.151   03 Jun 2027 10:12:21.797             5.646          2348.750
        61   03 Jun 2027 10:13:27.914   03 Jun 2027 10:13:30.359             2.445           895.156
        62   03 Jun 2027 10:16:07.393   03 Jun 2027 10:16:17.660            10.267          4769.625
        63   03 Jun 2027 10:16:41.836   03 Jun 2027 10:16:47.062             5.226           755.500
        64   03 Jun 2027 10:17:44.530   03 Jun 2027 10:17:48.358             3.828           867.469
        65   03 Jun 2027 11:47:03.984   03 Jun 2027 11:47:16.290            12.306          5534.687
        66   03 Jun 2027 11:48:56.498   03 Jun 2027 11:49:05.357             8.859          1830.594
        67   03 Jun 2027 11:49:17.428   03 Jun 2027 11:49:29.861            12.433           221.594
        68   03 Jun 2027 11:49:56.876   03 Jun 2027 11:49:58.438             1.562           781.000
        69   03 Jun 2027 11:50:48.852   03 Jun 2027 11:50:52.275             3.423          1638.656
        70   03 Jun 2027 11:51:10.153   03 Jun 2027 11:51:11.817             1.664           544.094
        71   03 Jun 2027 11:51:38.119   03 Jun 2027 11:51:50.349            12.230           821.937
        72   03 Jun 2027 11:52:32.807   03 Jun 2027 11:52:38.019             5.212          1179.875
        73   03 Jun 2027 11:52:56.046   03 Jun 2027 11:52:57.523             1.477           167.531
        74   03 Jun 2027 11:53:07.466   03 Jun 2027 11:53:08.310             0.844            90.188
        75   04 Jun 2027 04:10:54.801   04 Jun 2027 04:12:36.335           101.534         50767.000
        76   04 Jun 2027 04:13:33.809   04 Jun 2027 04:15:06.452            92.643         46321.500
        77   04 Jun 2027 04:16:27.637   04 Jun 2027 04:16:30.331             2.694          1347.000
        78   04 Jun 2027 04:17:02.344   04 Jun 2027 04:17:08.133             5.789          2894.500
        79   04 Jun 2027 04:17:12.386   04 Jun 2027 04:17:16.329             3.943          1971.500
        80   04 Jun 2027 04:17:36.158   04 Jun 2027 04:18:29.605            53.447         26723.500
        81   04 Jun 2027 05:36:26.138   04 Jun 2027 05:36:43.589            17.451          8725.500
        82   04 Jun 2027 05:47:50.662   04 Jun 2027 05:49:19.974            89.312         44656.000
        83   04 Jun 2027 07:10:28.375   04 Jun 2027 07:10:40.606            12.231          4946.906
        84   04 Jun 2027 07:11:09.957   04 Jun 2027 07:11:12.166             2.209           887.781
        85   04 Jun 2027 07:12:35.060   04 Jun 2027 07:12:39.778             4.718          1622.594
        86   04 Jun 2027 07:13:19.953   04 Jun 2027 07:13:22.750             2.797          1094.906
        87   04 Jun 2027 07:14:44.301   04 Jun 2027 07:14:44.301             0.000             0.000
        88   04 Jun 2027 07:15:08.298   04 Jun 2027 07:15:08.668             0.370           185.000
        89   04 Jun 2027 08:45:51.636   04 Jun 2027 08:45:53.421             1.785           892.500
        90   04 Jun 2027 08:46:44.734   04 Jun 2027 08:46:47.690             2.956          1478.000
        91   04 Jun 2027 08:47:23.002   04 Jun 2027 08:47:26.837             3.835          1585.313
        92   04 Jun 2027 08:49:24.839   04 Jun 2027 08:49:32.292             7.453          3200.500
        93   04 Jun 2027 08:50:24.118   04 Jun 2027 08:50:24.339             0.221            87.937
        94   04 Jun 2027 08:50:28.432   04 Jun 2027 08:50:32.608             4.176           119.062
        95   04 Jun 2027 08:51:16.699   04 Jun 2027 08:51:23.395             6.696           938.937
        96   04 Jun 2027 08:51:44.658   04 Jun 2027 08:51:44.805             0.147            71.844
        97   04 Jun 2027 10:22:18.479   04 Jun 2027 10:22:24.810             6.331          3136.000
        98   04 Jun 2027 10:24:16.750   04 Jun 2027 10:24:26.668             9.918          3062.844
        99   04 Jun 2027 10:25:45.539   04 Jun 2027 10:25:46.613             1.074           393.625
       100   04 Jun 2027 10:26:42.771   04 Jun 2027 10:26:54.763            11.992          1748.188
       101   04 Jun 2027 10:27:21.828   04 Jun 2027 10:27:24.278             2.450           767.000
       102   04 Jun 2027 10:27:37.294   04 Jun 2027 10:27:41.790             4.496           309.062
       103   04 Jun 2027 10:28:26.085   04 Jun 2027 10:28:29.933             3.848          1190.844
       104   04 Jun 2027 10:29:10.333   04 Jun 2027 10:29:10.611             0.278            46.438
       105   04 Jun 2027 10:29:18.130   04 Jun 2027 10:29:22.235             4.105           234.969
       106   04 Jun 2027 11:59:25.122   04 Jun 2027 11:59:40.032            14.910          6983.906
       107   05 Jun 2027 04:23:20.696   05 Jun 2027 04:25:40.802           140.106         70053.000
       108   05 Jun 2027 04:28:37.172   05 Jun 2027 04:28:41.383             4.211          2105.500
       109   05 Jun 2027 04:30:09.851   05 Jun 2027 04:30:27.172            17.321          8660.500
       110   05 Jun 2027 05:47:44.892   05 Jun 2027 05:48:45.230            60.338         30169.000
       111   05 Jun 2027 05:59:50.039   05 Jun 2027 06:00:49.102            59.063         29531.500
       112   05 Jun 2027 07:22:07.128   05 Jun 2027 07:22:53.818            46.690         23345.000
       113   05 Jun 2027 07:22:58.293   05 Jun 2027 07:23:04.293             6.000           398.531
       114   05 Jun 2027 07:24:01.777   05 Jun 2027 07:24:04.205             2.428           611.281
       115   05 Jun 2027 07:24:50.399   05 Jun 2027 07:24:52.698             2.299          1100.781
       116   05 Jun 2027 07:26:45.429   05 Jun 2027 07:26:51.784             6.355          2569.531
       117   05 Jun 2027 07:27:13.168   05 Jun 2027 07:27:14.470             1.302           409.188
       118   05 Jun 2027 08:57:00.960   05 Jun 2027 08:57:08.921             7.961          3184.250
       119   05 Jun 2027 08:57:58.266   05 Jun 2027 08:58:00.068             1.802           805.156
       120   05 Jun 2027 08:58:08.602   05 Jun 2027 08:58:08.602             0.000             0.000
       121   05 Jun 2027 08:58:43.252   05 Jun 2027 08:58:48.739             5.487          1232.750
       122   05 Jun 2027 09:00:06.317   05 Jun 2027 09:00:14.189             7.872          1508.594
       123   05 Jun 2027 09:00:34.932   05 Jun 2027 09:00:39.311             4.379           383.000
       124   05 Jun 2027 09:02:19.212   05 Jun 2027 09:02:25.348             6.136          3055.500
       125   05 Jun 2027 09:02:54.159   05 Jun 2027 09:02:58.735             4.576           635.937
       126   05 Jun 2027 09:03:44.303   05 Jun 2027 09:03:46.829             2.526           366.094
       127   05 Jun 2027 09:05:04.417   05 Jun 2027 09:05:07.368             2.951          1101.687
       128   05 Jun 2027 10:34:33.734   05 Jun 2027 10:34:42.588             8.854          3827.813
       129   05 Jun 2027 10:37:38.347   05 Jun 2027 10:37:44.290             5.943          2548.781
       130   05 Jun 2027 10:38:12.089   05 Jun 2027 10:38:13.306             1.217           173.031
       131   05 Jun 2027 10:38:58.192   05 Jun 2027 10:38:59.160             0.968           287.813
       132   05 Jun 2027 10:39:48.787   05 Jun 2027 10:39:52.969             4.182           506.531
       133   05 Jun 2027 10:40:29.335   05 Jun 2027 10:40:33.715             4.380           781.625
       134   05 Jun 2027 10:41:01.645   05 Jun 2027 10:41:08.612             6.967           734.844
       135   05 Jun 2027 10:41:37.676   05 Jun 2027 10:41:43.360             5.684           706.281
       136   05 Jun 2027 10:41:53.421   05 Jun 2027 10:41:53.842             0.421           166.656
       137   06 Jun 2027 03:00:00.000   06 Jun 2027 03:00:08.366             8.366          4183.000
       138   06 Jun 2027 03:01:17.869   06 Jun 2027 03:01:36.598            18.729          9364.500
       139   06 Jun 2027 04:35:25.297   06 Jun 2027 04:37:37.202           131.905         65952.500
       140   06 Jun 2027 04:38:03.495   06 Jun 2027 04:38:30.324            26.829         13414.500
       141   06 Jun 2027 04:39:24.679   06 Jun 2027 04:40:34.887            70.208         35104.000
       142   06 Jun 2027 04:41:50.138   06 Jun 2027 04:42:03.710            13.572          6786.000
       143   06 Jun 2027 05:59:43.756   06 Jun 2027 06:00:13.362            29.606         14803.000
       144   06 Jun 2027 06:01:38.695   06 Jun 2027 06:01:38.953             0.258           129.000
       145   06 Jun 2027 06:12:05.169   06 Jun 2027 06:12:23.591            18.422          9211.000
       146   06 Jun 2027 07:33:37.509   06 Jun 2027 07:34:19.349            41.840         20192.688
       147   06 Jun 2027 07:35:47.971   06 Jun 2027 07:35:50.543             2.572          1064.250
       148   06 Jun 2027 07:36:33.388   06 Jun 2027 07:36:35.654             2.266           746.500
       149   06 Jun 2027 07:37:24.385   06 Jun 2027 07:37:26.951             2.566          1112.094
       150   06 Jun 2027 07:37:34.889   06 Jun 2027 07:37:36.041             1.152           199.688
       151   06 Jun 2027 07:38:27.401   06 Jun 2027 07:38:30.707             3.306           988.375
       152   06 Jun 2027 09:08:31.902   06 Jun 2027 09:08:40.326             8.424          4021.406
       153   06 Jun 2027 09:09:21.329   06 Jun 2027 09:09:25.425             4.096           254.844
       154   06 Jun 2027 09:10:36.901   06 Jun 2027 09:10:37.712             0.811            77.125
       155   06 Jun 2027 09:11:29.899   06 Jun 2027 09:11:34.552             4.653          1476.594
       156   06 Jun 2027 09:12:15.802   06 Jun 2027 09:12:18.383             2.581           399.031
       157   06 Jun 2027 09:13:01.919   06 Jun 2027 09:13:06.392             4.473          1144.156
       158   06 Jun 2027 09:15:29.039   06 Jun 2027 09:15:30.205             1.166           583.000
       159   06 Jun 2027 09:15:51.740   06 Jun 2027 09:15:57.757             6.017          2186.156
       160   06 Jun 2027 09:17:00.029   06 Jun 2027 09:17:02.478             2.449          1196.406
       161   06 Jun 2027 10:46:28.554   06 Jun 2027 10:46:37.462             8.908          4454.000
       162   06 Jun 2027 10:49:26.827   06 Jun 2027 10:49:41.188            14.361          5293.719
       163   06 Jun 2027 10:50:58.029   06 Jun 2027 10:50:58.029             0.000             0.000
       164   06 Jun 2027 10:52:01.290   06 Jun 2027 10:52:07.186             5.896          2813.500
       165   06 Jun 2027 10:52:58.476   06 Jun 2027 10:53:02.289             3.813          1178.187
       166   06 Jun 2027 10:53:19.052   06 Jun 2027 10:53:21.303             2.251           244.000
       167   07 Jun 2027 03:09:19.721   07 Jun 2027 03:10:35.199            75.478         37739.000
       168   07 Jun 2027 03:14:00.211   07 Jun 2027 03:14:21.094            20.883         10441.500
       169   07 Jun 2027 03:14:43.650   07 Jun 2027 03:14:55.796            12.146          6073.000
       170   07 Jun 2027 04:47:51.238   07 Jun 2027 04:51:01.852           190.614         94527.281
       171   07 Jun 2027 04:52:07.840   07 Jun 2027 04:52:12.010             4.170          2062.125
       172   07 Jun 2027 06:11:39.998   07 Jun 2027 06:11:58.792            18.794          6744.469
       173   07 Jun 2027 06:13:44.734   07 Jun 2027 06:13:53.823             9.089          2951.750
       174   07 Jun 2027 07:47:39.311   07 Jun 2027 07:47:53.278            13.967          6359.281
       175   07 Jun 2027 07:48:21.999   07 Jun 2027 07:48:25.532             3.533           511.187
       176   07 Jun 2027 07:48:30.555   07 Jun 2027 07:48:31.426             0.871           155.344
       177   07 Jun 2027 07:49:35.906   07 Jun 2027 07:49:40.605             4.699          2015.000
       178   07 Jun 2027 07:50:00.172   07 Jun 2027 07:50:02.798             2.626           222.469
       179   07 Jun 2027 07:50:29.938   07 Jun 2027 07:50:33.532             3.594             5.687
       180   07 Jun 2027 09:21:26.139   07 Jun 2027 09:21:33.434             7.295          2545.813
       181   07 Jun 2027 09:23:03.105   07 Jun 2027 09:23:10.682             7.577           792.656
       182   07 Jun 2027 09:23:35.727   07 Jun 2027 09:23:38.893             3.166           141.344
       183   07 Jun 2027 09:23:58.419   07 Jun 2027 09:24:01.473             3.054           426.906
       184   07 Jun 2027 09:26:21.382   07 Jun 2027 09:26:30.446             9.064          3552.594
       185   07 Jun 2027 09:28:09.678   07 Jun 2027 09:28:12.940             3.262          1527.156
       186   07 Jun 2027 09:28:23.321   07 Jun 2027 09:28:29.727             6.406           278.750
       187   07 Jun 2027 09:29:08.583   07 Jun 2027 09:29:12.639             4.056          1206.281
       188   07 Jun 2027 10:58:42.562   07 Jun 2027 10:59:02.752            20.190          6092.531
       189   07 Jun 2027 11:01:10.872   07 Jun 2027 11:01:18.370             7.498          2081.250
       190   07 Jun 2027 11:01:43.502   07 Jun 2027 11:01:46.249             2.747           708.156
       191   07 Jun 2027 11:02:41.718   07 Jun 2027 11:02:45.555             3.837           980.594
       192   07 Jun 2027 11:03:00.373   07 Jun 2027 11:03:00.779             0.406           176.281
       193   07 Jun 2027 11:03:26.207   07 Jun 2027 11:03:27.984             1.777           613.344
       194   07 Jun 2027 11:03:49.973   07 Jun 2027 11:03:50.523             0.550            79.031
       195   07 Jun 2027 11:05:00.309   07 Jun 2027 11:05:04.215             3.906          1849.937
       196   07 Jun 2027 11:05:05.043   07 Jun 2027 11:05:05.775             0.732            25.875
       197   07 Jun 2027 11:05:16.300   07 Jun 2027 11:05:22.150             5.850            66.656
       198   07 Jun 2027 11:05:22.905   07 Jun 2027 11:05:23.700             0.795            11.437
       199   07 Jun 2027 11:05:30.276   07 Jun 2027 11:05:35.139             4.863           160.500
       200   08 Jun 2027 03:21:53.301   08 Jun 2027 03:22:20.419            27.118         13559.000
       201   08 Jun 2027 03:22:31.045   08 Jun 2027 03:24:55.459           144.414         72207.000
       202   08 Jun 2027 03:27:16.183   08 Jun 2027 03:27:16.183             0.000             0.000
       203   08 Jun 2027 03:27:33.010   08 Jun 2027 03:27:35.635             2.625          1312.500
       204   08 Jun 2027 03:28:00.218   08 Jun 2027 03:28:02.517             2.299          1149.500
       205   08 Jun 2027 05:00:09.740   08 Jun 2027 05:02:07.337           117.597         57201.500
       206   08 Jun 2027 05:02:16.926   08 Jun 2027 05:02:17.274             0.348           174.000
       207   08 Jun 2027 05:02:41.394   08 Jun 2027 05:02:43.314             1.920           879.406
       208   08 Jun 2027 05:03:32.969   08 Jun 2027 05:03:36.914             3.945          1314.500
       209   08 Jun 2027 06:23:31.717   08 Jun 2027 06:23:40.556             8.839          3941.937
       210   08 Jun 2027 06:24:49.460   08 Jun 2027 06:24:52.540             3.080          1460.437
       211   08 Jun 2027 06:25:43.219   08 Jun 2027 06:25:46.309             3.090          1474.281
       212   08 Jun 2027 07:59:53.939   08 Jun 2027 08:00:06.597            12.658          5733.375
       213   08 Jun 2027 08:00:31.365   08 Jun 2027 08:00:33.778             2.413           150.687
       214   08 Jun 2027 08:00:52.582   08 Jun 2027 08:00:53.985             1.403           208.094
       215   08 Jun 2027 08:01:45.520   08 Jun 2027 08:01:49.192             3.672          1601.594
       216   08 Jun 2027 08:02:32.257   08 Jun 2027 08:02:35.103             2.846          1345.781
       217   08 Jun 2027 09:32:11.020   08 Jun 2027 09:32:18.062             7.042          3200.594
       218   08 Jun 2027 09:36:02.798   08 Jun 2027 09:36:06.545             3.747           333.219
       219   08 Jun 2027 09:36:42.504   08 Jun 2027 09:36:53.171            10.667           396.156
       220   08 Jun 2027 09:39:08.067   08 Jun 2027 09:39:12.181             4.114          1500.188
       221   08 Jun 2027 09:40:31.654   08 Jun 2027 09:40:34.395             2.741           511.344
       222   08 Jun 2027 09:40:57.616   08 Jun 2027 09:40:59.431             1.815           521.594
       223   08 Jun 2027 09:41:52.716   08 Jun 2027 09:41:54.729             2.013           843.938
       224   08 Jun 2027 11:11:02.301   08 Jun 2027 11:11:15.517            13.216          5568.406
       225   08 Jun 2027 11:12:38.232   08 Jun 2027 11:12:46.750             8.518           872.563
       226   08 Jun 2027 11:13:22.184   08 Jun 2027 11:13:25.307             3.123           482.438
       227   08 Jun 2027 11:14:00.223   08 Jun 2027 11:14:05.205             4.982           471.031
       228   08 Jun 2027 11:14:42.856   08 Jun 2027 11:14:51.360             8.504           911.000
       229   08 Jun 2027 11:15:02.430   08 Jun 2027 11:15:03.269             0.839           345.781
       230   08 Jun 2027 11:15:26.543   08 Jun 2027 11:15:28.246             1.703           388.469
       231   08 Jun 2027 11:15:36.483   08 Jun 2027 11:15:37.614             1.131           257.406
       232   08 Jun 2027 11:15:57.055   08 Jun 2027 11:15:59.577             2.522           375.281
       233   08 Jun 2027 11:17:05.101   08 Jun 2027 11:17:09.921             4.820          1615.250
       234   08 Jun 2027 11:17:23.818   08 Jun 2027 11:17:25.530             1.712           434.281
       235   09 Jun 2027 03:34:00.136   09 Jun 2027 03:35:01.402            61.266         30633.000
       236   09 Jun 2027 03:35:07.139   09 Jun 2027 03:36:44.031            96.892         48446.000
       237   09 Jun 2027 03:37:08.720   09 Jun 2027 03:37:28.120            19.400          9700.000
       238   09 Jun 2027 03:38:53.768   09 Jun 2027 03:39:24.689            30.921         15460.500
       239   09 Jun 2027 05:13:02.427   09 Jun 2027 05:14:37.436            95.009         47204.812
       240   09 Jun 2027 05:15:54.315   09 Jun 2027 05:15:59.055             4.740          2056.000
       241   09 Jun 2027 06:35:35.310   09 Jun 2027 06:35:46.003            10.693          5264.250
       242   09 Jun 2027 06:36:50.488   09 Jun 2027 06:36:54.382             3.894          1820.031
       243   09 Jun 2027 06:37:39.148   09 Jun 2027 06:37:39.148             0.000             0.000
       244   09 Jun 2027 06:38:17.033   09 Jun 2027 06:38:22.391             5.358          2482.625
       245   09 Jun 2027 08:12:04.682   09 Jun 2027 08:12:13.717             9.035          1778.563
       246   09 Jun 2027 08:12:53.931   09 Jun 2027 08:12:54.333             0.402           201.000
       247   09 Jun 2027 08:13:08.270   09 Jun 2027 08:13:16.129             7.859          1163.532
       248   09 Jun 2027 08:13:37.324   09 Jun 2027 08:13:39.917             2.593            76.094
       249   09 Jun 2027 08:14:21.935   09 Jun 2027 08:14:24.507             2.572          1188.500
       250   09 Jun 2027 08:15:04.010   09 Jun 2027 08:15:06.066             2.056           927.781
       251   09 Jun 2027 09:47:09.510   09 Jun 2027 09:47:22.796            13.286          3996.875
       252   09 Jun 2027 09:48:15.106   09 Jun 2027 09:48:24.262             9.156           982.594
       253   09 Jun 2027 09:48:31.646   09 Jun 2027 09:48:38.205             6.559           230.750
       254   09 Jun 2027 09:50:17.831   09 Jun 2027 09:50:22.673             4.842          1789.750
       255   09 Jun 2027 09:50:50.334   09 Jun 2027 09:50:54.223             3.889           814.312
       256   09 Jun 2027 09:51:56.404   09 Jun 2027 09:51:58.871             2.467          1039.969
       257   09 Jun 2027 09:52:26.985   09 Jun 2027 09:52:28.828             1.843           541.375
       258   09 Jun 2027 09:53:11.752   09 Jun 2027 09:53:15.841             4.089           690.781
       259   09 Jun 2027 09:53:49.763   09 Jun 2027 09:53:55.894             6.131           308.625
       260   09 Jun 2027 11:23:30.967   09 Jun 2027 11:23:44.163            13.196          6361.938
       261   09 Jun 2027 11:25:35.613   09 Jun 2027 11:25:36.693             1.080           332.969
       262   09 Jun 2027 11:26:47.294   09 Jun 2027 11:26:50.010             2.716           961.375
       263   09 Jun 2027 11:27:27.205   09 Jun 2027 11:27:29.960             2.755           708.344
       264   09 Jun 2027 11:28:38.597   09 Jun 2027 11:28:45.896             7.299          1992.062
       265   09 Jun 2027 11:28:52.566   09 Jun 2027 11:28:54.442             1.876           208.438
       266   10 Jun 2027 03:45:57.967   10 Jun 2027 03:46:45.440            47.473         23736.500
       267   10 Jun 2027 03:47:04.446   10 Jun 2027 03:50:10.192           185.746         92873.000
       268   10 Jun 2027 05:24:11.775   10 Jun 2027 05:24:49.370            37.595         18797.500
       269   10 Jun 2027 05:25:01.837   10 Jun 2027 05:25:49.921            48.084         22191.562
       270   10 Jun 2027 05:27:00.787   10 Jun 2027 05:27:03.495             2.708          1125.250
       271   10 Jun 2027 05:27:14.783   10 Jun 2027 05:27:20.105             5.322           352.750
       272   10 Jun 2027 05:27:50.832   10 Jun 2027 05:27:51.145             0.313           156.500
       273   10 Jun 2027 06:47:32.199   10 Jun 2027 06:47:41.578             9.379          3952.781
       274   10 Jun 2027 06:48:51.232   10 Jun 2027 06:48:59.295             8.063          2113.656
       275   10 Jun 2027 06:50:14.280   10 Jun 2027 06:50:25.568            11.288          2343.281
       276   10 Jun 2027 08:24:09.937   10 Jun 2027 08:24:17.019             7.082          2672.406
       277   10 Jun 2027 08:24:55.945   10 Jun 2027 08:25:00.789             4.844          1178.750
       278   10 Jun 2027 08:25:36.063   10 Jun 2027 08:25:36.797             0.734           215.031
       279   10 Jun 2027 08:25:53.632   10 Jun 2027 08:25:54.700             1.068           526.094
       280   10 Jun 2027 08:26:58.720   10 Jun 2027 08:27:02.039             3.319          1469.156
       281   10 Jun 2027 09:59:19.901   10 Jun 2027 09:59:26.874             6.973          2221.219
       282   10 Jun 2027 10:00:33.096   10 Jun 2027 10:00:37.113             4.017          1903.031
       283   10 Jun 2027 10:02:14.510   10 Jun 2027 10:02:20.264             5.754          2657.594
       284   10 Jun 2027 10:04:25.429   10 Jun 2027 10:04:33.054             7.625          3791.969
       285   10 Jun 2027 10:05:36.706   10 Jun 2027 10:05:42.259             5.553          1395.875
       286   10 Jun 2027 11:35:36.163   10 Jun 2027 11:35:48.312            12.149          4976.594
       287   10 Jun 2027 11:37:06.965   10 Jun 2027 11:37:07.920             0.955            97.937
       288   10 Jun 2027 11:37:48.125   10 Jun 2027 11:37:50.853             2.728           785.719
       289   10 Jun 2027 11:38:34.698   10 Jun 2027 11:38:40.822             6.124          1308.281
       290   10 Jun 2027 11:38:55.161   10 Jun 2027 11:38:55.891             0.730            79.687
       291   10 Jun 2027 11:39:26.910   10 Jun 2027 11:39:28.471             1.561           632.312
       292   10 Jun 2027 11:40:08.570   10 Jun 2027 11:40:12.904             4.334          1024.969
       293   10 Jun 2027 11:40:41.428   10 Jun 2027 11:40:44.434             3.006           305.438
       294   10 Jun 2027 11:41:04.864   10 Jun 2027 11:41:10.652             5.788           638.438
       295   10 Jun 2027 11:41:22.539   10 Jun 2027 11:41:24.351             1.812           371.469
       296   10 Jun 2027 11:41:42.885   10 Jun 2027 11:41:43.177             0.292           146.000
       297   11 Jun 2027 03:59:03.392   11 Jun 2027 04:02:26.311           202.919        101459.500
       298   11 Jun 2027 04:05:57.149   11 Jun 2027 04:06:40.621            43.472         21736.000
       299   11 Jun 2027 05:25:22.891   11 Jun 2027 05:25:34.635            11.744          5872.000
       300   11 Jun 2027 05:36:09.298   11 Jun 2027 05:37:50.286           100.988         50019.937
       301   11 Jun 2027 05:39:01.100   11 Jun 2027 05:39:02.863             1.763           881.500
       302   11 Jun 2027 05:39:10.866   11 Jun 2027 05:39:16.420             5.554          1253.312
       303   11 Jun 2027 07:00:08.513   11 Jun 2027 07:00:20.291            11.778          5714.625
       304   11 Jun 2027 07:01:00.709   11 Jun 2027 07:01:04.632             3.923          1061.750
       305   11 Jun 2027 08:35:53.634   11 Jun 2027 08:36:00.088             6.454          2429.969
       306   11 Jun 2027 08:36:57.362   11 Jun 2027 08:36:57.362             0.000             0.000
       307   11 Jun 2027 08:38:02.225   11 Jun 2027 08:38:11.862             9.637          3510.688
       308   11 Jun 2027 08:38:16.581   11 Jun 2027 08:38:18.987             2.406            22.875
       309   11 Jun 2027 08:38:28.509   11 Jun 2027 08:38:29.572             1.063           268.469
       310   11 Jun 2027 08:39:21.521   11 Jun 2027 08:39:24.428             2.907          1375.531
       311   11 Jun 2027 10:10:44.899   11 Jun 2027 10:10:53.232             8.333          3459.969
       312   11 Jun 2027 10:12:34.131   11 Jun 2027 10:12:39.644             5.513          2429.000
       313   11 Jun 2027 10:13:38.336   11 Jun 2027 10:13:40.091             1.755           610.437
       314   11 Jun 2027 10:14:09.824   11 Jun 2027 10:14:11.611             1.787           712.312
       315   11 Jun 2027 10:16:21.699   11 Jun 2027 10:16:25.000             3.301           207.281
       316   11 Jun 2027 10:17:32.562   11 Jun 2027 10:17:37.924             5.362          2111.313
       317   11 Jun 2027 11:47:20.490   11 Jun 2027 11:47:32.425            11.935          5873.000
       318   11 Jun 2027 11:48:09.014   11 Jun 2027 11:48:09.482             0.468           217.000
       319   11 Jun 2027 11:49:13.466   11 Jun 2027 11:49:19.725             6.259          1908.156
       320   11 Jun 2027 11:50:13.349   11 Jun 2027 11:50:16.356             3.007           836.188
       321   11 Jun 2027 11:51:06.629   11 Jun 2027 11:51:12.448             5.819          1466.563
       322   11 Jun 2027 11:51:44.869   11 Jun 2027 11:51:47.360             2.491           786.813
       323   11 Jun 2027 11:52:24.993   11 Jun 2027 11:52:32.996             8.003           925.719
       324   11 Jun 2027 11:52:35.447   11 Jun 2027 11:52:40.576             5.129            76.594
       325   11 Jun 2027 11:53:05.885   11 Jun 2027 11:53:07.273             1.388           580.750
       326   11 Jun 2027 11:53:22.513   11 Jun 2027 11:53:23.612             1.099           305.219
       327   11 Jun 2027 11:53:25.187   11 Jun 2027 11:53:30.042             4.855            49.219
       328   12 Jun 2027 04:11:23.977   12 Jun 2027 04:13:52.248           148.271         74135.500
       329   12 Jun 2027 04:14:13.089   12 Jun 2027 04:14:37.910            24.821         12410.500
       330   12 Jun 2027 04:16:20.808   12 Jun 2027 04:16:29.577             8.769          4384.500
       331   12 Jun 2027 04:17:20.072   12 Jun 2027 04:17:33.865            13.793          6896.500
       332   12 Jun 2027 05:36:39.605   12 Jun 2027 05:37:10.229            30.624         15312.000
       333   12 Jun 2027 05:48:07.790   12 Jun 2027 05:49:35.892            88.102         44051.000
       334   12 Jun 2027 07:10:46.989   12 Jun 2027 07:10:57.520            10.531          5099.469
       335   12 Jun 2027 07:11:26.192   12 Jun 2027 07:11:28.189             1.997           896.000
       336   12 Jun 2027 07:12:22.771   12 Jun 2027 07:12:23.220             0.449           185.719
       337   12 Jun 2027 07:12:37.255   12 Jun 2027 07:12:37.760             0.505           225.406
       338   12 Jun 2027 07:13:02.578   12 Jun 2027 07:13:02.578             0.000             0.000
       339   12 Jun 2027 07:14:14.221   12 Jun 2027 07:14:25.945            11.724          2927.250
       340   12 Jun 2027 07:15:06.004   12 Jun 2027 07:15:08.087             2.083           838.031
       341   12 Jun 2027 08:46:06.906   12 Jun 2027 08:46:16.673             9.767          4703.750
       342   12 Jun 2027 08:47:38.942   12 Jun 2027 08:47:40.494             1.552           193.000
       343   12 Jun 2027 08:48:58.532   12 Jun 2027 08:48:58.532             0.000             0.000
       344   12 Jun 2027 08:49:39.359   12 Jun 2027 08:49:48.522             9.163          3164.469
       345   12 Jun 2027 08:50:47.950   12 Jun 2027 08:50:51.699             3.749           306.031
       346   12 Jun 2027 08:51:34.557   12 Jun 2027 08:51:38.044             3.487           942.594
       347   12 Jun 2027 10:22:37.188   12 Jun 2027 10:22:47.522            10.334          3117.625
       348   12 Jun 2027 10:24:34.678   12 Jun 2027 10:24:34.678             0.000             0.000
       349   12 Jun 2027 10:25:52.852   12 Jun 2027 10:26:03.409            10.557          5278.500
       350   12 Jun 2027 10:26:04.942   12 Jun 2027 10:26:06.258             1.316           371.594
       351   12 Jun 2027 10:26:26.595   12 Jun 2027 10:26:27.738             1.143           449.656
       352   12 Jun 2027 10:28:23.830   12 Jun 2027 10:28:29.368             5.538          2487.438
       353   12 Jun 2027 10:29:25.461   12 Jun 2027 10:29:33.065             7.604          1341.500
       354   12 Jun 2027 11:59:41.794   12 Jun 2027 11:59:54.135            12.341          5126.875
       355   13 Jun 2027 04:23:39.465   13 Jun 2027 04:26:04.076           144.611         72305.500
       356   13 Jun 2027 04:26:26.454   13 Jun 2027 04:26:30.499             4.045          2022.500
       357   13 Jun 2027 04:27:37.515   13 Jun 2027 04:28:21.678            44.163         22081.500
       358   13 Jun 2027 04:30:27.616   13 Jun 2027 04:30:43.855            16.239          8119.500
       359   13 Jun 2027 05:47:54.760   13 Jun 2027 05:48:11.585            16.825          8412.500
       360   13 Jun 2027 05:49:38.852   13 Jun 2027 05:49:38.852             0.000             0.000
       361   13 Jun 2027 06:00:07.072   13 Jun 2027 06:01:04.806            57.734         28867.000
       362   13 Jun 2027 07:22:23.028   13 Jun 2027 07:23:15.850            52.822         26411.000
       363   13 Jun 2027 07:24:18.700   13 Jun 2027 07:24:23.636             4.936          2001.969
       364   13 Jun 2027 07:24:39.219   13 Jun 2027 07:24:39.219             0.000             0.000
       365   13 Jun 2027 07:25:06.972   13 Jun 2027 07:25:10.012             3.040          1048.250
       366   13 Jun 2027 08:57:16.456   13 Jun 2027 08:57:24.962             8.506          4190.031
       367   13 Jun 2027 08:58:27.790   13 Jun 2027 08:58:28.067             0.277           138.500
       368   13 Jun 2027 08:59:00.500   13 Jun 2027 08:59:03.608             3.108          1239.156
       369   13 Jun 2027 09:00:22.706   13 Jun 2027 09:00:25.816             3.110          1459.656
       370   13 Jun 2027 09:00:56.551   13 Jun 2027 09:00:59.392             2.841           490.813
       371   13 Jun 2027 09:02:35.954   13 Jun 2027 09:02:35.954             0.000             0.000
       372   13 Jun 2027 09:03:10.192   13 Jun 2027 09:03:20.130             9.938          4087.500
       373   13 Jun 2027 09:03:53.115   13 Jun 2027 09:03:54.014             0.899            76.594
       374   13 Jun 2027 09:05:20.810   13 Jun 2027 09:05:24.276             3.466          1098.187
       375   13 Jun 2027 10:34:50.442   13 Jun 2027 10:35:03.163            12.721          5683.812
       376   13 Jun 2027 10:37:54.727   13 Jun 2027 10:37:59.906             5.179          2502.344
       377   13 Jun 2027 10:38:32.462   13 Jun 2027 10:38:32.462             0.000             0.000
       378   13 Jun 2027 10:40:21.768   13 Jun 2027 10:40:31.052             9.284          3609.375
       379   13 Jun 2027 10:41:29.950   13 Jun 2027 10:41:39.478             9.528          1512.437
       380   13 Jun 2027 10:42:10.548   13 Jun 2027 10:42:10.629             0.081            40.500
