uniorb/output/strategy_4/Camera/Camera_KinoSat_110707.txt

KinoSat_110707
-------------------------
    Access    *     Start Time (UTCG)     *     Stop Time (UTCG)  *   Duration (s) *   Data (Mbytes)
         1   01 Jun 2027 03:18:51.805   01 Jun 2027 03:19:50.727            58.922         29461.000
         2   01 Jun 2027 03:21:07.416   01 Jun 2027 03:21:13.713             6.297          3148.500
         3   01 Jun 2027 03:22:38.003   01 Jun 2027 03:22:57.553            19.550          9775.000
         4   01 Jun 2027 03:23:12.009   01 Jun 2027 03:23:14.376             2.367          1183.500
         5   01 Jun 2027 03:23:21.523   01 Jun 2027 03:23:21.523             0.000             0.000
         6   01 Jun 2027 03:23:24.962   01 Jun 2027 03:23:39.214            14.252          7126.000
         7   01 Jun 2027 04:53:50.113   01 Jun 2027 04:55:29.141            99.028         49514.000
         8   01 Jun 2027 04:56:14.753   01 Jun 2027 04:56:17.878             3.125          1562.500
         9   01 Jun 2027 04:56:23.844   01 Jun 2027 04:56:31.341             7.497          3748.500
        10   01 Jun 2027 04:56:57.872   01 Jun 2027 04:56:57.964             0.092            46.000
        11   01 Jun 2027 04:58:07.239   01 Jun 2027 04:58:15.451             8.212          4106.000
        12   01 Jun 2027 04:59:45.748   01 Jun 2027 04:59:58.889            13.141          6570.500
        13   01 Jun 2027 05:02:05.779   01 Jun 2027 05:02:11.270             5.491          2745.500
        14   01 Jun 2027 06:31:18.129   01 Jun 2027 06:32:41.694            83.565         41782.500
        15   01 Jun 2027 06:33:17.781   01 Jun 2027 06:33:49.968            32.187         16093.500
        16   01 Jun 2027 06:34:13.749   01 Jun 2027 06:34:15.166             1.417           708.500
        17   01 Jun 2027 06:35:13.935   01 Jun 2027 06:35:21.512             7.577          3788.500
        18   01 Jun 2027 06:36:18.342   01 Jun 2027 06:36:25.716             7.374          3687.000
        19   01 Jun 2027 06:38:35.736   01 Jun 2027 06:38:36.174             0.438           219.000
        20   01 Jun 2027 08:08:03.850   01 Jun 2027 08:10:40.463           156.613         78306.500
        21   01 Jun 2027 08:10:57.601   01 Jun 2027 08:11:19.930            22.329         11164.500
        22   01 Jun 2027 09:46:01.531   01 Jun 2027 09:48:45.988           164.457         82228.500
        23   01 Jun 2027 11:19:39.212   01 Jun 2027 11:21:48.564           129.352         64676.000
        24   01 Jun 2027 11:22:14.525   01 Jun 2027 11:22:24.456             9.931          4965.500
        25   01 Jun 2027 11:26:06.282   01 Jun 2027 11:26:41.253            34.971         17485.500
        26   02 Jun 2027 03:30:28.392   02 Jun 2027 03:30:42.111            13.719          6859.500
        27   02 Jun 2027 03:33:15.883   02 Jun 2027 03:33:39.289            23.406         11703.000
        28   02 Jun 2027 05:05:17.970   02 Jun 2027 05:08:20.667           182.697         91348.500
        29   02 Jun 2027 05:08:52.417   02 Jun 2027 05:08:55.281             2.864          1432.000
        30   02 Jun 2027 05:12:25.554   02 Jun 2027 05:12:30.294             4.740          2370.000
        31   02 Jun 2027 05:12:55.848   02 Jun 2027 05:13:04.524             8.676          4338.000
        32   02 Jun 2027 05:14:11.225   02 Jun 2027 05:14:26.601            15.376          7688.000
        33   02 Jun 2027 06:43:11.173   02 Jun 2027 06:45:21.692           130.519         65259.500
        34   02 Jun 2027 06:46:20.459   02 Jun 2027 06:47:29.495            69.036         34518.000
        35   02 Jun 2027 06:47:53.567   02 Jun 2027 06:47:58.210             4.643          2321.500
        36   02 Jun 2027 06:48:05.290   02 Jun 2027 06:48:08.479             3.189          1594.500
        37   02 Jun 2027 08:19:55.023   02 Jun 2027 08:23:37.721           222.698        111349.000
        38   02 Jun 2027 08:24:49.570   02 Jun 2027 08:25:05.721            16.151          6393.782
        39   02 Jun 2027 08:25:12.746   02 Jun 2027 08:25:14.426             1.680           150.625
        40   02 Jun 2027 08:26:17.628   02 Jun 2027 08:26:25.352             7.724          1942.437
        41   02 Jun 2027 09:58:01.941   02 Jun 2027 09:58:18.277            16.336          6974.375
        42   02 Jun 2027 09:58:47.105   02 Jun 2027 09:58:54.372             7.267            89.000
        43   02 Jun 2027 09:59:04.208   02 Jun 2027 09:59:05.773             1.565           197.500
        44   02 Jun 2027 09:59:44.592   02 Jun 2027 09:59:46.643             2.051           889.531
        45   02 Jun 2027 10:00:53.046   02 Jun 2027 10:00:54.813             1.767           165.937
        46   02 Jun 2027 10:01:24.492   02 Jun 2027 10:01:27.199             2.707           648.625
        47   02 Jun 2027 10:01:54.791   02 Jun 2027 10:01:57.661             2.870           264.094
        48   02 Jun 2027 11:33:44.577   02 Jun 2027 11:33:45.776             1.199           407.156
        49   03 Jun 2027 03:44:22.167   03 Jun 2027 03:44:30.692             8.525          4262.500
        50   03 Jun 2027 03:46:30.014   03 Jun 2027 03:46:36.962             6.948          3474.000
        51   03 Jun 2027 05:18:09.559   03 Jun 2027 05:20:50.617           161.058         80529.000
        52   03 Jun 2027 05:24:17.707   03 Jun 2027 05:25:02.370            44.663         22331.500
        53   03 Jun 2027 05:26:02.965   03 Jun 2027 05:26:40.204            37.239         18619.500
        54   03 Jun 2027 06:55:18.387   03 Jun 2027 06:56:23.144            64.757         31535.907
        55   03 Jun 2027 06:56:31.229   03 Jun 2027 06:56:32.389             1.160            75.844
        56   03 Jun 2027 06:57:08.754   03 Jun 2027 06:57:08.754             0.000             0.000
        57   03 Jun 2027 06:58:13.701   03 Jun 2027 06:58:14.909             1.208           604.000
        58   03 Jun 2027 06:58:26.845   03 Jun 2027 06:58:35.954             9.109          2383.969
        59   03 Jun 2027 06:59:07.777   03 Jun 2027 06:59:08.950             1.173           557.875
        60   03 Jun 2027 06:59:55.131   03 Jun 2027 07:00:05.247            10.116           875.781
        61   03 Jun 2027 07:01:09.036   03 Jun 2027 07:01:14.167             5.131          1988.438
        62   03 Jun 2027 07:01:35.359   03 Jun 2027 07:01:37.292             1.933           638.813
        63   03 Jun 2027 08:32:32.466   03 Jun 2027 08:32:41.946             9.480          4619.188
        64   03 Jun 2027 08:34:48.389   03 Jun 2027 08:34:49.916             1.527           204.000
        65   03 Jun 2027 08:35:49.333   03 Jun 2027 08:35:53.130             3.797          1677.500
        66   03 Jun 2027 08:36:07.698   03 Jun 2027 08:36:09.874             2.176           421.125
        67   03 Jun 2027 08:36:51.496   03 Jun 2027 08:36:55.787             4.291           175.469
        68   03 Jun 2027 08:37:17.858   03 Jun 2027 08:37:21.368             3.510           469.656
        69   03 Jun 2027 08:38:06.788   03 Jun 2027 08:38:08.642             1.854           853.531
        70   03 Jun 2027 10:09:15.275   03 Jun 2027 10:09:30.822            15.547          7333.281
        71   03 Jun 2027 10:11:11.180   03 Jun 2027 10:11:16.845             5.665          1293.563
        72   03 Jun 2027 10:12:21.797   03 Jun 2027 10:12:23.535             1.738           280.719
        73   03 Jun 2027 10:13:10.781   03 Jun 2027 10:13:11.506             0.725           329.656
        74   03 Jun 2027 11:44:26.608   03 Jun 2027 11:44:29.785             3.177           686.719
        75   04 Jun 2027 03:56:36.398   04 Jun 2027 03:56:41.464             5.066          2533.000
        76   04 Jun 2027 03:58:48.212   04 Jun 2027 03:58:49.607             1.395           697.500
        77   04 Jun 2027 03:59:36.945   04 Jun 2027 04:00:05.092            28.147         14073.500
        78   04 Jun 2027 05:30:32.603   04 Jun 2027 05:32:49.132           136.529         68264.500
        79   04 Jun 2027 05:33:17.847   04 Jun 2027 05:33:25.469             7.622          3811.000
        80   04 Jun 2027 05:37:03.357   04 Jun 2027 05:37:36.450            33.093         16546.500
        81   04 Jun 2027 05:37:38.123   04 Jun 2027 05:38:32.965            54.842         27421.000
        82   04 Jun 2027 05:38:36.207   04 Jun 2027 05:38:38.974             2.767          1383.500
        83   04 Jun 2027 07:07:43.931   04 Jun 2027 07:08:42.560            58.629         27060.188
        84   04 Jun 2027 07:10:42.746   04 Jun 2027 07:10:44.808             2.062           822.375
        85   04 Jun 2027 07:11:42.947   04 Jun 2027 07:11:48.411             5.464          1547.000
        86   04 Jun 2027 07:11:55.962   04 Jun 2027 07:11:59.664             3.702            83.937
        87   04 Jun 2027 07:14:13.092   04 Jun 2027 07:14:21.435             8.343           813.625
        88   04 Jun 2027 08:44:45.915   04 Jun 2027 08:44:58.367            12.452          4825.437
        89   04 Jun 2027 08:47:54.761   04 Jun 2027 08:47:58.494             3.733          1635.625
        90   04 Jun 2027 08:48:29.510   04 Jun 2027 08:48:33.158             3.648           969.250
        91   04 Jun 2027 08:49:24.636   04 Jun 2027 08:49:26.711             2.075           888.531
        92   04 Jun 2027 10:21:30.482   04 Jun 2027 10:21:44.954            14.472          7043.500
        93   04 Jun 2027 10:23:26.943   04 Jun 2027 10:23:29.701             2.758           240.719
        94   04 Jun 2027 10:23:58.614   04 Jun 2027 10:24:01.192             2.578           676.125
        95   04 Jun 2027 11:59:40.032   04 Jun 2027 11:59:41.004             0.972           468.562
        96   05 Jun 2027 04:08:40.820   05 Jun 2027 04:09:06.425            25.605         12802.500
        97   05 Jun 2027 04:09:32.674   05 Jun 2027 04:09:34.583             1.909           954.500
        98   05 Jun 2027 05:43:49.568   05 Jun 2027 05:45:22.853            93.285         46642.500
        99   05 Jun 2027 05:46:14.799   05 Jun 2027 05:46:38.754            23.955         11977.500
       100   05 Jun 2027 05:46:54.290   05 Jun 2027 05:47:21.695            27.405         13702.500
       101   05 Jun 2027 05:49:54.195   05 Jun 2027 05:50:38.181            43.986         21993.000
       102   05 Jun 2027 07:20:09.518   05 Jun 2027 07:21:46.677            97.159         48521.156
       103   05 Jun 2027 07:22:56.478   05 Jun 2027 07:23:04.293             7.815          1127.594
       104   05 Jun 2027 07:23:42.827   05 Jun 2027 07:23:45.052             2.225            60.125
       105   05 Jun 2027 07:24:04.337   05 Jun 2027 07:24:05.396             1.059           489.375
       106   05 Jun 2027 07:25:53.069   05 Jun 2027 07:25:55.155             2.086           451.094
       107   05 Jun 2027 08:57:44.299   05 Jun 2027 08:57:56.487            12.188          4972.375
       108   05 Jun 2027 08:59:00.687   05 Jun 2027 08:59:01.705             1.018           373.375
       109   05 Jun 2027 08:59:58.865   05 Jun 2027 09:00:00.876             2.011           706.500
       110   05 Jun 2027 10:33:46.915   05 Jun 2027 10:34:00.399            13.484          6615.094
       111   06 Jun 2027 04:20:51.307   06 Jun 2027 04:21:58.622            67.315         33657.500
       112   06 Jun 2027 04:22:44.815   06 Jun 2027 04:22:51.600             6.785          3392.500
       113   06 Jun 2027 04:23:50.892   06 Jun 2027 04:24:02.283            11.391          5695.500
       114   06 Jun 2027 04:24:14.433   06 Jun 2027 04:24:19.078             4.645          2322.500
       115   06 Jun 2027 05:56:01.207   06 Jun 2027 05:58:23.603           142.396         71198.000
       116   06 Jun 2027 05:58:37.721   06 Jun 2027 05:58:42.055             4.334          2167.000
       117   06 Jun 2027 06:01:44.705   06 Jun 2027 06:02:36.967            52.262         26131.000
       118   06 Jun 2027 07:32:22.278   06 Jun 2027 07:32:50.579            28.301         13687.063
       119   06 Jun 2027 07:34:59.017   06 Jun 2027 07:34:59.632             0.615            67.656
       120   06 Jun 2027 07:36:00.050   06 Jun 2027 07:36:00.050             0.000             0.000
       121   06 Jun 2027 07:36:45.653   06 Jun 2027 07:36:51.990             6.337          2419.094
       122   06 Jun 2027 07:37:18.163   06 Jun 2027 07:37:22.157             3.994           817.906
       123   06 Jun 2027 09:09:39.226   06 Jun 2027 09:09:49.293            10.067          5024.156
       124   06 Jun 2027 10:45:51.483   06 Jun 2027 10:46:02.542            11.059          5371.906
       125   06 Jun 2027 10:47:43.139   06 Jun 2027 10:47:49.405             6.266           670.031
       126   06 Jun 2027 10:48:25.105   06 Jun 2027 10:48:27.864             2.759           720.406
       127   07 Jun 2027 04:32:39.366   07 Jun 2027 04:34:19.190            99.824         49912.000
       128   07 Jun 2027 04:35:19.931   07 Jun 2027 04:36:03.826            43.895         21947.500
       129   07 Jun 2027 06:07:33.025   07 Jun 2027 06:08:13.728            40.703         20351.500
       130   07 Jun 2027 06:09:00.970   07 Jun 2027 06:10:51.307           110.337         55131.500
       131   07 Jun 2027 06:12:15.313   07 Jun 2027 06:12:17.381             2.068          1034.000
       132   07 Jun 2027 06:12:24.318   07 Jun 2027 06:12:29.205             4.887          1796.562
       133   07 Jun 2027 06:13:30.277   07 Jun 2027 06:13:33.713             3.436           878.031
       134   07 Jun 2027 06:14:11.277   07 Jun 2027 06:14:14.085             2.808           448.031
       135   07 Jun 2027 07:43:59.948   07 Jun 2027 07:44:02.361             2.413            96.781
       136   07 Jun 2027 07:45:20.599   07 Jun 2027 07:45:23.807             3.208            80.844
       137   07 Jun 2027 07:46:08.610   07 Jun 2027 07:46:10.934             2.324           371.469
       138   07 Jun 2027 07:46:37.003   07 Jun 2027 07:46:38.814             1.811           772.625
       139   07 Jun 2027 07:47:01.871   07 Jun 2027 07:47:05.010             3.139            25.938
       140   07 Jun 2027 07:48:01.895   07 Jun 2027 07:48:05.641             3.746          1453.031
       141   07 Jun 2027 07:48:53.236   07 Jun 2027 07:48:54.940             1.704           437.313
       142   07 Jun 2027 07:50:03.903   07 Jun 2027 07:50:05.039             1.136           421.031
       143   07 Jun 2027 09:22:18.362   07 Jun 2027 09:22:29.362            11.000          4937.500
       144   07 Jun 2027 09:22:36.100   07 Jun 2027 09:22:37.266             1.166           210.563
       145   07 Jun 2027 09:24:02.830   07 Jun 2027 09:24:06.210             3.380          1483.438
       146   07 Jun 2027 09:24:55.697   07 Jun 2027 09:24:56.136             0.439            49.812
       147   07 Jun 2027 09:25:29.468   07 Jun 2027 09:25:31.470             2.002           293.062
       148   07 Jun 2027 09:26:00.984   07 Jun 2027 09:26:02.836             1.852           617.125
       149   07 Jun 2027 10:57:44.894   07 Jun 2027 10:57:57.539            12.645          5802.594
       150   08 Jun 2027 03:07:23.302   08 Jun 2027 03:07:49.465            26.163         13081.500
       151   08 Jun 2027 04:42:55.650   08 Jun 2027 04:43:45.970            50.320         25160.000
       152   08 Jun 2027 04:44:24.031   08 Jun 2027 04:46:47.979           143.948         71974.000
       153   08 Jun 2027 04:47:14.039   08 Jun 2027 04:47:21.351             7.312          3656.000
       154   08 Jun 2027 04:49:02.386   08 Jun 2027 04:49:02.581             0.195            97.500
       155   08 Jun 2027 06:19:13.708   08 Jun 2027 06:20:34.211            80.503         40076.312
       156   08 Jun 2027 06:21:32.518   08 Jun 2027 06:21:35.836             3.318          1659.000
       157   08 Jun 2027 06:22:15.697   08 Jun 2027 06:22:21.017             5.320          1247.875
       158   08 Jun 2027 06:24:16.760   08 Jun 2027 06:24:25.679             8.919          3536.469
       159   08 Jun 2027 06:25:01.196   08 Jun 2027 06:25:05.779             4.583          1061.781
       160   08 Jun 2027 06:25:11.217   08 Jun 2027 06:25:12.036             0.819            52.781
       161   08 Jun 2027 06:26:01.254   08 Jun 2027 06:26:06.518             5.264            36.563
       162   08 Jun 2027 07:56:19.495   08 Jun 2027 07:56:21.249             1.754           374.031
       163   08 Jun 2027 07:58:35.868   08 Jun 2027 07:58:36.544             0.676            43.375
       164   08 Jun 2027 08:00:02.662   08 Jun 2027 08:00:06.597             3.935          1879.625
       165   08 Jun 2027 08:00:46.843   08 Jun 2027 08:00:49.379             2.536          1001.063
       166   08 Jun 2027 08:01:36.394   08 Jun 2027 08:01:45.520             9.126          1438.094
       167   08 Jun 2027 08:02:20.396   08 Jun 2027 08:02:21.945             1.549           138.281
       168   08 Jun 2027 08:02:38.545   08 Jun 2027 08:02:40.191             1.646           495.469
       169   08 Jun 2027 09:34:16.633   08 Jun 2027 09:34:29.416            12.783          5325.469
       170   08 Jun 2027 09:35:21.603   08 Jun 2027 09:35:26.197             4.594          1630.844
       171   08 Jun 2027 09:35:36.205   08 Jun 2027 09:35:37.641             1.436           231.156
       172   08 Jun 2027 09:37:03.127   08 Jun 2027 09:37:10.003             6.876          1893.344
       173   08 Jun 2027 09:37:46.496   08 Jun 2027 09:37:47.610             1.114           277.219
       174   08 Jun 2027 09:38:02.728   08 Jun 2027 09:38:05.536             2.808           472.438
       175   08 Jun 2027 11:07:21.466   08 Jun 2027 11:07:30.937             9.471          4416.500
       176   09 Jun 2027 03:19:06.404   09 Jun 2027 03:19:10.532             4.128          2064.000
       177   09 Jun 2027 03:20:07.875   09 Jun 2027 03:20:07.875             0.000             0.000
       178   09 Jun 2027 03:21:02.796   09 Jun 2027 03:21:14.773            11.977          5988.500
       179   09 Jun 2027 03:21:52.816   09 Jun 2027 03:22:01.961             9.145          4572.500
       180   09 Jun 2027 04:54:04.484   09 Jun 2027 04:55:58.918           114.434         57217.000
       181   09 Jun 2027 04:56:07.949   09 Jun 2027 04:57:41.144            93.195         46597.500
       182   09 Jun 2027 04:59:29.224   09 Jun 2027 04:59:45.753            16.529          8264.500
       183   09 Jun 2027 05:00:13.951   09 Jun 2027 05:00:17.751             3.800          1900.000
       184   09 Jun 2027 05:02:10.082   09 Jun 2027 05:02:13.537             3.455          1727.500
       185   09 Jun 2027 06:31:32.785   09 Jun 2027 06:32:31.127            58.342         29006.469
       186   09 Jun 2027 06:33:39.218   09 Jun 2027 06:33:43.987             4.769          1774.156
       187   09 Jun 2027 06:33:48.582   09 Jun 2027 06:33:49.958             1.376            79.094
       188   09 Jun 2027 06:34:26.861   09 Jun 2027 06:34:26.861             0.000             0.000
       189   09 Jun 2027 06:34:37.967   09 Jun 2027 06:34:39.350             1.383           675.187
       190   09 Jun 2027 06:36:15.456   09 Jun 2027 06:36:20.396             4.940          2435.656
       191   09 Jun 2027 06:36:29.988   09 Jun 2027 06:36:29.988             0.000             0.000
       192   09 Jun 2027 06:36:42.848   09 Jun 2027 06:36:44.798             1.950           698.062
       193   09 Jun 2027 06:37:26.679   09 Jun 2027 06:37:30.325             3.646          1270.781
       194   09 Jun 2027 06:37:43.550   09 Jun 2027 06:37:44.637             1.087           402.187
       195   09 Jun 2027 08:08:17.675   09 Jun 2027 08:08:19.999             2.324           955.313
       196   09 Jun 2027 08:11:03.379   09 Jun 2027 08:11:09.586             6.207           980.375
       197   09 Jun 2027 08:11:34.668   09 Jun 2027 08:11:40.873             6.205           702.031
       198   09 Jun 2027 08:12:00.728   09 Jun 2027 08:12:03.096             2.368           221.000
       199   09 Jun 2027 08:12:13.938   09 Jun 2027 08:12:14.507             0.569           237.000
       200   09 Jun 2027 08:12:24.943   09 Jun 2027 08:12:25.558             0.615           256.094
       201   09 Jun 2027 08:12:59.402   09 Jun 2027 08:13:04.370             4.968           953.031
       202   09 Jun 2027 08:13:43.640   09 Jun 2027 08:13:44.746             1.106           275.656
       203   09 Jun 2027 09:46:15.962   09 Jun 2027 09:46:30.803            14.841          7110.875
       204   09 Jun 2027 09:47:27.246   09 Jun 2027 09:47:28.489             1.243           586.844
       205   09 Jun 2027 09:48:48.820   09 Jun 2027 09:48:52.830             4.010          1480.844
       206   09 Jun 2027 09:49:09.976   09 Jun 2027 09:49:11.109             1.133            45.719
       207   09 Jun 2027 09:49:31.232   09 Jun 2027 09:49:33.924             2.692           569.813
       208   09 Jun 2027 09:49:39.029   09 Jun 2027 09:49:41.649             2.620           106.781
       209   09 Jun 2027 09:50:09.760   09 Jun 2027 09:50:15.931             6.171           807.812
       210   09 Jun 2027 11:19:53.784   09 Jun 2027 11:19:55.109             1.325           543.781
       211   10 Jun 2027 03:30:40.081   10 Jun 2027 03:30:45.668             5.587          2793.500
       212   10 Jun 2027 03:31:47.824   10 Jun 2027 03:31:49.787             1.963           981.500
       213   10 Jun 2027 03:33:23.324   10 Jun 2027 03:33:31.171             7.847          3923.500
       214   10 Jun 2027 03:35:38.516   10 Jun 2027 03:35:54.799            16.283          8141.500
       215   10 Jun 2027 05:05:32.374   10 Jun 2027 05:09:00.613           208.239        104119.500
       216   10 Jun 2027 05:09:20.015   10 Jun 2027 05:09:38.746            18.731          9365.500
       217   10 Jun 2027 05:14:25.680   10 Jun 2027 05:14:41.865            16.185          8092.500
       218   10 Jun 2027 06:43:25.805   10 Jun 2027 06:44:18.713            52.908         26037.875
       219   10 Jun 2027 06:45:25.059   10 Jun 2027 06:45:30.523             5.464          1238.281
       220   10 Jun 2027 06:46:06.731   10 Jun 2027 06:46:11.502             4.771          1116.469
       221   10 Jun 2027 06:46:41.278   10 Jun 2027 06:46:42.945             1.667           400.438
       222   10 Jun 2027 06:47:04.311   10 Jun 2027 06:47:06.765             2.454           277.562
       223   10 Jun 2027 06:47:44.480   10 Jun 2027 06:47:49.125             4.645          1055.031
       224   10 Jun 2027 06:48:08.449   10 Jun 2027 06:48:09.664             1.215           580.781
       225   10 Jun 2027 06:48:23.534   10 Jun 2027 06:48:24.689             1.155           318.875
       226   10 Jun 2027 06:49:01.296   10 Jun 2027 06:49:02.620             1.324           662.000
       227   10 Jun 2027 06:49:17.632   10 Jun 2027 06:49:21.042             3.410           894.906
       228   10 Jun 2027 08:20:09.694   10 Jun 2027 08:20:14.016             4.322          1057.969
       229   10 Jun 2027 08:21:57.385   10 Jun 2027 08:22:00.915             3.530          1121.937
       230   10 Jun 2027 08:23:03.576   10 Jun 2027 08:23:11.029             7.453           531.281
       231   10 Jun 2027 08:23:35.683   10 Jun 2027 08:23:39.980             4.297           595.312
       232   10 Jun 2027 08:24:09.562   10 Jun 2027 08:24:17.019             7.457           536.969
       233   10 Jun 2027 08:24:53.129   10 Jun 2027 08:24:54.080             0.951           434.812
       234   10 Jun 2027 08:25:49.940   10 Jun 2027 08:25:53.632             3.692          1742.406
       235   10 Jun 2027 09:58:16.213   10 Jun 2027 09:58:26.596            10.383          5109.250
       236   10 Jun 2027 09:59:32.347   10 Jun 2027 09:59:36.418             4.071          1689.344
       237   10 Jun 2027 10:01:20.794   10 Jun 2027 10:01:25.431             4.637           428.406
       238   10 Jun 2027 10:02:01.792   10 Jun 2027 10:02:09.067             7.275           833.562
       239   10 Jun 2027 11:34:00.088   10 Jun 2027 11:34:01.779             1.691           395.125
       240   11 Jun 2027 03:44:37.167   11 Jun 2027 03:44:40.243             3.076          1538.000
       241   11 Jun 2027 03:45:54.703   11 Jun 2027 03:45:57.005             2.302          1151.000
       242   11 Jun 2027 03:46:45.823   11 Jun 2027 03:46:52.885             7.062          3531.000
       243   11 Jun 2027 05:18:24.470   11 Jun 2027 05:21:38.180           193.710         96855.000
       244   11 Jun 2027 05:22:41.539   11 Jun 2027 05:22:52.278            10.739          5369.500
       245   11 Jun 2027 05:24:58.582   11 Jun 2027 05:24:58.582             0.000             0.000
       246   11 Jun 2027 05:26:05.569   11 Jun 2027 05:26:18.769            13.200          6600.000
       247   11 Jun 2027 05:26:54.848   11 Jun 2027 05:26:55.009             0.161            80.500
       248   11 Jun 2027 06:55:33.260   11 Jun 2027 06:57:02.359            89.099         42265.781
       249   11 Jun 2027 06:57:25.031   11 Jun 2027 06:57:26.568             1.537           596.000
       250   11 Jun 2027 06:58:29.729   11 Jun 2027 06:58:30.772             1.043           521.500
       251   11 Jun 2027 06:58:44.575   11 Jun 2027 06:58:50.479             5.904          1033.313
       252   11 Jun 2027 06:59:22.144   11 Jun 2027 06:59:24.034             1.890           547.656
       253   11 Jun 2027 07:00:10.218   11 Jun 2027 07:00:12.172             1.954           854.688
       254   11 Jun 2027 07:00:26.733   11 Jun 2027 07:00:27.878             1.145           455.031
       255   11 Jun 2027 07:01:49.998   11 Jun 2027 07:01:50.189             0.191            95.500
       256   11 Jun 2027 08:32:47.666   11 Jun 2027 08:32:55.359             7.693          3710.500
       257   11 Jun 2027 08:35:20.823   11 Jun 2027 08:35:27.038             6.215           649.375
       258   11 Jun 2027 08:36:12.480   11 Jun 2027 08:36:15.141             2.661          1293.000
       259   11 Jun 2027 08:37:01.067   11 Jun 2027 08:37:03.877             2.810          1398.438
       260   11 Jun 2027 08:37:55.382   11 Jun 2027 08:37:59.174             3.792          1522.719
       261   11 Jun 2027 10:09:30.039   11 Jun 2027 10:09:46.335            16.296          6342.094
       262   11 Jun 2027 10:11:56.212   11 Jun 2027 10:12:01.856             5.644           244.688
       263   11 Jun 2027 10:13:40.699   11 Jun 2027 10:13:42.870             2.171           403.531
       264   11 Jun 2027 11:44:41.539   11 Jun 2027 11:44:44.017             2.478            48.656
       265   12 Jun 2027 03:56:50.230   12 Jun 2027 03:56:59.777             9.547          4773.500
       266   12 Jun 2027 05:30:47.943   12 Jun 2027 05:34:03.425           195.482         97741.000
       267   12 Jun 2027 05:37:33.949   12 Jun 2027 05:37:50.836            16.887          8443.500
       268   12 Jun 2027 05:37:52.751   12 Jun 2027 05:38:06.349            13.598          6799.000
       269   12 Jun 2027 05:38:38.638   12 Jun 2027 05:38:48.135             9.497          4748.500
       270   12 Jun 2027 05:38:50.845   12 Jun 2027 05:38:53.665             2.820          1410.000
       271   12 Jun 2027 07:07:58.660   12 Jun 2027 07:09:02.613            63.953         31555.937
       272   12 Jun 2027 07:11:08.130   12 Jun 2027 07:11:12.803             4.673           342.875
       273   12 Jun 2027 07:12:18.268   12 Jun 2027 07:12:22.771             4.503           636.344
       274   12 Jun 2027 07:14:29.813   12 Jun 2027 07:14:36.202             6.389           853.469
       275   12 Jun 2027 08:44:58.642   12 Jun 2027 08:45:08.055             9.413          4478.781
       276   12 Jun 2027 08:47:01.607   12 Jun 2027 08:47:08.232             6.625          2092.250
       277   12 Jun 2027 08:47:17.220   12 Jun 2027 08:47:22.196             4.976           276.094
       278   12 Jun 2027 08:48:05.538   12 Jun 2027 08:48:09.202             3.664          1354.437
       279   12 Jun 2027 08:50:11.241   12 Jun 2027 08:50:16.566             5.325           350.438
       280   12 Jun 2027 10:21:44.866   12 Jun 2027 10:22:00.845            15.979          7235.281
       281   12 Jun 2027 10:23:41.041   12 Jun 2027 10:23:45.135             4.094          1126.437
       282   12 Jun 2027 10:24:13.866   12 Jun 2027 10:24:16.202             2.336           692.344
       283   12 Jun 2027 11:59:54.877   12 Jun 2027 11:59:55.968             1.091           471.563
       284   13 Jun 2027 04:08:55.611   13 Jun 2027 04:09:22.613            27.002         13501.000
       285   13 Jun 2027 04:09:47.220   13 Jun 2027 04:09:47.220             0.000             0.000
       286   13 Jun 2027 05:44:04.469   13 Jun 2027 05:45:37.558            93.089         46544.500
       287   13 Jun 2027 05:46:14.408   13 Jun 2027 05:46:53.340            38.932         19466.000
       288   13 Jun 2027 05:47:35.844   13 Jun 2027 05:48:56.413            80.569         40284.500
       289   13 Jun 2027 05:50:45.693   13 Jun 2027 05:50:53.080             7.387          3693.500
       290   13 Jun 2027 07:20:24.494   13 Jun 2027 07:21:34.065            69.571         34666.500
       291   13 Jun 2027 07:23:11.159   13 Jun 2027 07:23:15.850             4.691          1134.469
       292   13 Jun 2027 07:23:59.320   13 Jun 2027 07:24:00.050             0.730           121.687
       293   13 Jun 2027 07:26:11.541   13 Jun 2027 07:26:13.187             1.646           578.781
       294   13 Jun 2027 08:57:58.956   13 Jun 2027 08:58:09.632            10.676          5226.687
       295   13 Jun 2027 08:59:17.075   13 Jun 2027 08:59:19.708             2.633           420.844
       296   13 Jun 2027 09:01:12.300   13 Jun 2027 09:01:18.276             5.976          1820.063
       297   13 Jun 2027 10:34:01.811   13 Jun 2027 10:34:15.222            13.411          6514.156
       298   13 Jun 2027 10:36:18.462   13 Jun 2027 10:36:21.400             2.938           778.625
       299   13 Jun 2027 10:37:50.751   13 Jun 2027 10:37:52.392             1.641           319.000
