uniorb/output/strategy_4/Camera/Camera_KinoSat_110806.txt

KinoSat_110806
-------------------------
    Access    *     Start Time (UTCG)     *     Stop Time (UTCG)  *   Duration (s) *   Data (Mbytes)
         1   01 Jun 2027 03:26:00.902   01 Jun 2027 03:27:38.878            97.976         48988.000
         2   01 Jun 2027 05:01:55.788   01 Jun 2027 05:03:54.219           118.431         59215.500
         3   01 Jun 2027 05:05:34.107   01 Jun 2027 05:05:42.725             8.618          4309.000
         4   01 Jun 2027 05:05:51.139   01 Jun 2027 05:05:54.380             3.241          1620.500
         5   01 Jun 2027 06:36:51.888   01 Jun 2027 06:38:28.452            96.564         48282.000
         6   01 Jun 2027 06:39:33.506   01 Jun 2027 06:39:35.042             1.536           768.000
         7   01 Jun 2027 06:42:21.336   01 Jun 2027 06:42:42.281            20.945         10472.500
         8   01 Jun 2027 08:13:10.823   01 Jun 2027 08:15:50.607           159.784         79892.000
         9   01 Jun 2027 09:51:26.092   01 Jun 2027 09:53:32.392           126.300         63150.000
        10   01 Jun 2027 09:54:18.374   01 Jun 2027 09:54:59.541            41.167         20583.500
        11   01 Jun 2027 11:26:46.320   01 Jun 2027 11:29:01.634           135.314         67657.000
        12   01 Jun 2027 11:29:38.840   01 Jun 2027 11:30:09.102            30.262         15131.000
        13   02 Jun 2027 03:36:38.683   02 Jun 2027 03:36:47.256             8.573          4286.500
        14   02 Jun 2027 03:37:13.803   02 Jun 2027 03:37:13.803             0.000             0.000
        15   02 Jun 2027 03:37:39.193   02 Jun 2027 03:37:45.226             6.033          3016.500
        16   02 Jun 2027 03:38:03.997   02 Jun 2027 03:38:11.643             7.646          3823.000
        17   02 Jun 2027 03:38:26.312   02 Jun 2027 03:38:26.312             0.000             0.000
        18   02 Jun 2027 03:40:29.782   02 Jun 2027 03:40:34.322             4.540          2270.000
        19   02 Jun 2027 05:12:14.467   02 Jun 2027 05:12:52.899            38.432         19216.000
        20   02 Jun 2027 05:13:39.754   02 Jun 2027 05:15:56.835           137.081         68540.500
        21   02 Jun 2027 05:16:03.212   02 Jun 2027 05:16:12.310             9.098          4549.000
        22   02 Jun 2027 05:17:11.922   02 Jun 2027 05:17:22.330            10.408          5204.000
        23   02 Jun 2027 06:48:25.265   02 Jun 2027 06:51:40.019           194.754         97377.000
        24   02 Jun 2027 06:52:34.336   02 Jun 2027 06:53:43.532            69.196         34598.000
        25   02 Jun 2027 06:55:58.635   02 Jun 2027 06:56:00.020             1.385           692.500
        26   02 Jun 2027 08:25:30.181   02 Jun 2027 08:28:41.605           191.424         95284.688
        27   02 Jun 2027 08:29:41.737   02 Jun 2027 08:29:44.785             3.048           270.469
        28   02 Jun 2027 08:31:51.798   02 Jun 2027 08:31:52.614             0.816           408.000
        29   02 Jun 2027 10:03:29.164   02 Jun 2027 10:03:51.302            22.138          9632.500
        30   02 Jun 2027 10:05:00.148   02 Jun 2027 10:05:05.982             5.834          2151.438
        31   02 Jun 2027 10:05:21.156   02 Jun 2027 10:05:23.476             2.320           408.375
        32   02 Jun 2027 10:06:32.530   02 Jun 2027 10:06:35.215             2.685           127.812
        33   02 Jun 2027 10:07:11.298   02 Jun 2027 10:07:14.397             3.099           998.469
        34   02 Jun 2027 10:07:16.932   02 Jun 2027 10:07:17.794             0.862            27.125
        35   02 Jun 2027 11:36:37.943   02 Jun 2027 11:36:51.981            14.038          5408.594
        36   02 Jun 2027 11:39:44.877   02 Jun 2027 11:39:50.432             5.555           525.719
        37   02 Jun 2027 11:40:11.452   02 Jun 2027 11:40:12.847             1.395           600.312
        38   02 Jun 2027 11:40:57.857   02 Jun 2027 11:40:59.263             1.406           269.375
        39   02 Jun 2027 11:41:45.047   02 Jun 2027 11:41:46.452             1.405           627.250
        40   02 Jun 2027 11:44:29.304   02 Jun 2027 11:44:31.535             2.231           358.687
        41   03 Jun 2027 03:48:16.964   03 Jun 2027 03:48:37.292            20.328         10164.000
        42   03 Jun 2027 03:49:26.240   03 Jun 2027 03:49:27.516             1.276           638.000
        43   03 Jun 2027 03:51:47.066   03 Jun 2027 03:51:54.174             7.108          3554.000
        44   03 Jun 2027 03:53:18.027   03 Jun 2027 03:53:18.027             0.000             0.000
        45   03 Jun 2027 05:23:20.924   03 Jun 2027 05:25:04.289           103.365         51682.500
        46   03 Jun 2027 05:25:24.131   03 Jun 2027 05:26:15.658            51.527         25763.500
        47   03 Jun 2027 05:27:05.370   03 Jun 2027 05:28:00.298            54.928         27464.000
        48   03 Jun 2027 05:31:15.796   03 Jun 2027 05:31:37.334            21.538         10769.000
        49   03 Jun 2027 07:00:43.285   03 Jun 2027 07:01:58.911            75.626         37813.000
        50   03 Jun 2027 07:02:18.771   03 Jun 2027 07:02:22.795             4.024          1228.688
        51   03 Jun 2027 07:03:20.500   03 Jun 2027 07:03:22.626             2.126           254.312
        52   03 Jun 2027 07:04:03.998   03 Jun 2027 07:04:07.114             3.116           893.656
        53   03 Jun 2027 07:04:34.375   03 Jun 2027 07:04:37.569             3.194           818.313
        54   03 Jun 2027 07:05:07.826   03 Jun 2027 07:05:09.448             1.622           248.750
        55   03 Jun 2027 07:06:07.733   03 Jun 2027 07:06:10.413             2.680           754.344
        56   03 Jun 2027 07:07:00.067   03 Jun 2027 07:07:04.253             4.186          1551.687
        57   03 Jun 2027 08:37:31.663   03 Jun 2027 08:37:39.475             7.812          2499.750
        58   03 Jun 2027 08:40:42.764   03 Jun 2027 08:40:48.148             5.384          1520.406
        59   03 Jun 2027 08:41:21.726   03 Jun 2027 08:41:22.374             0.648           315.344
        60   03 Jun 2027 08:41:30.121   03 Jun 2027 08:41:32.188             2.067           168.188
        61   03 Jun 2027 08:42:14.696   03 Jun 2027 08:42:18.466             3.770          1191.219
        62   03 Jun 2027 08:43:14.519   03 Jun 2027 08:43:16.620             2.101           637.750
        63   03 Jun 2027 08:43:48.119   03 Jun 2027 08:43:50.881             2.762           859.969
        64   03 Jun 2027 10:15:28.794   03 Jun 2027 10:15:42.406            13.612          6515.094
        65   03 Jun 2027 10:17:05.645   03 Jun 2027 10:17:08.833             3.188          1106.656
        66   03 Jun 2027 10:18:52.725   03 Jun 2027 10:18:56.092             3.367          1048.281
        67   03 Jun 2027 10:18:56.529   03 Jun 2027 10:18:56.720             0.191            13.656
        68   03 Jun 2027 10:19:10.602   03 Jun 2027 10:19:14.551             3.949           136.844
        69   03 Jun 2027 11:49:05.357   03 Jun 2027 11:49:10.133             4.776           907.000
        70   03 Jun 2027 11:56:22.017   03 Jun 2027 11:56:23.947             1.930            80.937
        71   04 Jun 2027 04:00:00.840   04 Jun 2027 04:00:43.590            42.750         21375.000
        72   04 Jun 2027 04:03:56.445   04 Jun 2027 04:03:56.445             0.000             0.000
        73   04 Jun 2027 05:34:49.132   04 Jun 2027 05:38:15.836           206.704        103352.000
        74   04 Jun 2027 05:43:41.387   04 Jun 2027 05:43:51.158             9.771          4885.500
        75   04 Jun 2027 07:12:38.162   04 Jun 2027 07:13:58.560            80.398         39667.031
        76   04 Jun 2027 07:14:21.788   04 Jun 2027 07:14:25.325             3.537           725.875
        77   04 Jun 2027 07:15:05.082   04 Jun 2027 07:15:07.607             2.525           469.906
        78   04 Jun 2027 07:15:40.542   04 Jun 2027 07:15:42.025             1.483           456.906
        79   04 Jun 2027 07:16:05.472   04 Jun 2027 07:16:05.532             0.060            30.000
        80   04 Jun 2027 07:16:12.249   04 Jun 2027 07:16:18.477             6.228           731.156
        81   04 Jun 2027 07:17:41.339   04 Jun 2027 07:17:46.060             4.721          1849.250
        82   04 Jun 2027 07:18:10.342   04 Jun 2027 07:18:14.636             4.294           488.500
        83   04 Jun 2027 07:19:59.210   04 Jun 2027 07:19:59.939             0.729           268.062
        84   04 Jun 2027 08:49:22.556   04 Jun 2027 08:49:34.311            11.755          5303.281
        85   04 Jun 2027 08:52:39.617   04 Jun 2027 08:52:42.673             3.056           889.156
        86   04 Jun 2027 08:53:16.881   04 Jun 2027 08:53:20.123             3.242           692.156
        87   04 Jun 2027 08:53:45.000   04 Jun 2027 08:53:47.468             2.468           531.187
        88   04 Jun 2027 08:54:14.472   04 Jun 2027 08:54:16.231             1.759           843.875
        89   04 Jun 2027 08:55:26.657   04 Jun 2027 08:55:37.988            11.331          2128.719
        90   04 Jun 2027 10:27:30.510   04 Jun 2027 10:27:45.521            15.011          6998.750
        91   04 Jun 2027 10:30:28.657   04 Jun 2027 10:30:30.802             2.145            45.500
        92   04 Jun 2027 10:31:08.401   04 Jun 2027 10:31:10.310             1.909           254.344
        93   04 Jun 2027 10:31:12.680   04 Jun 2027 10:31:13.904             1.224            74.063
        94   04 Jun 2027 10:31:34.958   04 Jun 2027 10:31:36.890             1.932            90.344
        95   05 Jun 2027 04:13:46.821   05 Jun 2027 04:14:19.091            32.270         16135.000
        96   05 Jun 2027 04:15:16.780   05 Jun 2027 04:15:53.103            36.323         18161.500
        97   05 Jun 2027 05:47:37.709   05 Jun 2027 05:50:05.382           147.673         73836.500
        98   05 Jun 2027 05:52:29.376   05 Jun 2027 05:52:46.391            17.015          8507.500
        99   05 Jun 2027 05:55:22.860   05 Jun 2027 05:55:51.887            29.027         14513.500
       100   05 Jun 2027 05:56:01.889   05 Jun 2027 05:56:01.975             0.086            43.000
       101   05 Jun 2027 07:24:44.585   05 Jun 2027 07:25:57.367            72.782         35371.156
       102   05 Jun 2027 07:26:24.669   05 Jun 2027 07:26:30.727             6.058           847.219
       103   05 Jun 2027 07:27:00.074   05 Jun 2027 07:27:04.862             4.788           895.469
       104   05 Jun 2027 07:28:14.028   05 Jun 2027 07:28:14.912             0.884           442.000
       105   05 Jun 2027 07:28:52.714   05 Jun 2027 07:28:56.791             4.077          1231.188
       106   05 Jun 2027 07:29:38.061   05 Jun 2027 07:29:41.072             3.011          1208.813
       107   05 Jun 2027 07:29:56.920   05 Jun 2027 07:30:00.176             3.256           495.250
       108   05 Jun 2027 09:01:47.343   05 Jun 2027 09:01:58.320            10.977          5310.125
       109   05 Jun 2027 09:04:30.294   05 Jun 2027 09:04:33.657             3.363          1252.344
       110   05 Jun 2027 09:05:39.405   05 Jun 2027 09:05:41.242             1.837           831.625
       111   05 Jun 2027 09:05:59.075   05 Jun 2027 09:06:02.605             3.530           557.281
       112   05 Jun 2027 09:06:25.757   05 Jun 2027 09:06:28.167             2.410           367.906
       113   05 Jun 2027 09:07:35.675   05 Jun 2027 09:07:36.118             0.443           118.625
       114   05 Jun 2027 10:38:44.832   05 Jun 2027 10:38:56.513            11.681          5839.250
       115   05 Jun 2027 10:40:17.195   05 Jun 2027 10:40:22.277             5.082           563.844
       116   05 Jun 2027 10:41:15.044   05 Jun 2027 10:41:23.971             8.927          1648.969
       117   05 Jun 2027 10:43:07.042   05 Jun 2027 10:43:11.440             4.398          1969.687
       118   06 Jun 2027 04:26:08.559   06 Jun 2027 04:28:01.763           113.204         56602.000
       119   06 Jun 2027 05:59:49.706   06 Jun 2027 06:02:37.003           167.297         83648.500
       120   06 Jun 2027 06:03:21.432   06 Jun 2027 06:03:23.867             2.435          1217.500
       121   06 Jun 2027 06:06:10.092   06 Jun 2027 06:06:37.816            27.724         13862.000
       122   06 Jun 2027 06:06:52.275   06 Jun 2027 06:06:57.192             4.917          1605.000
       123   06 Jun 2027 06:07:49.890   06 Jun 2027 06:07:54.507             4.617          1419.687
       124   06 Jun 2027 06:08:04.448   06 Jun 2027 06:08:05.061             0.613           239.594
       125   06 Jun 2027 07:37:10.699   06 Jun 2027 07:37:14.873             4.174          1843.281
       126   06 Jun 2027 07:40:02.083   06 Jun 2027 07:40:07.475             5.392           341.344
       127   06 Jun 2027 07:40:51.357   06 Jun 2027 07:40:55.596             4.239           366.813
       128   06 Jun 2027 07:42:47.521   06 Jun 2027 07:42:57.077             9.556          1890.750
       129   06 Jun 2027 07:43:19.167   06 Jun 2027 07:43:20.951             1.784           670.938
       130   06 Jun 2027 09:14:07.670   06 Jun 2027 09:14:19.891            12.221          5934.656
       131   06 Jun 2027 09:17:08.347   06 Jun 2027 09:17:10.265             1.918           871.438
       132   06 Jun 2027 09:17:42.354   06 Jun 2027 09:17:46.512             4.158           568.594
       133   06 Jun 2027 09:19:07.026   06 Jun 2027 09:19:10.867             3.841          1275.094
       134   06 Jun 2027 10:50:58.121   06 Jun 2027 10:51:13.125            15.004          6762.719
       135   06 Jun 2027 10:53:10.631   06 Jun 2027 10:53:15.297             4.666          1030.969
       136   06 Jun 2027 10:53:42.111   06 Jun 2027 10:53:46.666             4.555           720.594
       137   06 Jun 2027 10:55:13.177   06 Jun 2027 10:55:14.520             1.343           115.000
       138   07 Jun 2027 03:01:31.489   07 Jun 2027 03:01:35.617             4.128          2064.000
       139   07 Jun 2027 03:02:02.298   07 Jun 2027 03:02:14.481            12.183          6091.500
       140   07 Jun 2027 03:03:42.639   07 Jun 2027 03:03:53.905            11.266          5633.000
       141   07 Jun 2027 03:04:07.011   07 Jun 2027 03:04:07.011             0.000             0.000
       142   07 Jun 2027 04:38:10.990   07 Jun 2027 04:38:47.435            36.445         18222.500
       143   07 Jun 2027 04:39:15.753   07 Jun 2027 04:39:37.029            21.276         10638.000
       144   07 Jun 2027 04:39:57.580   07 Jun 2027 04:41:41.941           104.361         52180.500
       145   07 Jun 2027 06:13:05.835   07 Jun 2027 06:14:59.336           113.501         54558.437
       146   07 Jun 2027 06:16:09.491   07 Jun 2027 06:16:14.557             5.066          2143.312
       147   07 Jun 2027 06:16:44.675   07 Jun 2027 06:16:47.356             2.681           807.969
       148   07 Jun 2027 06:18:00.845   07 Jun 2027 06:18:00.845             0.000             0.000
       149   07 Jun 2027 06:18:13.027   07 Jun 2027 06:18:17.589             4.562          2110.062
       150   07 Jun 2027 06:19:08.915   07 Jun 2027 06:19:09.271             0.356           149.812
       151   07 Jun 2027 06:19:51.000   07 Jun 2027 06:19:54.231             3.231          1266.469
       152   07 Jun 2027 06:19:59.337   07 Jun 2027 06:20:00.412             1.075            11.750
       153   07 Jun 2027 07:49:18.134   07 Jun 2027 07:49:22.687             4.553           758.219
       154   07 Jun 2027 07:52:55.737   07 Jun 2027 07:52:58.575             2.838            46.156
       155   07 Jun 2027 07:53:33.587   07 Jun 2027 07:53:35.873             2.286          1005.469
       156   07 Jun 2027 07:54:45.997   07 Jun 2027 07:54:46.869             0.872           134.656
       157   07 Jun 2027 07:55:16.373   07 Jun 2027 07:55:20.083             3.710           442.219
       158   07 Jun 2027 09:27:02.035   07 Jun 2027 09:27:12.726            10.691          5300.688
       159   07 Jun 2027 09:28:06.480   07 Jun 2027 09:28:10.698             4.218          1664.813
       160   07 Jun 2027 09:31:19.298   07 Jun 2027 09:31:21.140             1.842           891.750
       161   07 Jun 2027 11:03:08.162   07 Jun 2027 11:03:21.893            13.731          6179.250
       162   07 Jun 2027 11:07:08.925   07 Jun 2027 11:07:11.547             2.622          1019.344
       163   08 Jun 2027 03:14:04.399   08 Jun 2027 03:14:15.125            10.726          5363.000
       164   08 Jun 2027 03:16:06.686   08 Jun 2027 03:16:22.008            15.322          7661.000
       165   08 Jun 2027 04:51:11.719   08 Jun 2027 04:53:49.286           157.567         78783.500
       166   08 Jun 2027 06:25:27.888   08 Jun 2027 06:27:29.575           121.687         60204.969
       167   08 Jun 2027 06:28:03.145   08 Jun 2027 06:28:06.656             3.511           472.719
       168   08 Jun 2027 06:28:14.156   08 Jun 2027 06:28:14.156             0.000             0.000
       169   08 Jun 2027 06:28:16.334   08 Jun 2027 06:28:17.007             0.673           301.812
       170   08 Jun 2027 06:28:42.496   08 Jun 2027 06:28:44.113             1.617           131.844
       171   08 Jun 2027 06:30:16.125   08 Jun 2027 06:30:19.536             3.411           465.219
       172   08 Jun 2027 06:31:19.550   08 Jun 2027 06:31:21.724             2.174           125.750
       173   08 Jun 2027 06:31:42.371   08 Jun 2027 06:31:45.161             2.790           545.625
       174   08 Jun 2027 08:01:52.196   08 Jun 2027 08:01:55.240             3.044          1046.688
       175   08 Jun 2027 08:03:02.600   08 Jun 2027 08:03:05.267             2.667           647.344
       176   08 Jun 2027 08:05:00.493   08 Jun 2027 08:05:06.319             5.826          1220.625
       177   08 Jun 2027 08:06:33.807   08 Jun 2027 08:06:37.349             3.542          1699.719
       178   08 Jun 2027 08:06:46.317   08 Jun 2027 08:06:52.248             5.931           280.250
       179   08 Jun 2027 08:07:11.722   08 Jun 2027 08:07:12.868             1.146           550.031
       180   08 Jun 2027 09:39:08.149   08 Jun 2027 09:39:21.162            13.013          5385.969
       181   08 Jun 2027 09:40:19.324   08 Jun 2027 09:40:24.503             5.179           499.531
       182   08 Jun 2027 09:42:22.315   08 Jun 2027 09:42:29.682             7.367          1247.969
       183   08 Jun 2027 09:42:41.175   08 Jun 2027 09:42:43.262             2.087            24.250
       184   08 Jun 2027 09:43:14.656   08 Jun 2027 09:43:16.061             1.405           345.469
       185   08 Jun 2027 09:43:25.698   08 Jun 2027 09:43:28.295             2.597           106.688
       186   08 Jun 2027 11:15:22.370   08 Jun 2027 11:15:33.558            11.188          5545.531
       187   08 Jun 2027 11:17:25.530   08 Jun 2027 11:17:27.003             1.473           597.969
       188   08 Jun 2027 11:19:07.474   08 Jun 2027 11:19:11.709             4.235          2060.531
       189   09 Jun 2027 03:26:15.654   09 Jun 2027 03:26:22.526             6.872          3436.000
       190   09 Jun 2027 03:28:45.327   09 Jun 2027 03:28:48.773             3.446          1723.000
       191   09 Jun 2027 05:02:10.434   09 Jun 2027 05:05:49.109           218.675        109337.500
       192   09 Jun 2027 05:06:06.661   09 Jun 2027 05:06:11.523             4.862          2431.000
       193   09 Jun 2027 06:37:06.493   09 Jun 2027 06:38:08.118            61.625         29245.156
       194   09 Jun 2027 06:38:29.899   09 Jun 2027 06:38:32.264             2.365           504.344
       195   09 Jun 2027 06:39:05.976   09 Jun 2027 06:39:08.070             2.094           685.063
       196   09 Jun 2027 06:40:12.612   09 Jun 2027 06:40:16.466             3.854           308.906
       197   09 Jun 2027 06:40:19.547   09 Jun 2027 06:40:19.547             0.000             0.000
       198   09 Jun 2027 06:40:42.715   09 Jun 2027 06:40:45.215             2.500           820.281
       199   09 Jun 2027 06:42:01.120   09 Jun 2027 06:42:06.705             5.585          2372.031
       200   09 Jun 2027 06:43:03.534   09 Jun 2027 06:43:06.858             3.324          1387.438
       201   09 Jun 2027 06:43:38.202   09 Jun 2027 06:43:40.404             2.202           979.500
       202   09 Jun 2027 08:13:25.859   09 Jun 2027 08:13:30.950             5.091           941.125
       203   09 Jun 2027 08:15:01.575   09 Jun 2027 08:15:04.010             2.435           843.844
       204   09 Jun 2027 08:16:10.188   09 Jun 2027 08:16:12.842             2.654            42.313
       205   09 Jun 2027 08:17:57.773   09 Jun 2027 08:18:02.404             4.631           417.156
       206   09 Jun 2027 08:18:44.466   09 Jun 2027 08:18:44.660             0.194            58.750
       207   09 Jun 2027 08:19:33.398   09 Jun 2027 08:19:37.483             4.085          1216.094
       208   09 Jun 2027 09:51:40.964   09 Jun 2027 09:51:56.404            15.440          6383.594
       209   09 Jun 2027 09:52:11.614   09 Jun 2027 09:52:17.828             6.214            55.406
       210   09 Jun 2027 09:53:10.714   09 Jun 2027 09:53:11.656             0.942           106.875
       211   09 Jun 2027 09:54:52.262   09 Jun 2027 09:55:01.492             9.230          2371.469
       212   09 Jun 2027 09:55:17.744   09 Jun 2027 09:55:20.634             2.890           437.969
       213   09 Jun 2027 11:27:01.421   09 Jun 2027 11:27:17.006            15.585          5468.750
       214   10 Jun 2027 03:36:52.939   10 Jun 2027 03:37:03.871            10.932          5466.000
       215   10 Jun 2027 03:37:56.440   10 Jun 2027 03:37:59.940             3.500          1750.000
       216   10 Jun 2027 03:38:18.672   10 Jun 2027 03:38:27.808             9.136          4568.000
       217   10 Jun 2027 05:12:28.931   10 Jun 2027 05:13:08.304            39.373         19686.500
       218   10 Jun 2027 05:13:54.630   10 Jun 2027 05:14:21.100            26.470         13235.000
       219   10 Jun 2027 05:15:19.623   10 Jun 2027 05:17:44.669           145.046         72523.000
       220   10 Jun 2027 06:48:39.871   10 Jun 2027 06:50:04.763            84.892         41677.438
       221   10 Jun 2027 06:50:33.081   10 Jun 2027 06:50:37.118             4.037           583.219
       222   10 Jun 2027 06:51:57.364   10 Jun 2027 06:52:01.986             4.622           273.531
       223   10 Jun 2027 06:52:22.852   10 Jun 2027 06:52:24.196             1.344           134.594
       224   10 Jun 2027 06:54:22.036   10 Jun 2027 06:54:27.327             5.291           680.531
       225   10 Jun 2027 06:55:00.420   10 Jun 2027 06:55:01.985             1.565           512.062
       226   10 Jun 2027 06:55:35.902   10 Jun 2027 06:55:39.930             4.028          1059.906
       227   10 Jun 2027 08:25:45.443   10 Jun 2027 08:25:49.940             4.497          1254.188
       228   10 Jun 2027 08:28:40.009   10 Jun 2027 08:28:42.787             2.778           955.531
       229   10 Jun 2027 08:29:48.652   10 Jun 2027 08:29:53.716             5.064           782.375
       230   10 Jun 2027 08:30:09.411   10 Jun 2027 08:30:10.794             1.383           396.375
       231   10 Jun 2027 08:31:05.715   10 Jun 2027 08:31:09.173             3.458            56.656
       232   10 Jun 2027 08:31:41.476   10 Jun 2027 08:31:45.436             3.960           934.438
       233   10 Jun 2027 08:32:06.577   10 Jun 2027 08:32:07.629             1.052           427.844
       234   10 Jun 2027 10:03:43.880   10 Jun 2027 10:03:55.149            11.269          4981.313
       235   10 Jun 2027 10:05:36.134   10 Jun 2027 10:05:38.159             2.025           605.656
       236   10 Jun 2027 10:06:47.838   10 Jun 2027 10:06:51.260             3.422            97.594
       237   10 Jun 2027 10:07:11.847   10 Jun 2027 10:07:12.811             0.964           314.062
       238   10 Jun 2027 10:07:31.153   10 Jun 2027 10:07:32.075             0.922           338.312
       239   10 Jun 2027 11:36:52.589   10 Jun 2027 11:37:03.831            11.242          5344.312
       240   11 Jun 2027 03:48:31.947   11 Jun 2027 03:48:52.524            20.577         10288.500
       241   11 Jun 2027 03:49:42.040   11 Jun 2027 03:49:42.040             0.000             0.000
       242   11 Jun 2027 03:52:02.268   11 Jun 2027 03:52:10.615             8.347          4173.500
       243   11 Jun 2027 05:23:35.265   11 Jun 2027 05:24:32.310            57.045         28522.500
       244   11 Jun 2027 05:25:38.931   11 Jun 2027 05:26:30.515            51.584         25792.000
       245   11 Jun 2027 05:26:46.130   11 Jun 2027 05:27:20.034            33.904         16952.000
       246   11 Jun 2027 05:28:31.349   11 Jun 2027 05:29:25.319            53.970         26985.000
       247   11 Jun 2027 05:30:38.148   11 Jun 2027 05:30:40.693             2.545          1272.500
       248   11 Jun 2027 05:31:30.455   11 Jun 2027 05:31:52.293            21.838         10919.000
       249   11 Jun 2027 07:00:58.624   11 Jun 2027 07:02:14.598            75.974         37987.000
       250   11 Jun 2027 07:02:36.182   11 Jun 2027 07:02:41.137             4.955          1995.687
       251   11 Jun 2027 07:03:36.536   11 Jun 2027 07:03:39.430             2.894           317.344
       252   11 Jun 2027 07:04:20.365   11 Jun 2027 07:04:24.987             4.622           942.563
       253   11 Jun 2027 07:04:50.655   11 Jun 2027 07:04:52.285             1.630           764.188
       254   11 Jun 2027 07:05:22.925   11 Jun 2027 07:05:24.389             1.464           206.156
       255   11 Jun 2027 07:06:24.802   11 Jun 2027 07:06:26.484             1.682           807.531
       256   11 Jun 2027 07:06:56.268   11 Jun 2027 07:06:56.268             0.000             0.000
       257   11 Jun 2027 07:07:14.529   11 Jun 2027 07:07:21.310             6.781          1501.406
       258   11 Jun 2027 07:08:17.432   11 Jun 2027 07:08:17.876             0.444           222.000
       259   11 Jun 2027 08:37:46.761   11 Jun 2027 08:37:55.161             8.400          3646.312
       260   11 Jun 2027 08:40:31.225   11 Jun 2027 08:40:31.836             0.611           220.094
       261   11 Jun 2027 08:40:53.544   11 Jun 2027 08:40:58.415             4.871           523.937
       262   11 Jun 2027 08:41:24.039   11 Jun 2027 08:41:26.859             2.820           721.781
       263   11 Jun 2027 08:41:40.997   11 Jun 2027 08:41:41.262             0.265           129.187
       264   11 Jun 2027 08:42:29.957   11 Jun 2027 08:42:33.251             3.294          1182.469
       265   11 Jun 2027 08:43:29.893   11 Jun 2027 08:43:31.814             1.921           680.813
       266   11 Jun 2027 08:44:02.867   11 Jun 2027 08:44:04.595             1.728           811.656
       267   11 Jun 2027 10:15:43.881   11 Jun 2027 10:15:58.529            14.648          7015.688
       268   11 Jun 2027 10:17:35.073   11 Jun 2027 10:17:37.924             2.851           401.781
       269   11 Jun 2027 10:19:10.175   11 Jun 2027 10:19:12.580             2.405          1111.375
       270   11 Jun 2027 10:19:33.329   11 Jun 2027 10:19:37.437             4.108           342.094
       271   11 Jun 2027 11:49:19.725   11 Jun 2027 11:49:25.060             5.335          1053.938
       272   12 Jun 2027 04:00:15.371   12 Jun 2027 04:00:27.106            11.735          5867.500
       273   12 Jun 2027 04:02:50.487   12 Jun 2027 04:02:57.219             6.732          3366.000
       274   12 Jun 2027 04:04:12.897   12 Jun 2027 04:04:26.638            13.741          6870.500
       275   12 Jun 2027 04:04:29.709   12 Jun 2027 04:04:32.327             2.618          1309.000
       276   12 Jun 2027 04:04:37.395   12 Jun 2027 04:04:46.235             8.840          4420.000
       277   12 Jun 2027 05:35:03.596   12 Jun 2027 05:38:21.157           197.561         98780.500
       278   12 Jun 2027 05:38:48.135   12 Jun 2027 05:38:50.845             2.710          1355.000
       279   12 Jun 2027 05:42:40.741   12 Jun 2027 05:42:40.741             0.000             0.000
       280   12 Jun 2027 07:12:52.991   12 Jun 2027 07:14:25.945            92.954         46417.188
       281   12 Jun 2027 07:15:21.542   12 Jun 2027 07:15:26.044             4.502           485.563
       282   12 Jun 2027 07:15:56.689   12 Jun 2027 07:16:01.394             4.705           501.000
       283   12 Jun 2027 07:17:00.323   12 Jun 2027 07:17:06.215             5.892          1251.969
       284   12 Jun 2027 07:17:37.903   12 Jun 2027 07:17:39.306             1.403           372.156
       285   12 Jun 2027 07:18:10.947   12 Jun 2027 07:18:10.947             0.000             0.000
       286   12 Jun 2027 07:18:27.394   12 Jun 2027 07:18:30.297             2.903           960.156
       287   12 Jun 2027 07:20:13.663   12 Jun 2027 07:20:14.821             1.158           262.531
       288   12 Jun 2027 08:49:37.390   12 Jun 2027 08:49:48.522            11.132          4856.969
       289   12 Jun 2027 08:52:44.534   12 Jun 2027 08:52:46.542             2.008           622.625
       290   12 Jun 2027 08:53:31.675   12 Jun 2027 08:53:34.219             2.544           401.062
       291   12 Jun 2027 08:54:02.729   12 Jun 2027 08:54:08.081             5.352           247.187
       292   12 Jun 2027 08:54:33.886   12 Jun 2027 08:54:34.452             0.566           158.625
       293   12 Jun 2027 08:55:13.066   12 Jun 2027 08:55:13.676             0.610            63.437
       294   12 Jun 2027 08:55:57.573   12 Jun 2027 08:55:58.571             0.998           458.312
       295   12 Jun 2027 10:27:45.888   12 Jun 2027 10:27:59.772            13.884          6460.750
       296   12 Jun 2027 10:28:21.628   12 Jun 2027 10:28:23.364             1.736           349.625
       297   12 Jun 2027 10:31:17.654   12 Jun 2027 10:31:23.874             6.220          1059.219
       298   13 Jun 2027 04:14:01.682   13 Jun 2027 04:14:45.395            43.713         21856.500
       299   13 Jun 2027 04:17:57.403   13 Jun 2027 04:17:58.115             0.712           356.000
       300   13 Jun 2027 05:47:52.313   13 Jun 2027 05:50:34.436           162.123         81061.500
       301   13 Jun 2027 05:50:45.429   13 Jun 2027 05:50:45.693             0.264           132.000
       302   13 Jun 2027 05:54:38.174   13 Jun 2027 05:54:53.086            14.912          7456.000
       303   13 Jun 2027 05:55:22.523   13 Jun 2027 05:56:06.598            44.075         22037.500
       304   13 Jun 2027 05:56:16.560   13 Jun 2027 05:56:19.701             3.141          1570.500
       305   13 Jun 2027 07:24:59.498   13 Jun 2027 07:25:50.527            51.029         25295.625
       306   13 Jun 2027 07:26:13.187   13 Jun 2027 07:26:14.992             1.805           518.375
       307   13 Jun 2027 07:26:47.544   13 Jun 2027 07:26:47.544             0.000             0.000
       308   13 Jun 2027 07:27:16.686   13 Jun 2027 07:27:19.646             2.960          1082.188
       309   13 Jun 2027 07:28:20.452   13 Jun 2027 07:28:24.406             3.954          1644.969
       310   13 Jun 2027 07:29:09.247   13 Jun 2027 07:29:11.593             2.346          1135.438
       311   13 Jun 2027 07:30:53.812   13 Jun 2027 07:30:54.165             0.353             8.813
       312   13 Jun 2027 09:02:02.544   13 Jun 2027 09:02:13.468            10.924          5100.938
       313   13 Jun 2027 09:05:06.552   13 Jun 2027 09:05:12.152             5.600           696.844
       314   13 Jun 2027 09:05:45.833   13 Jun 2027 09:05:49.148             3.315          1013.812
       315   13 Jun 2027 09:06:19.713   13 Jun 2027 09:06:22.062             2.349           718.344
       316   13 Jun 2027 09:07:18.093   13 Jun 2027 09:07:20.788             2.695          1195.375
       317   13 Jun 2027 09:07:50.351   13 Jun 2027 09:07:52.726             2.375            70.812
       318   13 Jun 2027 10:39:00.517   13 Jun 2027 10:39:12.444            11.927          5683.250
       319   13 Jun 2027 10:42:19.303   13 Jun 2027 10:42:32.820            13.517            96.844
       320   13 Jun 2027 10:43:24.739   13 Jun 2027 10:43:26.636             1.897            11.156
       321   13 Jun 2027 10:43:49.911   13 Jun 2027 10:43:51.993             2.082           697.781
