uniorb/output/strategy_4/Camera/Camera_KinoSat_111710.txt

KinoSat_111710
-------------------------
    Access    *     Start Time (UTCG)     *     Stop Time (UTCG)  *   Duration (s) *   Data (Mbytes)
         1   01 Jun 2027 03:58:44.183   01 Jun 2027 03:59:45.480            61.297         30648.500
         2   01 Jun 2027 03:59:51.106   01 Jun 2027 04:00:20.508            29.402         14701.000
         3   01 Jun 2027 04:00:26.507   01 Jun 2027 04:01:16.044            49.537         24768.500
         4   01 Jun 2027 04:01:29.639   01 Jun 2027 04:01:34.439             4.800          2400.000
         5   01 Jun 2027 04:01:44.472   01 Jun 2027 04:01:46.449             1.977           988.500
         6   01 Jun 2027 04:02:21.125   01 Jun 2027 04:02:29.136             8.011          4005.500
         7   01 Jun 2027 05:37:46.109   01 Jun 2027 05:39:53.221           127.112         63556.000
         8   01 Jun 2027 07:00:18.465   01 Jun 2027 07:01:50.051            91.586         45793.000
         9   01 Jun 2027 08:36:43.871   01 Jun 2027 08:38:27.755           103.884         51942.000
        10   01 Jun 2027 08:39:28.050   01 Jun 2027 08:39:47.646            19.596          9798.000
        11   01 Jun 2027 10:11:52.169   01 Jun 2027 10:12:29.390            37.221         18610.500
        12   01 Jun 2027 10:15:06.322   01 Jun 2027 10:15:36.553            30.231         15115.500
        13   01 Jun 2027 10:16:59.064   01 Jun 2027 10:17:37.254            38.190         19095.000
        14   01 Jun 2027 10:17:38.243   01 Jun 2027 10:17:54.240            15.997          7998.500
        15   01 Jun 2027 10:18:16.805   01 Jun 2027 10:18:39.757            22.952         11476.000
        16   01 Jun 2027 11:48:13.408   01 Jun 2027 11:49:40.557            87.149         43574.500
        17   01 Jun 2027 11:50:01.306   01 Jun 2027 11:50:57.428            56.122         28061.000
        18   01 Jun 2027 11:53:36.975   01 Jun 2027 11:53:38.545             1.570           785.000
        19   02 Jun 2027 04:10:41.753   02 Jun 2027 04:11:30.234            48.481         24240.500
        20   02 Jun 2027 04:11:48.311   02 Jun 2027 04:12:57.590            69.279         34639.500
        21   02 Jun 2027 04:13:38.885   02 Jun 2027 04:13:44.915             6.030          3015.000
        22   02 Jun 2027 04:14:27.131   02 Jun 2027 04:14:28.561             1.430           715.000
        23   02 Jun 2027 04:16:16.251   02 Jun 2027 04:16:19.456             3.205          1602.500
        24   02 Jun 2027 05:48:55.758   02 Jun 2027 05:49:57.548            61.790         30895.000
        25   02 Jun 2027 05:50:03.563   02 Jun 2027 05:52:41.065           157.502         78751.000
        26   02 Jun 2027 07:12:16.879   02 Jun 2027 07:13:36.747            79.868         39934.000
        27   02 Jun 2027 08:48:53.917   02 Jun 2027 08:51:27.051           153.134         76567.000
        28   02 Jun 2027 08:52:09.422   02 Jun 2027 08:52:21.086            11.664          5832.000
        29   02 Jun 2027 10:24:03.853   02 Jun 2027 10:25:47.609           103.756         51450.750
        30   02 Jun 2027 10:26:56.550   02 Jun 2027 10:27:00.574             4.024          1683.750
        31   02 Jun 2027 10:30:26.785   02 Jun 2027 10:30:39.754            12.969          6136.406
        32   03 Jun 2027 04:23:47.237   03 Jun 2027 04:25:12.779            85.542         42771.000
        33   03 Jun 2027 04:25:29.079   03 Jun 2027 04:25:55.494            26.415         13207.500
        34   03 Jun 2027 04:27:59.394   03 Jun 2027 04:28:01.351             1.957           978.500
        35   03 Jun 2027 04:28:13.515   03 Jun 2027 04:28:15.764             2.249          1124.500
        36   03 Jun 2027 04:30:26.500   03 Jun 2027 04:30:28.798             2.298          1149.000
        37   03 Jun 2027 04:31:21.197   03 Jun 2027 04:31:37.727            16.530          8265.000
        38   03 Jun 2027 05:50:08.865   03 Jun 2027 05:50:15.681             6.816          3408.000
        39   03 Jun 2027 06:00:53.190   03 Jun 2027 06:01:35.282            42.092         21046.000
        40   03 Jun 2027 06:01:40.899   03 Jun 2027 06:03:08.699            87.800         43900.000
        41   03 Jun 2027 06:03:54.413   03 Jun 2027 06:04:29.640            35.227         17613.500
        42   03 Jun 2027 07:24:53.208   03 Jun 2027 07:25:11.902            18.694          8285.250
        43   03 Jun 2027 07:25:46.587   03 Jun 2027 07:25:50.581             3.994           685.281
        44   03 Jun 2027 09:00:37.962   03 Jun 2027 09:00:44.457             6.495          2853.719
        45   03 Jun 2027 09:01:58.711   03 Jun 2027 09:02:06.176             7.465          1461.875
        46   03 Jun 2027 09:02:57.747   03 Jun 2027 09:03:01.794             4.047          1435.937
        47   03 Jun 2027 09:03:18.927   03 Jun 2027 09:03:25.248             6.321           535.406
        48   03 Jun 2027 09:03:59.822   03 Jun 2027 09:03:59.822             0.000             0.000
        49   03 Jun 2027 10:35:29.988   03 Jun 2027 10:35:38.013             8.025          3720.625
        50   03 Jun 2027 10:37:57.231   03 Jun 2027 10:38:04.551             7.320          3589.844
        51   03 Jun 2027 10:38:24.882   03 Jun 2027 10:38:25.455             0.573           259.375
        52   03 Jun 2027 10:38:52.070   03 Jun 2027 10:39:00.719             8.649           379.500
        53   03 Jun 2027 10:39:57.976   03 Jun 2027 10:40:01.194             3.218           840.562
        54   03 Jun 2027 10:40:37.562   03 Jun 2027 10:40:42.961             5.399           888.031
        55   03 Jun 2027 10:41:44.850   03 Jun 2027 10:41:51.450             6.600          1934.031
        56   03 Jun 2027 10:42:13.756   03 Jun 2027 10:42:17.276             3.520           524.375
        57   04 Jun 2027 03:00:00.000   04 Jun 2027 03:00:02.282             2.282          1141.000
        58   04 Jun 2027 03:00:19.506   04 Jun 2027 03:00:30.916            11.410          5705.000
        59   04 Jun 2027 03:01:07.505   04 Jun 2027 03:01:14.848             7.343          3671.500
        60   04 Jun 2027 03:01:49.270   04 Jun 2027 03:02:09.111            19.841          9920.500
        61   04 Jun 2027 04:36:07.860   04 Jun 2027 04:38:09.280           121.420         60710.000
        62   04 Jun 2027 04:39:15.930   04 Jun 2027 04:39:29.416            13.486          6743.000
        63   04 Jun 2027 04:41:04.621   04 Jun 2027 04:41:28.013            23.392         11696.000
        64   04 Jun 2027 04:42:08.712   04 Jun 2027 04:43:25.762            77.050         38525.000
        65   04 Jun 2027 06:01:26.103   04 Jun 2027 06:01:56.458            30.355         15177.500
        66   04 Jun 2027 06:12:51.681   04 Jun 2027 06:13:39.443            47.762         23410.593
        67   04 Jun 2027 07:35:31.107   04 Jun 2027 07:35:46.166            15.059          7470.906
        68   04 Jun 2027 07:35:52.153   04 Jun 2027 07:35:52.875             0.722           170.781
        69   04 Jun 2027 07:36:21.041   04 Jun 2027 07:36:22.670             1.629           372.750
        70   04 Jun 2027 07:37:22.686   04 Jun 2027 07:37:27.335             4.649          1247.156
        71   04 Jun 2027 07:38:11.265   04 Jun 2027 07:38:17.858             6.593          1063.219
        72   04 Jun 2027 07:39:43.053   04 Jun 2027 07:39:45.568             2.515          1257.500
        73   04 Jun 2027 07:40:05.775   04 Jun 2027 07:40:09.675             3.900          1128.344
        74   04 Jun 2027 09:10:52.228   04 Jun 2027 09:10:56.435             4.207          2004.500
        75   04 Jun 2027 09:12:44.152   04 Jun 2027 09:12:48.744             4.592          1573.813
        76   04 Jun 2027 09:13:54.518   04 Jun 2027 09:13:57.446             2.928          1372.250
        77   04 Jun 2027 09:15:20.040   04 Jun 2027 09:15:26.829             6.789          2525.531
        78   04 Jun 2027 09:15:45.142   04 Jun 2027 09:15:46.677             1.535           538.781
        79   04 Jun 2027 09:16:44.477   04 Jun 2027 09:16:46.193             1.716           827.625
        80   04 Jun 2027 10:47:39.700   04 Jun 2027 10:47:48.916             9.216          3342.281
        81   04 Jun 2027 10:49:32.134   04 Jun 2027 10:49:45.163            13.029           877.250
        82   04 Jun 2027 10:50:53.008   04 Jun 2027 10:50:55.104             2.096           540.469
        83   04 Jun 2027 10:52:18.303   04 Jun 2027 10:52:23.078             4.775           915.469
        84   04 Jun 2027 10:52:31.362   04 Jun 2027 10:52:33.557             2.195           194.000
        85   04 Jun 2027 10:53:27.735   04 Jun 2027 10:53:30.256             2.521          1171.250
        86   04 Jun 2027 10:54:07.540   04 Jun 2027 10:54:10.034             2.494           984.062
        87   05 Jun 2027 03:09:17.990   05 Jun 2027 03:10:22.656            64.666         32333.000
        88   05 Jun 2027 03:12:01.478   05 Jun 2027 03:12:10.249             8.771          4385.500
        89   05 Jun 2027 03:12:15.929   05 Jun 2027 03:12:18.725             2.796          1398.000
        90   05 Jun 2027 03:12:45.061   05 Jun 2027 03:13:01.703            16.642          8321.000
        91   05 Jun 2027 03:14:23.872   05 Jun 2027 03:14:27.426             3.554          1777.000
        92   05 Jun 2027 03:14:29.951   05 Jun 2027 03:14:39.340             9.389          4694.500
        93   05 Jun 2027 04:48:22.661   05 Jun 2027 04:51:03.302           160.641         80320.500
        94   05 Jun 2027 04:52:10.298   05 Jun 2027 04:52:48.986            38.688         19279.500
        95   05 Jun 2027 04:53:23.580   05 Jun 2027 04:53:25.539             1.959           505.656
        96   05 Jun 2027 04:53:36.641   05 Jun 2027 04:53:37.495             0.854           291.594
        97   05 Jun 2027 04:54:07.837   05 Jun 2027 04:54:10.659             2.822           187.938
        98   05 Jun 2027 04:54:18.574   05 Jun 2027 04:54:20.432             1.858           247.344
        99   05 Jun 2027 04:55:11.391   05 Jun 2027 04:55:15.554             4.163          1166.688
       100   05 Jun 2027 06:12:39.722   05 Jun 2027 06:12:58.056            18.334          8135.000
       101   05 Jun 2027 06:13:47.425   05 Jun 2027 06:13:50.759             3.334          1280.531
       102   05 Jun 2027 06:14:40.146   05 Jun 2027 06:14:42.437             2.291          1073.062
       103   05 Jun 2027 06:24:51.015   05 Jun 2027 06:24:56.827             5.812          2716.188
       104   05 Jun 2027 07:47:07.601   05 Jun 2027 07:47:16.454             8.853          4237.594
       105   05 Jun 2027 07:47:59.164   05 Jun 2027 07:48:01.731             2.567           956.062
       106   05 Jun 2027 07:49:02.945   05 Jun 2027 07:49:03.947             1.002           248.781
       107   05 Jun 2027 07:49:47.053   05 Jun 2027 07:49:50.099             3.046           698.281
       108   05 Jun 2027 07:50:57.078   05 Jun 2027 07:51:04.566             7.488          2003.844
       109   05 Jun 2027 07:51:26.570   05 Jun 2027 07:51:30.096             3.526           102.781
       110   05 Jun 2027 09:22:01.345   05 Jun 2027 09:22:06.896             5.551          2706.531
       111   05 Jun 2027 09:23:13.204   05 Jun 2027 09:23:16.384             3.180           382.625
       112   05 Jun 2027 09:24:16.574   05 Jun 2027 09:24:20.085             3.511          1418.906
       113   05 Jun 2027 09:25:16.235   05 Jun 2027 09:25:21.466             5.231           245.125
       114   05 Jun 2027 09:25:52.691   05 Jun 2027 09:25:53.643             0.952           341.000
       115   05 Jun 2027 09:27:42.260   05 Jun 2027 09:27:43.869             1.609           673.812
       116   05 Jun 2027 09:28:34.028   05 Jun 2027 09:28:36.610             2.582          1117.781
       117   05 Jun 2027 09:28:42.627   05 Jun 2027 09:28:45.367             2.740           104.719
       118   05 Jun 2027 09:30:05.305   05 Jun 2027 09:30:11.425             6.120          1219.562
       119   05 Jun 2027 10:59:34.795   05 Jun 2027 10:59:44.296             9.501          4641.312
       120   05 Jun 2027 11:01:06.885   05 Jun 2027 11:01:13.424             6.539          1140.344
       121   05 Jun 2027 11:02:35.934   05 Jun 2027 11:02:37.540             1.606           124.594
       122   05 Jun 2027 11:03:09.915   05 Jun 2027 11:03:14.108             4.193          1011.719
       123   05 Jun 2027 11:03:55.224   05 Jun 2027 11:03:57.935             2.711           173.187
       124   05 Jun 2027 11:04:08.301   05 Jun 2027 11:04:10.694             2.393           323.938
       125   05 Jun 2027 11:04:32.011   05 Jun 2027 11:04:40.101             8.090           304.875
       126   05 Jun 2027 11:05:01.356   05 Jun 2027 11:05:05.140             3.784           321.531
       127   05 Jun 2027 11:06:04.064   05 Jun 2027 11:06:09.166             5.102          1684.375
       128   05 Jun 2027 11:06:47.695   05 Jun 2027 11:06:54.397             6.702           647.031
       129   06 Jun 2027 03:21:45.119   06 Jun 2027 03:22:02.545            17.426          8713.000
       130   06 Jun 2027 03:22:10.791   06 Jun 2027 03:22:40.246            29.455         14727.500
       131   06 Jun 2027 03:22:45.057   06 Jun 2027 03:23:39.082            54.025         27012.500
       132   06 Jun 2027 03:23:41.293   06 Jun 2027 03:25:04.742            83.449         41724.500
       133   06 Jun 2027 03:26:07.872   06 Jun 2027 03:26:20.883            13.011          6505.500
       134   06 Jun 2027 03:26:35.696   06 Jun 2027 03:27:03.286            27.590         13795.000
       135   06 Jun 2027 05:00:27.888   06 Jun 2027 05:01:59.372            91.484         45588.437
       136   06 Jun 2027 05:02:23.219   06 Jun 2027 05:02:23.845             0.626           184.687
       137   06 Jun 2027 05:02:47.497   06 Jun 2027 05:02:48.284             0.787           351.781
       138   06 Jun 2027 05:03:09.167   06 Jun 2027 05:03:12.869             3.702           631.344
       139   06 Jun 2027 05:05:01.417   06 Jun 2027 05:05:05.405             3.988          1434.156
       140   06 Jun 2027 05:06:49.616   06 Jun 2027 05:06:51.674             2.058           866.375
       141   06 Jun 2027 05:07:12.160   06 Jun 2027 05:07:14.359             2.199           131.875
       142   06 Jun 2027 06:24:44.731   06 Jun 2027 06:24:58.125            13.394          5005.000
       143   06 Jun 2027 06:25:15.335   06 Jun 2027 06:25:15.335             0.000             0.000
       144   06 Jun 2027 06:25:26.314   06 Jun 2027 06:25:27.607             1.293           527.656
       145   06 Jun 2027 06:26:35.186   06 Jun 2027 06:26:38.666             3.480          1442.500
       146   06 Jun 2027 06:37:07.119   06 Jun 2027 06:37:12.415             5.296          2073.531
       147   06 Jun 2027 07:58:37.191   06 Jun 2027 07:58:48.222            11.031          5066.219
       148   06 Jun 2027 08:00:48.407   06 Jun 2027 08:00:51.724             3.317          1642.219
       149   06 Jun 2027 08:02:19.095   06 Jun 2027 08:02:24.486             5.391          2223.062
       150   06 Jun 2027 08:03:45.142   06 Jun 2027 08:03:49.553             4.411          2205.500
       151   06 Jun 2027 08:03:58.291   06 Jun 2027 08:04:12.046            13.755           588.062
       152   06 Jun 2027 09:33:32.098   06 Jun 2027 09:33:38.536             6.438          3095.250
       153   06 Jun 2027 09:35:32.522   06 Jun 2027 09:35:37.019             4.497          2187.063
       154   06 Jun 2027 09:35:45.647   06 Jun 2027 09:35:47.558             1.911           236.219
       155   06 Jun 2027 09:37:13.635   06 Jun 2027 09:37:18.602             4.967          2415.469
       156   06 Jun 2027 09:39:20.823   06 Jun 2027 09:39:40.732            19.909          2735.281
       157   06 Jun 2027 09:40:33.504   06 Jun 2027 09:40:35.611             2.107            39.750
       158   06 Jun 2027 09:40:44.771   06 Jun 2027 09:40:45.394             0.623           286.250
       159   06 Jun 2027 09:41:13.173   06 Jun 2027 09:41:17.437             4.264           619.969
       160   06 Jun 2027 09:41:24.639   06 Jun 2027 09:41:32.352             7.713            25.688
       161   06 Jun 2027 09:42:08.415   06 Jun 2027 09:42:13.937             5.522           840.969
       162   06 Jun 2027 11:11:29.009   06 Jun 2027 11:11:40.424            11.415          5062.313
       163   06 Jun 2027 11:14:26.156   06 Jun 2027 11:14:37.468            11.312          5179.125
       164   06 Jun 2027 11:15:28.935   06 Jun 2027 11:15:31.781             2.846           768.844
       165   06 Jun 2027 11:15:55.320   06 Jun 2027 11:15:55.741             0.421           210.500
       166   06 Jun 2027 11:17:18.741   06 Jun 2027 11:17:26.402             7.661          3042.469
       167   06 Jun 2027 11:18:27.816   06 Jun 2027 11:18:31.186             3.370          1568.063
       168   07 Jun 2027 03:34:21.323   07 Jun 2027 03:34:33.248            11.925          5962.500
       169   07 Jun 2027 03:34:44.275   07 Jun 2027 03:35:45.078            60.803         30401.500
       170   07 Jun 2027 03:35:52.276   07 Jun 2027 03:36:27.858            35.582         17791.000
       171   07 Jun 2027 03:36:29.966   07 Jun 2027 03:38:19.147           109.181         54590.500
       172   07 Jun 2027 03:38:49.990   07 Jun 2027 03:38:55.373             5.383          2691.500
       173   07 Jun 2027 03:39:21.595   07 Jun 2027 03:39:26.288             4.693          2346.500
       174   07 Jun 2027 05:12:51.774   07 Jun 2027 05:14:19.380            87.606         42686.062
       175   07 Jun 2027 05:14:56.324   07 Jun 2027 05:14:58.478             2.154          1031.969
       176   07 Jun 2027 05:16:20.354   07 Jun 2027 05:16:22.700             2.346           724.906
       177   07 Jun 2027 05:17:15.904   07 Jun 2027 05:17:16.799             0.895           188.562
       178   07 Jun 2027 06:36:41.240   07 Jun 2027 06:36:55.080            13.840          6168.438
       179   07 Jun 2027 06:37:50.497   07 Jun 2027 06:37:52.421             1.924           962.000
       180   07 Jun 2027 06:38:42.073   07 Jun 2027 06:38:46.794             4.721          2033.250
       181   07 Jun 2027 08:12:40.376   07 Jun 2027 08:12:50.607            10.231          5046.563
       182   07 Jun 2027 08:13:05.082   07 Jun 2027 08:13:07.058             1.976           452.344
       183   07 Jun 2027 08:13:27.836   07 Jun 2027 08:13:30.519             2.683           397.250
       184   07 Jun 2027 08:14:26.127   07 Jun 2027 08:14:34.166             8.039          1639.375
       185   07 Jun 2027 08:15:26.769   07 Jun 2027 08:15:31.168             4.399          1064.438
       186   07 Jun 2027 09:46:26.270   07 Jun 2027 09:46:32.073             5.803          2484.219
       187   07 Jun 2027 09:48:07.066   07 Jun 2027 09:48:10.349             3.283          1050.406
       188   07 Jun 2027 09:48:39.133   07 Jun 2027 09:48:40.349             1.216           217.625
       189   07 Jun 2027 09:49:00.458   07 Jun 2027 09:49:01.750             1.292           537.375
       190   07 Jun 2027 09:51:20.310   07 Jun 2027 09:51:26.410             6.100          2621.813
       191   07 Jun 2027 09:53:14.578   07 Jun 2027 09:53:20.851             6.273          1620.094
       192   07 Jun 2027 09:53:41.143   07 Jun 2027 09:53:42.433             1.290           221.563
       193   07 Jun 2027 11:23:49.394   07 Jun 2027 11:24:04.052            14.658          6314.094
       194   07 Jun 2027 11:25:54.794   07 Jun 2027 11:26:01.219             6.425          1397.875
       195   07 Jun 2027 11:27:06.080   07 Jun 2027 11:27:09.378             3.298          1467.656
       196   07 Jun 2027 11:28:29.302   07 Jun 2027 11:28:33.368             4.066          1351.406
       197   07 Jun 2027 11:28:49.712   07 Jun 2027 11:28:50.758             1.046           297.063
       198   07 Jun 2027 11:29:52.780   07 Jun 2027 11:29:59.479             6.699          1575.594
       199   07 Jun 2027 11:30:29.680   07 Jun 2027 11:30:31.183             1.503           699.406
       200   08 Jun 2027 03:46:53.790   08 Jun 2027 03:47:20.011            26.221         13110.500
       201   08 Jun 2027 03:47:27.656   08 Jun 2027 03:49:19.968           112.312         56156.000
       202   08 Jun 2027 03:51:00.101   08 Jun 2027 03:52:12.584            72.483         36241.500
       203   08 Jun 2027 03:52:33.853   08 Jun 2027 03:52:33.853             0.000             0.000
       204   08 Jun 2027 03:53:01.191   08 Jun 2027 03:53:03.604             2.413          1206.500
       205   08 Jun 2027 05:25:10.517   08 Jun 2027 05:26:55.863           105.346         51561.188
       206   08 Jun 2027 05:27:41.176   08 Jun 2027 05:27:44.796             3.620          1416.031
       207   08 Jun 2027 06:48:32.771   08 Jun 2027 06:48:44.105            11.334          5624.875
       208   08 Jun 2027 06:49:51.797   08 Jun 2027 06:49:51.797             0.000             0.000
       209   08 Jun 2027 06:50:14.755   08 Jun 2027 06:50:20.158             5.403          2422.781
       210   08 Jun 2027 08:24:54.968   08 Jun 2027 08:25:12.883            17.915          7430.844
       211   08 Jun 2027 08:25:44.371   08 Jun 2027 08:25:46.516             2.145           684.063
       212   08 Jun 2027 08:26:35.349   08 Jun 2027 08:26:37.829             2.480          1180.531
       213   08 Jun 2027 08:26:48.916   08 Jun 2027 08:26:50.325             1.409           225.844
       214   08 Jun 2027 08:27:31.042   08 Jun 2027 08:27:34.589             3.547          1272.406
       215   08 Jun 2027 09:58:58.995   08 Jun 2027 09:59:04.523             5.528          2268.469
       216   08 Jun 2027 10:00:40.712   08 Jun 2027 10:00:45.330             4.618          2088.437
       217   08 Jun 2027 10:01:01.289   08 Jun 2027 10:01:02.267             0.978           223.937
       218   08 Jun 2027 10:02:02.120   08 Jun 2027 10:02:03.292             1.172           485.500
       219   08 Jun 2027 10:04:09.822   08 Jun 2027 10:04:14.716             4.894          1586.406
       220   08 Jun 2027 10:05:08.566   08 Jun 2027 10:05:16.163             7.597           406.281
       221   08 Jun 2027 10:05:42.876   08 Jun 2027 10:05:45.584             2.708           834.781
       222   08 Jun 2027 10:06:07.638   08 Jun 2027 10:06:08.737             1.099           413.500
       223   08 Jun 2027 10:06:17.498   08 Jun 2027 10:06:18.885             1.387           273.781
       224   08 Jun 2027 10:06:53.214   08 Jun 2027 10:06:55.364             2.150          1033.688
       225   08 Jun 2027 11:36:03.564   08 Jun 2027 11:36:13.323             9.759          4786.719
       226   08 Jun 2027 11:37:38.532   08 Jun 2027 11:37:41.632             3.100           882.563
       227   08 Jun 2027 11:38:46.524   08 Jun 2027 11:38:51.205             4.681          1151.563
       228   08 Jun 2027 11:39:57.163   08 Jun 2027 11:40:01.111             3.948           412.219
       229   08 Jun 2027 11:40:05.995   08 Jun 2027 11:40:07.459             1.464            61.656
       230   08 Jun 2027 11:40:56.705   08 Jun 2027 11:41:00.729             4.024          1078.438
       231   08 Jun 2027 11:41:47.030   08 Jun 2027 11:41:50.309             3.279          1427.906
       232   08 Jun 2027 11:42:09.095   08 Jun 2027 11:42:10.771             1.676           454.219
       233   08 Jun 2027 11:42:38.019   08 Jun 2027 11:42:41.325             3.306           851.500
       234   09 Jun 2027 03:58:59.903   09 Jun 2027 04:00:01.489            61.586         30793.000
       235   09 Jun 2027 04:00:07.862   09 Jun 2027 04:01:44.324            96.462         48231.000
       236   09 Jun 2027 04:02:19.928   09 Jun 2027 04:02:46.853            26.925         13462.500
       237   09 Jun 2027 04:03:28.130   09 Jun 2027 04:03:28.214             0.084            42.000
       238   09 Jun 2027 04:04:12.595   09 Jun 2027 04:04:18.380             5.785          2892.500
       239   09 Jun 2027 05:38:48.561   09 Jun 2027 05:41:02.920           134.359         66824.063
       240   09 Jun 2027 07:00:36.589   09 Jun 2027 07:00:47.423            10.834          5417.000
       241   09 Jun 2027 07:02:31.628   09 Jun 2027 07:02:41.958            10.330          3949.969
       242   09 Jun 2027 08:37:05.799   09 Jun 2027 08:37:13.870             8.071          3615.938
       243   09 Jun 2027 08:37:26.422   09 Jun 2027 08:37:29.365             2.943           278.312
       244   09 Jun 2027 08:38:00.473   09 Jun 2027 08:38:06.317             5.844           972.125
       245   09 Jun 2027 08:38:46.846   09 Jun 2027 08:38:49.508             2.662          1254.156
       246   09 Jun 2027 08:39:33.163   09 Jun 2027 08:39:42.733             9.570           960.344
       247   09 Jun 2027 10:12:10.772   09 Jun 2027 10:12:15.701             4.929          2291.781
       248   09 Jun 2027 10:13:19.832   09 Jun 2027 10:13:22.741             2.909          1070.875
       249   09 Jun 2027 10:14:10.532   09 Jun 2027 10:14:14.127             3.595          1493.469
       250   09 Jun 2027 10:15:51.787   09 Jun 2027 10:15:57.293             5.506          1090.281
       251   09 Jun 2027 10:17:28.477   09 Jun 2027 10:17:32.579             4.102           903.063
       252   09 Jun 2027 10:18:13.913   09 Jun 2027 10:18:16.345             2.432           816.000
       253   09 Jun 2027 10:18:36.757   09 Jun 2027 10:18:37.062             0.305            71.125
       254   09 Jun 2027 11:48:32.780   09 Jun 2027 11:48:46.236            13.456          6596.031
       255   09 Jun 2027 11:50:19.347   09 Jun 2027 11:50:20.893             1.546           735.406
       256   09 Jun 2027 11:50:30.175   09 Jun 2027 11:50:31.733             1.558            47.125
       257   09 Jun 2027 11:52:06.190   09 Jun 2027 11:52:11.049             4.859          2358.750
       258   09 Jun 2027 11:52:33.503   09 Jun 2027 11:52:36.506             3.003           353.656
       259   09 Jun 2027 11:52:54.607   09 Jun 2027 11:52:56.334             1.727           537.125
       260   09 Jun 2027 11:53:22.535   09 Jun 2027 11:53:23.867             1.332           247.844
       261   09 Jun 2027 11:53:33.790   09 Jun 2027 11:53:36.343             2.553             3.094
       262   09 Jun 2027 11:53:53.198   09 Jun 2027 11:53:53.407             0.209           104.500
       263   10 Jun 2027 04:10:59.657   10 Jun 2027 04:11:44.025            44.368         22184.000
       264   10 Jun 2027 04:12:05.462   10 Jun 2027 04:13:17.965            72.503         36251.500
       265   10 Jun 2027 04:13:25.415   10 Jun 2027 04:13:39.435            14.020          7010.000
       266   10 Jun 2027 04:14:19.786   10 Jun 2027 04:14:29.302             9.516          4758.000
       267   10 Jun 2027 04:16:27.467   10 Jun 2027 04:16:36.769             9.302          4651.000
       268   10 Jun 2027 05:49:12.511   10 Jun 2027 05:51:55.836           163.325         81395.188
       269   10 Jun 2027 07:12:33.036   10 Jun 2027 07:12:53.557            20.521         10043.187
       270   10 Jun 2027 07:13:34.969   10 Jun 2027 07:13:38.356             3.387           885.563
       271   10 Jun 2027 07:15:14.145   10 Jun 2027 07:15:16.484             2.339          1169.500
       272   10 Jun 2027 08:49:10.839   10 Jun 2027 08:49:17.532             6.693          3322.438
       273   10 Jun 2027 08:50:22.411   10 Jun 2027 08:50:26.741             4.330          1657.656
       274   10 Jun 2027 08:51:44.348   10 Jun 2027 08:51:53.438             9.090          2323.562
       275   10 Jun 2027 08:52:21.186   10 Jun 2027 08:52:23.152             1.966           262.531
       276   10 Jun 2027 10:24:21.199   10 Jun 2027 10:24:32.493            11.294          3135.969
       277   10 Jun 2027 10:25:47.930   10 Jun 2027 10:25:52.661             4.731          2311.594
       278   10 Jun 2027 10:26:21.758   10 Jun 2027 10:26:23.276             1.518           500.125
       279   10 Jun 2027 10:29:17.375   10 Jun 2027 10:29:26.064             8.689          3866.344
       280   10 Jun 2027 10:29:58.315   10 Jun 2027 10:30:00.905             2.590           575.844
       281   10 Jun 2027 10:30:45.036   10 Jun 2027 10:30:49.939             4.903           833.219
       282   11 Jun 2027 04:24:04.780   11 Jun 2027 04:25:33.953            89.173         44586.500
       283   11 Jun 2027 04:26:11.443   11 Jun 2027 04:26:19.255             7.812          3906.000
       284   11 Jun 2027 04:26:32.456   11 Jun 2027 04:27:12.535            40.079         20039.500
       285   11 Jun 2027 04:28:29.749   11 Jun 2027 04:28:30.228             0.479           239.500
       286   11 Jun 2027 04:30:35.754   11 Jun 2027 04:30:44.428             8.674          4337.000
       287   11 Jun 2027 04:31:02.011   11 Jun 2027 04:31:37.049            35.038         17519.000
       288   11 Jun 2027 05:50:23.134   11 Jun 2027 05:50:36.223            13.089          6544.500
       289   11 Jun 2027 06:01:10.341   11 Jun 2027 06:01:52.107            41.766         20883.000
       290   11 Jun 2027 06:01:57.197   11 Jun 2027 06:03:26.880            89.683         44841.500
       291   11 Jun 2027 06:04:10.715   11 Jun 2027 06:04:22.034            11.319          4811.406
       292   11 Jun 2027 07:25:09.226   11 Jun 2027 07:25:20.871            11.645          5779.937
       293   11 Jun 2027 07:26:03.209   11 Jun 2027 07:26:03.209             0.000             0.000
       294   11 Jun 2027 07:27:14.276   11 Jun 2027 07:27:28.213            13.937          2985.719
       295   11 Jun 2027 09:00:54.723   11 Jun 2027 09:00:59.833             5.110          2454.344
       296   11 Jun 2027 09:02:16.124   11 Jun 2027 09:02:25.023             8.899          1481.156
       297   11 Jun 2027 09:03:15.742   11 Jun 2027 09:03:17.075             1.333           666.500
       298   11 Jun 2027 09:03:25.128   11 Jun 2027 09:03:29.191             4.063          1100.625
       299   11 Jun 2027 09:04:23.064   11 Jun 2027 09:04:23.064             0.000             0.000
       300   11 Jun 2027 09:05:04.596   11 Jun 2027 09:05:08.309             3.713          1856.500
       301   11 Jun 2027 10:35:45.467   11 Jun 2027 10:35:51.589             6.122          2184.281
       302   11 Jun 2027 10:38:17.248   11 Jun 2027 10:38:28.199            10.951          3729.469
       303   11 Jun 2027 10:38:37.188   11 Jun 2027 10:38:37.481             0.293            38.437
       304   11 Jun 2027 10:39:09.045   11 Jun 2027 10:39:09.045             0.000             0.000
       305   11 Jun 2027 10:41:17.111   11 Jun 2027 10:41:28.503            11.392          4254.594
       306   11 Jun 2027 10:42:10.572   11 Jun 2027 10:42:19.059             8.487          1086.906
       307   11 Jun 2027 10:42:43.267   11 Jun 2027 10:42:49.688             6.421           756.500
       308   12 Jun 2027 03:00:00.000   12 Jun 2027 03:00:16.522            16.522          8261.000
       309   12 Jun 2027 03:00:59.189   12 Jun 2027 03:01:00.773             1.584           792.000
       310   12 Jun 2027 03:01:21.696   12 Jun 2027 03:01:22.416             0.720           360.000
       311   12 Jun 2027 03:01:49.634   12 Jun 2027 03:02:06.901            17.267          8633.500
       312   12 Jun 2027 03:02:28.561   12 Jun 2027 03:02:39.304            10.743          5371.500
       313   12 Jun 2027 03:02:53.082   12 Jun 2027 03:02:53.609             0.527           263.500
       314   12 Jun 2027 03:03:44.215   12 Jun 2027 03:03:53.993             9.778          4889.000
       315   12 Jun 2027 04:36:25.544   12 Jun 2027 04:38:36.104           130.560         65280.000
       316   12 Jun 2027 04:41:19.700   12 Jun 2027 04:41:25.099             5.399          2699.500
       317   12 Jun 2027 04:42:23.613   12 Jun 2027 04:43:41.629            78.016         39008.000
       318   12 Jun 2027 06:01:39.460   12 Jun 2027 06:02:30.131            50.671         25335.500
       319   12 Jun 2027 06:02:33.722   12 Jun 2027 06:02:55.575            21.853         10926.500
       320   12 Jun 2027 06:13:09.299   12 Jun 2027 06:13:29.840            20.541          9193.968
       321   12 Jun 2027 07:35:48.118   12 Jun 2027 07:36:03.414            15.296          7294.437
       322   12 Jun 2027 07:36:09.990   12 Jun 2027 07:36:11.197             1.207           167.531
       323   12 Jun 2027 07:36:33.719   12 Jun 2027 07:36:36.226             2.507           249.750
       324   12 Jun 2027 07:37:54.081   12 Jun 2027 07:38:00.215             6.134          1751.188
       325   12 Jun 2027 07:39:13.957   12 Jun 2027 07:39:19.539             5.582          2146.219
       326   12 Jun 2027 07:40:01.603   12 Jun 2027 07:40:04.830             3.227           736.438
       327   12 Jun 2027 09:11:05.129   12 Jun 2027 09:11:11.970             6.841          3187.969
       328   12 Jun 2027 09:11:53.516   12 Jun 2027 09:11:57.009             3.493           194.438
       329   12 Jun 2027 09:13:27.347   12 Jun 2027 09:13:33.200             5.853          1927.938
       330   12 Jun 2027 09:14:14.484   12 Jun 2027 09:14:14.484             0.000             0.000
       331   12 Jun 2027 09:15:37.543   12 Jun 2027 09:15:46.195             8.652          2668.469
       332   12 Jun 2027 09:16:03.525   12 Jun 2027 09:16:06.655             3.130           541.562
       333   12 Jun 2027 10:47:39.553   12 Jun 2027 10:47:47.802             8.249          2740.125
       334   12 Jun 2027 10:48:09.484   12 Jun 2027 10:48:11.878             2.394           465.156
       335   12 Jun 2027 10:48:19.120   12 Jun 2027 10:48:21.044             1.924           204.469
       336   12 Jun 2027 10:49:48.863   12 Jun 2027 10:50:01.804            12.941           865.781
       337   12 Jun 2027 10:51:10.992   12 Jun 2027 10:51:12.476             1.484           607.844
       338   12 Jun 2027 10:52:14.302   12 Jun 2027 10:52:18.949             4.647          1599.656
       339   12 Jun 2027 10:52:40.083   12 Jun 2027 10:52:41.787             1.704           310.188
       340   12 Jun 2027 10:53:06.904   12 Jun 2027 10:53:08.378             1.474           586.906
       341   12 Jun 2027 10:54:21.902   12 Jun 2027 10:54:28.549             6.647          2246.844
       342   12 Jun 2027 10:55:06.821   12 Jun 2027 10:55:07.971             1.150           575.000
       343   13 Jun 2027 03:09:35.972   13 Jun 2027 03:10:29.822            53.850         26925.000
       344   13 Jun 2027 03:10:40.964   13 Jun 2027 03:10:41.809             0.845           422.500
       345   13 Jun 2027 03:11:41.230   13 Jun 2027 03:11:44.534             3.304          1652.000
       346   13 Jun 2027 03:12:16.462   13 Jun 2027 03:12:20.436             3.974          1987.000
       347   13 Jun 2027 03:12:34.800   13 Jun 2027 03:12:41.310             6.510          3255.000
       348   13 Jun 2027 03:13:40.521   13 Jun 2027 03:13:52.282            11.761          5880.500
       349   13 Jun 2027 03:14:00.799   13 Jun 2027 03:14:08.162             7.363          3681.500
       350   13 Jun 2027 03:14:29.264   13 Jun 2027 03:14:34.429             5.165          2582.500
       351   13 Jun 2027 03:15:21.065   13 Jun 2027 03:15:41.094            20.029         10014.500
       352   13 Jun 2027 04:48:41.371   13 Jun 2027 04:51:19.524           158.153         79076.500
       353   13 Jun 2027 04:52:28.657   13 Jun 2027 04:53:03.485            34.828         16489.812
       354   13 Jun 2027 04:53:44.190   13 Jun 2027 04:53:45.206             1.016           484.875
       355   13 Jun 2027 04:53:51.319   13 Jun 2027 04:53:51.872             0.553           191.031
       356   13 Jun 2027 04:54:52.893   13 Jun 2027 04:54:54.764             1.871           540.313
       357   13 Jun 2027 04:55:24.991   13 Jun 2027 04:55:29.428             4.437           820.031
       358   13 Jun 2027 06:12:55.820   13 Jun 2027 06:13:11.785            15.965          6154.563
       359   13 Jun 2027 06:14:41.979   13 Jun 2027 06:14:47.457             5.478          2459.250
       360   13 Jun 2027 06:25:08.450   13 Jun 2027 06:25:12.766             4.316          1759.000
       361   13 Jun 2027 07:47:24.085   13 Jun 2027 07:47:38.382            14.297          5049.344
       362   13 Jun 2027 07:49:19.542   13 Jun 2027 07:49:24.001             4.459          1774.187
       363   13 Jun 2027 07:50:03.746   13 Jun 2027 07:50:05.887             2.141           688.594
       364   13 Jun 2027 07:51:12.982   13 Jun 2027 07:51:18.435             5.453          1971.844
       365   13 Jun 2027 07:51:42.789   13 Jun 2027 07:51:45.513             2.724            57.094
       366   13 Jun 2027 09:22:16.684   13 Jun 2027 09:22:22.495             5.811          2533.219
       367   13 Jun 2027 09:25:56.752   13 Jun 2027 09:25:59.399             2.647           580.094
       368   13 Jun 2027 09:27:38.157   13 Jun 2027 09:27:51.958            13.801          2737.719
       369   13 Jun 2027 09:28:16.830   13 Jun 2027 09:28:20.783             3.953           737.625
       370   13 Jun 2027 09:28:55.453   13 Jun 2027 09:28:55.753             0.300            91.469
       371   13 Jun 2027 09:30:21.593   13 Jun 2027 09:30:27.290             5.697          1426.031
       372   13 Jun 2027 10:59:51.260   13 Jun 2027 10:59:59.430             8.170          3338.687
       373   13 Jun 2027 11:02:50.002   13 Jun 2027 11:02:53.635             3.633            71.875
       374   13 Jun 2027 11:03:30.844   13 Jun 2027 11:03:36.999             6.155          1147.156
       375   13 Jun 2027 11:04:14.306   13 Jun 2027 11:04:16.043             1.737           449.938
       376   13 Jun 2027 11:04:39.900   13 Jun 2027 11:04:41.126             1.226           518.438
       377   13 Jun 2027 11:05:29.859   13 Jun 2027 11:05:31.769             1.910           779.562
       378   13 Jun 2027 11:06:01.513   13 Jun 2027 11:06:03.758             2.245           385.875
       379   13 Jun 2027 11:06:21.226   13 Jun 2027 11:06:22.671             1.445           526.031
