uniorb/output/strategy_4/Camera/Camera_KinoSat_111501.txt

KinoSat_111501
-------------------------
    Access    *     Start Time (UTCG)     *     Stop Time (UTCG)  *   Duration (s) *   Data (Mbytes)
         1   01 Jun 2027 03:58:10.180   01 Jun 2027 04:00:30.832           140.652         70326.000
         2   01 Jun 2027 04:01:18.655   01 Jun 2027 04:01:27.209             8.554          4277.000
         3   01 Jun 2027 04:02:15.920   01 Jun 2027 04:02:21.125             5.205          2602.500
         4   01 Jun 2027 04:03:11.332   01 Jun 2027 04:03:13.436             2.104          1052.000
         5   01 Jun 2027 04:04:58.196   01 Jun 2027 04:05:17.824            19.628          9814.000
         6   01 Jun 2027 05:22:59.479   01 Jun 2027 05:24:12.269            72.790         36395.000
         7   01 Jun 2027 05:34:40.001   01 Jun 2027 05:35:34.365            54.364         27182.000
         8   01 Jun 2027 06:56:58.104   01 Jun 2027 06:58:04.289            66.185         33092.500
         9   01 Jun 2027 06:58:52.290   01 Jun 2027 06:59:24.085            31.795         15897.500
        10   01 Jun 2027 08:31:54.344   01 Jun 2027 08:33:10.456            76.112         38056.000
        11   01 Jun 2027 08:33:15.565   01 Jun 2027 08:33:28.263            12.698          6349.000
        12   01 Jun 2027 08:34:08.038   01 Jun 2027 08:34:16.345             8.307          4153.500
        13   01 Jun 2027 08:37:38.887   01 Jun 2027 08:37:38.887             0.000             0.000
        14   01 Jun 2027 08:38:41.218   01 Jun 2027 08:39:07.627            26.409         13204.500
        15   01 Jun 2027 08:39:54.774   01 Jun 2027 08:40:17.952            23.178         11589.000
        16   01 Jun 2027 10:09:24.436   01 Jun 2027 10:11:16.092           111.656         55828.000
        17   01 Jun 2027 10:13:51.714   01 Jun 2027 10:13:51.714             0.000             0.000
        18   01 Jun 2027 10:14:59.693   01 Jun 2027 10:15:30.786            31.093         15546.500
        19   01 Jun 2027 10:15:59.590   01 Jun 2027 10:16:16.943            17.353          8676.500
        20   01 Jun 2027 10:16:24.959   01 Jun 2027 10:16:28.470             3.511          1755.500
        21   01 Jun 2027 11:46:09.194   01 Jun 2027 11:48:12.334           123.140         61570.000
        22   01 Jun 2027 11:48:23.177   01 Jun 2027 11:48:41.445            18.268          9134.000
        23   01 Jun 2027 11:51:27.773   01 Jun 2027 11:51:30.938             3.165          1582.500
        24   01 Jun 2027 11:52:27.163   01 Jun 2027 11:52:28.240             1.077           538.500
        25   02 Jun 2027 04:10:12.705   02 Jun 2027 04:12:37.242           144.537         72268.500
        26   02 Jun 2027 04:14:05.963   02 Jun 2027 04:14:08.098             2.135          1067.500
        27   02 Jun 2027 05:34:33.114   02 Jun 2027 05:35:43.970            70.856         35428.000
        28   02 Jun 2027 05:35:53.201   02 Jun 2027 05:35:53.201             0.000             0.000
        29   02 Jun 2027 05:36:22.258   02 Jun 2027 05:36:35.618            13.360          6680.000
        30   02 Jun 2027 05:46:48.677   02 Jun 2027 05:47:15.488            26.811         13405.500
        31   02 Jun 2027 07:08:30.097   02 Jun 2027 07:09:49.866            79.769         39884.500
        32   02 Jun 2027 07:10:38.426   02 Jun 2027 07:12:51.284           132.858         66429.000
        33   02 Jun 2027 07:13:47.129   02 Jun 2027 07:13:47.129             0.000             0.000
        34   02 Jun 2027 08:43:23.624   02 Jun 2027 08:45:10.172           106.548         53274.000
        35   02 Jun 2027 08:46:34.260   02 Jun 2027 08:47:25.081            50.821         25410.500
        36   02 Jun 2027 08:47:57.630   02 Jun 2027 08:47:57.630             0.000             0.000
        37   02 Jun 2027 08:49:12.515   02 Jun 2027 08:50:05.210            52.695         26347.500
        38   02 Jun 2027 08:51:54.959   02 Jun 2027 08:51:54.959             0.000             0.000
        39   02 Jun 2027 08:52:02.580   02 Jun 2027 08:52:42.189            39.609         17659.654
        40   02 Jun 2027 10:21:18.652   02 Jun 2027 10:21:43.683            25.031         11123.375
        41   02 Jun 2027 10:24:18.029   02 Jun 2027 10:24:22.104             4.075          1959.687
        42   02 Jun 2027 10:24:56.086   02 Jun 2027 10:25:00.211             4.125          1061.938
        43   02 Jun 2027 10:25:33.709   02 Jun 2027 10:25:36.034             2.325           213.313
        44   02 Jun 2027 10:26:16.770   02 Jun 2027 10:26:18.313             1.543           340.906
        45   02 Jun 2027 10:26:37.193   02 Jun 2027 10:26:39.057             1.864           570.156
        46   02 Jun 2027 10:27:42.078   02 Jun 2027 10:27:46.396             4.318          1962.656
        47   02 Jun 2027 10:27:47.399   02 Jun 2027 10:27:49.763             2.364            24.094
        48   02 Jun 2027 10:28:23.539   02 Jun 2027 10:28:26.154             2.615          1012.156
        49   02 Jun 2027 10:28:28.070   02 Jun 2027 10:28:29.024             0.954            59.875
        50   02 Jun 2027 11:58:03.235   02 Jun 2027 11:58:11.523             8.288          4144.000
        51   02 Jun 2027 11:58:37.870   02 Jun 2027 11:58:44.506             6.636          2046.875
        52   03 Jun 2027 04:22:38.590   03 Jun 2027 04:23:59.361            80.771         40385.500
        53   03 Jun 2027 04:26:10.463   03 Jun 2027 04:26:30.751            20.288         10144.000
        54   03 Jun 2027 04:26:54.187   03 Jun 2027 04:27:34.696            40.509         20254.500
        55   03 Jun 2027 05:46:28.949   03 Jun 2027 05:47:37.597            68.648         34324.000
        56   03 Jun 2027 07:22:28.970   03 Jun 2027 07:24:20.843           111.873         55531.656
        57   03 Jun 2027 07:25:37.207   03 Jun 2027 07:25:46.587             9.380          2040.437
        58   03 Jun 2027 08:56:16.988   03 Jun 2027 08:56:23.312             6.324          2241.156
        59   03 Jun 2027 08:57:50.023   03 Jun 2027 08:57:51.878             1.855           616.906
        60   03 Jun 2027 08:59:41.245   03 Jun 2027 08:59:49.855             8.610          1987.125
        61   03 Jun 2027 09:01:11.931   03 Jun 2027 09:01:11.931             0.000             0.000
        62   03 Jun 2027 09:01:58.711   03 Jun 2027 09:02:06.176             7.465          3669.062
        63   03 Jun 2027 09:02:57.747   03 Jun 2027 09:03:01.794             4.047          1435.937
        64   03 Jun 2027 09:03:18.927   03 Jun 2027 09:03:25.248             6.321           535.406
        65   03 Jun 2027 09:03:59.822   03 Jun 2027 09:04:03.777             3.955          1080.438
        66   03 Jun 2027 10:33:28.568   03 Jun 2027 10:33:42.159            13.591          6435.406
        67   03 Jun 2027 10:35:13.731   03 Jun 2027 10:35:15.739             2.008           912.031
        68   03 Jun 2027 10:37:57.231   03 Jun 2027 10:38:04.551             7.320          3589.844
        69   03 Jun 2027 10:38:18.879   03 Jun 2027 10:38:21.176             2.297           447.750
        70   03 Jun 2027 10:38:46.033   03 Jun 2027 10:38:47.004             0.971           248.312
        71   03 Jun 2027 10:38:51.937   03 Jun 2027 10:38:52.524             0.587           154.156
        72   03 Jun 2027 10:39:24.237   03 Jun 2027 10:39:28.205             3.968           422.719
        73   03 Jun 2027 10:39:57.976   03 Jun 2027 10:40:01.194             3.218           840.562
        74   03 Jun 2027 10:40:20.630   03 Jun 2027 10:40:24.370             3.740           481.125
        75   03 Jun 2027 10:40:42.961   03 Jun 2027 10:40:44.541             1.580           580.969
        76   04 Jun 2027 03:00:00.000   04 Jun 2027 03:00:16.947            16.947          8473.500
        77   04 Jun 2027 03:00:44.340   04 Jun 2027 03:00:46.481             2.141          1070.500
        78   04 Jun 2027 03:01:05.816   04 Jun 2027 03:01:30.914            25.098         12549.000
        79   04 Jun 2027 03:02:22.639   04 Jun 2027 03:02:25.405             2.766          1383.000
        80   04 Jun 2027 04:34:59.371   04 Jun 2027 04:37:17.550           138.179         69089.500
        81   04 Jun 2027 04:38:52.830   04 Jun 2027 04:39:34.864            42.034         21017.000
        82   04 Jun 2027 05:58:21.404   04 Jun 2027 05:59:04.402            42.998         21499.000
        83   04 Jun 2027 06:00:49.235   04 Jun 2027 06:00:54.981             5.746          2873.000
        84   04 Jun 2027 07:34:42.459   04 Jun 2027 07:35:42.487            60.028         27573.594
        85   04 Jun 2027 07:35:52.153   04 Jun 2027 07:35:52.875             0.722           170.781
        86   04 Jun 2027 07:36:21.041   04 Jun 2027 07:36:22.670             1.629           372.750
        87   04 Jun 2027 07:36:42.602   04 Jun 2027 07:36:44.445             1.843            52.125
        88   04 Jun 2027 07:37:22.686   04 Jun 2027 07:37:27.335             4.649          1195.031
        89   04 Jun 2027 07:38:11.265   04 Jun 2027 07:38:12.827             1.562           781.000
        90   04 Jun 2027 09:08:45.471   04 Jun 2027 09:08:57.346            11.875          3920.250
        91   04 Jun 2027 09:10:42.074   04 Jun 2027 09:10:43.949             1.875           601.437
        92   04 Jun 2027 09:11:29.444   04 Jun 2027 09:11:32.639             3.195          1169.063
        93   04 Jun 2027 09:12:07.580   04 Jun 2027 09:12:11.179             3.599          1025.625
        94   04 Jun 2027 09:14:09.528   04 Jun 2027 09:14:17.922             8.394          2668.000
        95   04 Jun 2027 09:15:27.901   04 Jun 2027 09:15:32.022             4.121           245.656
        96   04 Jun 2027 09:16:17.993   04 Jun 2027 09:16:20.835             2.842          1026.594
        97   04 Jun 2027 09:16:46.550   04 Jun 2027 09:16:46.884             0.334            11.156
        98   04 Jun 2027 10:45:52.202   04 Jun 2027 10:46:06.414            14.212          6234.969
        99   04 Jun 2027 10:46:20.875   04 Jun 2027 10:46:23.085             2.210           153.000
       100   04 Jun 2027 10:47:16.319   04 Jun 2027 10:47:18.275             1.956            88.406
       101   04 Jun 2027 10:47:55.847   04 Jun 2027 10:48:00.392             4.545           568.781
       102   04 Jun 2027 10:48:46.018   04 Jun 2027 10:48:52.249             6.231          1310.156
       103   04 Jun 2027 10:49:49.361   04 Jun 2027 10:49:54.125             4.764           862.531
       104   04 Jun 2027 10:50:19.164   04 Jun 2027 10:50:24.471             5.307           755.281
       105   04 Jun 2027 10:50:53.008   04 Jun 2027 10:50:55.104             2.096           540.469
       106   04 Jun 2027 10:51:57.862   04 Jun 2027 10:52:02.434             4.572          1537.844
       107   04 Jun 2027 10:52:27.124   04 Jun 2027 10:52:31.362             4.238           735.344
       108   05 Jun 2027 03:08:53.442   05 Jun 2027 03:09:14.282            20.840         10420.000
       109   05 Jun 2027 03:09:24.778   05 Jun 2027 03:09:51.645            26.867         13433.500
       110   05 Jun 2027 03:10:26.016   05 Jun 2027 03:10:50.298            24.282         12141.000
       111   05 Jun 2027 03:12:10.249   05 Jun 2027 03:12:18.725             8.476          4238.000
       112   05 Jun 2027 03:12:45.061   05 Jun 2027 03:12:45.061             0.000             0.000
       113   05 Jun 2027 03:12:50.560   05 Jun 2027 03:13:01.703            11.143          5571.500
       114   05 Jun 2027 03:13:43.831   05 Jun 2027 03:14:02.270            18.439          9219.500
       115   05 Jun 2027 04:47:25.441   05 Jun 2027 04:48:35.382            69.941         34970.500
       116   05 Jun 2027 04:48:48.393   05 Jun 2027 04:50:48.604           120.211         58678.125
       117   05 Jun 2027 06:10:22.976   05 Jun 2027 06:10:42.995            20.019          9643.219
       118   05 Jun 2027 06:12:34.479   05 Jun 2027 06:12:42.435             7.956          3177.563
       119   05 Jun 2027 07:46:48.947   05 Jun 2027 07:46:56.236             7.289          2379.250
       120   05 Jun 2027 07:47:40.176   05 Jun 2027 07:47:42.628             2.452           822.625
       121   05 Jun 2027 07:48:53.583   05 Jun 2027 07:48:58.123             4.540          1866.812
       122   05 Jun 2027 07:49:47.053   05 Jun 2027 07:49:50.099             3.046           698.281
       123   05 Jun 2027 09:21:57.300   05 Jun 2027 09:22:06.896             9.596          3790.094
       124   05 Jun 2027 09:23:00.960   05 Jun 2027 09:23:02.823             1.863           850.062
       125   05 Jun 2027 09:23:31.169   05 Jun 2027 09:23:34.863             3.694           561.406
       126   05 Jun 2027 09:25:08.391   05 Jun 2027 09:25:13.142             4.751          1619.281
       127   05 Jun 2027 09:25:41.779   05 Jun 2027 09:25:44.643             2.864           798.250
       128   05 Jun 2027 09:27:20.698   05 Jun 2027 09:27:26.876             6.178          2750.219
       129   05 Jun 2027 09:27:58.259   05 Jun 2027 09:28:01.042             2.783           499.969
       130   05 Jun 2027 09:28:27.203   05 Jun 2027 09:28:27.824             0.621           247.594
       131   05 Jun 2027 09:28:39.276   05 Jun 2027 09:28:40.857             1.581           164.000
       132   05 Jun 2027 10:58:18.021   05 Jun 2027 10:58:28.140            10.119          3703.500
       133   05 Jun 2027 11:01:06.885   05 Jun 2027 11:01:13.424             6.539          1140.344
       134   05 Jun 2027 11:02:31.947   05 Jun 2027 11:02:35.831             3.884          1741.344
       135   05 Jun 2027 11:02:59.081   05 Jun 2027 11:03:00.891             1.810           723.344
       136   05 Jun 2027 11:03:50.400   05 Jun 2027 11:03:51.547             1.147           225.313
       137   05 Jun 2027 11:04:22.231   05 Jun 2027 11:04:24.381             2.150           843.969
       138   06 Jun 2027 03:20:46.490   06 Jun 2027 03:21:43.666            57.176         28588.000
       139   06 Jun 2027 03:21:53.555   06 Jun 2027 03:23:53.082           119.527         59763.500
       140   06 Jun 2027 03:25:51.992   06 Jun 2027 03:25:53.428             1.436           718.000
       141   06 Jun 2027 03:26:20.183   06 Jun 2027 03:26:21.837             1.654           827.000
       142   06 Jun 2027 04:59:02.787   06 Jun 2027 05:00:58.624           115.837         57530.844
       143   06 Jun 2027 05:01:51.148   06 Jun 2027 05:01:57.967             6.819          1066.656
       144   06 Jun 2027 05:02:23.219   06 Jun 2027 05:02:25.556             2.337           745.219
       145   06 Jun 2027 06:22:22.989   06 Jun 2027 06:22:33.520            10.531          5256.438
       146   06 Jun 2027 06:23:40.524   06 Jun 2027 06:23:45.678             5.154          2017.250
       147   06 Jun 2027 06:24:11.723   06 Jun 2027 06:24:16.194             4.471           431.031
       148   06 Jun 2027 06:25:09.429   06 Jun 2027 06:25:10.049             0.620           310.000
       149   06 Jun 2027 07:58:59.433   06 Jun 2027 07:59:05.718             6.285          3096.937
       150   06 Jun 2027 07:59:55.393   06 Jun 2027 08:00:00.350             4.957          1481.594
       151   06 Jun 2027 08:00:22.284   06 Jun 2027 08:00:22.902             0.618            75.500
       152   06 Jun 2027 08:00:31.700   06 Jun 2027 08:00:34.140             2.440           231.437
       153   06 Jun 2027 08:00:42.871   06 Jun 2027 08:00:43.718             0.847           270.031
       154   06 Jun 2027 08:01:46.333   06 Jun 2027 08:01:51.648             5.315          1883.531
       155   06 Jun 2027 09:34:09.569   06 Jun 2027 09:34:16.542             6.973          3092.469
       156   06 Jun 2027 09:35:32.522   06 Jun 2027 09:35:37.019             4.497          2187.063
       157   06 Jun 2027 09:35:45.647   06 Jun 2027 09:35:47.558             1.911           236.219
       158   06 Jun 2027 09:37:05.097   06 Jun 2027 09:37:08.806             3.709          1146.156
       159   06 Jun 2027 09:37:53.294   06 Jun 2027 09:37:55.731             2.437          1161.437
       160   06 Jun 2027 09:39:01.257   06 Jun 2027 09:39:02.373             1.116           333.469
       161   06 Jun 2027 09:40:32.232   06 Jun 2027 09:40:40.025             7.793          2231.531
       162   06 Jun 2027 09:40:45.194   06 Jun 2027 09:40:45.394             0.200            13.219
       163   06 Jun 2027 11:10:26.821   06 Jun 2027 11:10:37.234            10.413          5153.000
       164   06 Jun 2027 11:13:01.483   06 Jun 2027 11:13:05.995             4.512           886.656
       165   06 Jun 2027 11:13:39.446   06 Jun 2027 11:13:43.724             4.278           921.000
       166   06 Jun 2027 11:14:26.536   06 Jun 2027 11:14:30.361             3.825          1337.875
       167   06 Jun 2027 11:15:31.781   06 Jun 2027 11:15:37.440             5.659          1697.281
       168   06 Jun 2027 11:16:31.839   06 Jun 2027 11:16:36.093             4.254          1475.906
       169   07 Jun 2027 03:33:52.512   07 Jun 2027 03:36:58.332           185.820         92910.000
       170   07 Jun 2027 03:37:24.122   07 Jun 2027 03:37:48.975            24.853         12426.500
       171   07 Jun 2027 03:38:49.990   07 Jun 2027 03:38:55.373             5.383          2691.500
       172   07 Jun 2027 03:40:44.797   07 Jun 2027 03:41:40.843            56.046         28023.000
       173   07 Jun 2027 05:00:15.243   07 Jun 2027 05:00:17.925             2.682          1341.000
       174   07 Jun 2027 05:10:59.048   07 Jun 2027 05:11:40.945            41.897         20948.500
       175   07 Jun 2027 05:11:47.840   07 Jun 2027 05:12:27.862            40.022         18251.874
       176   07 Jun 2027 05:13:23.821   07 Jun 2027 05:13:29.125             5.304           520.594
       177   07 Jun 2027 05:14:06.726   07 Jun 2027 05:14:07.743             1.017           364.406
       178   07 Jun 2027 06:34:58.581   07 Jun 2027 06:35:07.540             8.959          3515.187
       179   07 Jun 2027 06:35:26.647   07 Jun 2027 06:35:28.372             1.725           411.437
       180   07 Jun 2027 06:35:51.135   07 Jun 2027 06:35:53.986             2.851           669.531
       181   07 Jun 2027 06:37:04.301   07 Jun 2027 06:37:08.654             4.353          1988.750
       182   07 Jun 2027 06:37:26.522   07 Jun 2027 06:37:32.958             6.436           511.687
       183   07 Jun 2027 08:10:43.850   07 Jun 2027 08:10:59.604            15.754          3032.344
       184   07 Jun 2027 08:11:56.733   07 Jun 2027 08:12:00.488             3.755          1778.875
       185   07 Jun 2027 08:12:21.942   07 Jun 2027 08:12:22.596             0.654           107.531
       186   07 Jun 2027 08:13:24.843   07 Jun 2027 08:13:27.836             2.993          1069.875
       187   07 Jun 2027 08:14:09.869   07 Jun 2027 08:14:13.490             3.621          1313.531
       188   07 Jun 2027 09:45:38.322   07 Jun 2027 09:45:46.442             8.120          3926.625
       189   07 Jun 2027 09:47:33.453   07 Jun 2027 09:47:44.015            10.562          2697.562
       190   07 Jun 2027 09:48:32.169   07 Jun 2027 09:48:33.740             1.571           784.469
       191   07 Jun 2027 09:48:43.262   07 Jun 2027 09:48:43.883             0.621           129.031
       192   07 Jun 2027 09:49:56.412   07 Jun 2027 09:50:01.729             5.317          1748.563
       193   07 Jun 2027 09:51:08.742   07 Jun 2027 09:51:10.369             1.627           491.219
       194   07 Jun 2027 09:52:22.735   07 Jun 2027 09:52:27.007             4.272          1950.781
       195   07 Jun 2027 09:52:50.781   07 Jun 2027 09:52:52.216             1.435           630.406
       196   07 Jun 2027 11:22:09.635   07 Jun 2027 11:22:21.779            12.144          5734.344
       197   07 Jun 2027 11:24:08.512   07 Jun 2027 11:24:13.751             5.239          1961.344
       198   07 Jun 2027 11:24:47.763   07 Jun 2027 11:24:49.917             2.154           502.656
       199   07 Jun 2027 11:26:15.057   07 Jun 2027 11:26:20.642             5.585          2234.000
       200   07 Jun 2027 11:27:11.762   07 Jun 2027 11:27:16.060             4.298          1146.187
       201   07 Jun 2027 11:27:29.653   07 Jun 2027 11:27:33.681             4.028           205.750
       202   07 Jun 2027 11:27:44.114   07 Jun 2027 11:27:46.057             1.943           218.344
       203   07 Jun 2027 11:28:10.388   07 Jun 2027 11:28:11.201             0.813           264.969
       204   07 Jun 2027 11:28:21.619   07 Jun 2027 11:28:21.697             0.078            15.750
       205   08 Jun 2027 03:46:00.610   08 Jun 2027 03:48:31.673           151.063         75531.500
       206   08 Jun 2027 03:50:05.620   08 Jun 2027 03:50:14.662             9.042          4521.000
       207   08 Jun 2027 03:50:50.109   08 Jun 2027 03:51:16.992            26.883         13441.500
       208   08 Jun 2027 03:51:34.184   08 Jun 2027 03:51:37.013             2.829          1414.500
       209   08 Jun 2027 03:52:14.567   08 Jun 2027 03:52:23.833             9.266          4633.000
       210   08 Jun 2027 03:52:30.522   08 Jun 2027 03:52:30.937             0.415           207.500
       211   08 Jun 2027 05:11:33.093   08 Jun 2027 05:11:35.991             2.898          1449.000
       212   08 Jun 2027 05:11:42.271   08 Jun 2027 05:11:49.483             7.212          3606.000
       213   08 Jun 2027 05:22:56.907   08 Jun 2027 05:24:31.988            95.081         45702.281
       214   08 Jun 2027 06:45:33.739   08 Jun 2027 06:45:41.991             8.252          3882.656
       215   08 Jun 2027 06:47:07.382   08 Jun 2027 06:47:11.219             3.837          1380.406
       216   08 Jun 2027 06:47:29.918   08 Jun 2027 06:47:30.832             0.914           107.844
       217   08 Jun 2027 06:48:33.369   08 Jun 2027 06:48:35.893             2.524          1262.000
       218   08 Jun 2027 06:49:09.682   08 Jun 2027 06:49:14.324             4.642          1434.906
       219   08 Jun 2027 06:50:00.435   08 Jun 2027 06:50:06.963             6.528           967.406
       220   08 Jun 2027 08:20:58.780   08 Jun 2027 08:21:01.662             2.882          1431.000
       221   08 Jun 2027 08:22:48.308   08 Jun 2027 08:22:56.073             7.765          2950.125
       222   08 Jun 2027 08:23:37.717   08 Jun 2027 08:23:39.753             2.036           728.406
       223   08 Jun 2027 08:25:22.481   08 Jun 2027 08:25:28.828             6.347          2645.500
       224   08 Jun 2027 08:25:30.537   08 Jun 2027 08:25:30.703             0.166            53.406
       225   08 Jun 2027 08:25:44.371   08 Jun 2027 08:25:46.516             2.145           427.125
       226   08 Jun 2027 08:26:22.580   08 Jun 2027 08:26:24.067             1.487           597.688
       227   08 Jun 2027 09:57:24.201   08 Jun 2027 09:57:31.015             6.814          2449.813
       228   08 Jun 2027 09:59:33.882   08 Jun 2027 09:59:41.229             7.347          3401.406
       229   08 Jun 2027 10:00:54.123   08 Jun 2027 10:01:00.511             6.388           419.094
       230   08 Jun 2027 10:01:46.584   08 Jun 2027 10:01:51.813             5.229          1415.469
       231   08 Jun 2027 10:03:19.057   08 Jun 2027 10:03:24.600             5.543          2404.281
       232   08 Jun 2027 10:04:06.963   08 Jun 2027 10:04:09.822             2.859          1306.531
       233   08 Jun 2027 10:04:30.694   08 Jun 2027 10:04:38.284             7.590           499.312
       234   08 Jun 2027 11:34:30.330   08 Jun 2027 11:34:45.141            14.811          6862.531
       235   08 Jun 2027 11:35:14.899   08 Jun 2027 11:35:18.840             3.941           872.125
       236   08 Jun 2027 11:35:59.122   08 Jun 2027 11:36:02.239             3.117           149.781
       237   08 Jun 2027 11:37:10.290   08 Jun 2027 11:37:15.980             5.690          2126.594
       238   08 Jun 2027 11:38:09.141   08 Jun 2027 11:38:11.882             2.741           956.531
       239   08 Jun 2027 11:38:34.891   08 Jun 2027 11:38:37.431             2.540           364.344
       240   08 Jun 2027 11:38:39.315   08 Jun 2027 11:38:39.480             0.165            36.594
       241   08 Jun 2027 11:39:12.467   08 Jun 2027 11:39:14.697             2.230           810.719
       242   08 Jun 2027 11:40:22.270   08 Jun 2027 11:40:27.453             5.183          2036.656
       243   09 Jun 2027 03:58:26.691   09 Jun 2027 04:01:12.982           166.291         83145.500
       244   09 Jun 2027 04:02:33.011   09 Jun 2027 04:02:35.941             2.930          1465.000
       245   09 Jun 2027 04:03:28.214   09 Jun 2027 04:04:14.267            46.053         23026.500
       246   09 Jun 2027 04:04:48.200   09 Jun 2027 04:05:33.779            45.579         22789.500
       247   09 Jun 2027 05:23:24.995   09 Jun 2027 05:23:29.886             4.891          2445.500
       248   09 Jun 2027 05:34:56.257   09 Jun 2027 05:35:56.677            60.420         30210.000
       249   09 Jun 2027 06:57:13.847   09 Jun 2027 06:57:41.739            27.892         13844.126
       250   09 Jun 2027 06:57:59.026   09 Jun 2027 06:58:01.818             2.792           361.687
       251   09 Jun 2027 06:59:07.904   09 Jun 2027 06:59:11.809             3.905          1704.531
       252   09 Jun 2027 06:59:33.259   09 Jun 2027 06:59:33.259             0.000             0.000
       253   09 Jun 2027 06:59:56.997   09 Jun 2027 06:59:59.005             2.008           893.781
       254   09 Jun 2027 07:00:47.423   09 Jun 2027 07:00:53.415             5.992          1343.781
       255   09 Jun 2027 07:01:32.298   09 Jun 2027 07:01:34.564             2.266           741.937
       256   09 Jun 2027 07:02:16.344   09 Jun 2027 07:02:20.028             3.684          1071.344
       257   09 Jun 2027 08:32:07.807   09 Jun 2027 08:32:12.218             4.411          1650.781
       258   09 Jun 2027 08:33:08.147   09 Jun 2027 08:33:08.947             0.800           400.000
       259   09 Jun 2027 08:33:29.517   09 Jun 2027 08:33:33.760             4.243          1110.938
       260   09 Jun 2027 08:35:40.451   09 Jun 2027 08:35:44.530             4.079           884.125
       261   09 Jun 2027 08:36:13.924   09 Jun 2027 08:36:18.017             4.093           734.781
       262   09 Jun 2027 08:37:58.365   09 Jun 2027 08:38:00.473             2.108          1054.000
       263   09 Jun 2027 08:38:30.950   09 Jun 2027 08:38:34.515             3.565          1174.938
       264   09 Jun 2027 08:38:43.703   09 Jun 2027 08:38:46.846             3.143           167.781
       265   09 Jun 2027 08:40:10.582   09 Jun 2027 08:40:15.402             4.820          1830.063
       266   09 Jun 2027 10:09:40.002   09 Jun 2027 10:09:45.837             5.835          2701.969
       267   09 Jun 2027 10:12:45.564   09 Jun 2027 10:12:50.243             4.679          2244.844
       268   09 Jun 2027 10:13:55.370   09 Jun 2027 10:13:59.134             3.764          1474.437
       269   09 Jun 2027 10:14:47.158   09 Jun 2027 10:14:50.542             3.384          1238.125
       270   09 Jun 2027 10:15:29.306   09 Jun 2027 10:15:34.155             4.849          1059.250
       271   09 Jun 2027 10:16:21.787   09 Jun 2027 10:16:25.685             3.898          1363.437
       272   09 Jun 2027 10:16:45.953   09 Jun 2027 10:16:56.815            10.862           457.469
       273   09 Jun 2027 10:16:59.579   09 Jun 2027 10:17:00.000             0.421            86.375
       274   09 Jun 2027 11:46:23.672   09 Jun 2027 11:46:34.894            11.222          5421.187
       275   09 Jun 2027 11:49:55.814   09 Jun 2027 11:50:00.580             4.766          1447.500
       276   09 Jun 2027 11:50:24.833   09 Jun 2027 11:50:28.267             3.434           611.781
       277   09 Jun 2027 11:51:15.362   09 Jun 2027 11:51:23.121             7.759          1412.094
       278   09 Jun 2027 11:52:42.882   09 Jun 2027 11:52:52.878             9.996          1697.313
       279   10 Jun 2027 04:10:30.372   10 Jun 2027 04:12:52.061           141.689         70844.500
       280   10 Jun 2027 04:14:19.786   10 Jun 2027 04:14:29.302             9.516          4758.000
       281   10 Jun 2027 04:15:09.819   10 Jun 2027 04:15:46.925            37.106         18553.000
       282   10 Jun 2027 05:34:49.879   10 Jun 2027 05:35:27.260            37.381         18690.500
       283   10 Jun 2027 05:35:36.978   10 Jun 2027 05:35:52.564            15.586          7793.000
       284   10 Jun 2027 05:47:09.836   10 Jun 2027 05:47:24.363            14.527          7263.500
       285   10 Jun 2027 07:08:45.460   10 Jun 2027 07:10:05.901            80.441         40220.500
       286   10 Jun 2027 07:10:54.195   10 Jun 2027 07:10:56.808             2.613          1047.875
       287   10 Jun 2027 07:11:20.217   10 Jun 2027 07:11:27.506             7.289           725.656
       288   10 Jun 2027 07:11:36.624   10 Jun 2027 07:11:37.888             1.264           205.656
       289   10 Jun 2027 07:12:33.479   10 Jun 2027 07:12:37.370             3.891          1699.437
       290   10 Jun 2027 07:13:53.649   10 Jun 2027 07:13:59.646             5.997          2226.562
       291   10 Jun 2027 08:43:38.771   10 Jun 2027 08:43:44.492             5.721          2274.094
       292   10 Jun 2027 08:44:29.012   10 Jun 2027 08:44:33.563             4.551          1368.375
       293   10 Jun 2027 08:45:46.722   10 Jun 2027 08:45:47.962             1.240           227.250
       294   10 Jun 2027 08:46:37.430   10 Jun 2027 08:46:40.238             2.808          1396.844
       295   10 Jun 2027 08:47:42.984   10 Jun 2027 08:47:47.840             4.856           619.125
       296   10 Jun 2027 08:49:20.395   10 Jun 2027 08:49:26.112             5.717          2544.188
       297   10 Jun 2027 08:50:22.411   10 Jun 2027 08:50:26.741             4.330          1657.656
       298   10 Jun 2027 08:51:00.720   10 Jun 2027 08:51:04.394             3.674           960.187
       299   10 Jun 2027 08:52:04.834   10 Jun 2027 08:52:08.716             3.882          1020.719
       300   10 Jun 2027 10:21:35.059   10 Jun 2027 10:21:46.848            11.789          5058.906
       301   10 Jun 2027 10:24:33.959   10 Jun 2027 10:24:38.161             4.202          1908.594
       302   10 Jun 2027 10:25:50.053   10 Jun 2027 10:25:50.590             0.537           239.719
       303   10 Jun 2027 10:26:21.758   10 Jun 2027 10:26:23.276             1.518           500.125
       304   10 Jun 2027 10:26:32.254   10 Jun 2027 10:26:36.108             3.854           280.562
       305   10 Jun 2027 10:26:52.925   10 Jun 2027 10:26:55.218             2.293           525.531
       306   10 Jun 2027 10:26:56.205   10 Jun 2027 10:26:57.223             1.018            30.844
       307   10 Jun 2027 10:27:16.004   10 Jun 2027 10:27:19.906             3.902           586.906
       308   10 Jun 2027 10:28:25.705   10 Jun 2027 10:28:28.991             3.286          1025.437
       309   10 Jun 2027 10:28:48.821   10 Jun 2027 10:28:50.652             1.831           492.375
       310   10 Jun 2027 11:58:22.959   10 Jun 2027 11:58:34.692            11.733          5372.781
       311   11 Jun 2027 04:22:56.691   11 Jun 2027 04:25:02.138           125.447         62723.500
       312   11 Jun 2027 04:26:11.443   11 Jun 2027 04:26:23.762            12.319          6159.500
       313   11 Jun 2027 04:27:14.660   11 Jun 2027 04:27:50.819            36.159         18079.500
       314   11 Jun 2027 05:46:45.748   11 Jun 2027 05:47:27.543            41.795         20897.500
       315   11 Jun 2027 07:22:45.347   11 Jun 2027 07:24:31.146           105.799         51223.188
       316   11 Jun 2027 07:25:54.085   11 Jun 2027 07:25:58.618             4.533          2000.687
       317   11 Jun 2027 08:56:32.693   11 Jun 2027 08:56:37.930             5.237          2220.844
       318   11 Jun 2027 08:58:07.925   11 Jun 2027 08:58:11.216             3.291           638.938
       319   11 Jun 2027 08:58:46.122   11 Jun 2027 08:58:47.609             1.487           354.594
       320   11 Jun 2027 08:59:04.222   11 Jun 2027 08:59:05.371             1.149           374.281
       321   11 Jun 2027 09:00:19.152   11 Jun 2027 09:00:28.415             9.263          1058.563
       322   11 Jun 2027 09:03:00.656   11 Jun 2027 09:03:15.742            15.086          3396.656
       323   11 Jun 2027 09:03:19.844   11 Jun 2027 09:03:22.191             2.347           128.188
       324   11 Jun 2027 09:03:26.811   11 Jun 2027 09:03:29.191             2.380            52.594
       325   11 Jun 2027 09:04:23.064   11 Jun 2027 09:04:26.142             3.078          1456.125
       326   11 Jun 2027 09:04:39.999   11 Jun 2027 09:04:49.655             9.656            75.187
       327   11 Jun 2027 10:33:47.652   11 Jun 2027 10:34:06.106            18.454          6009.500
       328   11 Jun 2027 10:35:31.216   11 Jun 2027 10:35:33.908             2.692           733.187
       329   11 Jun 2027 10:38:17.248   11 Jun 2027 10:38:28.199            10.951          3729.469
       330   11 Jun 2027 10:39:25.951   11 Jun 2027 10:39:29.696             3.745          1642.813
       331   11 Jun 2027 10:40:17.253   11 Jun 2027 10:40:20.103             2.850           984.562
       332   11 Jun 2027 10:40:36.803   11 Jun 2027 10:40:40.909             4.106           517.063
       333   12 Jun 2027 03:00:00.000   12 Jun 2027 03:00:16.522            16.522          8261.000
       334   12 Jun 2027 03:01:10.787   12 Jun 2027 03:01:11.635             0.848           424.000
       335   12 Jun 2027 03:01:48.836   12 Jun 2027 03:02:23.758            34.922         17461.000
       336   12 Jun 2027 03:03:07.772   12 Jun 2027 03:03:08.424             0.652           326.000
       337   12 Jun 2027 04:35:15.939   12 Jun 2027 04:37:43.499           147.560         73780.000
       338   12 Jun 2027 05:58:37.772   12 Jun 2027 05:59:33.029            55.257         27628.500
       339   12 Jun 2027 06:01:10.007   12 Jun 2027 06:01:13.087             3.080          1540.000
       340   12 Jun 2027 07:34:59.610   12 Jun 2027 07:36:01.464            61.854         30875.282
       341   12 Jun 2027 07:36:09.990   12 Jun 2027 07:36:11.197             1.207           167.531
       342   12 Jun 2027 07:36:33.719   12 Jun 2027 07:36:36.226             2.507           249.750
       343   12 Jun 2027 07:36:59.113   12 Jun 2027 07:36:59.708             0.595            59.313
       344   12 Jun 2027 07:37:39.706   12 Jun 2027 07:37:42.287             2.581          1249.938
       345   12 Jun 2027 09:07:17.624   12 Jun 2027 09:07:23.608             5.984          2892.812
       346   12 Jun 2027 09:09:04.508   12 Jun 2027 09:09:12.182             7.674          1132.406
       347   12 Jun 2027 09:10:57.937   12 Jun 2027 09:10:59.524             1.587           529.406
       348   12 Jun 2027 09:11:47.294   12 Jun 2027 09:11:53.516             6.222          1158.062
       349   12 Jun 2027 09:12:25.653   12 Jun 2027 09:12:28.727             3.074          1004.281
       350   12 Jun 2027 09:14:23.441   12 Jun 2027 09:14:29.345             5.904          2607.406
       351   12 Jun 2027 09:16:48.416   12 Jun 2027 09:16:53.372             4.956          2243.844
       352   12 Jun 2027 09:17:00.758   12 Jun 2027 09:17:01.036             0.278            47.531
       353   12 Jun 2027 10:46:08.474   12 Jun 2027 10:46:20.728            12.254          5572.750
       354   12 Jun 2027 10:47:54.302   12 Jun 2027 10:47:59.169             4.867          1265.000
       355   12 Jun 2027 10:48:19.120   12 Jun 2027 10:48:21.044             1.924           204.469
       356   12 Jun 2027 10:49:48.863   12 Jun 2027 10:50:01.804            12.941           865.781
       357   12 Jun 2027 10:50:10.764   12 Jun 2027 10:50:12.464             1.700           141.094
       358   12 Jun 2027 10:50:39.931   12 Jun 2027 10:50:45.081             5.150           111.219
       359   12 Jun 2027 10:51:10.992   12 Jun 2027 10:51:12.476             1.484           607.844
       360   12 Jun 2027 10:51:25.764   12 Jun 2027 10:51:27.600             1.836           355.531
       361   12 Jun 2027 10:52:00.131   12 Jun 2027 10:52:06.832             6.701           634.531
       362   12 Jun 2027 10:52:21.877   12 Jun 2027 10:52:24.831             2.954           293.219
       363   12 Jun 2027 10:52:40.083   12 Jun 2027 10:52:41.787             1.704           310.188
       364   13 Jun 2027 03:09:07.169   13 Jun 2027 03:10:08.022            60.853         30426.500
       365   13 Jun 2027 03:10:13.650   13 Jun 2027 03:10:15.172             1.522           761.000
       366   13 Jun 2027 03:10:40.687   13 Jun 2027 03:10:57.366            16.679          8339.500
       367   13 Jun 2027 03:11:44.534   13 Jun 2027 03:11:46.976             2.442          1221.000
       368   13 Jun 2027 03:12:16.462   13 Jun 2027 03:12:34.800            18.338          9169.000
       369   13 Jun 2027 03:13:07.858   13 Jun 2027 03:13:40.510            32.652         16326.000
       370   13 Jun 2027 03:14:16.791   13 Jun 2027 03:14:16.791             0.000             0.000
       371   13 Jun 2027 04:48:08.342   13 Jun 2027 04:48:50.255            41.913         20956.500
       372   13 Jun 2027 04:49:00.152   13 Jun 2027 04:51:03.284           123.132         60418.312
       373   13 Jun 2027 06:10:41.174   13 Jun 2027 06:10:57.660            16.486          7752.313
       374   13 Jun 2027 06:11:56.116   13 Jun 2027 06:11:56.116             0.000             0.000
       375   13 Jun 2027 06:12:51.663   13 Jun 2027 06:12:58.887             7.224          3256.562
       376   13 Jun 2027 07:47:07.190   13 Jun 2027 07:47:14.636             7.446          3221.625
       377   13 Jun 2027 07:47:58.456   13 Jun 2027 07:48:01.371             2.915           894.812
       378   13 Jun 2027 07:49:12.108   13 Jun 2027 07:49:16.178             4.070          1888.781
       379   13 Jun 2027 07:50:03.746   13 Jun 2027 07:50:05.887             2.141           688.594
       380   13 Jun 2027 09:22:14.901   13 Jun 2027 09:22:22.495             7.594          3788.531
       381   13 Jun 2027 09:23:19.442   13 Jun 2027 09:23:23.541             4.099           936.219
       382   13 Jun 2027 09:23:48.988   13 Jun 2027 09:23:56.766             7.778           541.750
       383   13 Jun 2027 09:25:25.057   13 Jun 2027 09:25:30.519             5.462          1568.250
       384   13 Jun 2027 09:25:56.752   13 Jun 2027 09:25:59.399             2.647           580.094
       385   13 Jun 2027 09:27:38.157   13 Jun 2027 09:27:51.958            13.801          2737.719
       386   13 Jun 2027 09:28:16.830   13 Jun 2027 09:28:20.783             3.953           737.625
       387   13 Jun 2027 09:28:55.453   13 Jun 2027 09:28:55.753             0.300            91.469
       388   13 Jun 2027 10:58:36.510   13 Jun 2027 10:58:51.389            14.879          6838.031
       389   13 Jun 2027 11:00:35.903   13 Jun 2027 11:00:40.666             4.763           149.281
       390   13 Jun 2027 11:01:23.923   13 Jun 2027 11:01:27.889             3.966          1163.656
       391   13 Jun 2027 11:02:47.702   13 Jun 2027 11:02:53.635             5.933          1704.594
       392   13 Jun 2027 11:03:01.985   13 Jun 2027 11:03:02.964             0.979           120.375
       393   13 Jun 2027 11:03:27.771   13 Jun 2027 11:03:29.428             1.657           772.375
       394   13 Jun 2027 11:04:04.970   13 Jun 2027 11:04:06.355             1.385           186.844
       395   13 Jun 2027 11:04:10.507   13 Jun 2027 11:04:11.285             0.778           129.750
       396   13 Jun 2027 11:04:23.310   13 Jun 2027 11:04:24.074             0.764           281.375
       397   13 Jun 2027 11:04:34.492   13 Jun 2027 11:04:36.967             2.475           325.563
       398   13 Jun 2027 11:04:40.909   13 Jun 2027 11:04:41.126             0.217            65.844
