uniorb/output/strategy_4/Camera/Camera_KinoSat_110404.txt

KinoSat_110404
-------------------------
    Access    *     Start Time (UTCG)     *     Stop Time (UTCG)  *   Duration (s) *   Data (Mbytes)
         1   01 Jun 2027 04:01:51.229   01 Jun 2027 04:03:28.971            97.742         48871.000
         2   01 Jun 2027 04:03:47.717   01 Jun 2027 04:04:15.603            27.886         13943.000
         3   01 Jun 2027 04:06:14.357   01 Jun 2027 04:06:34.719            20.362         10181.000
         4   01 Jun 2027 04:07:12.318   01 Jun 2027 04:07:18.878             6.560          3280.000
         5   01 Jun 2027 04:07:54.083   01 Jun 2027 04:08:11.720            17.637          8818.500
         6   01 Jun 2027 04:08:28.362   01 Jun 2027 04:08:37.990             9.628          4814.000
         7   01 Jun 2027 05:38:13.400   01 Jun 2027 05:40:57.331           163.931         81965.500
         8   01 Jun 2027 05:41:42.375   01 Jun 2027 05:42:10.189            27.814         13907.000
         9   01 Jun 2027 05:42:40.421   01 Jun 2027 05:42:48.371             7.950          3975.000
        10   01 Jun 2027 05:44:28.535   01 Jun 2027 05:44:32.773             4.238          2119.000
        11   01 Jun 2027 07:15:41.660   01 Jun 2027 07:18:24.426           162.766         81383.000
        12   01 Jun 2027 07:19:05.634   01 Jun 2027 07:19:16.664            11.030          5515.000
        13   01 Jun 2027 07:19:41.213   01 Jun 2027 07:19:48.350             7.137          3568.500
        14   01 Jun 2027 08:51:47.968   01 Jun 2027 08:54:47.162           179.194         89597.000
        15   01 Jun 2027 08:55:46.572   01 Jun 2027 08:56:02.033            15.461          7730.500
        16   02 Jun 2027 04:14:00.213   02 Jun 2027 04:20:10.026           369.813        184906.500
        17   02 Jun 2027 04:20:33.088   02 Jun 2027 04:20:36.197             3.109          1554.500
        18   02 Jun 2027 05:50:13.212   02 Jun 2027 05:54:25.114           251.902        125951.000
        19   02 Jun 2027 07:27:48.078   02 Jun 2027 07:32:19.136           271.058        135529.000
        20   02 Jun 2027 09:04:15.418   02 Jun 2027 09:08:01.038           225.620        112810.000
        21   02 Jun 2027 09:08:05.048   02 Jun 2027 09:08:50.916            45.868         22934.000
        22   03 Jun 2027 04:25:23.918   03 Jun 2027 04:32:47.228           443.310        221655.000
        23   03 Jun 2027 06:02:00.594   03 Jun 2027 06:08:24.289           383.695        191847.500
        24   03 Jun 2027 07:40:26.787   03 Jun 2027 07:44:13.020           226.233        113116.500
        25   03 Jun 2027 09:13:38.117   03 Jun 2027 09:15:05.602            87.485         43742.500
        26   03 Jun 2027 09:15:48.756   03 Jun 2027 09:19:51.100           242.344        121172.000
        27   03 Jun 2027 09:20:38.855   03 Jun 2027 09:21:10.025            31.170         15585.000
        28   04 Jun 2027 03:00:34.951   04 Jun 2027 03:07:07.143           392.192        196096.000
        29   04 Jun 2027 04:37:18.574   04 Jun 2027 04:44:47.507           448.933        224466.500
        30   04 Jun 2027 06:14:21.639   04 Jun 2027 06:20:12.438           350.799        175399.500
        31   04 Jun 2027 06:20:15.646   04 Jun 2027 06:20:31.420            15.774          7887.000
        32   04 Jun 2027 07:52:15.838   04 Jun 2027 07:56:15.400           239.562        119781.000
        33   04 Jun 2027 09:25:29.325   04 Jun 2027 09:31:50.695           381.370        190685.000
        34   04 Jun 2027 09:32:11.933   04 Jun 2027 09:33:07.248            55.315         27657.500
        35   05 Jun 2027 03:11:55.124   05 Jun 2027 03:14:00.956           125.832         62916.000
        36   05 Jun 2027 03:14:05.341   05 Jun 2027 03:19:26.373           321.032        160516.000
        37   05 Jun 2027 03:20:03.334   05 Jun 2027 03:20:26.983            23.649         11824.500
        38   05 Jun 2027 04:49:29.561   05 Jun 2027 04:56:51.027           441.466        220733.000
        39   05 Jun 2027 06:26:12.326   05 Jun 2027 06:32:25.593           373.267        186633.500
        40   05 Jun 2027 08:04:15.693   05 Jun 2027 08:08:25.092           249.399        124699.500
        41   05 Jun 2027 09:37:57.161   05 Jun 2027 09:44:00.537           363.376        181688.000
        42   06 Jun 2027 03:23:25.513   06 Jun 2027 03:31:34.587           489.074        244537.000
        43   06 Jun 2027 03:32:06.610   06 Jun 2027 03:32:53.763            47.153         23576.500
        44   06 Jun 2027 05:01:23.780   06 Jun 2027 05:08:52.431           448.651        224325.500
        45   06 Jun 2027 06:38:19.596   06 Jun 2027 06:43:38.636           319.040        159520.000
        46   06 Jun 2027 06:44:10.249   06 Jun 2027 06:44:49.270            39.021         19510.500
        47   06 Jun 2027 08:16:11.868   06 Jun 2027 08:20:23.553           251.685        125842.500
        48   06 Jun 2027 09:50:17.211   06 Jun 2027 09:51:29.993            72.782         36391.000
        49   06 Jun 2027 09:52:04.258   06 Jun 2027 09:55:35.462           211.204        105602.000
        50   07 Jun 2027 03:36:19.416   07 Jun 2027 03:43:49.678           450.262        225131.000
        51   07 Jun 2027 03:43:53.789   07 Jun 2027 03:44:54.083            60.294         30147.000
        52   07 Jun 2027 05:13:45.116   07 Jun 2027 05:20:45.561           420.445        210222.500
        53   07 Jun 2027 06:50:48.667   07 Jun 2027 06:55:17.679           269.012        134506.000
        54   07 Jun 2027 06:55:51.844   07 Jun 2027 06:56:38.675            46.831         23415.500
        55   07 Jun 2027 08:27:47.027   07 Jun 2027 08:32:21.596           274.569        137284.500
        56   07 Jun 2027 10:04:32.230   07 Jun 2027 10:07:20.797           168.567         84283.500
        57   08 Jun 2027 03:48:54.767   08 Jun 2027 03:55:48.076           413.309        206654.500
        58   08 Jun 2027 03:55:50.457   08 Jun 2027 03:56:50.968            60.511         30255.500
        59   08 Jun 2027 05:25:57.719   08 Jun 2027 05:32:40.912           403.193        201596.500
        60   08 Jun 2027 07:02:54.716   08 Jun 2027 07:07:19.360           264.644        132322.000
        61   08 Jun 2027 07:07:20.327   08 Jun 2027 07:07:55.467            35.140         17570.000
        62   08 Jun 2027 08:39:40.381   08 Jun 2027 08:44:47.817           307.436        153718.000
        63   08 Jun 2027 10:18:29.831   08 Jun 2027 10:18:49.990            20.159         10079.500
        64   09 Jun 2027 04:02:06.270   09 Jun 2027 04:08:52.552           406.282        203141.000
        65   09 Jun 2027 05:38:28.393   09 Jun 2027 05:44:47.449           379.056        189528.000
        66   09 Jun 2027 07:15:56.136   09 Jun 2027 07:20:24.403           268.267        134133.500
        67   09 Jun 2027 08:52:03.007   09 Jun 2027 08:56:16.741           253.734        126867.000
        68   10 Jun 2027 04:14:14.810   10 Jun 2027 04:20:51.497           396.687        198343.500
        69   10 Jun 2027 05:50:13.256   10 Jun 2027 05:56:20.266           367.010        183505.000
        70   10 Jun 2027 07:28:02.600   10 Jun 2027 07:32:33.517           270.917        135458.500
        71   10 Jun 2027 09:04:30.212   10 Jun 2027 09:08:15.499           225.287        112643.500
        72   10 Jun 2027 09:08:19.599   10 Jun 2027 09:09:06.004            46.405         23202.500
        73   11 Jun 2027 04:25:37.742   11 Jun 2027 04:33:01.974           444.232        222116.000
        74   11 Jun 2027 06:02:15.500   11 Jun 2027 06:08:38.919           383.419        191709.500
        75   11 Jun 2027 07:40:33.397   11 Jun 2027 07:44:27.669           234.272        117136.000
        76   11 Jun 2027 09:13:52.522   11 Jun 2027 09:15:20.317            87.795         43897.500
        77   11 Jun 2027 09:16:04.053   11 Jun 2027 09:20:05.820           241.767        120883.500
        78   11 Jun 2027 09:20:53.430   11 Jun 2027 09:21:30.414            36.984         18492.000
        79   12 Jun 2027 03:00:49.247   12 Jun 2027 03:02:01.875            72.628         36314.000
        80   12 Jun 2027 03:02:31.889   12 Jun 2027 03:07:21.944           290.055        145027.500
        81   12 Jun 2027 04:37:33.656   12 Jun 2027 04:45:02.157           448.501        224250.500
        82   12 Jun 2027 06:14:36.355   12 Jun 2027 06:20:27.155           350.800        175400.000
        83   12 Jun 2027 06:20:42.236   12 Jun 2027 06:20:45.809             3.573          1786.500
        84   12 Jun 2027 07:52:35.806   12 Jun 2027 07:56:29.935           234.129        117064.500
        85   12 Jun 2027 09:25:44.630   12 Jun 2027 09:32:05.658           381.028        190514.000
        86   12 Jun 2027 09:32:27.904   12 Jun 2027 09:33:21.859            53.955         26977.500
        87   13 Jun 2027 03:12:09.485   13 Jun 2027 03:14:15.866           126.381         63190.500
        88   13 Jun 2027 03:14:19.805   13 Jun 2027 03:19:41.080           321.275        160637.500
        89   13 Jun 2027 03:20:17.809   13 Jun 2027 03:20:41.739            23.930         11965.000
        90   13 Jun 2027 04:49:43.876   13 Jun 2027 04:57:05.692           441.816        220908.000
        91   13 Jun 2027 06:26:26.647   13 Jun 2027 06:32:40.151           373.504        186752.000
        92   13 Jun 2027 08:04:30.462   13 Jun 2027 08:08:39.702           249.240        124620.000
        93   13 Jun 2027 09:38:12.500   13 Jun 2027 09:44:15.026           362.526        181263.000
