uniorb/output/strategy_4/Camera/Camera_KinoSat_110503.txt

KinoSat_110503
-------------------------
    Access    *     Start Time (UTCG)     *     Stop Time (UTCG)  *   Duration (s) *   Data (Mbytes)
         1   01 Jun 2027 04:04:09.944   01 Jun 2027 04:06:14.357           124.413         62206.500
         2   01 Jun 2027 04:07:18.878   01 Jun 2027 04:07:18.878             0.000             0.000
         3   01 Jun 2027 04:07:25.521   01 Jun 2027 04:07:54.083            28.562         14281.000
         4   01 Jun 2027 04:10:33.298   01 Jun 2027 04:10:42.595             9.297          4648.500
         5   01 Jun 2027 04:11:30.003   01 Jun 2027 04:11:37.005             7.002          3501.000
         6   01 Jun 2027 04:11:49.704   01 Jun 2027 04:12:03.810            14.106          7053.000
         7   01 Jun 2027 04:13:07.901   01 Jun 2027 04:13:07.901             0.000             0.000
         8   01 Jun 2027 04:13:31.568   01 Jun 2027 04:13:47.163            15.595          7797.500
         9   01 Jun 2027 05:42:20.050   01 Jun 2027 05:44:42.113           142.063         71031.500
        10   01 Jun 2027 05:45:46.569   01 Jun 2027 05:46:06.713            20.144         10072.000
        11   01 Jun 2027 05:46:31.458   01 Jun 2027 05:46:39.963             8.505          4252.500
        12   01 Jun 2027 05:47:29.728   01 Jun 2027 05:47:38.634             8.906          4453.000
        13   01 Jun 2027 05:48:21.745   01 Jun 2027 05:48:34.774            13.029          6514.500
        14   01 Jun 2027 07:19:14.797   01 Jun 2027 07:21:39.107           144.310         72155.000
        15   01 Jun 2027 07:22:07.356   01 Jun 2027 07:22:13.162             5.806          2903.000
        16   01 Jun 2027 07:22:49.137   01 Jun 2027 07:23:09.211            20.074         10037.000
        17   01 Jun 2027 07:23:14.526   01 Jun 2027 07:23:17.453             2.927          1463.500
        18   01 Jun 2027 07:23:32.117   01 Jun 2027 07:23:40.846             8.729          4364.500
        19   01 Jun 2027 07:25:16.666   01 Jun 2027 07:25:36.507            19.841          9920.500
        20   01 Jun 2027 08:56:21.210   01 Jun 2027 08:59:43.464           202.254        101127.000
        21   01 Jun 2027 10:31:58.460   01 Jun 2027 10:32:06.857             8.397          4198.500
        22   01 Jun 2027 10:33:08.506   01 Jun 2027 10:36:23.311           194.805         97402.500
        23   02 Jun 2027 04:17:13.873   02 Jun 2027 04:24:41.171           447.298        223649.000
        24   02 Jun 2027 04:25:02.295   02 Jun 2027 04:25:08.942             6.647          3323.500
        25   02 Jun 2027 04:25:27.830   02 Jun 2027 04:25:46.378            18.548          9274.000
        26   02 Jun 2027 05:54:46.186   02 Jun 2027 05:58:01.291           195.105         97552.500
        27   02 Jun 2027 05:58:16.969   02 Jun 2027 05:59:08.588            51.619         25809.500
        28   02 Jun 2027 06:00:16.537   02 Jun 2027 06:00:27.122            10.585          5292.500
        29   02 Jun 2027 06:01:02.847   02 Jun 2027 06:01:31.320            28.473         14236.500
        30   02 Jun 2027 07:31:41.906   02 Jun 2027 07:36:08.778           266.872        133436.000
        31   02 Jun 2027 07:36:14.024   02 Jun 2027 07:37:29.822            75.798         37899.000
        32   02 Jun 2027 09:08:36.941   02 Jun 2027 09:13:05.292           268.351        134175.500
        33   02 Jun 2027 10:46:05.992   02 Jun 2027 10:48:10.293           124.301         62150.500
        34   03 Jun 2027 04:29:53.433   03 Jun 2027 04:36:40.398           406.965        203482.500
        35   03 Jun 2027 04:36:51.084   03 Jun 2027 04:37:41.168            50.084         25042.000
        36   03 Jun 2027 06:06:51.969   03 Jun 2027 06:13:35.542           403.573        201786.500
        37   03 Jun 2027 07:45:04.669   03 Jun 2027 07:49:00.192           235.523        117761.500
        38   03 Jun 2027 09:20:41.787   03 Jun 2027 09:25:24.277           282.490        141245.000
        39   04 Jun 2027 03:07:56.024   04 Jun 2027 03:11:31.181           215.157        107578.500
        40   04 Jun 2027 04:43:06.123   04 Jun 2027 04:49:42.897           396.774        198387.000
        41   04 Jun 2027 06:20:26.966   04 Jun 2027 06:25:41.863           314.897        157448.500
        42   04 Jun 2027 07:56:46.339   04 Jun 2027 08:01:21.616           275.277        137638.500
        43   04 Jun 2027 09:33:17.383   04 Jun 2027 09:37:38.153           260.770        130385.000
        44   05 Jun 2027 03:19:51.118   05 Jun 2027 03:23:27.701           216.583        108291.500
        45   05 Jun 2027 04:54:48.761   05 Jun 2027 05:01:50.393           421.632        210816.000
        46   05 Jun 2027 06:31:57.520   05 Jun 2027 06:37:27.568           330.048        165024.000
        47   05 Jun 2027 08:09:01.590   05 Jun 2027 08:13:13.032           251.442        125721.000
        48   05 Jun 2027 09:44:58.762   05 Jun 2027 09:49:05.739           246.977        123488.500
        49   05 Jun 2027 09:49:12.057   05 Jun 2027 09:50:08.522            56.465         28232.500
        50   06 Jun 2027 03:30:27.132   06 Jun 2027 03:30:33.213             6.081          3040.500
        51   06 Jun 2027 03:31:36.775   06 Jun 2027 03:36:03.538           266.763        133381.500
        52   06 Jun 2027 05:06:22.604   06 Jun 2027 05:13:55.620           453.016        226508.000
        53   06 Jun 2027 06:43:53.814   06 Jun 2027 06:49:30.102           336.288        168144.000
        54   06 Jun 2027 08:21:41.149   06 Jun 2027 08:25:19.775           218.626        109313.000
        55   06 Jun 2027 09:54:38.222   06 Jun 2027 10:01:07.232           389.010        194505.000
        56   06 Jun 2027 10:01:42.605   06 Jun 2027 10:02:29.703            47.098         23549.000
        57   07 Jun 2027 03:41:19.665   07 Jun 2027 03:42:51.413            91.748         45874.000
        58   07 Jun 2027 03:43:20.195   07 Jun 2027 03:48:16.980           296.785        148392.500
        59   07 Jun 2027 05:18:30.349   07 Jun 2027 05:25:56.317           445.968        222984.000
        60   07 Jun 2027 06:55:41.839   07 Jun 2027 07:01:36.290           354.451        177225.500
        61   07 Jun 2027 08:33:48.905   07 Jun 2027 08:37:22.412           213.507        106753.500
        62   07 Jun 2027 10:06:48.155   07 Jun 2027 10:13:26.572           398.417        199208.500
        63   07 Jun 2027 10:14:21.480   07 Jun 2027 10:14:27.267             5.787          2893.500
        64   08 Jun 2027 03:52:48.768   08 Jun 2027 04:00:38.263           469.495        234747.500
        65   08 Jun 2027 04:01:30.465   08 Jun 2027 04:01:54.122            23.657         11828.500
        66   08 Jun 2027 05:30:31.550   08 Jun 2027 05:37:58.130           446.580        223290.000
        67   08 Jun 2027 07:07:32.908   08 Jun 2027 07:13:13.763           340.855        170427.500
        68   08 Jun 2027 07:13:58.527   08 Jun 2027 07:14:02.516             3.989          1994.500
        69   08 Jun 2027 08:45:54.897   08 Jun 2027 08:49:31.455           216.558        108279.000
        70   08 Jun 2027 10:19:25.358   08 Jun 2027 10:24:57.614           332.256        166128.000
        71   08 Jun 2027 10:25:06.416   08 Jun 2027 10:25:26.808            20.392         10196.000
        72   09 Jun 2027 04:05:32.248   09 Jun 2027 04:12:51.685           439.437        219718.500
        73   09 Jun 2027 04:13:33.628   09 Jun 2027 04:14:01.776            28.148         14074.000
        74   09 Jun 2027 05:42:34.841   09 Jun 2027 05:49:55.804           440.963        220481.500
        75   09 Jun 2027 07:19:45.569   09 Jun 2027 07:24:32.963           287.394        143697.000
        76   09 Jun 2027 07:25:00.319   09 Jun 2027 07:25:50.944            50.625         25312.500
        77   09 Jun 2027 08:56:35.800   09 Jun 2027 09:01:29.495           293.695        146847.500
        78   09 Jun 2027 10:31:35.264   09 Jun 2027 10:32:21.408            46.144         23072.000
        79   09 Jun 2027 10:33:17.787   09 Jun 2027 10:36:37.752           199.965         99982.500
        80   10 Jun 2027 04:17:28.723   10 Jun 2027 04:26:00.990           512.267        256133.500
        81   10 Jun 2027 05:55:00.736   10 Jun 2027 06:01:45.962           405.226        202613.000
        82   10 Jun 2027 07:33:00.867   10 Jun 2027 07:36:23.018           202.151        101075.500
        83   10 Jun 2027 07:36:28.672   10 Jun 2027 07:37:44.324            75.652         37826.000
        84   10 Jun 2027 09:08:51.835   10 Jun 2027 09:13:19.835           268.000        134000.000
        85   10 Jun 2027 10:46:23.857   10 Jun 2027 10:48:24.735           120.878         60439.000
        86   11 Jun 2027 04:30:08.266   11 Jun 2027 04:36:55.050           406.784        203392.000
        87   11 Jun 2027 04:37:07.715   11 Jun 2027 04:37:55.902            48.187         24093.500
        88   11 Jun 2027 06:07:06.754   11 Jun 2027 06:13:50.267           403.513        201756.500
        89   11 Jun 2027 07:45:19.240   11 Jun 2027 07:49:15.248           236.008        118004.000
        90   11 Jun 2027 09:20:56.737   11 Jun 2027 09:25:38.663           281.926        140963.000
        91   12 Jun 2027 03:08:10.754   12 Jun 2027 03:11:45.662           214.908        107454.000
        92   12 Jun 2027 04:43:20.786   12 Jun 2027 04:49:57.597           396.811        198405.500
        93   12 Jun 2027 06:20:41.453   12 Jun 2027 06:25:56.491           315.038        157519.000
        94   12 Jun 2027 07:57:00.465   12 Jun 2027 08:01:36.331           275.866        137933.000
        95   12 Jun 2027 09:33:32.419   12 Jun 2027 09:37:53.004           260.585        130292.500
        96   13 Jun 2027 03:20:05.600   13 Jun 2027 03:23:45.246           219.646        109823.000
        97   13 Jun 2027 04:55:03.039   13 Jun 2027 05:02:05.049           422.010        211005.000
        98   13 Jun 2027 06:32:10.323   13 Jun 2027 06:37:42.423           332.100        166050.000
        99   13 Jun 2027 08:09:16.664   13 Jun 2027 08:13:27.482           250.818        125409.000
       100   13 Jun 2027 09:45:15.944   13 Jun 2027 09:49:20.259           244.315        122157.500
       101   13 Jun 2027 09:49:38.603   13 Jun 2027 09:50:23.337            44.734         22367.000
