uniorb/output/strategy_4/Camera/Camera_KinoSat_111203.txt

KinoSat_111203
-------------------------
    Access    *     Start Time (UTCG)     *     Stop Time (UTCG)  *   Duration (s) *   Data (Mbytes)
         1   01 Jun 2027 03:50:59.828   01 Jun 2027 03:51:36.543            36.715         18357.500
         2   01 Jun 2027 03:52:05.285   01 Jun 2027 03:54:19.558           134.273         67136.500
         3   01 Jun 2027 05:15:05.176   01 Jun 2027 05:16:04.857            59.681         29840.500
         4   01 Jun 2027 06:50:50.826   01 Jun 2027 06:52:43.292           112.466         56233.000
         5   01 Jun 2027 06:53:14.406   01 Jun 2027 06:53:22.018             7.612          3806.000
         6   01 Jun 2027 08:25:48.436   01 Jun 2027 08:27:06.731            78.295         39147.500
         7   01 Jun 2027 08:27:32.635   01 Jun 2027 08:28:22.732            50.097         25048.500
         8   01 Jun 2027 08:32:25.075   01 Jun 2027 08:32:43.858            18.783          9391.500
         9   01 Jun 2027 10:02:00.555   01 Jun 2027 10:04:11.452           130.897         65448.500
        10   01 Jun 2027 11:40:00.965   01 Jun 2027 11:42:46.654           165.689         82844.500
        11   01 Jun 2027 11:43:25.345   01 Jun 2027 11:43:29.719             4.374          2187.000
        12   02 Jun 2027 03:51:52.424   02 Jun 2027 03:52:14.606            22.182         11091.000
        13   02 Jun 2027 04:02:55.560   02 Jun 2027 04:04:39.414           103.854         51927.000
        14   02 Jun 2027 04:04:47.289   02 Jun 2027 04:05:36.843            49.554         24777.000
        15   02 Jun 2027 05:25:54.902   02 Jun 2027 05:26:39.730            44.828         22414.000
        16   02 Jun 2027 05:28:30.746   02 Jun 2027 05:28:47.947            17.201          8600.500
        17   02 Jun 2027 07:01:26.843   02 Jun 2027 07:01:32.873             6.030          3015.000
        18   02 Jun 2027 07:02:36.472   02 Jun 2027 07:05:36.320           179.848         89924.000
        19   02 Jun 2027 07:06:29.218   02 Jun 2027 07:07:01.710            32.492         16246.000
        20   02 Jun 2027 08:37:22.221   02 Jun 2027 08:40:37.273           195.052         97526.000
        21   02 Jun 2027 08:40:53.653   02 Jun 2027 08:41:24.107            30.454         15227.000
        22   02 Jun 2027 08:44:13.858   02 Jun 2027 08:44:41.856            27.998         12628.313
        23   02 Jun 2027 10:14:21.835   02 Jun 2027 10:14:43.448            21.613          9884.438
        24   02 Jun 2027 10:17:05.065   02 Jun 2027 10:17:08.611             3.546           262.938
        25   02 Jun 2027 10:17:48.455   02 Jun 2027 10:17:52.402             3.947           879.906
        26   02 Jun 2027 10:17:59.268   02 Jun 2027 10:18:03.844             4.576           214.562
        27   02 Jun 2027 10:18:27.486   02 Jun 2027 10:18:32.043             4.557           267.750
        28   02 Jun 2027 10:18:47.992   02 Jun 2027 10:18:50.503             2.511           498.406
        29   02 Jun 2027 10:20:06.200   02 Jun 2027 10:20:12.498             6.298          2265.250
        30   02 Jun 2027 11:52:22.830   02 Jun 2027 11:52:36.221            13.391          5418.719
        31   02 Jun 2027 11:52:40.879   02 Jun 2027 11:52:43.813             2.934           145.563
        32   02 Jun 2027 11:53:22.741   02 Jun 2027 11:53:25.382             2.641           943.469
        33   02 Jun 2027 11:54:45.170   02 Jun 2027 11:54:49.316             4.146          1399.781
        34   02 Jun 2027 11:55:16.151   02 Jun 2027 11:55:19.216             3.065           743.406
        35   02 Jun 2027 11:56:06.558   02 Jun 2027 11:56:11.496             4.938          1252.281
        36   02 Jun 2027 11:56:17.783   02 Jun 2027 11:56:19.310             1.527           196.469
        37   03 Jun 2027 04:03:15.001   03 Jun 2027 04:03:35.751            20.750         10375.000
        38   03 Jun 2027 04:14:56.732   03 Jun 2027 04:16:17.454            80.722         40361.000
        39   03 Jun 2027 05:37:11.121   03 Jun 2027 05:38:25.772            74.651         37325.500
        40   03 Jun 2027 05:39:10.858   03 Jun 2027 05:40:03.021            52.163         26081.500
        41   03 Jun 2027 07:12:19.071   03 Jun 2027 07:13:46.893            87.822         43911.000
        42   03 Jun 2027 07:14:20.031   03 Jun 2027 07:14:27.985             7.954          3385.688
        43   03 Jun 2027 07:16:36.713   03 Jun 2027 07:16:44.216             7.503          3286.281
        44   03 Jun 2027 07:17:31.642   03 Jun 2027 07:17:34.351             2.709           266.312
        45   03 Jun 2027 07:18:08.363   03 Jun 2027 07:18:08.363             0.000             0.000
        46   03 Jun 2027 07:18:27.488   03 Jun 2027 07:18:30.715             3.227          1468.187
        47   03 Jun 2027 07:18:50.087   03 Jun 2027 07:18:51.895             1.808           129.156
        48   03 Jun 2027 07:20:15.886   03 Jun 2027 07:20:19.158             3.272          1141.563
        49   03 Jun 2027 08:49:30.166   03 Jun 2027 08:49:37.601             7.435          1870.219
        50   03 Jun 2027 08:52:30.806   03 Jun 2027 08:52:34.999             4.193           163.844
        51   03 Jun 2027 08:52:50.860   03 Jun 2027 08:52:51.614             0.754           183.094
        52   03 Jun 2027 08:53:18.576   03 Jun 2027 08:53:20.286             1.710           584.000
        53   03 Jun 2027 08:53:56.999   03 Jun 2027 08:54:02.925             5.926           537.469
        54   03 Jun 2027 08:54:44.247   03 Jun 2027 08:54:48.739             4.492          1193.937
        55   03 Jun 2027 08:55:53.079   03 Jun 2027 08:55:58.517             5.438          1415.375
        56   03 Jun 2027 08:56:55.422   03 Jun 2027 08:56:55.991             0.569           284.500
        57   03 Jun 2027 10:26:27.474   03 Jun 2027 10:26:40.886            13.412          6015.469
        58   03 Jun 2027 10:28:42.598   03 Jun 2027 10:28:44.621             2.023           297.469
        59   03 Jun 2027 10:29:05.544   03 Jun 2027 10:29:06.073             0.529            25.844
        60   03 Jun 2027 10:30:02.785   03 Jun 2027 10:30:09.991             7.206          1090.562
        61   03 Jun 2027 10:30:11.490   03 Jun 2027 10:30:15.930             4.440            46.844
        62   03 Jun 2027 10:30:25.318   03 Jun 2027 10:30:28.989             3.671           293.375
        63   03 Jun 2027 10:30:42.602   03 Jun 2027 10:30:43.405             0.803           209.719
        64   03 Jun 2027 10:31:12.301   03 Jun 2027 10:31:18.140             5.839           821.531
        65   03 Jun 2027 10:31:54.702   03 Jun 2027 10:31:56.245             1.543           446.250
        66   03 Jun 2027 10:32:29.258   03 Jun 2027 10:32:34.603             5.345           732.938
        67   04 Jun 2027 04:14:41.449   04 Jun 2027 04:15:30.089            48.640         24320.000
        68   04 Jun 2027 04:26:53.754   04 Jun 2027 04:27:33.440            39.686         19843.000
        69   04 Jun 2027 05:48:56.053   04 Jun 2027 05:50:14.866            78.813         39406.500
        70   04 Jun 2027 05:50:59.222   04 Jun 2027 05:51:32.976            33.754         16877.000
        71   04 Jun 2027 05:51:50.491   04 Jun 2027 05:51:50.491             0.000             0.000
        72   04 Jun 2027 05:52:15.034   04 Jun 2027 05:52:37.449            22.415         11207.500
        73   04 Jun 2027 07:23:48.422   04 Jun 2027 07:25:20.221            91.799         44190.719
        74   04 Jun 2027 07:25:45.257   04 Jun 2027 07:25:46.094             0.837           418.500
        75   04 Jun 2027 07:26:16.498   04 Jun 2027 07:26:17.846             1.348           674.000
        76   04 Jun 2027 07:26:59.490   04 Jun 2027 07:27:03.468             3.978          1632.094
        77   04 Jun 2027 07:27:17.995   04 Jun 2027 07:27:17.995             0.000             0.000
        78   04 Jun 2027 07:27:41.450   04 Jun 2027 07:27:43.979             2.529           880.469
        79   04 Jun 2027 07:28:12.436   04 Jun 2027 07:28:14.205             1.769           807.844
        80   04 Jun 2027 07:28:50.307   04 Jun 2027 07:28:52.413             2.106           732.031
        81   04 Jun 2027 07:30:07.696   04 Jun 2027 07:30:09.189             1.493           746.500
        82   04 Jun 2027 07:30:16.737   04 Jun 2027 07:30:20.846             4.109          1042.875
        83   04 Jun 2027 07:30:37.003   04 Jun 2027 07:30:38.611             1.608           289.844
        84   04 Jun 2027 07:30:49.683   04 Jun 2027 07:30:50.829             1.146           233.156
        85   04 Jun 2027 07:31:21.089   04 Jun 2027 07:31:25.566             4.477           622.875
        86   04 Jun 2027 07:31:32.253   04 Jun 2027 07:31:34.636             2.383           208.969
        87   04 Jun 2027 09:01:31.585   04 Jun 2027 09:01:40.321             8.736          3960.000
        88   04 Jun 2027 09:03:37.412   04 Jun 2027 09:03:42.399             4.987          2165.031
        89   04 Jun 2027 09:05:32.394   04 Jun 2027 09:05:36.844             4.450          1789.656
        90   04 Jun 2027 09:06:33.190   04 Jun 2027 09:06:42.478             9.288          1508.031
        91   04 Jun 2027 09:07:07.597   04 Jun 2027 09:07:08.910             1.313           538.906
        92   04 Jun 2027 09:08:13.208   04 Jun 2027 09:08:19.202             5.994          2002.844
        93   04 Jun 2027 09:08:29.533   04 Jun 2027 09:08:30.203             0.670           145.156
        94   04 Jun 2027 09:08:44.320   04 Jun 2027 09:08:44.578             0.258            62.562
        95   04 Jun 2027 10:38:19.786   04 Jun 2027 10:38:35.684            15.898          5469.562
        96   04 Jun 2027 10:38:41.642   04 Jun 2027 10:38:43.091             1.449           186.187
        97   04 Jun 2027 10:41:13.310   04 Jun 2027 10:41:14.752             1.442           312.656
        98   04 Jun 2027 10:42:14.552   04 Jun 2027 10:42:16.728             2.176          1003.125
        99   04 Jun 2027 10:42:32.265   04 Jun 2027 10:42:33.538             1.273           173.500
       100   04 Jun 2027 10:42:39.250   04 Jun 2027 10:42:42.841             3.591           100.563
       101   04 Jun 2027 10:43:10.895   04 Jun 2027 10:43:13.785             2.890           791.938
       102   04 Jun 2027 10:43:14.638   04 Jun 2027 10:43:17.371             2.733            26.656
       103   04 Jun 2027 10:43:46.251   04 Jun 2027 10:43:48.120             1.869           902.500
       104   04 Jun 2027 10:44:10.807   04 Jun 2027 10:44:14.373             3.566           708.969
       105   04 Jun 2027 10:44:52.198   04 Jun 2027 10:45:00.281             8.083           756.750
       106   05 Jun 2027 03:02:38.720   05 Jun 2027 03:03:18.591            39.871         19935.500
       107   05 Jun 2027 03:04:00.432   05 Jun 2027 03:04:15.482            15.050          7525.000
       108   05 Jun 2027 03:05:24.890   05 Jun 2027 03:05:49.201            24.311         12155.500
       109   05 Jun 2027 03:06:23.720   05 Jun 2027 03:06:29.001             5.281          2640.500
       110   05 Jun 2027 03:06:34.520   05 Jun 2027 03:06:37.333             2.813          1406.500
       111   05 Jun 2027 04:26:45.396   05 Jun 2027 04:27:28.979            43.583         21791.500
       112   05 Jun 2027 04:28:37.387   05 Jun 2027 04:28:44.065             6.678          3339.000
       113   05 Jun 2027 06:00:31.550   05 Jun 2027 06:03:14.538           162.988         81494.000
       114   05 Jun 2027 06:04:24.026   05 Jun 2027 06:05:02.800            38.774         18028.937
       115   05 Jun 2027 07:36:32.285   05 Jun 2027 07:36:50.921            18.636          4744.188
       116   05 Jun 2027 07:37:51.764   05 Jun 2027 07:37:52.824             1.060           313.688
       117   05 Jun 2027 07:38:14.039   05 Jun 2027 07:38:17.401             3.362           429.500
       118   05 Jun 2027 07:39:06.031   05 Jun 2027 07:39:09.008             2.977           888.938
       119   05 Jun 2027 07:39:18.454   05 Jun 2027 07:39:22.421             3.967           295.187
       120   05 Jun 2027 07:40:14.872   05 Jun 2027 07:40:18.401             3.529           814.281
       121   05 Jun 2027 07:41:10.852   05 Jun 2027 07:41:13.458             2.606          1042.313
       122   05 Jun 2027 07:41:46.710   05 Jun 2027 07:41:57.930            11.220           726.063
       123   05 Jun 2027 07:42:09.362   05 Jun 2027 07:42:11.977             2.615           266.156
       124   05 Jun 2027 07:42:40.499   05 Jun 2027 07:42:42.420             1.921           319.219
       125   05 Jun 2027 07:42:51.750   05 Jun 2027 07:42:54.569             2.819           259.344
       126   05 Jun 2027 07:43:21.656   05 Jun 2027 07:43:27.551             5.895           516.781
       127   05 Jun 2027 07:43:41.031   05 Jun 2027 07:43:48.244             7.213           418.562
       128   05 Jun 2027 07:44:22.525   05 Jun 2027 07:44:25.838             3.313           755.813
       129   05 Jun 2027 09:13:35.076   05 Jun 2027 09:13:55.601            20.525          7325.656
       130   05 Jun 2027 09:16:19.729   05 Jun 2027 09:16:23.057             3.328          1369.312
       131   05 Jun 2027 09:17:46.052   05 Jun 2027 09:17:47.079             1.027           512.906
       132   05 Jun 2027 09:18:21.409   05 Jun 2027 09:18:28.391             6.982          1064.281
       133   05 Jun 2027 09:19:06.380   05 Jun 2027 09:19:07.294             0.914           242.781
       134   05 Jun 2027 09:19:28.028   05 Jun 2027 09:19:29.772             1.744           508.188
       135   05 Jun 2027 09:20:20.559   05 Jun 2027 09:20:24.149             3.590          1575.563
       136   05 Jun 2027 09:20:28.237   05 Jun 2027 09:20:29.025             0.788            36.406
       137   05 Jun 2027 09:20:50.204   05 Jun 2027 09:20:56.213             6.009           661.844
       138   05 Jun 2027 10:50:38.883   05 Jun 2027 10:50:47.269             8.386          4193.000
       139   05 Jun 2027 10:51:02.842   05 Jun 2027 10:51:08.249             5.407          2323.938
       140   05 Jun 2027 10:53:52.905   05 Jun 2027 10:54:00.192             7.287          2082.406
       141   05 Jun 2027 10:54:19.814   05 Jun 2027 10:54:21.496             1.682            64.844
       142   05 Jun 2027 10:54:39.370   05 Jun 2027 10:54:42.106             2.736           554.531
       143   05 Jun 2027 10:55:11.795   05 Jun 2027 10:55:14.222             2.427           927.781
       144   05 Jun 2027 10:55:19.112   05 Jun 2027 10:55:21.052             1.940           152.813
       145   05 Jun 2027 10:56:12.840   05 Jun 2027 10:56:15.539             2.699           999.687
       146   05 Jun 2027 10:56:31.586   05 Jun 2027 10:56:39.580             7.994           501.469
       147   06 Jun 2027 03:15:15.463   06 Jun 2027 03:17:53.526           158.063         79031.500
       148   06 Jun 2027 03:18:42.840   06 Jun 2027 03:18:57.845            15.005          7502.500
       149   06 Jun 2027 04:38:40.232   06 Jun 2027 04:38:56.617            16.385          8192.500
       150   06 Jun 2027 04:40:29.393   06 Jun 2027 04:40:45.959            16.566          8283.000
       151   06 Jun 2027 06:14:59.711   06 Jun 2027 06:16:57.014           117.303         58208.438
       152   06 Jun 2027 06:17:48.181   06 Jun 2027 06:17:51.811             3.630           794.969
       153   06 Jun 2027 07:48:29.520   06 Jun 2027 07:48:40.062            10.542          2620.750
       154   06 Jun 2027 07:50:56.229   06 Jun 2027 07:50:58.038             1.809            85.406
       155   06 Jun 2027 07:51:50.781   06 Jun 2027 07:51:54.480             3.699          1486.219
       156   06 Jun 2027 07:52:40.816   06 Jun 2027 07:52:43.755             2.939          1204.781
       157   06 Jun 2027 07:54:10.194   06 Jun 2027 07:54:16.741             6.547          2164.719
       158   06 Jun 2027 07:54:28.145   06 Jun 2027 07:54:29.391             1.246            71.625
       159   06 Jun 2027 07:55:11.291   06 Jun 2027 07:55:13.558             2.267           301.344
       160   06 Jun 2027 07:55:38.516   06 Jun 2027 07:55:40.678             2.162           779.937
       161   06 Jun 2027 07:55:55.735   06 Jun 2027 07:55:56.918             1.183           302.500
       162   06 Jun 2027 07:56:02.944   06 Jun 2027 07:56:04.801             1.857            87.094
       163   06 Jun 2027 07:56:22.641   06 Jun 2027 07:56:25.476             2.835           455.531
       164   06 Jun 2027 09:26:00.941   06 Jun 2027 09:26:18.119            17.178          5052.188
       165   06 Jun 2027 09:29:35.847   06 Jun 2027 09:29:41.413             5.566          2307.000
       166   06 Jun 2027 09:30:42.470   06 Jun 2027 09:30:44.102             1.632           717.906
       167   06 Jun 2027 09:31:49.135   06 Jun 2027 09:31:54.172             5.037          1354.000
       168   06 Jun 2027 09:32:18.585   06 Jun 2027 09:32:21.523             2.938           302.750
       169   06 Jun 2027 11:02:57.444   06 Jun 2027 11:03:18.642            21.198          5826.281
       170   06 Jun 2027 11:06:14.090   06 Jun 2027 11:06:17.359             3.269          1503.250
       171   06 Jun 2027 11:06:47.907   06 Jun 2027 11:06:50.153             2.246           432.656
       172   06 Jun 2027 11:07:16.777   06 Jun 2027 11:07:19.714             2.937           832.000
       173   06 Jun 2027 11:08:08.569   06 Jun 2027 11:08:10.876             2.307          1087.313
       174   06 Jun 2027 11:08:30.225   06 Jun 2027 11:08:38.099             7.874           480.281
       175   07 Jun 2027 03:26:53.903   07 Jun 2027 03:30:48.945           235.042        117521.000
       176   07 Jun 2027 04:50:31.021   07 Jun 2027 04:50:35.451             4.430          2215.000
       177   07 Jun 2027 04:50:37.475   07 Jun 2027 04:50:50.169            12.694          6347.000
       178   07 Jun 2027 04:51:38.174   07 Jun 2027 04:51:38.174             0.000             0.000
       179   07 Jun 2027 04:52:23.627   07 Jun 2027 04:52:43.164            19.537          9768.500
       180   07 Jun 2027 06:27:01.924   07 Jun 2027 06:28:02.989            61.065         30305.406
       181   07 Jun 2027 06:28:51.927   07 Jun 2027 06:28:53.299             1.372            39.781
       182   07 Jun 2027 06:30:16.562   07 Jun 2027 06:30:22.283             5.721          2290.656
       183   07 Jun 2027 08:01:09.137   07 Jun 2027 08:01:14.499             5.362          2307.813
       184   07 Jun 2027 08:03:07.575   07 Jun 2027 08:03:08.344             0.769           378.031
       185   07 Jun 2027 08:03:52.450   07 Jun 2027 08:03:56.130             3.680          1243.187
       186   07 Jun 2027 08:04:26.570   07 Jun 2027 08:04:27.499             0.929           413.594
       187   07 Jun 2027 08:06:11.031   07 Jun 2027 08:06:14.623             3.592          1778.813
       188   07 Jun 2027 08:07:35.589   07 Jun 2027 08:07:40.802             5.213          2244.375
       189   07 Jun 2027 08:07:59.160   07 Jun 2027 08:08:00.497             1.337           482.500
       190   07 Jun 2027 08:08:40.585   07 Jun 2027 08:08:43.115             2.530           921.344
       191   07 Jun 2027 08:08:55.118   07 Jun 2027 08:08:55.814             0.696           164.844
       192   07 Jun 2027 09:38:07.364   07 Jun 2027 09:38:20.262            12.898          5523.406
       193   07 Jun 2027 09:41:33.488   07 Jun 2027 09:41:36.750             3.262            89.250
       194   07 Jun 2027 09:41:47.684   07 Jun 2027 09:41:51.946             4.262           341.625
       195   07 Jun 2027 09:42:56.526   07 Jun 2027 09:43:00.250             3.724          1666.875
       196   07 Jun 2027 09:44:05.349   07 Jun 2027 09:44:09.508             4.159          1664.875
       197   07 Jun 2027 09:44:46.305   07 Jun 2027 09:44:48.577             2.272           878.656
       198   07 Jun 2027 11:15:47.745   07 Jun 2027 11:16:05.042            17.297          6697.219
       199   07 Jun 2027 11:17:31.064   07 Jun 2027 11:17:33.803             2.739          1258.500
       200   07 Jun 2027 11:18:15.488   07 Jun 2027 11:18:16.812             1.324           615.812
       201   07 Jun 2027 11:18:41.230   07 Jun 2027 11:18:46.229             4.999           269.000
       202   07 Jun 2027 11:19:22.511   07 Jun 2027 11:19:26.400             3.889          1133.812
       203   07 Jun 2027 11:19:55.138   07 Jun 2027 11:19:56.280             1.142           276.500
       204   08 Jun 2027 03:39:21.579   08 Jun 2027 03:39:44.626            23.047         11523.500
       205   08 Jun 2027 03:40:07.110   08 Jun 2027 03:41:51.774           104.664         52332.000
       206   08 Jun 2027 03:42:36.750   08 Jun 2027 03:43:32.318            55.568         27784.000
       207   08 Jun 2027 05:02:40.627   08 Jun 2027 05:02:58.367            17.740          8870.000
       208   08 Jun 2027 05:04:20.143   08 Jun 2027 05:04:20.246             0.103            51.500
       209   08 Jun 2027 06:39:11.355   08 Jun 2027 06:40:51.173            99.818         49167.875
       210   08 Jun 2027 06:42:18.418   08 Jun 2027 06:42:23.862             5.444          2248.813
       211   08 Jun 2027 08:14:21.341   08 Jun 2027 08:14:31.298             9.957          2188.625
       212   08 Jun 2027 08:14:45.117   08 Jun 2027 08:14:49.673             4.556            56.000
       213   08 Jun 2027 08:15:49.819   08 Jun 2027 08:15:53.760             3.941           452.156
       214   08 Jun 2027 08:16:37.906   08 Jun 2027 08:16:41.519             3.613          1379.562
       215   08 Jun 2027 08:17:17.628   08 Jun 2027 08:17:18.379             0.751             4.250
       216   08 Jun 2027 08:18:18.395   08 Jun 2027 08:18:24.101             5.706          1081.406
       217   08 Jun 2027 08:19:35.798   08 Jun 2027 08:19:43.460             7.662          2240.531
       218   08 Jun 2027 08:20:18.354   08 Jun 2027 08:20:19.606             1.252           530.875
       219   08 Jun 2027 08:20:41.565   08 Jun 2027 08:20:43.233             1.668           414.750
       220   08 Jun 2027 09:50:43.560   08 Jun 2027 09:50:59.160            15.600          7313.875
       221   08 Jun 2027 09:53:07.803   08 Jun 2027 09:53:09.799             1.996           177.000
       222   08 Jun 2027 09:53:27.387   08 Jun 2027 09:53:27.933             0.546           261.469
       223   08 Jun 2027 09:53:30.421   08 Jun 2027 09:53:34.111             3.690            31.438
       224   08 Jun 2027 09:54:34.167   08 Jun 2027 09:54:38.291             4.124          1273.094
       225   08 Jun 2027 09:54:56.755   08 Jun 2027 09:55:01.743             4.988           565.469
       226   08 Jun 2027 09:55:50.463   08 Jun 2027 09:55:56.294             5.831          1284.313
       227   08 Jun 2027 09:56:01.638   08 Jun 2027 09:56:04.316             2.678            97.062
       228   08 Jun 2027 09:56:26.371   08 Jun 2027 09:56:27.122             0.751           112.469
       229   08 Jun 2027 09:56:48.116   08 Jun 2027 09:56:51.072             2.956           465.094
       230   08 Jun 2027 11:28:00.183   08 Jun 2027 11:28:16.852            16.669          5599.938
       231   08 Jun 2027 11:28:57.799   08 Jun 2027 11:29:00.938             3.139           465.625
       232   08 Jun 2027 11:29:35.362   08 Jun 2027 11:29:38.542             3.180           245.469
       233   08 Jun 2027 11:31:07.613   08 Jun 2027 11:31:14.562             6.949          1850.375
       234   08 Jun 2027 11:31:54.720   08 Jun 2027 11:32:06.558            11.838          1241.906
       235   08 Jun 2027 11:32:18.826   08 Jun 2027 11:32:21.628             2.802           350.313
       236   09 Jun 2027 03:51:15.209   09 Jun 2027 03:51:52.328            37.119         18559.500
       237   09 Jun 2027 03:52:21.731   09 Jun 2027 03:54:38.506           136.775         68387.500
       238   09 Jun 2027 05:15:20.561   09 Jun 2027 05:15:59.729            39.168         19584.000
       239   09 Jun 2027 05:16:21.850   09 Jun 2027 05:16:33.955            12.105          6052.500
       240   09 Jun 2027 05:17:35.228   09 Jun 2027 05:17:36.286             1.058           529.000
       241   09 Jun 2027 06:51:06.091   09 Jun 2027 06:52:17.725            71.634         35817.000
       242   09 Jun 2027 06:53:00.735   09 Jun 2027 06:53:06.036             5.301          2496.250
       243   09 Jun 2027 06:53:30.019   09 Jun 2027 06:53:30.019             0.000             0.000
       244   09 Jun 2027 06:53:38.060   09 Jun 2027 06:53:43.241             5.181           923.031
       245   09 Jun 2027 06:54:33.889   09 Jun 2027 06:54:37.304             3.415          1522.406
       246   09 Jun 2027 08:26:03.399   09 Jun 2027 08:26:09.112             5.713          1994.406
       247   09 Jun 2027 08:26:40.341   09 Jun 2027 08:26:41.188             0.847           290.062
       248   09 Jun 2027 08:28:39.970   09 Jun 2027 08:28:46.261             6.291          1189.688
       249   09 Jun 2027 08:29:05.052   09 Jun 2027 08:29:13.571             8.519           432.000
       250   09 Jun 2027 08:29:57.253   09 Jun 2027 08:30:01.310             4.057          1365.063
       251   09 Jun 2027 08:31:35.418   09 Jun 2027 08:31:42.186             6.768          2140.313
       252   09 Jun 2027 08:32:33.942   09 Jun 2027 08:32:36.720             2.778          1389.000
       253   09 Jun 2027 08:32:59.446   09 Jun 2027 08:33:02.118             2.672           938.563
       254   09 Jun 2027 10:02:15.942   09 Jun 2027 10:02:26.006            10.064          4544.656
       255   09 Jun 2027 10:05:09.042   09 Jun 2027 10:05:10.158             1.116           460.750
       256   09 Jun 2027 10:05:29.202   09 Jun 2027 10:05:30.347             1.145           272.656
       257   09 Jun 2027 10:05:49.098   09 Jun 2027 10:05:50.653             1.555           563.688
       258   09 Jun 2027 10:06:32.790   09 Jun 2027 10:06:40.143             7.353          1207.188
       259   09 Jun 2027 10:07:06.673   09 Jun 2027 10:07:10.855             4.182           710.937
       260   09 Jun 2027 10:07:38.517   09 Jun 2027 10:07:40.322             1.805           512.656
       261   09 Jun 2027 10:07:40.404   09 Jun 2027 10:07:42.172             1.768             2.563
       262   09 Jun 2027 10:07:54.815   09 Jun 2027 10:07:55.854             1.039            68.906
       263   09 Jun 2027 10:08:33.676   09 Jun 2027 10:08:36.184             2.508          1181.937
       264   09 Jun 2027 11:40:17.126   09 Jun 2027 11:40:29.247            12.121          5880.344
       265   09 Jun 2027 11:41:41.866   09 Jun 2027 11:41:47.351             5.485           430.719
       266   09 Jun 2027 11:42:36.423   09 Jun 2027 11:42:37.638             1.215           112.000
       267   09 Jun 2027 11:43:21.909   09 Jun 2027 11:43:25.163             3.254          1057.156
       268   09 Jun 2027 11:44:20.445   09 Jun 2027 11:44:24.288             3.843          1592.063
       269   10 Jun 2027 03:52:06.428   10 Jun 2027 03:52:31.506            25.078         12539.000
       270   10 Jun 2027 04:03:11.132   10 Jun 2027 04:04:54.599           103.467         51733.500
       271   10 Jun 2027 04:05:05.239   10 Jun 2027 04:06:30.526            85.287         42643.500
       272   10 Jun 2027 05:26:09.466   10 Jun 2027 05:26:35.638            26.172         13086.000
       273   10 Jun 2027 05:29:39.106   10 Jun 2027 05:29:39.106             0.000             0.000
       274   10 Jun 2027 07:01:41.831   10 Jun 2027 07:01:49.970             8.139          4069.500
       275   10 Jun 2027 07:02:52.079   10 Jun 2027 07:04:11.775            79.696         39844.437
       276   10 Jun 2027 07:04:56.724   10 Jun 2027 07:04:56.724             0.000             0.000
       277   10 Jun 2027 07:05:15.773   10 Jun 2027 07:05:20.126             4.353          1782.250
       278   10 Jun 2027 07:05:39.101   10 Jun 2027 07:05:41.399             2.298           592.969
       279   10 Jun 2027 07:05:59.009   10 Jun 2027 07:06:01.246             2.237           512.875
       280   10 Jun 2027 07:06:22.030   10 Jun 2027 07:06:26.730             4.700           632.781
       281   10 Jun 2027 07:06:39.836   10 Jun 2027 07:06:42.656             2.820           318.156
       282   10 Jun 2027 08:37:37.035   10 Jun 2027 08:37:43.738             6.703          1720.094
       283   10 Jun 2027 08:38:39.743   10 Jun 2027 08:38:43.169             3.426           888.125
       284   10 Jun 2027 08:40:32.766   10 Jun 2027 08:40:37.477             4.711          1177.156
       285   10 Jun 2027 08:40:53.223   10 Jun 2027 08:40:54.066             0.843             6.312
       286   10 Jun 2027 08:41:07.636   10 Jun 2027 08:41:09.957             2.321           402.094
       287   10 Jun 2027 08:41:59.313   10 Jun 2027 08:42:01.796             2.483           545.969
       288   10 Jun 2027 08:42:47.115   10 Jun 2027 08:42:49.799             2.684           774.250
       289   10 Jun 2027 08:43:22.276   10 Jun 2027 08:43:24.630             2.354           528.844
       290   10 Jun 2027 08:44:29.012   10 Jun 2027 08:44:33.563             4.551          1708.125
       291   10 Jun 2027 08:45:07.090   10 Jun 2027 08:45:11.144             4.054          1009.344
       292   10 Jun 2027 10:14:37.925   10 Jun 2027 10:14:48.858            10.933          5386.969
       293   10 Jun 2027 10:18:01.981   10 Jun 2027 10:18:04.543             2.562          1279.125
       294   10 Jun 2027 10:18:48.223   10 Jun 2027 10:18:50.880             2.657          1279.812
       295   10 Jun 2027 10:19:11.204   10 Jun 2027 10:19:15.819             4.615           437.344
       296   10 Jun 2027 10:19:25.967   10 Jun 2027 10:19:27.954             1.987           227.750
       297   10 Jun 2027 10:19:33.045   10 Jun 2027 10:19:33.535             0.490            41.844
       298   10 Jun 2027 11:52:38.513   10 Jun 2027 11:52:52.012            13.499          6343.687
       299   10 Jun 2027 11:52:58.789   10 Jun 2027 11:53:00.277             1.488           138.594
       300   10 Jun 2027 11:53:09.461   10 Jun 2027 11:53:12.338             2.877            30.688
       301   10 Jun 2027 11:54:48.819   10 Jun 2027 11:54:51.543             2.724           391.313
       302   10 Jun 2027 11:56:00.658   10 Jun 2027 11:56:07.077             6.419          1882.938
       303   10 Jun 2027 11:56:16.405   10 Jun 2027 11:56:17.826             1.421           281.594
       304   11 Jun 2027 04:03:30.278   11 Jun 2027 04:04:01.827            31.549         15774.500
       305   11 Jun 2027 04:15:12.620   11 Jun 2027 04:16:32.829            80.209         40104.500
       306   11 Jun 2027 05:37:25.840   11 Jun 2027 05:38:39.584            73.744         36872.000
       307   11 Jun 2027 05:39:27.230   11 Jun 2027 05:39:59.125            31.895         15947.500
       308   11 Jun 2027 05:41:33.378   11 Jun 2027 05:41:41.818             8.440          4220.000
       309   11 Jun 2027 07:12:33.558   11 Jun 2027 07:14:04.384            90.826         45413.000
       310   11 Jun 2027 07:14:35.257   11 Jun 2027 07:14:40.198             4.941          1280.594
       311   11 Jun 2027 07:16:19.456   11 Jun 2027 07:16:27.109             7.653          2624.813
       312   11 Jun 2027 07:17:58.224   11 Jun 2027 07:18:08.900            10.676          2788.813
       313   11 Jun 2027 07:18:23.706   11 Jun 2027 07:18:24.408             0.702           351.000
       314   11 Jun 2027 07:18:43.795   11 Jun 2027 07:18:46.163             2.368           650.094
       315   11 Jun 2027 07:19:16.518   11 Jun 2027 07:19:16.518             0.000             0.000
       316   11 Jun 2027 07:20:30.787   11 Jun 2027 07:20:35.218             4.431          1926.312
       317   11 Jun 2027 08:49:46.095   11 Jun 2027 08:49:54.721             8.626          2251.500
       318   11 Jun 2027 08:50:41.613   11 Jun 2027 08:50:43.997             2.384          1011.188
       319   11 Jun 2027 08:53:08.616   11 Jun 2027 08:53:09.136             0.520           251.781
       320   11 Jun 2027 08:54:01.071   11 Jun 2027 08:54:09.378             8.307          1054.219
       321   11 Jun 2027 08:54:34.985   11 Jun 2027 08:54:39.864             4.879           706.844
       322   11 Jun 2027 08:55:07.807   11 Jun 2027 08:55:11.026             3.219           856.375
       323   11 Jun 2027 08:56:12.031   11 Jun 2027 08:56:16.446             4.415          1532.406
       324   11 Jun 2027 08:57:11.277   11 Jun 2027 08:57:11.868             0.591           295.500
       325   11 Jun 2027 10:26:43.162   11 Jun 2027 10:26:56.747            13.585          6291.375
       326   11 Jun 2027 10:30:24.775   11 Jun 2027 10:30:31.009             6.234          1909.156
       327   11 Jun 2027 10:30:32.360   11 Jun 2027 10:30:35.246             2.886            42.219
       328   11 Jun 2027 10:31:02.034   11 Jun 2027 10:31:04.420             2.386           635.844
       329   11 Jun 2027 10:31:28.415   11 Jun 2027 10:31:35.390             6.975           566.719
       330   11 Jun 2027 10:32:08.886   11 Jun 2027 10:32:12.979             4.093           373.844
       331   11 Jun 2027 10:32:46.201   11 Jun 2027 10:32:49.785             3.584           770.406
       332   12 Jun 2027 04:14:57.858   12 Jun 2027 04:15:45.633            47.775         23887.500
       333   12 Jun 2027 04:27:09.464   12 Jun 2027 04:27:48.677            39.213         19606.500
       334   12 Jun 2027 05:49:11.147   12 Jun 2027 05:50:32.048            80.901         40450.500
       335   12 Jun 2027 05:51:14.465   12 Jun 2027 05:51:48.458            33.993         16996.500
       336   12 Jun 2027 05:53:44.398   12 Jun 2027 05:53:53.331             8.933          4466.500
       337   12 Jun 2027 05:54:41.180   12 Jun 2027 05:54:41.180             0.000             0.000
       338   12 Jun 2027 07:24:03.107   12 Jun 2027 07:25:45.275           102.168         51076.156
       339   12 Jun 2027 07:26:02.199   12 Jun 2027 07:26:03.401             1.202           450.687
       340   12 Jun 2027 07:27:17.677   12 Jun 2027 07:27:26.143             8.466          2321.125
       341   12 Jun 2027 07:27:34.367   12 Jun 2027 07:27:38.099             3.732           181.031
       342   12 Jun 2027 07:28:03.624   12 Jun 2027 07:28:09.125             5.501           256.375
       343   12 Jun 2027 07:29:33.643   12 Jun 2027 07:29:38.468             4.825          2307.344
       344   12 Jun 2027 07:30:01.365   12 Jun 2027 07:30:03.335             1.970           672.188
       345   12 Jun 2027 07:31:30.073   12 Jun 2027 07:31:36.084             6.011          2025.875
       346   12 Jun 2027 07:31:48.929   12 Jun 2027 07:31:51.264             2.335           159.656
       347   12 Jun 2027 07:32:19.011   12 Jun 2027 07:32:19.536             0.525           262.500
       348   12 Jun 2027 09:01:48.117   12 Jun 2027 09:01:58.967            10.850          4950.125
       349   12 Jun 2027 09:04:40.890   12 Jun 2027 09:04:50.541             9.651          1459.156
       350   12 Jun 2027 09:06:05.469   12 Jun 2027 09:06:08.035             2.566          1217.656
       351   12 Jun 2027 09:07:07.491   12 Jun 2027 09:07:12.855             5.364          1851.812
       352   12 Jun 2027 09:07:25.291   12 Jun 2027 09:07:25.910             0.619            78.656
       353   12 Jun 2027 09:07:50.801   12 Jun 2027 09:07:53.248             2.447           663.531
       354   12 Jun 2027 09:08:37.359   12 Jun 2027 09:08:39.335             1.976           175.719
       355   12 Jun 2027 09:08:56.748   12 Jun 2027 09:08:58.591             1.843           369.187
       356   12 Jun 2027 10:38:35.869   12 Jun 2027 10:38:50.870            15.001          5681.906
       357   12 Jun 2027 10:38:58.296   12 Jun 2027 10:38:59.337             1.041           232.063
       358   12 Jun 2027 10:41:54.224   12 Jun 2027 10:41:57.863             3.639          1723.406
       359   12 Jun 2027 10:42:45.941   12 Jun 2027 10:42:48.520             2.579          1208.531
       360   12 Jun 2027 10:42:53.480   12 Jun 2027 10:42:55.378             1.898           155.000
       361   12 Jun 2027 10:43:07.411   12 Jun 2027 10:43:07.941             0.530           128.625
       362   12 Jun 2027 10:44:48.837   12 Jun 2027 10:44:56.848             8.011          2570.750
       363   13 Jun 2027 03:02:54.940   13 Jun 2027 03:03:24.838            29.898         14949.000
       364   13 Jun 2027 03:03:35.803   13 Jun 2027 03:03:35.803             0.000             0.000
       365   13 Jun 2027 03:04:13.700   13 Jun 2027 03:04:14.712             1.012           506.000
       366   13 Jun 2027 03:04:52.270   13 Jun 2027 03:05:14.907            22.637         11318.500
       367   13 Jun 2027 03:05:51.651   13 Jun 2027 03:06:11.306            19.655          9827.500
       368   13 Jun 2027 03:06:38.498   13 Jun 2027 03:06:48.777            10.279          5139.500
       369   13 Jun 2027 03:07:05.146   13 Jun 2027 03:07:32.958            27.812         13906.000
       370   13 Jun 2027 04:27:00.974   13 Jun 2027 04:27:43.639            42.665         21332.500
       371   13 Jun 2027 06:02:58.122   13 Jun 2027 06:05:46.806           168.684         84342.000
       372   13 Jun 2027 06:06:43.582   13 Jun 2027 06:06:52.068             8.486          4243.000
       373   13 Jun 2027 07:36:47.994   13 Jun 2027 07:37:06.844            18.850          3738.625
       374   13 Jun 2027 07:38:09.758   13 Jun 2027 07:38:10.561             0.803           366.594
       375   13 Jun 2027 07:38:23.748   13 Jun 2027 07:38:23.748             0.000             0.000
       376   13 Jun 2027 07:38:54.227   13 Jun 2027 07:38:56.710             2.483          1173.531
       377   13 Jun 2027 07:39:24.260   13 Jun 2027 07:39:25.459             1.199            52.563
       378   13 Jun 2027 07:40:19.702   13 Jun 2027 07:40:23.364             3.662          1615.031
       379   13 Jun 2027 07:41:39.410   13 Jun 2027 07:41:46.423             7.013          2116.719
       380   13 Jun 2027 07:42:23.293   13 Jun 2027 07:42:26.591             3.298           590.344
       381   13 Jun 2027 07:43:01.760   13 Jun 2027 07:43:04.028             2.268          1099.031
       382   13 Jun 2027 07:43:38.001   13 Jun 2027 07:43:43.074             5.073           509.813
       383   13 Jun 2027 07:44:37.346   13 Jun 2027 07:44:40.846             3.500          1601.531
       384   13 Jun 2027 09:13:51.188   13 Jun 2027 09:14:04.318            13.130          5949.844
       385   13 Jun 2027 09:16:29.083   13 Jun 2027 09:16:34.933             5.850           157.844
       386   13 Jun 2027 09:18:03.454   13 Jun 2027 09:18:12.080             8.626          2688.906
       387   13 Jun 2027 09:19:21.525   13 Jun 2027 09:19:21.997             0.472           182.938
       388   13 Jun 2027 09:19:43.709   13 Jun 2027 09:19:45.237             1.528           534.469
       389   13 Jun 2027 09:20:47.201   13 Jun 2027 09:20:49.286             2.085           991.906
       390   13 Jun 2027 09:21:05.702   13 Jun 2027 09:21:11.771             6.069           384.562
       391   13 Jun 2027 10:50:45.585   13 Jun 2027 10:50:58.231            12.646          5903.219
       392   13 Jun 2027 10:51:19.254   13 Jun 2027 10:51:21.765             2.511           607.687
       393   13 Jun 2027 10:53:11.272   13 Jun 2027 10:53:12.491             1.219           240.750
       394   13 Jun 2027 10:54:33.260   13 Jun 2027 10:54:34.955             1.695           772.719
       395   13 Jun 2027 10:54:40.377   13 Jun 2027 10:54:41.439             1.062           152.750
       396   13 Jun 2027 10:55:06.257   13 Jun 2027 10:55:07.545             1.288           580.500
       397   13 Jun 2027 10:55:59.983   13 Jun 2027 10:56:03.769             3.786          1535.312
       398   13 Jun 2027 10:56:45.933   13 Jun 2027 10:56:54.893             8.960           550.156
