uniorb/output/strategy_4/Camera/Camera_KinoSat_111304.txt

KinoSat_111304
-------------------------
    Access    *     Start Time (UTCG)     *     Stop Time (UTCG)  *   Duration (s) *   Data (Mbytes)
         1   01 Jun 2027 03:37:24.677   01 Jun 2027 03:39:36.291           131.614         65807.000
         2   01 Jun 2027 03:39:58.252   01 Jun 2027 03:40:01.272             3.020          1510.000
         3   01 Jun 2027 03:40:32.438   01 Jun 2027 03:40:34.239             1.801           900.500
         4   01 Jun 2027 03:40:58.388   01 Jun 2027 03:41:00.033             1.645           822.500
         5   01 Jun 2027 03:41:21.888   01 Jun 2027 03:41:23.210             1.322           661.000
         6   01 Jun 2027 03:42:12.838   01 Jun 2027 03:42:18.909             6.071          3035.500
         7   01 Jun 2027 05:01:08.928   01 Jun 2027 05:02:05.779            56.851         28425.500
         8   01 Jun 2027 06:37:20.133   01 Jun 2027 06:39:18.686           118.553         59276.500
         9   01 Jun 2027 08:10:53.627   01 Jun 2027 08:13:17.708           144.081         72040.500
        10   01 Jun 2027 08:18:02.725   01 Jun 2027 08:18:05.116             2.391          1195.500
        11   01 Jun 2027 08:18:30.170   01 Jun 2027 08:18:48.736            18.566          9283.000
        12   01 Jun 2027 08:19:26.705   01 Jun 2027 08:19:27.702             0.997           498.500
        13   01 Jun 2027 09:48:20.293   01 Jun 2027 09:50:01.406           101.113         50556.500
        14   01 Jun 2027 09:52:07.507   01 Jun 2027 09:53:07.610            60.103         30051.500
        15   01 Jun 2027 09:54:20.872   01 Jun 2027 09:54:34.637            13.765          6882.500
        16   01 Jun 2027 11:25:20.987   01 Jun 2027 11:27:28.737           127.750         63875.000
        17   01 Jun 2027 11:30:51.051   01 Jun 2027 11:31:12.197            21.146         10573.000
        18   02 Jun 2027 03:49:19.855   02 Jun 2027 03:51:49.071           149.216         74608.000
        19   02 Jun 2027 03:52:09.001   02 Jun 2027 03:52:25.034            16.033          8016.500
        20   02 Jun 2027 05:12:59.131   02 Jun 2027 05:14:00.407            61.276         30638.000
        21   02 Jun 2027 06:49:26.283   02 Jun 2027 06:53:00.057           213.774        106887.000
        22   02 Jun 2027 08:21:36.848   02 Jun 2027 08:21:45.063             8.215          4107.500
        23   02 Jun 2027 08:23:32.566   02 Jun 2027 08:26:36.062           183.496         91748.000
        24   02 Jun 2027 08:26:59.983   02 Jun 2027 08:27:05.394             5.411          2705.500
        25   02 Jun 2027 08:27:18.085   02 Jun 2027 08:27:28.820            10.735          5367.500
        26   02 Jun 2027 08:30:03.573   02 Jun 2027 08:30:03.573             0.000             0.000
        27   02 Jun 2027 08:30:16.109   02 Jun 2027 08:30:20.421             4.312          2156.000
        28   02 Jun 2027 08:30:23.964   02 Jun 2027 08:30:54.546            30.582         15291.000
        29   02 Jun 2027 10:00:30.405   02 Jun 2027 10:00:51.305            20.900          9462.876
        30   02 Jun 2027 10:02:54.009   02 Jun 2027 10:02:55.081             1.072            67.844
        31   02 Jun 2027 10:03:51.302   02 Jun 2027 10:03:53.470             2.168           409.687
        32   02 Jun 2027 10:04:37.860   02 Jun 2027 10:04:41.510             3.650           786.969
        33   02 Jun 2027 10:05:08.088   02 Jun 2027 10:05:09.477             1.389           248.125
        34   02 Jun 2027 10:06:28.440   02 Jun 2027 10:06:35.215             6.775          2102.625
        35   02 Jun 2027 10:07:00.288   02 Jun 2027 10:07:01.997             1.709           783.531
        36   02 Jun 2027 11:37:45.031   02 Jun 2027 11:37:59.578            14.547          5173.281
        37   02 Jun 2027 11:38:37.639   02 Jun 2027 11:38:39.949             2.310          1137.063
        38   02 Jun 2027 11:40:34.888   02 Jun 2027 11:40:37.836             2.948          1389.250
        39   02 Jun 2027 11:40:59.492   02 Jun 2027 11:41:00.947             1.455           521.000
        40   02 Jun 2027 11:41:33.397   02 Jun 2027 11:41:40.054             6.657           898.656
        41   02 Jun 2027 11:42:27.656   02 Jun 2027 11:42:31.430             3.774          1344.219
        42   03 Jun 2027 04:02:33.302   03 Jun 2027 04:05:48.815           195.513         97756.500
        43   03 Jun 2027 05:25:06.797   03 Jun 2027 05:25:51.254            44.457         22228.500
        44   03 Jun 2027 07:01:34.852   03 Jun 2027 07:02:55.950            81.098         40386.218
        45   03 Jun 2027 07:03:12.362   03 Jun 2027 07:03:16.357             3.995            55.281
        46   03 Jun 2027 07:03:35.401   03 Jun 2027 07:03:37.619             2.218            97.594
        47   03 Jun 2027 07:04:14.946   03 Jun 2027 07:04:19.394             4.448          1032.844
        48   03 Jun 2027 08:36:45.321   03 Jun 2027 08:36:51.369             6.048          2163.094
        49   03 Jun 2027 08:37:12.038   03 Jun 2027 08:37:14.581             2.543           187.406
        50   03 Jun 2027 08:37:59.170   03 Jun 2027 08:38:00.350             1.180            27.344
        51   03 Jun 2027 08:39:46.102   03 Jun 2027 08:39:48.798             2.696          1319.906
        52   03 Jun 2027 08:40:17.280   03 Jun 2027 08:40:21.637             4.357            66.437
        53   03 Jun 2027 08:42:03.935   03 Jun 2027 08:42:11.161             7.226          2368.344
        54   03 Jun 2027 08:42:54.111   03 Jun 2027 08:42:58.381             4.270          1231.719
        55   03 Jun 2027 08:43:16.620   03 Jun 2027 08:43:17.684             1.064           469.188
        56   03 Jun 2027 10:13:04.698   03 Jun 2027 10:13:18.125            13.427          6252.750
        57   03 Jun 2027 10:15:12.908   03 Jun 2027 10:15:17.069             4.161           627.969
        58   03 Jun 2027 10:15:43.388   03 Jun 2027 10:15:46.300             2.912           457.812
        59   03 Jun 2027 10:16:00.472   03 Jun 2027 10:16:04.037             3.565           442.875
        60   03 Jun 2027 10:16:17.660   03 Jun 2027 10:16:21.741             4.081           380.281
        61   03 Jun 2027 10:16:52.590   03 Jun 2027 10:16:54.475             1.885           858.719
        62   03 Jun 2027 10:17:20.116   03 Jun 2027 10:17:22.595             2.479           452.219
        63   03 Jun 2027 10:18:27.888   03 Jun 2027 10:18:31.779             3.891          1354.938
        64   03 Jun 2027 11:50:28.663   03 Jun 2027 11:50:40.304            11.641          5702.687
        65   03 Jun 2027 11:51:12.463   03 Jun 2027 11:51:14.734             2.271           493.719
        66   03 Jun 2027 11:52:19.933   03 Jun 2027 11:52:24.574             4.641           103.906
        67   03 Jun 2027 11:52:50.685   03 Jun 2027 11:52:56.046             5.361           618.313
        68   03 Jun 2027 11:53:04.580   03 Jun 2027 11:53:06.858             2.278           266.687
        69   03 Jun 2027 11:53:07.303   03 Jun 2027 11:53:07.466             0.163            13.906
        70   03 Jun 2027 11:53:43.209   03 Jun 2027 11:53:47.460             4.251          1116.969
        71   03 Jun 2027 11:54:22.424   03 Jun 2027 11:54:24.973             2.549           832.375
        72   04 Jun 2027 04:13:40.684   04 Jun 2027 04:14:18.594            37.910         18955.000
        73   04 Jun 2027 04:14:36.207   04 Jun 2027 04:17:12.386           156.179         78089.500
        74   04 Jun 2027 05:37:08.535   04 Jun 2027 05:37:52.619            44.084         22042.000
        75   04 Jun 2027 05:38:32.965   04 Jun 2027 05:38:36.207             3.242          1621.000
        76   04 Jun 2027 07:13:36.701   04 Jun 2027 07:15:05.082            88.381         42119.875
        77   04 Jun 2027 07:15:18.416   04 Jun 2027 07:15:21.780             3.364           316.187
        78   04 Jun 2027 07:15:40.542   04 Jun 2027 07:15:40.542             0.000             0.000
        79   04 Jun 2027 07:16:05.532   04 Jun 2027 07:16:11.562             6.030          1237.844
        80   04 Jun 2027 07:16:42.163   04 Jun 2027 07:16:45.443             3.280           956.281
        81   04 Jun 2027 08:48:49.195   04 Jun 2027 08:48:55.589             6.394          2686.500
        82   04 Jun 2027 08:49:02.268   04 Jun 2027 08:49:03.547             1.279            91.688
        83   04 Jun 2027 08:50:07.662   04 Jun 2027 08:50:14.682             7.020           342.375
        84   04 Jun 2027 08:50:24.118   04 Jun 2027 08:50:24.339             0.221            87.937
        85   04 Jun 2027 08:51:28.864   04 Jun 2027 08:51:34.439             5.575          2016.406
        86   04 Jun 2027 08:51:44.658   04 Jun 2027 08:51:44.805             0.147            71.844
        87   04 Jun 2027 08:52:14.951   04 Jun 2027 08:52:17.615             2.664           693.625
        88   04 Jun 2027 08:52:50.337   04 Jun 2027 08:52:52.989             2.652          1022.562
        89   04 Jun 2027 08:52:59.294   04 Jun 2027 08:53:02.988             3.694           197.031
        90   04 Jun 2027 08:53:10.186   04 Jun 2027 08:53:10.826             0.640           165.937
        91   04 Jun 2027 08:53:47.468   04 Jun 2027 08:53:51.785             4.317           255.062
        92   04 Jun 2027 08:54:53.793   04 Jun 2027 08:54:57.439             3.646          1564.500
        93   04 Jun 2027 10:24:44.150   04 Jun 2027 10:24:58.669            14.519          6811.906
        94   04 Jun 2027 10:28:01.705   04 Jun 2027 10:28:02.765             1.060           185.844
        95   04 Jun 2027 10:29:08.847   04 Jun 2027 10:29:12.730             3.883          1336.312
        96   04 Jun 2027 10:30:08.781   04 Jun 2027 10:30:18.125             9.344           606.812
        97   05 Jun 2027 04:14:42.670   05 Jun 2027 04:15:09.370            26.700         13350.000
        98   05 Jun 2027 04:25:37.936   05 Jun 2027 04:27:21.991           104.055         52027.500
        99   05 Jun 2027 04:28:06.851   05 Jun 2027 04:28:31.793            24.942         12471.000
       100   05 Jun 2027 05:49:35.083   05 Jun 2027 05:50:30.818            55.735         27867.500
       101   05 Jun 2027 05:50:38.971   05 Jun 2027 05:50:38.971             0.000             0.000
       102   05 Jun 2027 05:52:12.492   05 Jun 2027 05:52:29.376            16.884          8442.000
       103   05 Jun 2027 07:25:19.952   05 Jun 2027 07:27:00.074           100.122         49970.344
       104   05 Jun 2027 07:28:04.182   05 Jun 2027 07:28:06.706             2.524          1262.000
       105   05 Jun 2027 07:28:14.912   05 Jun 2027 07:28:18.888             3.976           588.625
       106   05 Jun 2027 07:29:27.165   05 Jun 2027 07:29:32.801             5.636          1565.344
       107   05 Jun 2027 09:00:03.788   05 Jun 2027 09:00:06.317             2.529          1264.500
       108   05 Jun 2027 09:00:22.676   05 Jun 2027 09:00:27.539             4.863          1733.969
       109   05 Jun 2027 09:00:41.720   05 Jun 2027 09:00:44.129             2.409           212.125
       110   05 Jun 2027 09:02:21.900   05 Jun 2027 09:02:30.361             8.461          2532.125
       111   05 Jun 2027 09:03:37.190   05 Jun 2027 09:03:40.641             3.451          1344.719
       112   05 Jun 2027 09:04:19.823   05 Jun 2027 09:04:22.497             2.674          1110.000
       113   05 Jun 2027 09:05:12.793   05 Jun 2027 09:05:18.383             5.590           676.969
       114   05 Jun 2027 09:05:41.242   05 Jun 2027 09:05:42.175             0.933            57.406
       115   05 Jun 2027 09:06:13.984   05 Jun 2027 09:06:15.946             1.962           465.906
       116   05 Jun 2027 09:07:31.879   05 Jun 2027 09:07:36.118             4.239          2066.313
       117   05 Jun 2027 10:36:51.920   05 Jun 2027 10:37:08.212            16.292          7483.031
       118   05 Jun 2027 10:40:38.130   05 Jun 2027 10:40:41.028             2.898           949.937
       119   05 Jun 2027 10:41:48.088   05 Jun 2027 10:41:52.471             4.383          1451.344
       120   05 Jun 2027 10:42:22.584   05 Jun 2027 10:42:25.687             3.103           911.344
       121   06 Jun 2027 03:00:53.946   06 Jun 2027 03:01:17.292            23.346         11673.000
       122   06 Jun 2027 03:01:59.639   06 Jun 2027 03:02:10.210            10.571          5285.500
       123   06 Jun 2027 03:04:21.496   06 Jun 2027 03:04:49.524            28.028         14014.000
       124   06 Jun 2027 03:06:25.124   06 Jun 2027 03:06:32.739             7.615          3807.500
       125   06 Jun 2027 03:06:47.851   06 Jun 2027 03:06:56.465             8.614          4307.000
       126   06 Jun 2027 03:07:23.153   06 Jun 2027 03:07:25.469             2.316          1158.000
       127   06 Jun 2027 03:07:34.391   06 Jun 2027 03:08:14.142            39.751         19875.500
       128   06 Jun 2027 04:25:58.646   06 Jun 2027 04:26:18.817            20.171         10085.500
       129   06 Jun 2027 04:27:01.311   06 Jun 2027 04:27:21.949            20.638         10319.000
       130   06 Jun 2027 04:37:38.416   06 Jun 2027 04:38:38.004            59.588         29794.000
       131   06 Jun 2027 04:38:48.196   06 Jun 2027 04:39:04.195            15.999          7999.500
       132   06 Jun 2027 06:00:10.652   06 Jun 2027 06:00:53.580            42.928         21464.000
       133   06 Jun 2027 06:01:56.409   06 Jun 2027 06:02:22.737            26.328         13164.000
       134   06 Jun 2027 06:02:51.711   06 Jun 2027 06:03:17.460            25.749         12874.500
       135   06 Jun 2027 07:35:14.080   06 Jun 2027 07:35:41.567            27.487         11821.312
       136   06 Jun 2027 07:35:48.512   06 Jun 2027 07:35:50.543             2.031           150.094
       137   06 Jun 2027 07:36:24.229   06 Jun 2027 07:36:25.107             0.878           176.344
       138   06 Jun 2027 07:37:55.773   06 Jun 2027 07:38:01.566             5.793          2309.312
       139   06 Jun 2027 07:38:55.553   06 Jun 2027 07:39:00.631             5.078          1274.469
       140   06 Jun 2027 07:40:32.726   06 Jun 2027 07:40:35.265             2.539           957.594
       141   06 Jun 2027 07:40:44.410   06 Jun 2027 07:40:48.063             3.653           285.781
       142   06 Jun 2027 07:41:29.554   06 Jun 2027 07:41:32.466             2.912           730.312
       143   06 Jun 2027 07:41:56.573   06 Jun 2027 07:41:57.021             0.448           224.000
       144   06 Jun 2027 09:12:12.127   06 Jun 2027 09:12:25.306            13.179          4282.406
       145   06 Jun 2027 09:14:54.225   06 Jun 2027 09:15:00.540             6.315           262.656
       146   06 Jun 2027 09:15:42.687   06 Jun 2027 09:15:45.756             3.069          1204.219
       147   06 Jun 2027 09:16:40.461   06 Jun 2027 09:16:45.742             5.281          1692.500
       148   06 Jun 2027 09:18:01.180   06 Jun 2027 09:18:10.842             9.662          1834.438
       149   06 Jun 2027 09:18:36.512   06 Jun 2027 09:18:39.733             3.221           211.156
       150   06 Jun 2027 09:19:26.077   06 Jun 2027 09:19:28.872             2.795          1248.844
       151   06 Jun 2027 10:49:10.298   06 Jun 2027 10:49:24.090            13.792          4843.937
       152   06 Jun 2027 10:50:05.713   06 Jun 2027 10:50:09.659             3.946          1213.187
       153   06 Jun 2027 10:50:43.780   06 Jun 2027 10:50:45.817             2.037           350.375
       154   06 Jun 2027 10:50:55.951   06 Jun 2027 10:50:58.029             2.078           316.688
       155   06 Jun 2027 10:52:50.066   06 Jun 2027 10:52:54.044             3.978          1919.531
       156   06 Jun 2027 10:53:30.617   06 Jun 2027 10:53:40.909            10.292          1142.906
       157   06 Jun 2027 10:53:55.283   06 Jun 2027 10:53:56.455             1.172           411.625
       158   06 Jun 2027 10:54:24.732   06 Jun 2027 10:54:37.201            12.469           876.031
       159   06 Jun 2027 10:55:10.814   06 Jun 2027 10:55:12.571             1.757           745.188
       160   07 Jun 2027 03:13:09.943   07 Jun 2027 03:15:12.874           122.931         61465.500
       161   07 Jun 2027 03:16:22.857   07 Jun 2027 03:16:46.759            23.902         11951.000
       162   07 Jun 2027 03:17:54.440   07 Jun 2027 03:18:27.215            32.775         16387.500
       163   07 Jun 2027 04:37:19.765   07 Jun 2027 04:37:47.008            27.243         13621.500
       164   07 Jun 2027 04:39:01.343   07 Jun 2027 04:39:20.477            19.134          9567.000
       165   07 Jun 2027 04:49:35.930   07 Jun 2027 04:50:31.425            55.495         27747.500
       166   07 Jun 2027 06:11:34.947   07 Jun 2027 06:12:24.318            49.371         24661.375
       167   07 Jun 2027 06:13:56.940   07 Jun 2027 06:14:04.697             7.757          2756.969
       168   07 Jun 2027 06:14:30.676   07 Jun 2027 06:14:33.836             3.160           606.219
       169   07 Jun 2027 06:15:00.905   07 Jun 2027 06:15:04.364             3.459           429.844
       170   07 Jun 2027 06:16:31.393   07 Jun 2027 06:16:40.509             9.116          2180.531
       171   07 Jun 2027 07:46:38.814   07 Jun 2027 07:46:50.780            11.966          2380.313
       172   07 Jun 2027 07:47:19.595   07 Jun 2027 07:47:23.336             3.741           900.469
       173   07 Jun 2027 07:48:39.242   07 Jun 2027 07:48:44.756             5.514          1237.094
       174   07 Jun 2027 07:49:35.906   07 Jun 2027 07:49:40.605             4.699          1412.063
       175   07 Jun 2027 07:50:29.756   07 Jun 2027 07:50:33.532             3.776           924.500
       176   07 Jun 2027 07:52:02.923   07 Jun 2027 07:52:07.764             4.841          2379.938
       177   07 Jun 2027 07:52:21.450   07 Jun 2027 07:52:22.992             1.542           427.687
       178   07 Jun 2027 07:52:58.575   07 Jun 2027 07:53:01.412             2.837           391.500
       179   07 Jun 2027 07:53:20.209   07 Jun 2027 07:53:21.970             1.761           510.344
       180   07 Jun 2027 07:53:27.364   07 Jun 2027 07:53:27.364             0.000             0.000
       181   07 Jun 2027 07:54:45.991   07 Jun 2027 07:54:53.101             7.110          1690.594
       182   07 Jun 2027 09:24:14.718   07 Jun 2027 09:24:23.141             8.423          3926.187
       183   07 Jun 2027 09:25:05.491   07 Jun 2027 09:25:10.784             5.293          1181.000
       184   07 Jun 2027 09:27:20.809   07 Jun 2027 09:27:24.716             3.907          1857.094
       185   07 Jun 2027 09:28:32.869   07 Jun 2027 09:28:35.611             2.742          1101.938
       186   07 Jun 2027 09:29:33.918   07 Jun 2027 09:29:42.560             8.642          1654.750
       187   07 Jun 2027 09:30:51.040   07 Jun 2027 09:30:55.515             4.475          2140.000
       188   07 Jun 2027 11:01:02.130   07 Jun 2027 11:01:13.866            11.736          5576.438
       189   07 Jun 2027 11:03:48.001   07 Jun 2027 11:03:49.973             1.972           793.313
       190   07 Jun 2027 11:04:34.582   07 Jun 2027 11:04:48.820            14.238          1394.031
       191   07 Jun 2027 11:05:04.614   07 Jun 2027 11:05:05.775             1.161           454.313
       192   07 Jun 2027 11:05:29.430   07 Jun 2027 11:05:30.276             0.846           410.313
       193   07 Jun 2027 11:05:50.267   07 Jun 2027 11:05:52.809             2.542           624.719
       194   07 Jun 2027 11:06:24.747   07 Jun 2027 11:06:28.792             4.045           998.063
       195   07 Jun 2027 11:06:49.043   07 Jun 2027 11:06:56.180             7.137           629.844
       196   07 Jun 2027 11:07:21.146   07 Jun 2027 11:07:23.879             2.733           393.344
       197   07 Jun 2027 11:07:37.116   07 Jun 2027 11:07:39.905             2.789           101.125
       198   08 Jun 2027 03:25:16.281   08 Jun 2027 03:27:16.402           120.121         60060.500
       199   08 Jun 2027 03:27:35.635   08 Jun 2027 03:28:50.076            74.441         37220.500
       200   08 Jun 2027 03:31:08.222   08 Jun 2027 03:31:19.574            11.352          5676.000
       201   08 Jun 2027 04:49:27.477   08 Jun 2027 04:50:10.757            43.280         21640.000
       202   08 Jun 2027 05:01:59.645   08 Jun 2027 05:02:03.040             3.395          1697.500
       203   08 Jun 2027 06:23:16.966   08 Jun 2027 06:24:25.679            68.713         34233.874
       204   08 Jun 2027 06:24:56.042   08 Jun 2027 06:24:57.284             1.242           205.688
       205   08 Jun 2027 06:25:09.528   08 Jun 2027 06:25:11.217             1.689           260.375
       206   08 Jun 2027 06:26:00.084   08 Jun 2027 06:26:06.518             6.434          1527.094
       207   08 Jun 2027 06:26:18.614   08 Jun 2027 06:26:20.267             1.653           184.875
       208   08 Jun 2027 06:26:55.309   08 Jun 2027 06:26:57.686             2.377          1095.063
       209   08 Jun 2027 06:28:31.976   08 Jun 2027 06:28:36.948             4.972          2317.719
       210   08 Jun 2027 06:28:42.496   08 Jun 2027 06:28:44.113             1.617           131.844
       211   08 Jun 2027 07:58:09.489   08 Jun 2027 07:58:15.999             6.510          2806.875
       212   08 Jun 2027 07:58:42.279   08 Jun 2027 07:58:42.924             0.645           289.438
       213   08 Jun 2027 08:00:25.380   08 Jun 2027 08:00:29.744             4.364          2163.969
       214   08 Jun 2027 08:01:20.449   08 Jun 2027 08:01:26.128             5.679            33.469
       215   08 Jun 2027 08:02:46.821   08 Jun 2027 08:02:50.810             3.989          1915.656
       216   08 Jun 2027 08:04:07.495   08 Jun 2027 08:04:19.228            11.733          2131.594
       217   08 Jun 2027 08:05:13.091   08 Jun 2027 08:05:16.178             3.087          1516.000
       218   08 Jun 2027 08:05:41.173   08 Jun 2027 08:05:42.607             1.434           688.031
       219   08 Jun 2027 08:06:18.439   08 Jun 2027 08:06:24.592             6.153          1119.750
       220   08 Jun 2027 08:07:08.637   08 Jun 2027 08:07:11.722             3.085          1323.406
       221   08 Jun 2027 09:36:14.936   08 Jun 2027 09:36:29.827            14.891          5855.250
       222   08 Jun 2027 09:37:11.669   08 Jun 2027 09:37:17.085             5.416           911.406
       223   08 Jun 2027 09:40:24.503   08 Jun 2027 09:40:31.654             7.151          2388.625
       224   08 Jun 2027 09:41:41.779   08 Jun 2027 09:41:45.509             3.730           336.781
       225   08 Jun 2027 09:42:56.259   08 Jun 2027 09:42:58.755             2.496          1060.750
       226   08 Jun 2027 09:43:09.640   08 Jun 2027 09:43:12.927             3.287            59.656
       227   08 Jun 2027 09:43:22.284   08 Jun 2027 09:43:25.698             3.414           238.375
       228   08 Jun 2027 11:13:08.485   08 Jun 2027 11:13:20.319            11.834          5155.969
       229   08 Jun 2027 11:15:45.046   08 Jun 2027 11:15:46.683             1.637           304.594
       230   08 Jun 2027 11:16:13.413   08 Jun 2027 11:16:15.089             1.676           511.188
       231   08 Jun 2027 11:16:22.057   08 Jun 2027 11:16:23.669             1.612            72.375
       232   08 Jun 2027 11:17:06.395   08 Jun 2027 11:17:06.776             0.381           181.000
       233   08 Jun 2027 11:17:09.921   08 Jun 2027 11:17:10.429             0.508            98.281
       234   08 Jun 2027 11:17:52.551   08 Jun 2027 11:17:57.546             4.995           538.563
       235   08 Jun 2027 11:18:42.997   08 Jun 2027 11:18:46.557             3.560           771.812
       236   08 Jun 2027 11:19:12.555   08 Jun 2027 11:19:14.964             2.409           669.688
       237   09 Jun 2027 03:37:54.252   09 Jun 2027 03:40:14.695           140.443         70221.500
       238   09 Jun 2027 03:40:47.942   09 Jun 2027 03:42:31.948           104.006         52003.000
       239   09 Jun 2027 05:01:23.968   09 Jun 2027 05:01:44.683            20.715         10357.500
       240   09 Jun 2027 05:02:13.537   09 Jun 2027 05:02:23.171             9.634          4817.000
       241   09 Jun 2027 06:37:36.234   09 Jun 2027 06:38:43.529            67.295         33596.500
       242   09 Jun 2027 06:38:57.049   09 Jun 2027 06:38:58.302             1.253           422.500
       243   09 Jun 2027 06:39:49.522   09 Jun 2027 06:39:52.686             3.164          1360.813
       244   09 Jun 2027 06:40:16.466   09 Jun 2027 06:40:19.547             3.081           429.344
       245   09 Jun 2027 06:40:42.715   09 Jun 2027 06:40:42.715             0.000             0.000
       246   09 Jun 2027 06:40:45.215   09 Jun 2027 06:40:46.936             1.721           802.125
       247   09 Jun 2027 08:11:09.586   09 Jun 2027 08:11:15.043             5.457          1868.937
       248   09 Jun 2027 08:12:27.052   09 Jun 2027 08:12:32.088             5.036          2250.281
       249   09 Jun 2027 08:13:34.889   09 Jun 2027 08:13:37.324             2.435          1049.719
       250   09 Jun 2027 08:13:43.903   09 Jun 2027 08:13:44.746             0.843           205.594
       251   09 Jun 2027 08:14:46.349   09 Jun 2027 08:14:49.911             3.562          1525.000
       252   09 Jun 2027 08:16:06.568   09 Jun 2027 08:16:12.842             6.274          1954.937
       253   09 Jun 2027 08:17:08.145   09 Jun 2027 08:17:11.182             3.037          1267.781
       254   09 Jun 2027 08:18:23.950   09 Jun 2027 08:18:30.233             6.283           913.594
       255   09 Jun 2027 08:19:40.501   09 Jun 2027 08:19:43.536             3.035          1076.125
       256   09 Jun 2027 09:48:38.205   09 Jun 2027 09:48:52.830            14.625          6595.562
       257   09 Jun 2027 09:50:54.587   09 Jun 2027 09:50:55.458             0.871            93.656
       258   09 Jun 2027 09:52:49.647   09 Jun 2027 09:52:53.922             4.275           762.938
       259   09 Jun 2027 09:53:36.375   09 Jun 2027 09:53:39.887             3.512           801.906
       260   09 Jun 2027 09:54:32.697   09 Jun 2027 09:54:35.387             2.690          1341.688
       261   09 Jun 2027 09:54:54.309   09 Jun 2027 09:55:01.492             7.183            63.969
       262   09 Jun 2027 09:55:21.295   09 Jun 2027 09:55:26.066             4.771           618.844
       263   09 Jun 2027 11:25:36.693   09 Jun 2027 11:25:51.066            14.373          6579.875
       264   09 Jun 2027 11:27:55.686   09 Jun 2027 11:27:59.337             3.651           629.125
       265   09 Jun 2027 11:28:57.011   09 Jun 2027 11:29:03.552             6.541          1680.781
       266   09 Jun 2027 11:29:08.648   09 Jun 2027 11:29:09.768             1.120           159.250
       267   09 Jun 2027 11:29:28.002   09 Jun 2027 11:29:29.916             1.914           569.813
       268   09 Jun 2027 11:30:47.914   09 Jun 2027 11:30:53.196             5.282          2062.187
       269   09 Jun 2027 11:31:13.818   09 Jun 2027 11:31:18.502             4.684           644.438
       270   10 Jun 2027 03:49:35.574   10 Jun 2027 03:53:34.699           239.125        119562.500
       271   10 Jun 2027 05:13:14.734   10 Jun 2027 05:13:20.539             5.805          2902.500
       272   10 Jun 2027 05:14:41.865   10 Jun 2027 05:14:57.321            15.456          7728.000
       273   10 Jun 2027 06:49:41.613   10 Jun 2027 06:50:58.580            76.967         38081.812
       274   10 Jun 2027 06:51:46.798   10 Jun 2027 06:51:50.770             3.972          1503.219
       275   10 Jun 2027 06:52:18.545   10 Jun 2027 06:52:19.873             1.328           661.906
       276   10 Jun 2027 06:52:45.410   10 Jun 2027 06:52:47.333             1.923           704.938
       277   10 Jun 2027 08:21:50.781   10 Jun 2027 08:21:59.210             8.429          3399.531
       278   10 Jun 2027 08:23:48.597   10 Jun 2027 08:23:52.379             3.782          1416.281
       279   10 Jun 2027 08:25:29.182   10 Jun 2027 08:25:33.305             4.123          1788.875
       280   10 Jun 2027 08:25:36.797   10 Jun 2027 08:25:37.993             1.196            22.938
       281   10 Jun 2027 08:26:36.089   10 Jun 2027 08:26:41.986             5.897          1326.781
       282   10 Jun 2027 08:27:46.967   10 Jun 2027 08:27:51.024             4.057          1111.812
       283   10 Jun 2027 08:28:30.422   10 Jun 2027 08:28:32.129             1.707           799.062
       284   10 Jun 2027 08:29:05.184   10 Jun 2027 08:29:05.762             0.578           289.000
       285   10 Jun 2027 08:30:20.483   10 Jun 2027 08:30:27.536             7.053          2529.063
       286   10 Jun 2027 08:31:16.949   10 Jun 2027 08:31:19.966             3.017          1359.500
       287   10 Jun 2027 08:31:28.509   10 Jun 2027 08:31:29.975             1.466           265.656
       288   10 Jun 2027 10:00:47.191   10 Jun 2027 10:00:56.535             9.344          4450.500
       289   10 Jun 2027 10:02:36.353   10 Jun 2027 10:02:37.014             0.661           179.875
       290   10 Jun 2027 10:03:26.221   10 Jun 2027 10:03:28.219             1.998           987.969
       291   10 Jun 2027 10:04:00.244   10 Jun 2027 10:04:06.620             6.376           664.656
       292   10 Jun 2027 10:04:52.038   10 Jun 2027 10:04:58.210             6.172           725.750
       293   10 Jun 2027 10:05:56.198   10 Jun 2027 10:05:57.488             1.290           609.125
       294   10 Jun 2027 10:06:51.260   10 Jun 2027 10:06:55.111             3.851          1667.406
       295   10 Jun 2027 10:07:28.411   10 Jun 2027 10:07:31.153             2.742          1040.625
       296   10 Jun 2027 11:38:07.420   10 Jun 2027 11:38:17.870            10.450          5146.375
       297   10 Jun 2027 11:39:28.157   10 Jun 2027 11:39:28.471             0.314            38.969
       298   10 Jun 2027 11:42:45.468   10 Jun 2027 11:42:53.117             7.649          3544.750
       299   11 Jun 2027 04:02:49.112   11 Jun 2027 04:05:18.251           149.139         74569.500
       300   11 Jun 2027 04:05:40.187   11 Jun 2027 04:05:57.149            16.962          8481.000
       301   11 Jun 2027 05:25:22.987   11 Jun 2027 05:26:05.569            42.582         21291.000
       302   11 Jun 2027 07:01:51.303   11 Jun 2027 07:03:34.583           103.280         51362.125
       303   11 Jun 2027 07:03:50.203   11 Jun 2027 07:03:53.607             3.404            66.125
       304   11 Jun 2027 07:04:56.757   11 Jun 2027 07:05:01.196             4.439          1782.156
       305   11 Jun 2027 08:37:02.344   11 Jun 2027 08:37:09.377             7.033          2318.656
       306   11 Jun 2027 08:37:27.279   11 Jun 2027 08:37:29.285             2.006           124.344
       307   11 Jun 2027 08:38:37.504   11 Jun 2027 08:38:40.360             2.856           653.844
       308   11 Jun 2027 08:40:02.190   11 Jun 2027 08:40:07.190             5.000          1270.906
       309   11 Jun 2027 08:40:33.074   11 Jun 2027 08:40:33.074             0.000             0.000
       310   11 Jun 2027 08:41:05.670   11 Jun 2027 08:41:09.065             3.395          1057.312
       311   11 Jun 2027 08:41:50.658   11 Jun 2027 08:41:51.756             1.098           301.906
       312   11 Jun 2027 08:43:05.270   11 Jun 2027 08:43:08.107             2.837          1389.500
       313   11 Jun 2027 08:43:32.263   11 Jun 2027 08:43:36.894             4.631           424.344
       314   11 Jun 2027 10:13:21.080   11 Jun 2027 10:13:35.016            13.936          5488.531
       315   11 Jun 2027 10:15:29.601   11 Jun 2027 10:15:32.618             3.017            43.406
       316   11 Jun 2027 10:16:44.666   11 Jun 2027 10:16:48.072             3.406          1258.250
       317   11 Jun 2027 10:17:32.016   11 Jun 2027 10:17:35.073             3.057          1159.375
       318   11 Jun 2027 10:18:44.119   11 Jun 2027 10:18:46.972             2.853          1323.219
       319   11 Jun 2027 11:50:44.127   11 Jun 2027 11:50:55.750            11.623          5434.594
       320   11 Jun 2027 11:51:15.291   11 Jun 2027 11:51:16.146             0.855           270.687
       321   11 Jun 2027 11:52:13.116   11 Jun 2027 11:52:17.920             4.804          1401.875
       322   11 Jun 2027 11:54:00.206   11 Jun 2027 11:54:04.603             4.397          2187.188
       323   11 Jun 2027 11:54:38.799   11 Jun 2027 11:54:45.501             6.702           828.875
       324   12 Jun 2027 04:13:57.575   12 Jun 2027 04:14:34.482            36.907         18453.500
       325   12 Jun 2027 04:15:03.095   12 Jun 2027 04:17:23.268           140.173         70086.500
       326   12 Jun 2027 05:37:24.067   12 Jun 2027 05:38:08.091            44.024         22012.000
       327   12 Jun 2027 05:38:31.341   12 Jun 2027 05:38:32.538             1.197           598.500
       328   12 Jun 2027 05:40:22.400   12 Jun 2027 05:40:22.400             0.000             0.000
       329   12 Jun 2027 07:13:51.441   12 Jun 2027 07:15:26.044            94.603         47301.500
       330   12 Jun 2027 07:15:35.862   12 Jun 2027 07:15:40.657             4.795          2052.063
       331   12 Jun 2027 07:15:56.689   12 Jun 2027 07:15:56.689             0.000             0.000
       332   12 Jun 2027 07:16:21.877   12 Jun 2027 07:16:28.197             6.320          1288.125
       333   12 Jun 2027 07:16:58.566   12 Jun 2027 07:16:58.647             0.081            40.500
       334   12 Jun 2027 07:17:17.124   12 Jun 2027 07:17:17.124             0.000             0.000
       335   12 Jun 2027 08:49:04.296   12 Jun 2027 08:49:10.692             6.396          3188.750
       336   12 Jun 2027 08:49:19.738   12 Jun 2027 08:49:31.973            12.235           166.438
       337   12 Jun 2027 08:50:39.686   12 Jun 2027 08:50:41.683             1.997           529.969
       338   12 Jun 2027 08:51:04.394   12 Jun 2027 08:51:09.239             4.845           703.437
       339   12 Jun 2027 08:52:07.706   12 Jun 2027 08:52:10.501             2.795           691.437
       340   12 Jun 2027 08:53:17.213   12 Jun 2027 08:53:21.260             4.047          1530.625
       341   12 Jun 2027 08:53:54.819   12 Jun 2027 08:53:59.856             5.037           950.219
       342   12 Jun 2027 08:54:28.810   12 Jun 2027 08:54:31.097             2.287           815.031
       343   12 Jun 2027 08:55:42.907   12 Jun 2027 08:55:44.714             1.807           903.500
       344   12 Jun 2027 10:24:59.830   12 Jun 2027 10:25:14.161            14.331          5849.313
       345   12 Jun 2027 10:27:42.349   12 Jun 2027 10:27:44.819             2.470            55.938
       346   12 Jun 2027 10:28:10.440   12 Jun 2027 10:28:12.519             2.079           169.281
       347   12 Jun 2027 10:29:27.151   12 Jun 2027 10:29:33.065             5.914          2047.594
       348   12 Jun 2027 10:30:24.059   12 Jun 2027 10:30:32.531             8.472          1593.563
       349   13 Jun 2027 04:14:56.747   13 Jun 2027 04:15:25.829            29.082         14541.000
       350   13 Jun 2027 04:25:53.728   13 Jun 2027 04:28:21.890           148.162         74081.000
       351   13 Jun 2027 05:49:50.335   13 Jun 2027 05:50:22.211            31.876         15938.000
       352   13 Jun 2027 05:52:15.462   13 Jun 2027 05:52:15.462             0.000             0.000
       353   13 Jun 2027 07:25:35.982   13 Jun 2027 07:27:27.813           111.831         52582.312
       354   13 Jun 2027 07:28:20.452   13 Jun 2027 07:28:24.406             3.954          1644.969
       355   13 Jun 2027 07:28:51.342   13 Jun 2027 07:28:53.175             1.833           752.625
       356   13 Jun 2027 07:29:45.388   13 Jun 2027 07:29:49.118             3.730          1403.000
       357   13 Jun 2027 09:00:19.816   13 Jun 2027 09:00:25.816             6.000          2615.344
       358   13 Jun 2027 09:01:18.554   13 Jun 2027 09:01:22.429             3.875           687.594
       359   13 Jun 2027 09:02:44.144   13 Jun 2027 09:02:45.026             0.882           158.312
       360   13 Jun 2027 09:03:50.664   13 Jun 2027 09:03:53.115             2.451          1203.062
       361   13 Jun 2027 09:04:02.550   13 Jun 2027 09:04:04.304             1.754           294.844
       362   13 Jun 2027 09:04:44.253   13 Jun 2027 09:04:48.389             4.136          1222.281
       363   13 Jun 2027 09:06:19.629   13 Jun 2027 09:06:24.168             4.539          2081.563
       364   13 Jun 2027 09:06:41.195   13 Jun 2027 09:06:42.277             1.082           370.719
       365   13 Jun 2027 09:07:13.683   13 Jun 2027 09:07:14.213             0.530           247.750
       366   13 Jun 2027 10:37:09.642   13 Jun 2027 10:37:23.205            13.563          5399.594
       367   13 Jun 2027 10:38:18.131   13 Jun 2027 10:38:21.362             3.231           918.781
       368   13 Jun 2027 10:40:05.074   13 Jun 2027 10:40:08.565             3.491           434.656
       369   13 Jun 2027 10:40:41.552   13 Jun 2027 10:40:52.227            10.675           328.125
       370   13 Jun 2027 10:41:16.734   13 Jun 2027 10:41:18.261             1.527           686.906
       371   13 Jun 2027 10:41:51.379   13 Jun 2027 10:41:58.135             6.756           618.656
       372   13 Jun 2027 10:42:39.196   13 Jun 2027 10:42:41.352             2.156           895.250
