uniorb/output/strategy_4/Camera/Camera_KinoSat_111003.txt

KinoSat_111003
-------------------------
    Access    *     Start Time (UTCG)     *     Stop Time (UTCG)  *   Duration (s) *   Data (Mbytes)
         1   01 Jun 2027 03:46:17.055   01 Jun 2027 03:47:44.407            87.352         43676.000
         2   01 Jun 2027 03:47:58.744   01 Jun 2027 03:48:11.890            13.146          6573.000
         3   01 Jun 2027 03:48:20.640   01 Jun 2027 03:48:22.821             2.181          1090.500
         4   01 Jun 2027 03:48:36.093   01 Jun 2027 03:48:42.095             6.002          3001.000
         5   01 Jun 2027 05:22:38.690   01 Jun 2027 05:24:39.625           120.935         60467.500
         6   01 Jun 2027 05:24:59.593   01 Jun 2027 05:24:59.593             0.000             0.000
         7   01 Jun 2027 05:25:03.559   01 Jun 2027 05:25:04.813             1.254           627.000
         8   01 Jun 2027 05:25:32.079   01 Jun 2027 05:25:39.051             6.972          3486.000
         9   01 Jun 2027 06:56:08.220   01 Jun 2027 06:58:09.054           120.834         60417.000
        10   01 Jun 2027 06:58:38.138   01 Jun 2027 06:58:47.529             9.391          4695.500
        11   01 Jun 2027 07:01:50.051   01 Jun 2027 07:01:54.020             3.969          1984.500
        12   01 Jun 2027 07:02:46.881   01 Jun 2027 07:02:57.300            10.419          5209.500
        13   01 Jun 2027 07:04:37.057   01 Jun 2027 07:04:37.219             0.162            81.000
        14   01 Jun 2027 08:33:39.548   01 Jun 2027 08:36:24.606           165.058         82529.000
        15   01 Jun 2027 08:36:50.229   01 Jun 2027 08:36:53.600             3.371          1685.500
        16   01 Jun 2027 10:10:35.075   01 Jun 2027 10:12:29.639           114.564         57282.000
        17   01 Jun 2027 10:13:33.124   01 Jun 2027 10:13:39.214             6.090          3045.000
        18   01 Jun 2027 10:13:52.328   01 Jun 2027 10:14:14.561            22.233         11116.500
        19   01 Jun 2027 10:16:05.598   01 Jun 2027 10:16:16.838            11.240          5620.000
        20   01 Jun 2027 11:47:25.543   01 Jun 2027 11:49:26.354           120.811         60405.500
        21   01 Jun 2027 11:49:40.647   01 Jun 2027 11:49:49.496             8.849          4424.500
        22   02 Jun 2027 03:58:08.080   02 Jun 2027 03:58:47.912            39.832         19916.000
        23   02 Jun 2027 05:34:40.247   02 Jun 2027 05:37:32.973           172.726         86363.000
        24   02 Jun 2027 07:09:08.499   02 Jun 2027 07:13:03.992           235.493        117746.500
        25   02 Jun 2027 07:13:36.747   02 Jun 2027 07:13:47.129            10.382          5191.000
        26   02 Jun 2027 07:14:58.039   02 Jun 2027 07:14:58.039             0.000             0.000
        27   02 Jun 2027 07:16:32.222   02 Jun 2027 07:16:34.180             1.958           979.000
        28   02 Jun 2027 08:45:47.204   02 Jun 2027 08:49:25.544           218.340        108949.749
        29   02 Jun 2027 08:50:33.084   02 Jun 2027 08:50:37.533             4.449          2110.625
        30   02 Jun 2027 10:23:28.087   02 Jun 2027 10:23:59.071            30.984         12094.219
        31   02 Jun 2027 10:26:05.861   02 Jun 2027 10:26:08.652             2.791           508.969
        32   02 Jun 2027 10:26:10.432   02 Jun 2027 10:26:11.518             1.086            55.625
        33   02 Jun 2027 10:26:41.925   02 Jun 2027 10:26:43.782             1.857           786.094
        34   02 Jun 2027 10:26:56.503   02 Jun 2027 10:26:57.971             1.468           397.531
        35   02 Jun 2027 10:27:34.301   02 Jun 2027 10:27:42.078             7.777          1053.969
        36   02 Jun 2027 10:27:46.628   02 Jun 2027 10:27:47.399             0.771           142.187
        37   02 Jun 2027 11:59:28.088   02 Jun 2027 11:59:41.583            13.495          6705.063
        38   03 Jun 2027 04:10:18.226   03 Jun 2027 04:11:06.657            48.431         24215.500
        39   03 Jun 2027 04:12:58.691   03 Jun 2027 04:12:58.691             0.000             0.000
        40   03 Jun 2027 05:46:49.616   03 Jun 2027 05:49:27.862           158.246         79123.000
        41   03 Jun 2027 07:21:58.883   03 Jun 2027 07:23:48.321           109.438         54719.000
        42   03 Jun 2027 07:23:56.855   03 Jun 2027 07:24:00.940             4.085          1367.500
        43   03 Jun 2027 07:24:55.011   03 Jun 2027 07:25:00.101             5.090           205.125
        44   03 Jun 2027 07:25:46.587   03 Jun 2027 07:25:50.581             3.994           818.313
        45   03 Jun 2027 07:27:17.264   03 Jun 2027 07:27:19.132             1.868           592.500
        46   03 Jun 2027 07:27:55.376   03 Jun 2027 07:27:56.982             1.606           745.344
        47   03 Jun 2027 07:28:19.016   03 Jun 2027 07:28:19.016             0.000             0.000
        48   03 Jun 2027 07:28:25.429   03 Jun 2027 07:28:30.110             4.681           667.125
        49   03 Jun 2027 08:58:22.089   03 Jun 2027 08:58:34.084            11.995          5802.656
        50   03 Jun 2027 08:59:00.401   03 Jun 2027 08:59:01.676             1.275           175.156
        51   03 Jun 2027 09:00:16.128   03 Jun 2027 09:00:17.810             1.682           341.969
        52   03 Jun 2027 09:01:02.020   03 Jun 2027 09:01:04.710             2.690           392.406
        53   03 Jun 2027 09:01:31.370   03 Jun 2027 09:01:35.344             3.974           615.031
        54   03 Jun 2027 09:02:47.866   03 Jun 2027 09:02:49.126             1.260           288.375
        55   03 Jun 2027 09:03:32.799   03 Jun 2027 09:03:36.071             3.272           225.156
        56   03 Jun 2027 09:04:33.185   03 Jun 2027 09:04:34.602             1.417           708.500
        57   03 Jun 2027 10:35:36.367   03 Jun 2027 10:35:52.657            16.290          6722.344
        58   03 Jun 2027 10:37:22.497   03 Jun 2027 10:37:30.428             7.931           319.656
        59   03 Jun 2027 10:38:44.226   03 Jun 2027 10:38:44.598             0.372           156.500
        60   03 Jun 2027 10:39:10.710   03 Jun 2027 10:39:10.835             0.125             4.687
        61   03 Jun 2027 10:39:46.514   03 Jun 2027 10:39:48.629             2.115           696.156
        62   03 Jun 2027 10:40:05.234   03 Jun 2027 10:40:06.666             1.432           336.656
        63   04 Jun 2027 03:00:00.126   04 Jun 2027 03:00:08.051             7.925          3962.500
        64   04 Jun 2027 03:00:14.175   04 Jun 2027 03:00:16.947             2.772          1386.000
        65   04 Jun 2027 03:00:18.674   04 Jun 2027 03:00:30.916            12.242          6121.000
        66   04 Jun 2027 03:01:07.505   04 Jun 2027 03:01:30.914            23.409         11704.500
        67   04 Jun 2027 04:22:56.891   04 Jun 2027 04:23:29.799            32.908         16454.000
        68   04 Jun 2027 04:25:06.770   04 Jun 2027 04:25:23.848            17.078          8539.000
        69   04 Jun 2027 05:58:43.093   04 Jun 2027 06:01:17.178           154.085         77042.500
        70   04 Jun 2027 06:01:38.724   04 Jun 2027 06:01:53.448            14.724          7362.000
        71   04 Jun 2027 06:02:12.158   04 Jun 2027 06:02:21.190             9.032          4516.000
        72   04 Jun 2027 07:33:40.832   04 Jun 2027 07:34:24.266            43.434         17753.281
        73   04 Jun 2027 07:35:25.305   04 Jun 2027 07:35:28.845             3.540           292.094
        74   04 Jun 2027 07:36:09.113   04 Jun 2027 07:36:12.118             3.005          1254.281
        75   04 Jun 2027 07:36:40.934   04 Jun 2027 07:36:42.602             1.668           621.656
        76   04 Jun 2027 07:37:22.686   04 Jun 2027 07:37:27.335             4.649          1252.625
        77   04 Jun 2027 07:38:58.017   04 Jun 2027 07:39:04.596             6.579          2172.250
        78   04 Jun 2027 07:39:18.106   04 Jun 2027 07:39:19.482             1.376           122.563
        79   04 Jun 2027 07:39:42.842   04 Jun 2027 07:39:45.568             2.726           721.344
        80   04 Jun 2027 07:40:05.775   04 Jun 2027 07:40:07.176             1.401           631.469
        81   04 Jun 2027 09:09:53.765   04 Jun 2027 09:10:08.871            15.106          6033.219
        82   04 Jun 2027 09:14:39.316   04 Jun 2027 09:14:43.390             4.074          1808.719
        83   04 Jun 2027 09:15:08.561   04 Jun 2027 09:15:12.595             4.034           786.594
        84   04 Jun 2027 10:48:14.137   04 Jun 2027 10:48:26.216            12.079          5565.000
        85   04 Jun 2027 10:49:05.901   04 Jun 2027 10:49:08.656             2.755           201.031
        86   04 Jun 2027 10:50:24.471   04 Jun 2027 10:50:30.349             5.878           165.844
        87   04 Jun 2027 10:51:56.127   04 Jun 2027 10:52:02.434             6.307          1424.031
        88   05 Jun 2027 03:00:00.000   05 Jun 2027 03:00:21.028            21.028         10514.000
        89   05 Jun 2027 03:10:48.646   05 Jun 2027 03:11:56.490            67.844         33922.000
        90   05 Jun 2027 03:12:01.323   05 Jun 2027 03:12:01.478             0.155            77.500
        91   05 Jun 2027 03:12:45.061   05 Jun 2027 03:12:50.560             5.499          2749.500
        92   05 Jun 2027 03:13:25.758   05 Jun 2027 03:13:43.831            18.073          9036.500
        93   05 Jun 2027 04:33:45.628   05 Jun 2027 04:34:25.519            39.891         19945.500
        94   05 Jun 2027 04:34:32.772   05 Jun 2027 04:34:32.772             0.000             0.000
        95   05 Jun 2027 04:36:10.608   05 Jun 2027 04:36:18.339             7.731          3865.500
        96   05 Jun 2027 04:36:56.202   05 Jun 2027 04:37:09.492            13.290          6645.000
        97   05 Jun 2027 06:09:05.349   05 Jun 2027 06:09:30.250            24.901         12450.500
        98   05 Jun 2027 06:10:28.294   05 Jun 2027 06:12:25.774           117.480         58740.000
        99   05 Jun 2027 06:12:48.687   05 Jun 2027 06:12:48.687             0.000             0.000
       100   05 Jun 2027 06:13:09.468   05 Jun 2027 06:13:13.110             3.642          1821.000
       101   05 Jun 2027 06:13:59.610   05 Jun 2027 06:14:04.782             5.172          2133.094
       102   05 Jun 2027 06:14:40.146   05 Jun 2027 06:14:42.437             2.291          1073.062
       103   05 Jun 2027 07:45:13.807   05 Jun 2027 07:45:19.116             5.309          1607.781
       104   05 Jun 2027 07:46:05.551   05 Jun 2027 07:46:16.642            11.091           469.063
       105   05 Jun 2027 07:49:24.708   05 Jun 2027 07:49:28.985             4.277          1428.438
       106   05 Jun 2027 07:50:57.078   05 Jun 2027 07:51:04.566             7.488          2188.281
       107   05 Jun 2027 07:51:45.301   05 Jun 2027 07:51:53.873             8.572          1210.781
       108   05 Jun 2027 07:52:05.444   05 Jun 2027 07:52:10.407             4.963           143.188
       109   05 Jun 2027 07:52:44.891   05 Jun 2027 07:52:48.312             3.421           360.469
       110   05 Jun 2027 09:22:15.767   05 Jun 2027 09:22:28.315            12.548          5164.281
       111   05 Jun 2027 09:24:51.501   05 Jun 2027 09:24:56.986             5.485           400.844
       112   05 Jun 2027 09:26:17.435   05 Jun 2027 09:26:21.141             3.706           743.500
       113   05 Jun 2027 09:26:47.375   05 Jun 2027 09:26:51.859             4.484           606.938
       114   05 Jun 2027 09:27:19.591   05 Jun 2027 09:27:25.625             6.034           687.437
       115   05 Jun 2027 09:28:19.280   05 Jun 2027 09:28:23.385             4.105          1231.125
       116   05 Jun 2027 11:00:15.586   05 Jun 2027 11:00:29.183            13.597          6257.687
       117   05 Jun 2027 11:02:00.289   05 Jun 2027 11:02:08.606             8.317          1812.625
       118   05 Jun 2027 11:02:25.121   05 Jun 2027 11:02:26.968             1.847           217.250
       119   05 Jun 2027 11:02:46.289   05 Jun 2027 11:02:46.478             0.189            88.563
       120   05 Jun 2027 11:03:11.869   05 Jun 2027 11:03:14.108             2.239           793.469
       121   05 Jun 2027 11:03:43.190   05 Jun 2027 11:03:44.658             1.468            58.344
       122   05 Jun 2027 11:04:05.910   05 Jun 2027 11:04:08.301             2.391           484.687
       123   06 Jun 2027 03:11:07.826   06 Jun 2027 03:11:15.410             7.584          3792.000
       124   06 Jun 2027 03:12:20.593   06 Jun 2027 03:12:38.440            17.847          8923.500
       125   06 Jun 2027 03:22:50.144   06 Jun 2027 03:24:10.121            79.977         39988.500
       126   06 Jun 2027 04:45:03.151   06 Jun 2027 04:46:16.130            72.979         36489.500
       127   06 Jun 2027 04:47:05.212   06 Jun 2027 04:47:11.943             6.731          3365.500
       128   06 Jun 2027 04:47:44.819   06 Jun 2027 04:47:46.210             1.391           695.500
       129   06 Jun 2027 04:48:09.783   06 Jun 2027 04:48:40.425            30.642         15321.000
       130   06 Jun 2027 06:20:09.999   06 Jun 2027 06:21:39.250            89.251         44625.500
       131   06 Jun 2027 06:22:11.969   06 Jun 2027 06:22:22.989            11.020          4049.031
       132   06 Jun 2027 06:23:16.939   06 Jun 2027 06:23:20.651             3.712          1245.250
       133   06 Jun 2027 06:23:23.482   06 Jun 2027 06:23:23.482             0.000             0.000
       134   06 Jun 2027 06:23:51.908   06 Jun 2027 06:23:55.086             3.178           937.969
       135   06 Jun 2027 06:24:11.723   06 Jun 2027 06:24:11.723             0.000             0.000
       136   06 Jun 2027 06:25:10.049   06 Jun 2027 06:25:15.335             5.286          2253.719
       137   06 Jun 2027 06:25:49.026   06 Jun 2027 06:25:49.026             0.000             0.000
       138   06 Jun 2027 06:26:35.186   06 Jun 2027 06:26:42.865             7.679          2495.344
       139   06 Jun 2027 06:27:04.534   06 Jun 2027 06:27:08.944             4.410           677.156
       140   06 Jun 2027 06:28:18.501   06 Jun 2027 06:28:21.629             3.128          1564.000
       141   06 Jun 2027 07:57:24.317   06 Jun 2027 07:57:29.529             5.212           219.750
       142   06 Jun 2027 07:58:06.701   06 Jun 2027 07:58:08.632             1.931           837.875
       143   06 Jun 2027 08:00:34.230   06 Jun 2027 08:00:35.355             1.125            79.063
       144   06 Jun 2027 08:01:26.445   06 Jun 2027 08:01:32.179             5.734          1361.687
       145   06 Jun 2027 08:02:06.974   06 Jun 2027 08:02:14.213             7.239           547.750
       146   06 Jun 2027 08:03:19.378   06 Jun 2027 08:03:26.070             6.692          1933.281
       147   06 Jun 2027 08:03:27.020   06 Jun 2027 08:03:27.675             0.655            29.687
       148   06 Jun 2027 08:04:48.926   06 Jun 2027 08:04:49.370             0.444           222.000
       149   06 Jun 2027 09:34:19.608   06 Jun 2027 09:34:35.452            15.844          6029.344
       150   06 Jun 2027 09:38:09.766   06 Jun 2027 09:38:12.196             2.430           509.125
       151   06 Jun 2027 09:38:50.586   06 Jun 2027 09:38:53.571             2.985           646.688
       152   06 Jun 2027 09:39:21.351   06 Jun 2027 09:39:40.732            19.381           627.937
       153   06 Jun 2027 11:12:14.807   06 Jun 2027 11:12:29.406            14.599          6005.719
       154   06 Jun 2027 11:12:41.809   06 Jun 2027 11:12:51.633             9.824            10.375
       155   06 Jun 2027 11:13:24.130   06 Jun 2027 11:13:30.132             6.002           707.719
       156   06 Jun 2027 11:13:59.140   06 Jun 2027 11:14:01.576             2.436           820.344
       157   06 Jun 2027 11:14:30.361   06 Jun 2027 11:14:37.468             7.107           414.656
       158   06 Jun 2027 11:15:59.876   06 Jun 2027 11:16:02.338             2.462          1026.125
       159   07 Jun 2027 03:22:36.221   07 Jun 2027 03:23:15.704            39.483         19741.500
       160   07 Jun 2027 03:34:46.895   07 Jun 2027 03:35:25.994            39.099         19549.500
       161   07 Jun 2027 04:56:48.699   07 Jun 2027 04:58:09.439            80.740         40370.000
       162   07 Jun 2027 04:58:51.445   07 Jun 2027 04:59:56.573            65.128         32564.000
       163   07 Jun 2027 05:00:09.481   07 Jun 2027 05:00:15.005             5.524          2762.000
       164   07 Jun 2027 05:01:54.238   07 Jun 2027 05:02:07.354            13.116          6558.000
       165   07 Jun 2027 05:02:14.679   07 Jun 2027 05:02:14.679             0.000             0.000
       166   07 Jun 2027 06:31:39.395   07 Jun 2027 06:32:48.978            69.583         34605.750
       167   07 Jun 2027 06:33:37.121   07 Jun 2027 06:33:40.932             3.811          1433.062
       168   07 Jun 2027 06:34:10.154   07 Jun 2027 06:34:13.926             3.772           870.750
       169   07 Jun 2027 06:35:40.899   07 Jun 2027 06:35:45.602             4.703          1868.781
       170   07 Jun 2027 06:37:10.148   07 Jun 2027 06:37:20.842            10.694          2469.156
       171   07 Jun 2027 06:38:18.848   07 Jun 2027 06:38:24.803             5.955          1635.187
       172   07 Jun 2027 06:38:56.438   07 Jun 2027 06:38:56.438             0.000             0.000
       173   07 Jun 2027 06:39:10.722   07 Jun 2027 06:39:12.802             2.080           985.125
       174   07 Jun 2027 06:39:21.968   07 Jun 2027 06:39:26.577             4.609           252.219
       175   07 Jun 2027 08:09:25.590   07 Jun 2027 08:09:31.285             5.695          2345.094
       176   07 Jun 2027 08:11:15.780   07 Jun 2027 08:11:28.291            12.511          2044.219
       177   07 Jun 2027 08:13:36.979   07 Jun 2027 08:13:42.621             5.642          1393.469
       178   07 Jun 2027 08:15:26.769   07 Jun 2027 08:15:31.168             4.399          1064.438
       179   07 Jun 2027 08:16:48.610   07 Jun 2027 08:16:51.158             2.548          1274.000
       180   07 Jun 2027 09:46:11.231   07 Jun 2027 09:46:26.270            15.039          5195.625
       181   07 Jun 2027 09:47:35.971   07 Jun 2027 09:47:44.015             8.044           712.562
       182   07 Jun 2027 09:49:52.236   07 Jun 2027 09:49:56.067             3.831          1577.687
       183   07 Jun 2027 09:50:24.451   07 Jun 2027 09:50:25.185             0.734           286.219
       184   07 Jun 2027 09:50:31.756   07 Jun 2027 09:50:32.596             0.840            87.250
       185   07 Jun 2027 09:50:56.941   07 Jun 2027 09:50:57.824             0.883           261.875
       186   07 Jun 2027 09:51:03.912   07 Jun 2027 09:51:04.295             0.383           125.688
       187   07 Jun 2027 09:51:26.410   07 Jun 2027 09:51:29.982             3.572           552.125
       188   07 Jun 2027 09:52:13.988   07 Jun 2027 09:52:19.513             5.525          1093.594
       189   07 Jun 2027 11:24:16.249   07 Jun 2027 11:24:31.678            15.429          6651.094
       190   07 Jun 2027 11:26:01.219   07 Jun 2027 11:26:03.833             2.614           862.563
       191   07 Jun 2027 11:26:35.084   07 Jun 2027 11:26:36.366             1.282           625.844
       192   07 Jun 2027 11:27:37.127   07 Jun 2027 11:27:42.686             5.559          1606.375
       193   07 Jun 2027 11:28:01.909   07 Jun 2027 11:28:04.338             2.429           556.094
       194   08 Jun 2027 03:34:38.083   08 Jun 2027 03:34:43.393             5.310          2655.000
       195   08 Jun 2027 03:35:16.337   08 Jun 2027 03:35:20.401             4.064          2032.000
       196   08 Jun 2027 03:35:35.306   08 Jun 2027 03:35:49.115            13.809          6904.500
       197   08 Jun 2027 05:10:35.673   08 Jun 2027 05:14:09.684           214.011        107005.500
       198   08 Jun 2027 06:44:25.193   08 Jun 2027 06:45:33.739            68.546         32635.656
       199   08 Jun 2027 06:46:22.674   08 Jun 2027 06:46:27.080             4.406           391.094
       200   08 Jun 2027 06:47:40.857   08 Jun 2027 06:47:44.307             3.450          1565.313
       201   08 Jun 2027 06:48:35.893   08 Jun 2027 06:48:39.582             3.689          1346.375
       202   08 Jun 2027 06:49:51.797   08 Jun 2027 06:50:00.435             8.638          1705.344
       203   08 Jun 2027 06:50:11.485   08 Jun 2027 06:50:14.755             3.270           345.313
       204   08 Jun 2027 06:50:34.445   08 Jun 2027 06:50:36.003             1.558           615.313
       205   08 Jun 2027 06:51:02.933   08 Jun 2027 06:51:04.689             1.756           841.563
       206   08 Jun 2027 06:51:25.282   08 Jun 2027 06:51:27.684             2.402           408.750
       207   08 Jun 2027 06:52:22.142   08 Jun 2027 06:52:25.615             3.473          1449.312
       208   08 Jun 2027 08:21:28.989   08 Jun 2027 08:21:30.893             1.904           820.750
       209   08 Jun 2027 08:23:14.408   08 Jun 2027 08:23:18.299             3.891          1800.406
       210   08 Jun 2027 08:24:26.782   08 Jun 2027 08:24:30.790             4.008          1530.687
       211   08 Jun 2027 08:26:03.454   08 Jun 2027 08:26:06.846             3.392          1028.656
       212   08 Jun 2027 08:26:37.829   08 Jun 2027 08:26:40.248             2.419           946.344
       213   08 Jun 2027 08:27:22.043   08 Jun 2027 08:27:24.133             2.090           166.437
       214   08 Jun 2027 08:27:47.059   08 Jun 2027 08:27:50.784             3.725           389.688
       215   08 Jun 2027 08:28:28.095   08 Jun 2027 08:28:30.647             2.552           846.813
       216   08 Jun 2027 09:58:24.032   08 Jun 2027 09:58:39.416            15.384          6921.312
       217   08 Jun 2027 10:01:22.877   08 Jun 2027 10:01:28.763             5.886           644.062
       218   08 Jun 2027 10:02:37.381   08 Jun 2027 10:02:41.073             3.692          1065.281
       219   08 Jun 2027 10:03:03.062   08 Jun 2027 10:03:04.971             1.909           510.344
       220   08 Jun 2027 10:03:18.739   08 Jun 2027 10:03:19.904             1.165           430.250
       221   08 Jun 2027 10:03:25.154   08 Jun 2027 10:03:25.537             0.383           126.812
       222   08 Jun 2027 10:04:23.727   08 Jun 2027 10:04:27.945             4.218          1525.625
       223   08 Jun 2027 11:35:29.770   08 Jun 2027 11:35:46.278            16.508          7440.531
       224   08 Jun 2027 11:36:37.950   08 Jun 2027 11:36:46.883             8.933           170.938
       225   08 Jun 2027 11:38:47.494   08 Jun 2027 11:38:51.205             3.711           373.187
       226   08 Jun 2027 11:39:17.097   08 Jun 2027 11:39:23.674             6.577           322.969
       227   08 Jun 2027 11:40:05.995   08 Jun 2027 11:40:07.459             1.464            61.656
       228   08 Jun 2027 11:40:22.195   08 Jun 2027 11:40:22.426             0.231           115.500
       229   09 Jun 2027 03:46:32.074   09 Jun 2027 03:46:52.604            20.530         10265.000
       230   09 Jun 2027 05:22:54.481   09 Jun 2027 05:26:21.487           207.006        103503.000
       231   09 Jun 2027 06:56:23.317   09 Jun 2027 06:57:47.127            83.810         41274.656
       232   09 Jun 2027 06:58:40.895   09 Jun 2027 06:58:42.551             1.656            83.656
       233   09 Jun 2027 06:59:02.350   09 Jun 2027 06:59:06.403             4.053           576.250
       234   09 Jun 2027 06:59:33.259   09 Jun 2027 06:59:33.859             0.600           151.969
       235   09 Jun 2027 07:00:36.862   09 Jun 2027 07:00:43.644             6.782          1767.719
       236   09 Jun 2027 07:02:31.628   09 Jun 2027 07:02:38.713             7.085          3256.406
       237   09 Jun 2027 07:03:17.613   09 Jun 2027 07:03:20.558             2.945          1056.906
       238   09 Jun 2027 07:03:44.591   09 Jun 2027 07:03:49.542             4.951           751.031
       239   09 Jun 2027 07:04:37.686   09 Jun 2027 07:04:42.759             5.073          1317.937
       240   09 Jun 2027 08:33:55.375   09 Jun 2027 08:34:04.670             9.295          2868.656
       241   09 Jun 2027 08:35:46.985   09 Jun 2027 08:35:48.216             1.231           420.031
       242   09 Jun 2027 08:36:42.517   09 Jun 2027 08:36:45.129             2.612          1278.219
       243   09 Jun 2027 08:37:07.988   09 Jun 2027 08:37:10.808             2.820           254.219
       244   09 Jun 2027 08:39:04.065   09 Jun 2027 08:39:09.252             5.187          1124.281
       245   09 Jun 2027 08:39:59.175   09 Jun 2027 08:40:02.719             3.544          1424.969
       246   09 Jun 2027 10:10:50.311   09 Jun 2027 10:11:05.147            14.836          6403.875
       247   09 Jun 2027 10:14:30.525   09 Jun 2027 10:14:31.727             1.202            49.875
       248   09 Jun 2027 10:14:33.197   09 Jun 2027 10:14:35.289             2.092            45.937
       249   09 Jun 2027 10:14:44.721   09 Jun 2027 10:14:45.987             1.266           255.813
       250   09 Jun 2027 10:14:55.410   09 Jun 2027 10:14:57.666             2.256           257.875
       251   09 Jun 2027 10:15:18.597   09 Jun 2027 10:15:20.157             1.560           654.094
       252   09 Jun 2027 10:15:42.017   09 Jun 2027 10:15:44.368             2.351           397.219
       253   09 Jun 2027 10:16:14.492   09 Jun 2027 10:16:16.560             2.068           858.094
       254   09 Jun 2027 10:16:31.314   09 Jun 2027 10:16:32.453             1.139           458.656
       255   09 Jun 2027 11:47:41.045   09 Jun 2027 11:47:54.349            13.304          6464.969
       256   09 Jun 2027 11:50:43.061   09 Jun 2027 11:50:46.593             3.532          1115.844
       257   09 Jun 2027 11:51:13.892   09 Jun 2027 11:51:16.500             2.608           853.094
       258   09 Jun 2027 11:52:01.291   09 Jun 2027 11:52:06.190             4.899           373.688
       259   10 Jun 2027 03:58:22.347   10 Jun 2027 03:59:01.408            39.061         19530.500
       260   10 Jun 2027 04:00:41.178   10 Jun 2027 04:00:41.178             0.000             0.000
       261   10 Jun 2027 05:34:56.342   10 Jun 2027 05:37:47.618           171.276         85638.000
       262   10 Jun 2027 07:09:25.493   10 Jun 2027 07:11:11.603           106.110         53041.000
       263   10 Jun 2027 07:11:30.043   10 Jun 2027 07:11:34.984             4.941           307.062
       264   10 Jun 2027 07:13:06.631   10 Jun 2027 07:13:14.168             7.537          2812.719
       265   10 Jun 2027 07:13:34.969   10 Jun 2027 07:13:38.356             3.387           290.344
       266   10 Jun 2027 07:14:31.298   10 Jun 2027 07:14:34.274             2.976          1176.531
       267   10 Jun 2027 07:15:02.627   10 Jun 2027 07:15:04.958             2.331           742.875
       268   10 Jun 2027 07:15:31.813   10 Jun 2027 07:15:31.813             0.000             0.000
       269   10 Jun 2027 07:15:52.596   10 Jun 2027 07:15:55.652             3.056          1204.969
       270   10 Jun 2027 07:16:38.749   10 Jun 2027 07:16:41.394             2.645           739.188
       271   10 Jun 2027 07:16:46.169   10 Jun 2027 07:16:46.539             0.370           101.531
       272   10 Jun 2027 08:46:02.567   10 Jun 2027 08:46:13.720            11.153          5165.875
       273   10 Jun 2027 08:48:35.419   10 Jun 2027 08:48:39.494             4.075           496.531
       274   10 Jun 2027 08:49:02.439   10 Jun 2027 08:49:07.099             4.660           538.000
       275   10 Jun 2027 08:51:44.394   10 Jun 2027 08:51:53.438             9.044          2568.531
       276   10 Jun 2027 08:52:03.194   10 Jun 2027 08:52:04.834             1.640           304.875
       277   10 Jun 2027 08:52:30.291   10 Jun 2027 08:52:32.388             2.097           469.062
       278   10 Jun 2027 10:23:44.543   10 Jun 2027 10:23:57.504            12.961          6305.625
       279   10 Jun 2027 10:25:13.295   10 Jun 2027 10:25:17.038             3.743          1124.500
       280   10 Jun 2027 10:26:23.276   10 Jun 2027 10:26:25.431             2.155           608.094
       281   10 Jun 2027 10:26:25.560   10 Jun 2027 10:26:26.754             1.194             4.031
       282   10 Jun 2027 10:26:58.496   10 Jun 2027 10:27:01.988             3.492           174.094
       283   10 Jun 2027 10:27:52.891   10 Jun 2027 10:28:01.676             8.785          1152.719
       284   10 Jun 2027 10:28:02.205   10 Jun 2027 10:28:03.025             0.820            16.531
       285   10 Jun 2027 11:59:43.364   10 Jun 2027 11:59:59.147            15.783          6640.750
       286   11 Jun 2027 04:10:33.331   11 Jun 2027 04:11:23.115            49.784         24892.000
       287   11 Jun 2027 05:47:05.011   11 Jun 2027 05:49:42.318           157.307         78653.500
       288   11 Jun 2027 07:22:14.127   11 Jun 2027 07:24:01.230           107.103         52995.344
       289   11 Jun 2027 07:24:13.335   11 Jun 2027 07:24:15.724             2.389           280.125
       290   11 Jun 2027 07:25:11.345   11 Jun 2027 07:25:15.148             3.803           237.187
       291   11 Jun 2027 07:26:03.209   11 Jun 2027 07:26:05.273             2.064           805.094
       292   11 Jun 2027 07:27:34.974   11 Jun 2027 07:27:36.345             1.371           646.812
       293   11 Jun 2027 07:28:10.812   11 Jun 2027 07:28:13.501             2.689           717.469
       294   11 Jun 2027 07:28:41.918   11 Jun 2027 07:28:45.980             4.062           726.781
       295   11 Jun 2027 08:58:37.793   11 Jun 2027 08:58:50.299            12.506          5211.969
       296   11 Jun 2027 08:59:15.336   11 Jun 2027 08:59:19.158             3.822           215.969
       297   11 Jun 2027 09:03:41.555   11 Jun 2027 09:03:47.180             5.625          2391.625
       298   11 Jun 2027 09:04:37.593   11 Jun 2027 09:04:49.655            12.062          1555.875
       299   11 Jun 2027 10:35:51.589   11 Jun 2027 10:36:04.494            12.905          6137.344
       300   11 Jun 2027 10:38:30.298   11 Jun 2027 10:38:35.152             4.854          1643.344
       301   11 Jun 2027 10:39:45.747   11 Jun 2027 10:39:49.583             3.836          1301.531
       302   11 Jun 2027 10:40:26.195   11 Jun 2027 10:40:29.135             2.940           665.094
       303   11 Jun 2027 10:40:29.529   11 Jun 2027 10:40:30.257             0.728            12.313
       304   12 Jun 2027 03:00:15.212   12 Jun 2027 03:00:24.639             9.427          4713.500
       305   12 Jun 2027 03:00:32.318   12 Jun 2027 03:00:45.961            13.643          6821.500
       306   12 Jun 2027 03:01:22.416   12 Jun 2027 03:01:46.598            24.182         12091.000
       307   12 Jun 2027 04:23:09.776   12 Jun 2027 04:23:59.399            49.623         24811.500
       308   12 Jun 2027 05:58:58.069   12 Jun 2027 06:01:46.483           168.414         84207.000
       309   12 Jun 2027 06:02:26.848   12 Jun 2027 06:02:26.935             0.087            43.500
       310   12 Jun 2027 07:33:55.602   12 Jun 2027 07:34:47.295            51.693         25166.281
       311   12 Jun 2027 07:35:45.326   12 Jun 2027 07:35:46.708             1.382            63.250
       312   12 Jun 2027 07:38:05.278   12 Jun 2027 07:38:07.049             1.771           799.125
       313   12 Jun 2027 07:38:13.725   12 Jun 2027 07:38:14.172             0.447            21.531
       314   12 Jun 2027 07:38:39.208   12 Jun 2027 07:38:44.518             5.310           378.875
       315   12 Jun 2027 07:39:23.661   12 Jun 2027 07:39:25.967             2.306           576.469
       316   12 Jun 2027 07:39:39.099   12 Jun 2027 07:39:46.219             7.120           144.875
       317   12 Jun 2027 07:40:54.218   12 Jun 2027 07:40:58.558             4.340          1751.719
       318   12 Jun 2027 09:10:09.541   12 Jun 2027 09:10:24.234            14.693          6150.969
       319   12 Jun 2027 09:12:12.708   12 Jun 2027 09:12:14.048             1.340            83.688
       320   12 Jun 2027 09:13:06.388   12 Jun 2027 09:13:07.912             1.524           638.406
       321   12 Jun 2027 09:14:53.965   12 Jun 2027 09:14:59.578             5.613          1784.750
       322   12 Jun 2027 09:15:23.772   12 Jun 2027 09:15:27.326             3.554           756.062
       323   12 Jun 2027 09:15:37.457   12 Jun 2027 09:15:38.261             0.804           154.031
       324   12 Jun 2027 09:16:10.717   12 Jun 2027 09:16:14.156             3.439           910.187
       325   12 Jun 2027 10:48:29.588   12 Jun 2027 10:48:42.711            13.123          5719.875
       326   12 Jun 2027 10:49:14.869   12 Jun 2027 10:49:17.204             2.335          1004.937
       327   12 Jun 2027 10:50:33.849   12 Jun 2027 10:50:39.931             6.082          2256.094
       328   12 Jun 2027 10:52:12.494   12 Jun 2027 10:52:17.070             4.576          1460.313
       329   13 Jun 2027 03:00:00.000   13 Jun 2027 03:00:09.699             9.699          4849.500
       330   13 Jun 2027 03:11:03.756   13 Jun 2027 03:13:07.858           124.102         62051.000
       331   13 Jun 2027 03:13:40.510   13 Jun 2027 03:13:50.712            10.202          5101.000
       332   13 Jun 2027 04:34:00.470   13 Jun 2027 04:34:21.636            21.166         10583.000
       333   13 Jun 2027 04:34:24.426   13 Jun 2027 04:34:25.161             0.735           367.500
       334   13 Jun 2027 04:36:33.241   13 Jun 2027 04:36:52.275            19.034          9517.000
       335   13 Jun 2027 04:37:10.672   13 Jun 2027 04:37:10.672             0.000             0.000
       336   13 Jun 2027 04:37:25.024   13 Jun 2027 04:37:47.537            22.513         11256.500
       337   13 Jun 2027 06:09:20.277   13 Jun 2027 06:09:46.190            25.913         12956.500
       338   13 Jun 2027 06:10:42.858   13 Jun 2027 06:12:10.824            87.966         43983.000
       339   13 Jun 2027 06:12:40.922   13 Jun 2027 06:12:51.399            10.477          4153.906
       340   13 Jun 2027 06:12:58.887   13 Jun 2027 06:12:58.887             0.000             0.000
       341   13 Jun 2027 06:13:28.418   13 Jun 2027 06:13:37.299             8.881          1148.594
       342   13 Jun 2027 06:14:21.163   13 Jun 2027 06:14:24.397             3.234          1365.813
       343   13 Jun 2027 07:45:28.611   13 Jun 2027 07:45:34.340             5.729          1808.938
       344   13 Jun 2027 07:46:22.424   13 Jun 2027 07:46:31.131             8.707           547.063
       345   13 Jun 2027 07:47:39.104   13 Jun 2027 07:47:41.978             2.874           213.156
       346   13 Jun 2027 07:49:41.711   13 Jun 2027 07:49:45.212             3.501          1484.594
       347   13 Jun 2027 07:50:09.883   13 Jun 2027 07:50:12.480             2.597           191.781
       348   13 Jun 2027 07:50:22.719   13 Jun 2027 07:50:31.584             8.865           265.375
       349   13 Jun 2027 07:51:09.256   13 Jun 2027 07:51:10.136             0.880           391.219
       350   13 Jun 2027 07:51:34.036   13 Jun 2027 07:51:37.011             2.975           567.906
       351   13 Jun 2027 07:51:42.789   13 Jun 2027 07:51:45.513             2.724            57.094
       352   13 Jun 2027 07:52:26.356   13 Jun 2027 07:52:29.557             3.201           824.750
       353   13 Jun 2027 07:53:00.217   13 Jun 2027 07:53:03.229             3.012           373.281
       354   13 Jun 2027 09:22:31.140   13 Jun 2027 09:22:42.409            11.269          5298.000
       355   13 Jun 2027 09:25:06.936   13 Jun 2027 09:25:09.845             2.909           334.688
       356   13 Jun 2027 09:26:32.973   13 Jun 2027 09:26:37.226             4.253           697.562
       357   13 Jun 2027 09:27:03.033   13 Jun 2027 09:27:04.580             1.547           640.375
       358   13 Jun 2027 09:27:35.295   13 Jun 2027 09:27:37.264             1.969           829.563
       359   13 Jun 2027 09:28:35.734   13 Jun 2027 09:28:38.815             3.081          1288.250
       360   13 Jun 2027 11:00:30.753   13 Jun 2027 11:00:43.904            13.151          5430.781
       361   13 Jun 2027 11:02:14.621   13 Jun 2027 11:02:18.934             4.313          1764.281
       362   13 Jun 2027 11:02:42.388   13 Jun 2027 11:02:44.250             1.862           275.406
       363   13 Jun 2027 11:03:58.991   13 Jun 2027 11:03:59.908             0.917            61.094
       364   13 Jun 2027 11:04:14.306   13 Jun 2027 11:04:16.043             1.737           449.938
