uniorb/output/strategy_4/Camera/Camera_KinoSat_111607.txt

KinoSat_111607
-------------------------
    Access    *     Start Time (UTCG)     *     Stop Time (UTCG)  *   Duration (s) *   Data (Mbytes)
         1   01 Jun 2027 03:00:00.000   01 Jun 2027 03:00:00.511             0.511           255.500
         2   01 Jun 2027 04:32:47.092   01 Jun 2027 04:35:06.428           139.336         69668.000
         3   01 Jun 2027 04:35:20.959   01 Jun 2027 04:35:20.959             0.000             0.000
         4   01 Jun 2027 04:36:04.842   01 Jun 2027 04:36:04.842             0.000             0.000
         5   01 Jun 2027 04:36:34.856   01 Jun 2027 04:36:40.207             5.351          2675.500
         6   01 Jun 2027 04:37:26.968   01 Jun 2027 04:37:58.431            31.463         15731.500
         7   01 Jun 2027 04:39:45.345   01 Jun 2027 04:39:49.046             3.701          1850.500
         8   01 Jun 2027 05:57:08.449   01 Jun 2027 05:58:55.576           107.127         53563.500
         9   01 Jun 2027 06:09:21.590   01 Jun 2027 06:09:43.925            22.335         11167.500
        10   01 Jun 2027 07:31:15.336   01 Jun 2027 07:32:28.955            73.619         36809.500
        11   01 Jun 2027 07:33:18.623   01 Jun 2027 07:33:59.792            41.169         20584.500
        12   01 Jun 2027 07:34:13.553   01 Jun 2027 07:34:44.993            31.440         15720.000
        13   01 Jun 2027 09:06:03.413   01 Jun 2027 09:08:32.210           148.797         74398.500
        14   01 Jun 2027 09:14:58.932   01 Jun 2027 09:15:00.516             1.584           792.000
        15   01 Jun 2027 10:43:54.490   01 Jun 2027 10:45:32.332            97.842         48921.000
        16   01 Jun 2027 10:46:05.147   01 Jun 2027 10:46:55.714            50.567         25283.500
        17   01 Jun 2027 10:49:51.985   01 Jun 2027 10:50:35.956            43.971         21985.500
        18   02 Jun 2027 03:06:43.297   02 Jun 2027 03:07:02.969            19.672          9836.000
        19   02 Jun 2027 03:07:08.288   02 Jun 2027 03:08:07.468            59.180         29590.000
        20   02 Jun 2027 03:08:53.423   02 Jun 2027 03:08:56.347             2.924          1462.000
        21   02 Jun 2027 04:45:10.588   02 Jun 2027 04:48:54.374           223.786        111893.000
        22   02 Jun 2027 04:48:59.062   02 Jun 2027 04:50:02.182            63.120         31560.000
        23   02 Jun 2027 06:09:06.437   02 Jun 2027 06:09:39.978            33.541         16770.500
        24   02 Jun 2027 06:11:19.772   02 Jun 2027 06:11:19.772             0.000             0.000
        25   02 Jun 2027 07:45:03.757   02 Jun 2027 07:48:12.388           188.631         94315.500
        26   02 Jun 2027 09:18:52.283   02 Jun 2027 09:20:49.102           116.819         58409.500
        27   02 Jun 2027 09:21:06.528   02 Jun 2027 09:21:10.769             4.241          2120.500
        28   02 Jun 2027 09:21:25.713   02 Jun 2027 09:21:26.985             1.272           494.406
        29   02 Jun 2027 09:22:29.731   02 Jun 2027 09:22:29.731             0.000             0.000
        30   02 Jun 2027 09:23:47.296   02 Jun 2027 09:23:47.296             0.000             0.000
        31   02 Jun 2027 09:25:48.345   02 Jun 2027 09:26:10.524            22.179          7374.375
        32   02 Jun 2027 10:56:01.865   02 Jun 2027 10:56:18.668            16.803          6199.844
        33   02 Jun 2027 10:58:41.032   02 Jun 2027 10:58:47.381             6.349          2996.062
        34   02 Jun 2027 10:58:47.855   02 Jun 2027 10:58:49.287             1.432            14.813
        35   02 Jun 2027 11:00:17.686   02 Jun 2027 11:00:17.734             0.048            24.000
        36   02 Jun 2027 11:01:04.313   02 Jun 2027 11:01:10.562             6.249          2787.813
        37   02 Jun 2027 11:01:14.060   02 Jun 2027 11:01:14.783             0.723            20.687
        38   02 Jun 2027 11:01:27.803   02 Jun 2027 11:01:28.922             1.119           406.875
        39   02 Jun 2027 11:02:35.608   02 Jun 2027 11:02:40.320             4.712           952.125
        40   02 Jun 2027 11:02:45.502   02 Jun 2027 11:02:48.004             2.502            12.187
        41   02 Jun 2027 11:02:53.159   02 Jun 2027 11:02:55.224             2.065           161.094
        42   03 Jun 2027 03:19:28.455   03 Jun 2027 03:19:48.453            19.998          9999.000
        43   03 Jun 2027 03:20:05.394   03 Jun 2027 03:20:56.178            50.784         25392.000
        44   03 Jun 2027 03:20:58.037   03 Jun 2027 03:22:31.195            93.158         46579.000
        45   03 Jun 2027 03:23:43.074   03 Jun 2027 03:23:59.461            16.387          8193.500
        46   03 Jun 2027 03:24:42.547   03 Jun 2027 03:24:58.609            16.062          8031.000
        47   03 Jun 2027 04:57:36.591   03 Jun 2027 04:59:22.994           106.403         52706.468
        48   03 Jun 2027 04:59:44.924   03 Jun 2027 04:59:48.858             3.934           451.344
        49   03 Jun 2027 05:00:24.092   03 Jun 2027 05:00:32.192             8.100           213.563
        50   03 Jun 2027 05:01:31.924   03 Jun 2027 05:01:34.074             2.150           748.844
        51   03 Jun 2027 06:20:59.241   03 Jun 2027 06:21:12.804            13.563          6481.125
        52   03 Jun 2027 06:22:15.241   03 Jun 2027 06:22:20.925             5.684          1367.875
        53   03 Jun 2027 06:22:36.163   03 Jun 2027 06:22:37.283             1.120           476.188
        54   03 Jun 2027 07:57:21.554   03 Jun 2027 07:57:30.004             8.450          3862.438
        55   03 Jun 2027 07:57:51.846   03 Jun 2027 07:57:52.330             0.484            65.094
        56   03 Jun 2027 07:58:35.735   03 Jun 2027 07:58:41.086             5.351          1353.906
        57   03 Jun 2027 07:59:16.021   03 Jun 2027 07:59:18.934             2.913          1048.969
        58   03 Jun 2027 07:59:57.409   03 Jun 2027 07:59:59.466             2.057          1014.656
        59   03 Jun 2027 09:31:13.990   03 Jun 2027 09:31:21.451             7.461          2846.281
        60   03 Jun 2027 09:33:19.869   03 Jun 2027 09:33:23.548             3.679           804.531
        61   03 Jun 2027 09:33:54.563   03 Jun 2027 09:33:59.369             4.806           962.406
        62   03 Jun 2027 09:35:46.169   03 Jun 2027 09:35:50.916             4.747          2216.687
        63   03 Jun 2027 09:37:32.293   03 Jun 2027 09:37:40.664             8.371          2788.625
        64   03 Jun 2027 09:38:00.032   03 Jun 2027 09:38:02.565             2.533           324.969
        65   03 Jun 2027 09:38:47.710   03 Jun 2027 09:38:54.302             6.592          1117.469
        66   03 Jun 2027 11:08:28.557   03 Jun 2027 11:08:41.661            13.104          5677.750
        67   03 Jun 2027 11:09:34.154   03 Jun 2027 11:09:37.189             3.035           799.062
        68   03 Jun 2027 11:11:21.262   03 Jun 2027 11:11:28.891             7.629          1338.688
        69   03 Jun 2027 11:12:18.972   03 Jun 2027 11:12:24.453             5.481          1565.031
        70   03 Jun 2027 11:13:11.960   03 Jun 2027 11:13:18.030             6.070          1430.375
        71   03 Jun 2027 11:13:45.438   03 Jun 2027 11:13:47.913             2.475           772.250
        72   03 Jun 2027 11:14:36.003   03 Jun 2027 11:14:37.328             1.325           328.625
        73   03 Jun 2027 11:14:50.252   03 Jun 2027 11:14:51.115             0.863            28.031
        74   04 Jun 2027 03:31:15.148   04 Jun 2027 03:31:16.561             1.413           706.500
        75   04 Jun 2027 03:31:37.244   04 Jun 2027 03:32:27.722            50.478         25239.000
        76   04 Jun 2027 03:32:34.057   04 Jun 2027 03:34:53.991           139.934         69967.000
        77   04 Jun 2027 03:35:16.812   04 Jun 2027 03:35:27.250            10.438          5219.000
        78   04 Jun 2027 03:36:31.013   04 Jun 2027 03:36:45.918            14.905          7452.500
        79   04 Jun 2027 05:09:54.440   04 Jun 2027 05:11:18.127            83.687         41804.500
        80   04 Jun 2027 05:12:06.292   04 Jun 2027 05:12:08.947             2.655           905.656
        81   04 Jun 2027 05:12:44.738   04 Jun 2027 05:12:50.406             5.668           707.844
        82   04 Jun 2027 06:32:48.274   04 Jun 2027 06:32:55.358             7.084          3236.437
        83   04 Jun 2027 06:35:04.430   04 Jun 2027 06:35:12.190             7.760          3803.531
        84   04 Jun 2027 08:09:25.099   04 Jun 2027 08:09:29.956             4.857          1879.562
        85   04 Jun 2027 08:10:19.152   04 Jun 2027 08:10:22.009             2.857           866.688
        86   04 Jun 2027 08:11:19.569   04 Jun 2027 08:11:23.913             4.344          1604.813
        87   04 Jun 2027 08:11:59.544   04 Jun 2027 08:12:02.702             3.158           792.188
        88   04 Jun 2027 09:44:31.919   04 Jun 2027 09:44:42.169            10.250          2937.219
        89   04 Jun 2027 09:45:31.457   04 Jun 2027 09:45:33.417             1.960           608.875
        90   04 Jun 2027 09:45:56.469   04 Jun 2027 09:46:00.341             3.872           378.219
        91   04 Jun 2027 09:47:20.517   04 Jun 2027 09:47:25.530             5.013          1158.781
        92   04 Jun 2027 09:48:21.286   04 Jun 2027 09:48:26.014             4.728          1159.406
        93   04 Jun 2027 09:49:26.952   04 Jun 2027 09:49:28.200             1.248           142.469
        94   04 Jun 2027 09:50:29.774   04 Jun 2027 09:50:32.398             2.624          1227.719
        95   04 Jun 2027 09:51:03.072   04 Jun 2027 09:51:06.104             3.032           809.406
        96   04 Jun 2027 09:51:10.944   04 Jun 2027 09:51:11.491             0.547           118.594
        97   04 Jun 2027 11:20:52.523   04 Jun 2027 11:21:06.443            13.920          6482.156
        98   04 Jun 2027 11:22:46.479   04 Jun 2027 11:22:48.429             1.950           644.844
        99   04 Jun 2027 11:23:41.611   04 Jun 2027 11:23:44.744             3.133          1153.687
       100   04 Jun 2027 11:25:08.506   04 Jun 2027 11:25:17.504             8.998          1772.313
       101   04 Jun 2027 11:26:24.270   04 Jun 2027 11:26:30.127             5.857          1785.719
       102   04 Jun 2027 11:26:34.252   04 Jun 2027 11:26:34.709             0.457           128.906
       103   04 Jun 2027 11:27:06.482   04 Jun 2027 11:27:07.645             1.163           565.656
       104   05 Jun 2027 03:43:22.139   05 Jun 2027 03:44:23.569            61.430         30715.000
       105   05 Jun 2027 03:44:30.300   05 Jun 2027 03:46:22.684           112.384         56192.000
       106   05 Jun 2027 03:46:44.595   05 Jun 2027 03:46:48.925             4.330          2165.000
       107   05 Jun 2027 03:48:02.726   05 Jun 2027 03:48:12.869            10.143          5071.500
       108   05 Jun 2027 05:21:39.633   05 Jun 2027 05:22:13.895            34.262         17131.000
       109   05 Jun 2027 05:22:28.288   05 Jun 2027 05:23:41.375            73.087         36049.375
       110   05 Jun 2027 05:24:26.067   05 Jun 2027 05:24:28.553             2.486          1186.562
       111   05 Jun 2027 05:25:19.114   05 Jun 2027 05:25:22.127             3.013           549.594
       112   05 Jun 2027 06:45:01.991   05 Jun 2027 06:45:11.743             9.752          4732.375
       113   05 Jun 2027 06:45:47.968   05 Jun 2027 06:45:48.676             0.708           225.469
       114   05 Jun 2027 06:46:28.008   05 Jun 2027 06:46:31.726             3.718           936.062
       115   05 Jun 2027 06:47:40.894   05 Jun 2027 06:47:50.486             9.592          2061.000
       116   05 Jun 2027 08:21:35.940   05 Jun 2027 08:21:43.296             7.356          2636.625
       117   05 Jun 2027 08:22:20.808   05 Jun 2027 08:22:20.808             0.000             0.000
       118   05 Jun 2027 08:22:50.199   05 Jun 2027 08:22:52.809             2.610          1305.000
       119   05 Jun 2027 08:23:33.246   05 Jun 2027 08:23:38.247             5.001          1968.062
       120   05 Jun 2027 08:24:51.844   05 Jun 2027 08:24:57.175             5.331          1576.750
       121   05 Jun 2027 09:56:45.592   05 Jun 2027 09:56:55.252             9.660          2690.344
       122   05 Jun 2027 09:57:58.018   05 Jun 2027 09:58:01.865             3.847          1772.000
       123   05 Jun 2027 09:58:15.120   05 Jun 2027 09:58:16.978             1.858           203.188
       124   05 Jun 2027 09:59:41.154   05 Jun 2027 09:59:45.996             4.842          1459.937
       125   05 Jun 2027 10:01:50.832   05 Jun 2027 10:02:00.666             9.834          3540.438
       126   05 Jun 2027 10:03:04.269   05 Jun 2027 10:03:06.840             2.571          1147.688
       127   05 Jun 2027 11:33:06.923   05 Jun 2027 11:33:16.487             9.564          4539.344
       128   05 Jun 2027 11:34:51.271   05 Jun 2027 11:34:56.425             5.154          1323.313
       129   05 Jun 2027 11:35:24.909   05 Jun 2027 11:35:29.955             5.046           510.969
       130   05 Jun 2027 11:36:04.223   05 Jun 2027 11:36:09.761             5.538           845.844
       131   05 Jun 2027 11:36:53.428   05 Jun 2027 11:36:54.898             1.470           650.625
       132   05 Jun 2027 11:37:32.676   05 Jun 2027 11:37:37.178             4.502           913.250
       133   05 Jun 2027 11:38:31.495   05 Jun 2027 11:38:33.626             2.131           864.906
       134   05 Jun 2027 11:38:41.292   05 Jun 2027 11:38:42.556             1.264           239.562
       135   05 Jun 2027 11:39:14.335   05 Jun 2027 11:39:17.847             3.512           827.469
       136   06 Jun 2027 03:56:28.774   06 Jun 2027 03:59:55.724           206.950        103475.000
       137   06 Jun 2027 04:03:18.820   06 Jun 2027 04:03:37.012            18.192          9096.000
       138   06 Jun 2027 05:33:36.602   06 Jun 2027 05:34:16.836            40.234         20117.000
       139   06 Jun 2027 05:34:34.727   06 Jun 2027 05:35:28.200            53.473         26699.563
       140   06 Jun 2027 05:35:55.637   06 Jun 2027 05:36:02.099             6.462           857.406
       141   06 Jun 2027 05:36:34.155   06 Jun 2027 05:36:34.642             0.487           192.250
       142   06 Jun 2027 05:36:56.691   06 Jun 2027 05:36:59.011             2.320           654.375
       143   06 Jun 2027 06:57:31.936   06 Jun 2027 06:57:41.195             9.259          4559.313
       144   06 Jun 2027 06:57:51.135   06 Jun 2027 06:57:54.476             3.341           310.625
       145   06 Jun 2027 06:58:12.599   06 Jun 2027 06:58:12.599             0.000             0.000
       146   06 Jun 2027 06:59:41.190   06 Jun 2027 06:59:49.098             7.908          2912.813
       147   06 Jun 2027 08:33:26.338   06 Jun 2027 08:33:32.286             5.948          2838.531
       148   06 Jun 2027 08:35:34.549   06 Jun 2027 08:35:49.398            14.849          3635.969
       149   06 Jun 2027 08:36:09.551   06 Jun 2027 08:36:11.990             2.439           629.781
       150   06 Jun 2027 08:37:29.148   06 Jun 2027 08:37:31.425             2.277          1138.500
       151   06 Jun 2027 10:08:19.444   06 Jun 2027 10:08:27.143             7.699          2974.375
       152   06 Jun 2027 10:09:59.168   06 Jun 2027 10:10:04.727             5.559          2264.125
       153   06 Jun 2027 10:11:07.145   06 Jun 2027 10:11:12.397             5.252           945.094
       154   06 Jun 2027 10:11:36.832   06 Jun 2027 10:11:47.473            10.641           573.969
       155   06 Jun 2027 10:12:23.037   06 Jun 2027 10:12:28.128             5.091          1111.375
       156   06 Jun 2027 10:12:50.245   06 Jun 2027 10:12:52.355             2.110             7.750
       157   06 Jun 2027 10:13:37.163   06 Jun 2027 10:13:38.505             1.342           272.938
       158   06 Jun 2027 10:13:58.898   06 Jun 2027 10:14:08.526             9.628           297.125
       159   06 Jun 2027 10:14:47.222   06 Jun 2027 10:14:50.863             3.641           873.406
       160   06 Jun 2027 10:15:26.373   06 Jun 2027 10:15:30.275             3.902           826.219
       161   06 Jun 2027 11:44:43.906   06 Jun 2027 11:44:55.671            11.765          5601.375
       162   06 Jun 2027 11:45:45.512   06 Jun 2027 11:45:46.657             1.145           402.719
       163   06 Jun 2027 11:47:35.554   06 Jun 2027 11:47:39.092             3.538          1705.813
       164   06 Jun 2027 11:49:09.443   06 Jun 2027 11:49:12.092             2.649           707.688
       165   06 Jun 2027 11:49:43.923   06 Jun 2027 11:49:46.088             2.165           586.156
       166   06 Jun 2027 11:50:09.916   06 Jun 2027 11:50:15.909             5.993           744.625
       167   07 Jun 2027 04:08:32.784   07 Jun 2027 04:11:17.576           164.792         82396.000
       168   07 Jun 2027 04:11:30.796   07 Jun 2027 04:11:36.844             6.048          3024.000
       169   07 Jun 2027 04:12:47.291   07 Jun 2027 04:12:56.972             9.681          4840.500
       170   07 Jun 2027 04:13:43.393   07 Jun 2027 04:13:58.125            14.732          7366.000
       171   07 Jun 2027 04:14:38.669   07 Jun 2027 04:14:48.119             9.450          4725.000
       172   07 Jun 2027 04:14:55.523   07 Jun 2027 04:15:02.074             6.551          3275.500
       173   07 Jun 2027 04:15:35.547   07 Jun 2027 04:16:10.703            35.156         17578.000
       174   07 Jun 2027 05:34:17.054   07 Jun 2027 05:34:18.704             1.650           825.000
       175   07 Jun 2027 05:34:55.451   07 Jun 2027 05:35:16.242            20.791         10395.500
       176   07 Jun 2027 05:45:33.109   07 Jun 2027 05:47:03.987            90.878         45053.406
       177   07 Jun 2027 07:08:09.055   07 Jun 2027 07:08:24.038            14.983          5432.563
       178   07 Jun 2027 07:09:24.198   07 Jun 2027 07:09:28.264             4.066          1401.531
       179   07 Jun 2027 07:09:42.608   07 Jun 2027 07:09:45.708             3.100           274.062
       180   07 Jun 2027 07:10:02.805   07 Jun 2027 07:10:02.805             0.000             0.000
       181   07 Jun 2027 07:10:28.156   07 Jun 2027 07:10:33.280             5.124          1055.500
       182   07 Jun 2027 07:11:30.789   07 Jun 2027 07:11:34.133             3.344           878.250
       183   07 Jun 2027 07:12:36.373   07 Jun 2027 07:12:45.964             9.591          1731.969
       184   07 Jun 2027 08:43:43.518   07 Jun 2027 08:43:47.750             4.232          1966.594
       185   07 Jun 2027 08:44:27.872   07 Jun 2027 08:44:29.194             1.322           430.344
       186   07 Jun 2027 08:47:10.808   07 Jun 2027 08:47:21.251            10.443          3232.406
       187   07 Jun 2027 08:48:19.537   07 Jun 2027 08:48:23.292             3.755           556.844
       188   07 Jun 2027 10:19:57.845   07 Jun 2027 10:20:05.066             7.221          3440.781
       189   07 Jun 2027 10:21:59.850   07 Jun 2027 10:22:07.951             8.101          2934.594
       190   07 Jun 2027 10:23:19.044   07 Jun 2027 10:23:21.390             2.346           582.062
       191   07 Jun 2027 10:23:30.888   07 Jun 2027 10:23:32.723             1.835           168.906
       192   07 Jun 2027 10:23:59.754   07 Jun 2027 10:24:01.506             1.752           732.594
       193   07 Jun 2027 10:25:49.602   07 Jun 2027 10:25:55.808             6.206          3051.188
       194   07 Jun 2027 10:26:37.246   07 Jun 2027 10:26:43.461             6.215           955.000
       195   07 Jun 2027 10:27:31.339   07 Jun 2027 10:27:32.775             1.436           718.000
       196   07 Jun 2027 11:57:03.863   07 Jun 2027 11:57:16.460            12.597          6107.187
       197   07 Jun 2027 11:58:33.782   07 Jun 2027 11:58:40.129             6.347          2162.281
       198   07 Jun 2027 11:59:14.344   07 Jun 2027 11:59:21.589             7.245           897.781
       199   07 Jun 2027 11:59:42.333   07 Jun 2027 11:59:43.390             1.057           360.656
       200   08 Jun 2027 04:21:02.607   08 Jun 2027 04:23:30.784           148.177         74088.500
       201   08 Jun 2027 04:23:33.080   08 Jun 2027 04:23:42.514             9.434          4717.000
       202   08 Jun 2027 04:24:00.241   08 Jun 2027 04:24:17.779            17.538          8769.000
       203   08 Jun 2027 04:24:44.193   08 Jun 2027 04:24:49.473             5.280          2640.000
       204   08 Jun 2027 04:27:50.254   08 Jun 2027 04:28:10.595            20.341         10170.500
       205   08 Jun 2027 05:45:52.897   08 Jun 2027 05:46:27.577            34.680         17340.000
       206   08 Jun 2027 05:57:34.994   08 Jun 2027 05:58:35.347            60.353         30176.500
       207   08 Jun 2027 07:19:51.973   08 Jun 2027 07:20:32.391            40.418         18352.969
       208   08 Jun 2027 07:20:41.002   08 Jun 2027 07:20:45.310             4.308           269.094
       209   08 Jun 2027 07:22:17.300   08 Jun 2027 07:22:23.066             5.766          1799.875
       210   08 Jun 2027 07:23:21.949   08 Jun 2027 07:23:27.147             5.198          1632.688
       211   08 Jun 2027 07:24:07.060   08 Jun 2027 07:24:07.060             0.000             0.000
       212   08 Jun 2027 07:24:17.421   08 Jun 2027 07:24:21.458             4.037          1167.125
       213   08 Jun 2027 08:54:50.467   08 Jun 2027 08:55:00.247             9.780          3713.313
       214   08 Jun 2027 08:55:48.528   08 Jun 2027 08:55:49.130             0.602           301.000
       215   08 Jun 2027 08:57:11.616   08 Jun 2027 08:57:17.186             5.570          2751.344
       216   08 Jun 2027 08:58:05.396   08 Jun 2027 08:58:07.221             1.825           499.750
       217   08 Jun 2027 09:00:02.885   08 Jun 2027 09:00:09.213             6.328          3075.406
       218   08 Jun 2027 09:00:29.673   08 Jun 2027 09:00:30.882             1.209            81.719
       219   08 Jun 2027 09:00:37.307   08 Jun 2027 09:00:43.045             5.738           198.094
       220   08 Jun 2027 09:01:14.960   08 Jun 2027 09:01:16.996             2.036            80.875
       221   08 Jun 2027 09:01:32.802   08 Jun 2027 09:01:37.959             5.157           469.531
       222   08 Jun 2027 09:02:48.672   08 Jun 2027 09:02:52.230             3.558          1078.719
       223   08 Jun 2027 10:32:18.051   08 Jun 2027 10:32:24.350             6.299          3025.781
       224   08 Jun 2027 10:33:46.875   08 Jun 2027 10:33:51.123             4.248           944.406
       225   08 Jun 2027 10:35:22.829   08 Jun 2027 10:35:22.829             0.000             0.000
       226   08 Jun 2027 10:35:45.923   08 Jun 2027 10:35:47.873             1.950           975.000
       227   08 Jun 2027 10:37:47.788   08 Jun 2027 10:38:02.378            14.590          6082.906
       228   08 Jun 2027 10:38:45.636   08 Jun 2027 10:38:49.352             3.716           861.937
       229   08 Jun 2027 10:39:32.105   08 Jun 2027 10:39:34.296             2.191          1074.313
       230   08 Jun 2027 10:39:35.529   08 Jun 2027 10:39:35.964             0.435            38.531
       231   09 Jun 2027 03:00:00.000   09 Jun 2027 03:00:18.178            18.178          9089.000
       232   09 Jun 2027 04:33:04.795   09 Jun 2027 04:35:20.973           136.178         68089.000
       233   09 Jun 2027 04:35:35.660   09 Jun 2027 04:35:48.457            12.797          6398.500
       234   09 Jun 2027 04:36:14.119   09 Jun 2027 04:36:27.078            12.959          6479.500
       235   09 Jun 2027 04:36:50.313   09 Jun 2027 04:37:06.840            16.527          8263.500
       236   09 Jun 2027 04:37:51.178   09 Jun 2027 04:38:13.158            21.980         10990.000
       237   09 Jun 2027 04:40:03.018   09 Jun 2027 04:40:04.065             1.047           523.500
       238   09 Jun 2027 05:57:25.795   09 Jun 2027 05:57:56.292            30.497         15248.500
       239   09 Jun 2027 05:59:11.257   09 Jun 2027 05:59:33.883            22.626         11313.000
       240   09 Jun 2027 06:09:41.865   09 Jun 2027 06:10:09.564            27.699         13849.500
       241   09 Jun 2027 07:31:29.205   09 Jun 2027 07:31:57.437            28.232         13832.563
       242   09 Jun 2027 07:32:18.901   09 Jun 2027 07:32:22.980             4.079           670.750
       243   09 Jun 2027 07:33:34.232   09 Jun 2027 07:33:35.358             1.126           443.719
       244   09 Jun 2027 07:34:16.263   09 Jun 2027 07:34:28.854            12.591           828.500
       245   09 Jun 2027 07:36:29.010   09 Jun 2027 07:36:36.946             7.936          3667.625
       246   09 Jun 2027 07:36:41.401   09 Jun 2027 07:36:41.401             0.000             0.000
       247   09 Jun 2027 07:37:13.390   09 Jun 2027 07:37:15.737             2.347          1029.781
       248   09 Jun 2027 09:06:18.329   09 Jun 2027 09:06:24.932             6.603          2600.219
       249   09 Jun 2027 09:08:12.457   09 Jun 2027 09:08:17.754             5.297          2076.875
       250   09 Jun 2027 09:08:30.095   09 Jun 2027 09:08:37.239             7.144            82.469
       251   09 Jun 2027 09:10:25.063   09 Jun 2027 09:10:39.256            14.193          3071.937
       252   09 Jun 2027 09:12:04.855   09 Jun 2027 09:12:12.119             7.264          2506.375
       253   09 Jun 2027 09:13:14.106   09 Jun 2027 09:13:16.701             2.595           286.812
       254   09 Jun 2027 09:14:04.525   09 Jun 2027 09:14:14.951            10.426          1049.531
       255   09 Jun 2027 09:14:44.028   09 Jun 2027 09:14:47.587             3.559           558.375
       256   09 Jun 2027 09:15:05.088   09 Jun 2027 09:15:08.214             3.126           278.063
       257   09 Jun 2027 10:44:11.634   09 Jun 2027 10:44:21.222             9.588          4242.844
       258   09 Jun 2027 10:45:15.604   09 Jun 2027 10:45:16.305             0.701           333.531
       259   09 Jun 2027 10:47:11.894   09 Jun 2027 10:47:11.894             0.000             0.000
       260   09 Jun 2027 10:48:09.997   09 Jun 2027 10:48:18.623             8.626          4078.969
       261   09 Jun 2027 10:48:27.206   09 Jun 2027 10:48:29.445             2.239           236.969
       262   09 Jun 2027 10:49:44.942   09 Jun 2027 10:49:44.942             0.000             0.000
       263   09 Jun 2027 10:50:06.717   09 Jun 2027 10:50:16.711             9.994          2943.281
       264   09 Jun 2027 10:50:33.243   09 Jun 2027 10:50:34.657             1.414           435.844
       265   09 Jun 2027 10:51:16.292   09 Jun 2027 10:51:22.439             6.147          1301.094
       266   10 Jun 2027 03:07:00.807   10 Jun 2027 03:07:16.596            15.789          7894.500
       267   10 Jun 2027 03:07:24.925   10 Jun 2027 03:07:50.119            25.194         12597.000
       268   10 Jun 2027 03:08:22.844   10 Jun 2027 03:08:36.542            13.698          6849.000
       269   10 Jun 2027 03:09:11.336   10 Jun 2027 03:09:15.761             4.425          2212.500
       270   10 Jun 2027 03:10:15.656   10 Jun 2027 03:10:41.202            25.546         12773.000
       271   10 Jun 2027 03:11:35.524   10 Jun 2027 03:11:42.351             6.827          3413.500
       272   10 Jun 2027 03:11:54.365   10 Jun 2027 03:12:02.570             8.205          4102.500
       273   10 Jun 2027 04:45:29.733   10 Jun 2027 04:48:41.352           191.619         95809.500
       274   10 Jun 2027 04:49:50.691   10 Jun 2027 04:49:58.011             7.320          3372.343
       275   10 Jun 2027 06:09:22.489   10 Jun 2027 06:09:48.190            25.701         12249.281
       276   10 Jun 2027 06:10:27.756   10 Jun 2027 06:10:30.593             2.837          1069.625
       277   10 Jun 2027 06:10:41.528   10 Jun 2027 06:10:45.847             4.319           341.719
       278   10 Jun 2027 06:11:07.946   10 Jun 2027 06:11:07.946             0.000             0.000
       279   10 Jun 2027 06:11:35.192   10 Jun 2027 06:11:37.624             2.432          1064.031
       280   10 Jun 2027 07:45:21.980   10 Jun 2027 07:45:35.633            13.653          6555.844
       281   10 Jun 2027 07:46:14.456   10 Jun 2027 07:46:18.664             4.208          1206.000
       282   10 Jun 2027 07:46:51.075   10 Jun 2027 07:46:52.648             1.573           546.938
       283   10 Jun 2027 07:48:29.564   10 Jun 2027 07:48:38.155             8.591          2248.500
       284   10 Jun 2027 09:19:10.286   10 Jun 2027 09:19:18.921             8.635          3499.656
       285   10 Jun 2027 09:21:07.680   10 Jun 2027 09:21:13.531             5.851           852.969
       286   10 Jun 2027 09:21:41.960   10 Jun 2027 09:21:44.731             2.771           551.500
       287   10 Jun 2027 09:22:47.801   10 Jun 2027 09:22:51.738             3.937          1165.812
       288   10 Jun 2027 09:23:49.404   10 Jun 2027 09:23:52.589             3.185          1162.469
       289   10 Jun 2027 09:25:05.196   10 Jun 2027 09:25:09.412             4.216          1900.156
       290   10 Jun 2027 09:25:51.938   10 Jun 2027 09:26:00.812             8.874           942.625
       291   10 Jun 2027 09:26:53.717   10 Jun 2027 09:26:57.967             4.250          1486.125
       292   10 Jun 2027 10:56:19.087   10 Jun 2027 10:56:32.120            13.033          5993.469
       293   10 Jun 2027 10:57:42.468   10 Jun 2027 10:57:45.809             3.341           794.156
       294   10 Jun 2027 10:58:56.829   10 Jun 2027 10:59:03.218             6.389          2062.344
       295   10 Jun 2027 10:59:56.846   10 Jun 2027 10:59:59.327             2.481           142.875
       296   10 Jun 2027 11:01:04.234   10 Jun 2027 11:01:07.612             3.378          1464.844
       297   10 Jun 2027 11:01:31.790   10 Jun 2027 11:01:33.112             1.322            48.187
       298   10 Jun 2027 11:02:52.577   10 Jun 2027 11:02:54.895             2.318          1017.875
       299   10 Jun 2027 11:03:02.487   10 Jun 2027 11:03:03.767             1.280            32.406
       300   10 Jun 2027 11:03:08.779   10 Jun 2027 11:03:12.045             3.266           134.750
       301   11 Jun 2027 03:19:45.122   11 Jun 2027 03:20:04.298            19.176          9588.000
       302   11 Jun 2027 03:20:18.287   11 Jun 2027 03:21:13.170            54.883         27441.500
       303   11 Jun 2027 03:21:14.563   11 Jun 2027 03:23:08.561           113.998         56999.000
       304   11 Jun 2027 03:24:42.466   11 Jun 2027 03:24:58.042            15.576          7788.000
       305   11 Jun 2027 04:57:52.674   11 Jun 2027 04:58:27.978            35.304         17652.000
       306   11 Jun 2027 04:58:38.415   11 Jun 2027 04:59:54.819            76.404         37888.531
       307   11 Jun 2027 05:00:31.576   11 Jun 2027 05:00:33.663             2.087           997.000
       308   11 Jun 2027 05:01:22.174   11 Jun 2027 05:01:26.091             3.917          1277.719
       309   11 Jun 2027 05:02:02.984   11 Jun 2027 05:02:04.310             1.326           459.531
       310   11 Jun 2027 05:02:23.340   11 Jun 2027 05:02:24.223             0.883           290.563
       311   11 Jun 2027 06:21:15.917   11 Jun 2027 06:21:28.198            12.281          5366.187
       312   11 Jun 2027 06:22:38.979   11 Jun 2027 06:22:42.612             3.633          1642.656
       313   11 Jun 2027 06:22:53.219   11 Jun 2027 06:22:59.518             6.299           182.969
       314   11 Jun 2027 06:23:27.126   11 Jun 2027 06:23:29.319             2.193           114.188
       315   11 Jun 2027 07:57:38.469   11 Jun 2027 07:57:53.595            15.126          6820.531
       316   11 Jun 2027 07:58:08.595   11 Jun 2027 07:58:09.033             0.438            18.344
       317   11 Jun 2027 07:58:52.356   11 Jun 2027 07:58:56.848             4.492          1353.844
       318   11 Jun 2027 07:59:32.273   11 Jun 2027 07:59:34.637             2.364          1025.906
       319   11 Jun 2027 08:00:14.747   11 Jun 2027 08:00:17.072             2.325          1125.250
       320   11 Jun 2027 09:31:33.897   11 Jun 2027 09:31:40.310             6.413          2834.656
       321   11 Jun 2027 09:34:11.313   11 Jun 2027 09:34:13.432             2.119           904.625
       322   11 Jun 2027 09:36:03.200   11 Jun 2027 09:36:07.586             4.386          2176.969
       323   11 Jun 2027 09:37:52.889   11 Jun 2027 09:38:02.834             9.945          2936.625
       324   11 Jun 2027 09:38:11.340   11 Jun 2027 09:38:15.712             4.372           239.438
       325   11 Jun 2027 09:38:30.924   11 Jun 2027 09:38:34.041             3.117           378.875
       326   11 Jun 2027 09:39:38.224   11 Jun 2027 09:39:40.712             2.488           997.844
       327   11 Jun 2027 11:08:44.892   11 Jun 2027 11:08:57.814            12.922          5849.531
       328   11 Jun 2027 11:10:15.006   11 Jun 2027 11:10:18.830             3.824           758.844
       329   11 Jun 2027 11:11:37.356   11 Jun 2027 11:11:43.427             6.071          1364.937
       330   11 Jun 2027 11:12:36.007   11 Jun 2027 11:12:40.179             4.172          1643.125
       331   11 Jun 2027 11:12:52.368   11 Jun 2027 11:12:54.805             2.437           247.750
       332   11 Jun 2027 11:13:12.455   11 Jun 2027 11:13:13.248             0.793            71.844
       333   11 Jun 2027 11:13:39.029   11 Jun 2027 11:13:40.470             1.441           342.250
       334   11 Jun 2027 11:14:43.777   11 Jun 2027 11:14:48.908             5.131          1929.875
       335   11 Jun 2027 11:15:04.203   11 Jun 2027 11:15:06.982             2.779           472.281
       336   11 Jun 2027 11:15:16.816   11 Jun 2027 11:15:21.542             4.726           301.500
       337   12 Jun 2027 03:31:50.042   12 Jun 2027 03:32:44.932            54.890         27445.000
       338   12 Jun 2027 03:32:50.688   12 Jun 2027 03:33:26.054            35.366         17683.000
       339   12 Jun 2027 03:34:18.734   12 Jun 2027 03:35:14.552            55.818         27909.000
       340   12 Jun 2027 03:36:45.493   12 Jun 2027 03:37:07.443            21.950         10975.000
       341   12 Jun 2027 05:10:12.429   12 Jun 2027 05:10:28.221            15.792          7896.000
       342   12 Jun 2027 05:11:03.788   12 Jun 2027 05:12:55.822           112.034         54559.000
       343   12 Jun 2027 06:33:08.197   12 Jun 2027 06:33:16.810             8.613          3758.156
       344   12 Jun 2027 06:33:36.577   12 Jun 2027 06:33:36.577             0.000             0.000
       345   12 Jun 2027 06:34:32.950   12 Jun 2027 06:34:39.589             6.639          2273.750
       346   12 Jun 2027 06:35:22.771   12 Jun 2027 06:35:26.767             3.996          1321.125
       347   12 Jun 2027 08:09:42.001   12 Jun 2027 08:09:49.525             7.524          3531.063
       348   12 Jun 2027 08:10:30.002   12 Jun 2027 08:10:32.286             2.284           697.812
       349   12 Jun 2027 08:11:38.369   12 Jun 2027 08:11:47.134             8.765          1911.031
       350   12 Jun 2027 08:12:16.854   12 Jun 2027 08:12:26.949            10.095           802.437
       351   12 Jun 2027 09:44:50.928   12 Jun 2027 09:44:57.471             6.543          3136.719
       352   12 Jun 2027 09:46:03.226   12 Jun 2027 09:46:03.226             0.000             0.000
       353   12 Jun 2027 09:46:14.536   12 Jun 2027 09:46:21.389             6.853          1455.594
       354   12 Jun 2027 09:48:01.137   12 Jun 2027 09:48:07.135             5.998          1848.781
       355   12 Jun 2027 09:48:34.110   12 Jun 2027 09:48:36.471             2.361            92.250
       356   12 Jun 2027 09:50:08.218   12 Jun 2027 09:50:16.873             8.655          2867.094
       357   12 Jun 2027 09:51:21.906   12 Jun 2027 09:51:24.529             2.623          1033.219
       358   12 Jun 2027 09:51:31.314   12 Jun 2027 09:51:33.212             1.898           212.031
       359   12 Jun 2027 11:21:10.948   12 Jun 2027 11:21:24.132            13.184          6259.781
       360   12 Jun 2027 11:22:54.400   12 Jun 2027 11:22:56.090             1.690           420.375
       361   12 Jun 2027 11:23:58.972   12 Jun 2027 11:24:02.938             3.966          1184.531
       362   12 Jun 2027 11:25:24.541   12 Jun 2027 11:25:31.792             7.251          1734.562
       363   12 Jun 2027 11:25:44.472   12 Jun 2027 11:25:45.125             0.653           176.656
       364   12 Jun 2027 11:26:41.117   12 Jun 2027 11:26:45.348             4.231          1742.719
       365   12 Jun 2027 11:26:50.937   12 Jun 2027 11:26:51.425             0.488           174.656
       366   12 Jun 2027 11:27:10.109   12 Jun 2027 11:27:11.329             1.220           583.875
       367   13 Jun 2027 03:43:39.216   13 Jun 2027 03:44:38.941            59.725         29862.500
       368   13 Jun 2027 03:44:46.700   13 Jun 2027 03:46:38.476           111.776         55888.000
       369   13 Jun 2027 03:46:44.131   13 Jun 2027 03:47:01.439            17.308          8654.000
       370   13 Jun 2027 03:48:18.530   13 Jun 2027 03:48:20.631             2.101          1050.500
       371   13 Jun 2027 03:49:18.267   13 Jun 2027 03:49:18.267             0.000             0.000
       372   13 Jun 2027 05:21:56.237   13 Jun 2027 05:22:31.203            34.966         17483.000
       373   13 Jun 2027 05:22:44.855   13 Jun 2027 05:23:59.246            74.391         36105.594
       374   13 Jun 2027 05:24:43.355   13 Jun 2027 05:24:48.830             5.475          1159.063
       375   13 Jun 2027 05:25:35.141   13 Jun 2027 05:25:41.884             6.743          1286.188
       376   13 Jun 2027 06:45:17.798   13 Jun 2027 06:45:28.747            10.949          4869.469
       377   13 Jun 2027 06:46:06.206   13 Jun 2027 06:46:06.206             0.000             0.000
       378   13 Jun 2027 06:46:11.989   13 Jun 2027 06:46:14.793             2.804           503.531
       379   13 Jun 2027 06:46:44.160   13 Jun 2027 06:46:47.118             2.958           917.719
       380   13 Jun 2027 06:47:05.465   13 Jun 2027 06:47:05.465             0.000             0.000
       381   13 Jun 2027 06:47:56.606   13 Jun 2027 06:47:57.294             0.688           344.000
       382   13 Jun 2027 06:48:15.834   13 Jun 2027 06:48:20.551             4.717          2309.406
       383   13 Jun 2027 08:21:52.825   13 Jun 2027 08:22:02.034             9.209          3373.781
       384   13 Jun 2027 08:22:14.586   13 Jun 2027 08:22:16.370             1.784           152.594
       385   13 Jun 2027 08:23:09.313   13 Jun 2027 08:23:09.313             0.000             0.000
       386   13 Jun 2027 08:23:52.263   13 Jun 2027 08:23:57.066             4.803          2294.031
       387   13 Jun 2027 08:24:52.669   13 Jun 2027 08:24:52.669             0.000             0.000
       388   13 Jun 2027 08:25:09.649   13 Jun 2027 08:25:18.243             8.594          1592.906
       389   13 Jun 2027 09:57:02.903   13 Jun 2027 09:57:09.984             7.081          2435.906
       390   13 Jun 2027 09:58:16.047   13 Jun 2027 09:58:21.400             5.353          1842.375
       391   13 Jun 2027 09:58:34.597   13 Jun 2027 09:58:38.780             4.183           213.437
       392   13 Jun 2027 09:59:58.016   13 Jun 2027 10:00:02.246             4.230          1399.438
       393   13 Jun 2027 10:02:08.510   13 Jun 2027 10:02:23.805            15.295          3635.531
       394   13 Jun 2027 10:03:37.904   13 Jun 2027 10:03:38.550             0.646           323.000
       395   13 Jun 2027 11:33:23.766   13 Jun 2027 11:33:33.217             9.451          4633.812
       396   13 Jun 2027 11:35:07.921   13 Jun 2027 11:35:12.546             4.625          1378.219
       397   13 Jun 2027 11:35:42.698   13 Jun 2027 11:35:46.261             3.563           517.375
       398   13 Jun 2027 11:36:36.300   13 Jun 2027 11:36:40.352             4.052          1099.344
       399   13 Jun 2027 11:37:19.389   13 Jun 2027 11:37:22.131             2.742          1016.156
       400   13 Jun 2027 11:38:09.669   13 Jun 2027 11:38:13.938             4.269           996.750
       401   13 Jun 2027 11:38:25.907   13 Jun 2027 11:38:29.037             3.130           287.469
