uniorb/output/strategy_4/Camera/Camera_KinoSat_112010.txt

KinoSat_112010
-------------------------
    Access    *     Start Time (UTCG)     *     Stop Time (UTCG)  *   Duration (s) *   Data (Mbytes)
         1   01 Jun 2027 03:44:50.827   01 Jun 2027 03:47:08.155           137.328         68664.000
         2   01 Jun 2027 03:48:06.603   01 Jun 2027 03:48:12.319             5.716          2858.000
         3   01 Jun 2027 03:49:27.077   01 Jun 2027 03:49:35.721             8.644          4322.000
         4   01 Jun 2027 03:50:44.730   01 Jun 2027 03:50:50.910             6.180          3090.000
         5   01 Jun 2027 03:51:24.606   01 Jun 2027 03:51:28.686             4.080          2040.000
         6   01 Jun 2027 03:51:51.442   01 Jun 2027 03:51:55.760             4.318          2159.000
         7   01 Jun 2027 05:22:59.721   01 Jun 2027 05:23:59.456            59.735         29867.500
         8   01 Jun 2027 05:24:08.963   01 Jun 2027 05:25:04.383            55.420         27710.000
         9   01 Jun 2027 05:26:05.204   01 Jun 2027 05:26:22.976            17.772          8886.000
        10   01 Jun 2027 05:29:15.250   01 Jun 2027 05:29:16.148             0.898           449.000
        11   01 Jun 2027 07:01:18.369   01 Jun 2027 07:01:48.205            29.836         14918.000
        12   01 Jun 2027 07:02:07.156   01 Jun 2027 07:03:13.623            66.467         33233.500
        13   01 Jun 2027 07:03:45.937   01 Jun 2027 07:03:49.456             3.519          1759.500
        14   01 Jun 2027 07:04:54.269   01 Jun 2027 07:05:07.933            13.664          6832.000
        15   01 Jun 2027 08:24:41.680   01 Jun 2027 08:26:06.026            84.346         42173.000
        16   01 Jun 2027 10:01:11.703   01 Jun 2027 10:01:36.113            24.410         12205.000
        17   01 Jun 2027 10:03:45.249   01 Jun 2027 10:04:48.732            63.483         31741.500
        18   01 Jun 2027 11:36:22.071   01 Jun 2027 11:36:51.858            29.787         14893.500
        19   01 Jun 2027 11:42:30.531   01 Jun 2027 11:43:00.607            30.076         15038.000
        20   02 Jun 2027 03:56:48.911   02 Jun 2027 03:59:39.140           170.229         85114.500
        21   02 Jun 2027 04:01:18.719   02 Jun 2027 04:01:19.363             0.644           322.000
        22   02 Jun 2027 04:01:38.428   02 Jun 2027 04:01:46.951             8.523          4261.500
        23   02 Jun 2027 04:02:21.863   02 Jun 2027 04:02:35.918            14.055          7027.500
        24   02 Jun 2027 05:35:05.044   02 Jun 2027 05:35:14.507             9.463          4731.500
        25   02 Jun 2027 05:36:06.644   02 Jun 2027 05:38:57.260           170.616         85308.000
        26   02 Jun 2027 05:43:12.041   02 Jun 2027 05:43:57.861            45.820         22910.000
        27   02 Jun 2027 07:13:15.299   02 Jun 2027 07:13:54.035            38.736         19368.000
        28   02 Jun 2027 07:14:21.811   02 Jun 2027 07:15:59.499            97.688         48844.000
        29   02 Jun 2027 08:37:22.359   02 Jun 2027 08:38:06.761            44.402         22201.000
        30   02 Jun 2027 08:39:34.544   02 Jun 2027 08:39:53.380            18.836          9418.000
        31   02 Jun 2027 10:13:07.719   02 Jun 2027 10:14:16.116            68.397         34198.500
        32   02 Jun 2027 10:14:52.880   02 Jun 2027 10:16:19.560            86.680         43340.000
        33   02 Jun 2027 11:48:04.850   02 Jun 2027 11:48:37.889            33.039         13620.374
        34   02 Jun 2027 11:50:51.412   02 Jun 2027 11:51:04.489            13.077          4172.594
        35   02 Jun 2027 11:54:43.367   02 Jun 2027 11:54:57.100            13.733          6612.062
        36   03 Jun 2027 04:09:18.205   03 Jun 2027 04:11:55.125           156.920         78460.000
        37   03 Jun 2027 04:13:15.406   03 Jun 2027 04:13:26.829            11.423          5711.500
        38   03 Jun 2027 05:48:10.417   03 Jun 2027 05:50:54.171           163.754         81877.000
        39   03 Jun 2027 05:54:43.515   03 Jun 2027 05:55:19.774            36.259         17612.375
        40   03 Jun 2027 07:14:11.250   03 Jun 2027 07:14:30.700            19.450          8758.500
        41   03 Jun 2027 07:25:11.902   03 Jun 2027 07:25:19.101             7.199          2559.063
        42   03 Jun 2027 07:26:20.288   03 Jun 2027 07:26:22.096             1.808           707.438
        43   03 Jun 2027 07:27:14.630   03 Jun 2027 07:27:16.063             1.433           290.625
        44   03 Jun 2027 07:28:19.016   03 Jun 2027 07:28:22.502             3.486           466.719
        45   03 Jun 2027 08:48:11.856   03 Jun 2027 08:48:22.930            11.074          4717.156
        46   03 Jun 2027 08:49:17.609   03 Jun 2027 08:49:19.698             2.089           921.656
        47   03 Jun 2027 08:49:51.352   03 Jun 2027 08:49:57.845             6.493           754.094
        48   03 Jun 2027 08:51:28.239   03 Jun 2027 08:51:34.237             5.998          2535.781
        49   03 Jun 2027 10:23:43.756   03 Jun 2027 10:23:48.330             4.574          2189.250
        50   03 Jun 2027 10:25:40.824   03 Jun 2027 10:25:47.098             6.274          3106.563
        51   03 Jun 2027 10:27:59.689   03 Jun 2027 10:28:08.412             8.723          2462.594
        52   03 Jun 2027 10:28:31.124   03 Jun 2027 10:28:32.296             1.172           298.375
        53   04 Jun 2027 04:21:33.791   04 Jun 2027 04:23:11.214            97.423         48711.500
        54   04 Jun 2027 04:24:12.665   04 Jun 2027 04:24:28.050            15.385          7692.500
        55   04 Jun 2027 06:00:40.408   04 Jun 2027 06:04:28.370           227.962        113004.750
        56   04 Jun 2027 06:05:35.608   04 Jun 2027 06:05:41.847             6.239          1647.219
        57   04 Jun 2027 06:06:02.474   04 Jun 2027 06:06:05.522             3.048           269.625
        58   04 Jun 2027 06:06:10.414   04 Jun 2027 06:06:12.684             2.270           152.875
        59   04 Jun 2027 06:06:48.110   04 Jun 2027 06:06:53.544             5.434           827.437
        60   04 Jun 2027 07:25:32.602   04 Jun 2027 07:25:45.257            12.655          6042.531
        61   04 Jun 2027 07:26:16.498   04 Jun 2027 07:26:17.846             1.348           674.000
        62   04 Jun 2027 07:26:59.490   04 Jun 2027 07:27:01.702             2.212          1106.000
        63   04 Jun 2027 07:37:15.188   04 Jun 2027 07:37:22.686             7.498          3236.500
        64   04 Jun 2027 07:37:59.530   04 Jun 2027 07:38:01.141             1.611           714.781
        65   04 Jun 2027 07:38:28.145   04 Jun 2027 07:38:28.501             0.356           178.000
        66   04 Jun 2027 08:59:27.841   04 Jun 2027 08:59:54.497            26.656         12787.781
        67   04 Jun 2027 09:00:21.991   04 Jun 2027 09:00:23.621             1.630           809.031
        68   04 Jun 2027 09:01:28.187   04 Jun 2027 09:01:31.585             3.398          1220.937
        69   04 Jun 2027 09:03:37.412   04 Jun 2027 09:03:44.769             7.357          3243.531
        70   04 Jun 2027 09:04:35.125   04 Jun 2027 09:04:35.541             0.416           208.000
        71   04 Jun 2027 10:34:35.312   04 Jun 2027 10:34:40.002             4.690          2316.469
        72   04 Jun 2027 10:35:36.100   04 Jun 2027 10:35:37.743             1.643           671.500
        73   04 Jun 2027 10:37:33.904   04 Jun 2027 10:37:41.951             8.047          3630.031
        74   04 Jun 2027 10:39:31.575   04 Jun 2027 10:39:35.933             4.358          2110.125
        75   04 Jun 2027 10:40:35.028   04 Jun 2027 10:40:35.595             0.567           170.625
        76   04 Jun 2027 10:41:02.236   04 Jun 2027 10:41:03.305             1.069           517.406
        77   04 Jun 2027 10:41:16.820   04 Jun 2027 10:41:17.703             0.883            64.625
        78   05 Jun 2027 03:00:00.000   05 Jun 2027 03:00:20.012            20.012         10006.000
        79   05 Jun 2027 03:01:47.552   05 Jun 2027 03:01:50.273             2.721          1360.500
        80   05 Jun 2027 03:02:46.107   05 Jun 2027 03:03:05.571            19.464          9732.000
        81   05 Jun 2027 03:03:34.681   05 Jun 2027 03:03:57.745            23.064         11532.000
        82   05 Jun 2027 04:33:52.844   05 Jun 2027 04:35:24.288            91.444         45722.000
        83   05 Jun 2027 04:38:42.361   05 Jun 2027 04:39:02.320            19.959          9979.500
        84   05 Jun 2027 06:12:49.007   05 Jun 2027 06:15:58.270           189.263         93405.156
        85   05 Jun 2027 06:16:20.383   05 Jun 2027 06:16:21.317             0.934           435.219
        86   05 Jun 2027 06:17:15.451   05 Jun 2027 06:17:20.609             5.158           786.781
        87   05 Jun 2027 06:18:13.028   05 Jun 2027 06:18:18.455             5.427           719.781
        88   05 Jun 2027 07:36:59.148   05 Jun 2027 07:37:12.629            13.481          6248.406
        89   05 Jun 2027 07:38:05.121   05 Jun 2027 07:38:08.058             2.937           862.156
        90   05 Jun 2027 07:38:37.585   05 Jun 2027 07:38:39.094             1.509           735.812
        91   05 Jun 2027 07:39:09.008   05 Jun 2027 07:39:09.008             0.000             0.000
        92   05 Jun 2027 07:49:16.153   05 Jun 2027 07:49:21.313             5.160          2544.875
        93   05 Jun 2027 09:11:13.135   05 Jun 2027 09:11:35.513            22.378          8733.813
        94   05 Jun 2027 09:13:16.793   05 Jun 2027 09:13:21.719             4.926          1860.437
        95   05 Jun 2027 09:13:55.601   05 Jun 2027 09:14:06.170            10.569          1055.875
        96   05 Jun 2027 09:14:34.970   05 Jun 2027 09:14:38.823             3.853           572.156
        97   05 Jun 2027 10:46:04.867   05 Jun 2027 10:46:14.626             9.759          4756.875
        98   05 Jun 2027 10:48:00.012   05 Jun 2027 10:48:06.644             6.632          1756.406
        99   05 Jun 2027 10:49:36.258   05 Jun 2027 10:49:36.258             0.000             0.000
       100   05 Jun 2027 10:49:59.357   05 Jun 2027 10:50:08.577             9.220          3038.562
       101   05 Jun 2027 10:54:32.086   05 Jun 2027 10:54:39.370             7.284          2771.344
       102   05 Jun 2027 10:54:52.338   05 Jun 2027 10:54:52.812             0.474           115.594
       103   06 Jun 2027 03:08:59.840   06 Jun 2027 03:09:12.353            12.513          6256.500
       104   06 Jun 2027 03:11:15.410   06 Jun 2027 03:11:29.897            14.487          7243.500
       105   06 Jun 2027 03:11:48.589   06 Jun 2027 03:12:55.965            67.376         33688.000
       106   06 Jun 2027 03:13:27.643   06 Jun 2027 03:13:43.830            16.187          8093.500
       107   06 Jun 2027 03:14:43.343   06 Jun 2027 03:15:54.700            71.357         35678.500
       108   06 Jun 2027 04:46:37.559   06 Jun 2027 04:47:00.644            23.085         11542.500
       109   06 Jun 2027 04:47:04.133   06 Jun 2027 04:48:18.562            74.429         37214.500
       110   06 Jun 2027 04:48:38.589   06 Jun 2027 04:49:00.527            21.938         10969.000
       111   06 Jun 2027 04:49:42.430   06 Jun 2027 04:49:50.628             8.198          4099.000
       112   06 Jun 2027 06:25:00.190   06 Jun 2027 06:25:50.825            50.635         25086.969
       113   06 Jun 2027 06:26:12.790   06 Jun 2027 06:26:17.651             4.861           277.438
       114   06 Jun 2027 06:26:56.699   06 Jun 2027 06:26:59.590             2.891          1220.250
       115   06 Jun 2027 06:27:57.175   06 Jun 2027 06:28:04.106             6.931          1785.000
       116   06 Jun 2027 06:28:48.596   06 Jun 2027 06:28:51.163             2.567           167.906
       117   06 Jun 2027 06:29:37.261   06 Jun 2027 06:29:39.222             1.961           962.156
       118   06 Jun 2027 06:31:07.304   06 Jun 2027 06:31:10.732             3.428           852.719
       119   06 Jun 2027 07:49:03.318   06 Jun 2027 07:49:09.705             6.387          2750.125
       120   06 Jun 2027 07:50:13.560   06 Jun 2027 07:50:15.789             2.229          1097.938
       121   06 Jun 2027 07:50:27.821   06 Jun 2027 07:50:31.417             3.596           245.969
       122   06 Jun 2027 07:50:53.496   06 Jun 2027 07:50:55.347             1.851           689.969
       123   06 Jun 2027 07:51:03.222   06 Jun 2027 07:51:05.024             1.802           218.531
       124   06 Jun 2027 09:25:00.529   06 Jun 2027 09:25:12.605            12.076          5855.250
       125   06 Jun 2027 09:25:43.722   06 Jun 2027 09:25:53.677             9.955           267.000
       126   06 Jun 2027 09:26:44.544   06 Jun 2027 09:26:48.022             3.478          1477.813
       127   06 Jun 2027 09:27:54.637   06 Jun 2027 09:27:58.994             4.357          2081.719
       128   06 Jun 2027 09:28:18.406   06 Jun 2027 09:28:21.423             3.017           482.594
       129   06 Jun 2027 10:58:50.263   06 Jun 2027 10:58:54.904             4.641          2307.000
       130   06 Jun 2027 11:01:15.100   06 Jun 2027 11:01:17.686             2.586          1293.000
       131   06 Jun 2027 11:05:01.194   06 Jun 2027 11:05:01.194             0.000             0.000
       132   06 Jun 2027 11:05:24.524   06 Jun 2027 11:05:40.345            15.821          7895.563
       133   07 Jun 2027 03:20:59.730   07 Jun 2027 03:21:24.382            24.652         12326.000
       134   07 Jun 2027 03:21:29.348   07 Jun 2027 03:21:29.348             0.000             0.000
       135   07 Jun 2027 03:23:15.704   07 Jun 2027 03:26:19.973           184.269         92134.500
       136   07 Jun 2027 05:00:46.973   07 Jun 2027 05:00:51.486             4.513          2256.500
       137   07 Jun 2027 05:00:53.319   07 Jun 2027 05:01:22.106            28.787         14393.500
       138   07 Jun 2027 05:01:42.643   07 Jun 2027 05:01:59.071            16.428          8214.000
       139   07 Jun 2027 05:03:49.866   07 Jun 2027 05:04:25.634            35.768         17884.000
       140   07 Jun 2027 06:37:35.193   07 Jun 2027 06:38:38.194            63.001         30774.031
       141   07 Jun 2027 06:40:19.891   07 Jun 2027 06:40:22.651             2.760          1303.344
       142   07 Jun 2027 06:40:43.477   07 Jun 2027 06:40:45.217             1.740           205.031
       143   07 Jun 2027 06:40:56.640   07 Jun 2027 06:40:57.493             0.853           180.500
       144   07 Jun 2027 06:42:09.033   07 Jun 2027 06:42:12.953             3.920          1395.000
       145   07 Jun 2027 08:00:58.243   07 Jun 2027 08:01:12.494            14.251          7050.438
       146   07 Jun 2027 08:02:21.460   07 Jun 2027 08:02:25.463             4.003          1541.312
       147   07 Jun 2027 08:02:55.478   07 Jun 2027 08:02:56.303             0.825           213.594
       148   07 Jun 2027 09:37:18.372   07 Jun 2027 09:37:24.130             5.758          2598.687
       149   07 Jun 2027 09:38:16.117   07 Jun 2027 09:38:20.262             4.145          1047.750
       150   07 Jun 2027 09:38:57.002   07 Jun 2027 09:39:01.629             4.627          1111.437
       151   07 Jun 2027 09:40:19.526   07 Jun 2027 09:40:23.584             4.058          1549.469
       152   07 Jun 2027 11:10:48.723   07 Jun 2027 11:10:59.794            11.071          4088.313
       153   07 Jun 2027 11:13:26.577   07 Jun 2027 11:13:29.881             3.304           821.594
       154   07 Jun 2027 11:16:49.034   07 Jun 2027 11:17:06.337            17.303          4611.094
       155   07 Jun 2027 11:17:55.900   07 Jun 2027 11:17:59.408             3.508           455.594
       156   07 Jun 2027 11:18:59.475   07 Jun 2027 11:19:02.870             3.395          1556.500
       157   08 Jun 2027 03:33:07.826   08 Jun 2027 03:33:24.286            16.460          8230.000
       158   08 Jun 2027 03:34:43.393   08 Jun 2027 03:36:25.926           102.533         51266.500
       159   08 Jun 2027 03:36:54.891   08 Jun 2027 03:38:43.129           108.238         54119.000
       160   08 Jun 2027 05:11:08.803   08 Jun 2027 05:11:09.923             1.120           560.000
       161   08 Jun 2027 05:12:24.736   08 Jun 2027 05:13:17.804            53.068         26534.000
       162   08 Jun 2027 05:14:42.474   08 Jun 2027 05:16:04.242            81.768         40737.594
       163   08 Jun 2027 05:17:24.044   08 Jun 2027 05:17:25.352             1.308           654.000
       164   08 Jun 2027 06:49:50.027   08 Jun 2027 06:50:14.755            24.728         11083.688
       165   08 Jun 2027 06:50:55.075   08 Jun 2027 06:50:57.221             2.146           849.469
       166   08 Jun 2027 06:52:25.615   08 Jun 2027 06:52:29.083             3.468          1404.312
       167   08 Jun 2027 06:52:43.659   08 Jun 2027 06:52:46.055             2.396           385.156
       168   08 Jun 2027 06:52:53.122   08 Jun 2027 06:52:54.851             1.729           220.844
       169   08 Jun 2027 08:12:49.055   08 Jun 2027 08:13:04.965            15.910          7518.531
       170   08 Jun 2027 08:15:22.583   08 Jun 2027 08:15:31.640             9.057          3724.875
       171   08 Jun 2027 09:49:20.697   08 Jun 2027 09:49:30.635             9.938          3898.812
       172   08 Jun 2027 09:50:39.307   08 Jun 2027 09:50:43.305             3.998          1248.531
       173   08 Jun 2027 09:51:12.485   08 Jun 2027 09:51:14.827             2.342           911.875
       174   08 Jun 2027 09:52:23.181   08 Jun 2027 09:52:27.604             4.423          2062.031
       175   08 Jun 2027 11:25:00.322   08 Jun 2027 11:25:18.892            18.570          9285.000
       176   08 Jun 2027 11:25:37.880   08 Jun 2027 11:25:42.002             4.122          1067.406
       177   08 Jun 2027 11:26:57.313   08 Jun 2027 11:26:58.410             1.097           459.969
       178   08 Jun 2027 11:27:50.369   08 Jun 2027 11:27:57.114             6.745          1111.250
       179   08 Jun 2027 11:28:47.819   08 Jun 2027 11:28:49.697             1.878           644.094
       180   08 Jun 2027 11:30:08.265   08 Jun 2027 11:30:13.244             4.979          1768.875
       181   08 Jun 2027 11:30:27.964   08 Jun 2027 11:30:34.118             6.154           456.031
       182   08 Jun 2027 11:30:47.660   08 Jun 2027 11:30:48.805             1.145           363.625
       183   09 Jun 2027 03:45:09.637   09 Jun 2027 03:45:52.276            42.639         21319.500
       184   09 Jun 2027 03:46:11.694   09 Jun 2027 03:48:15.959           124.265         62132.500
       185   09 Jun 2027 03:51:21.091   09 Jun 2027 03:51:36.675            15.584          7792.000
       186   09 Jun 2027 05:23:17.719   09 Jun 2027 05:24:19.801            62.082         31041.000
       187   09 Jun 2027 05:24:26.740   09 Jun 2027 05:25:54.221            87.481         42853.250
       188   09 Jun 2027 05:26:36.890   09 Jun 2027 05:26:38.439             1.549           418.750
       189   09 Jun 2027 05:27:07.745   09 Jun 2027 05:27:08.531             0.786           227.375
       190   09 Jun 2027 05:27:18.414   09 Jun 2027 05:27:19.238             0.824           300.375
       191   09 Jun 2027 05:27:53.695   09 Jun 2027 05:27:57.946             4.251           398.969
       192   09 Jun 2027 05:28:21.945   09 Jun 2027 05:28:27.304             5.359           749.969
       193   09 Jun 2027 05:28:42.372   09 Jun 2027 05:28:42.595             0.223            95.781
       194   09 Jun 2027 07:01:36.413   09 Jun 2027 07:01:46.314             9.901          4816.281
       195   09 Jun 2027 07:02:25.929   09 Jun 2027 07:02:28.584             2.655          1051.500
       196   09 Jun 2027 07:02:37.538   09 Jun 2027 07:02:38.713             1.175           188.719
       197   09 Jun 2027 07:03:01.616   09 Jun 2027 07:03:04.999             3.383           600.969
       198   09 Jun 2027 07:04:43.484   09 Jun 2027 07:04:44.644             1.160           532.250
       199   09 Jun 2027 07:04:58.684   09 Jun 2027 07:05:00.267             1.583           104.406
       200   09 Jun 2027 08:24:59.393   09 Jun 2027 08:25:10.813            11.420          5425.750
       201   09 Jun 2027 08:26:23.782   09 Jun 2027 08:26:27.967             4.185           673.438
       202   09 Jun 2027 08:26:40.341   09 Jun 2027 08:26:41.188             0.847           290.062
       203   09 Jun 2027 10:01:30.639   09 Jun 2027 10:01:41.871            11.232          3387.937
       204   09 Jun 2027 10:03:18.244   09 Jun 2027 10:03:18.244             0.000             0.000
       205   09 Jun 2027 10:03:31.211   09 Jun 2027 10:03:32.639             1.428           537.750
       206   09 Jun 2027 10:04:29.448   09 Jun 2027 10:04:29.448             0.000             0.000
       207   09 Jun 2027 11:36:40.063   09 Jun 2027 11:36:49.095             9.032          3321.281
       208   09 Jun 2027 11:40:07.057   09 Jun 2027 11:40:15.996             8.939          3288.312
       209   09 Jun 2027 11:40:38.897   09 Jun 2027 11:40:43.600             4.703           205.656
       210   09 Jun 2027 11:41:13.726   09 Jun 2027 11:41:15.555             1.829           452.531
       211   09 Jun 2027 11:42:30.089   09 Jun 2027 11:42:36.423             6.334          2329.187
       212   09 Jun 2027 11:42:37.638   09 Jun 2027 11:42:40.879             3.241            37.969
       213   10 Jun 2027 03:57:07.349   10 Jun 2027 03:59:53.519           166.170         83085.000
       214   10 Jun 2027 05:36:24.589   10 Jun 2027 05:38:40.665           136.076         68038.000
       215   10 Jun 2027 05:39:10.980   10 Jun 2027 05:39:11.504             0.524           262.000
       216   10 Jun 2027 05:43:25.429   10 Jun 2027 05:44:21.334            55.905         27952.500
       217   10 Jun 2027 07:13:33.490   10 Jun 2027 07:13:48.384            14.894          7144.000
       218   10 Jun 2027 07:14:35.595   10 Jun 2027 07:14:38.855             3.260          1096.219
       219   10 Jun 2027 07:15:02.627   10 Jun 2027 07:15:04.958             2.331           742.875
       220   10 Jun 2027 07:15:19.365   10 Jun 2027 07:15:21.614             2.249           254.219
       221   10 Jun 2027 07:15:46.420   10 Jun 2027 07:15:48.290             1.870           615.031
       222   10 Jun 2027 08:37:39.550   10 Jun 2027 08:38:03.250            23.700         11550.656
       223   10 Jun 2027 08:38:11.323   10 Jun 2027 08:38:13.252             1.929           142.375
       224   10 Jun 2027 08:39:51.020   10 Jun 2027 08:39:59.085             8.065          2704.406
       225   10 Jun 2027 10:13:24.669   10 Jun 2027 10:13:32.145             7.476          2023.875
       226   10 Jun 2027 10:15:09.132   10 Jun 2027 10:15:15.533             6.401          2179.719
       227   10 Jun 2027 10:16:38.432   10 Jun 2027 10:16:41.454             3.022          1406.969
       228   10 Jun 2027 11:51:14.160   10 Jun 2027 11:51:30.190            16.030          8015.000
       229   10 Jun 2027 11:54:06.103   10 Jun 2027 11:54:28.850            22.747         10395.687
       230   10 Jun 2027 11:54:36.297   10 Jun 2027 11:54:39.801             3.504           126.156
       231   10 Jun 2027 11:54:54.373   10 Jun 2027 11:54:57.770             3.397           173.563
       232   10 Jun 2027 11:55:08.116   10 Jun 2027 11:55:09.602             1.486           229.906
       233   11 Jun 2027 04:09:46.164   11 Jun 2027 04:12:25.042           158.878         79439.000
       234   11 Jun 2027 04:13:30.867   11 Jun 2027 04:13:39.857             8.990          4495.000
       235   11 Jun 2027 05:48:28.445   11 Jun 2027 05:49:55.174            86.729         43364.500
       236   11 Jun 2027 05:51:24.703   11 Jun 2027 05:51:33.907             9.204          4602.000
       237   11 Jun 2027 05:54:31.208   11 Jun 2027 05:56:06.754            95.546         47773.000
       238   11 Jun 2027 07:14:25.067   11 Jun 2027 07:14:45.439            20.372          9807.469
       239   11 Jun 2027 07:25:29.581   11 Jun 2027 07:25:35.563             5.982          2872.375
       240   11 Jun 2027 07:27:39.436   11 Jun 2027 07:27:43.537             4.101           322.375
       241   11 Jun 2027 07:28:33.923   11 Jun 2027 07:28:36.876             2.953           476.937
       242   11 Jun 2027 08:48:27.340   11 Jun 2027 08:48:44.348            17.008          7636.437
       243   11 Jun 2027 08:49:33.641   11 Jun 2027 08:49:35.928             2.287           865.906
       244   11 Jun 2027 08:50:09.255   11 Jun 2027 08:50:12.776             3.521           871.500
       245   11 Jun 2027 08:51:54.973   11 Jun 2027 08:52:01.986             7.013          2292.500
       246   11 Jun 2027 10:23:46.928   11 Jun 2027 10:23:55.726             8.798          3675.563
       247   11 Jun 2027 10:25:58.376   11 Jun 2027 10:26:08.508            10.132          2995.125
       248   11 Jun 2027 10:28:19.418   11 Jun 2027 10:28:25.329             5.911          2583.469
       249   11 Jun 2027 10:28:50.270   11 Jun 2027 10:28:52.629             2.359           259.031
       250   12 Jun 2027 04:21:52.398   12 Jun 2027 04:23:24.793            92.395         46197.500
       251   12 Jun 2027 04:24:26.600   12 Jun 2027 04:24:28.699             2.099          1049.500
       252   12 Jun 2027 04:24:57.203   12 Jun 2027 04:25:42.026            44.823         22411.500
       253   12 Jun 2027 06:00:58.088   12 Jun 2027 06:03:40.416           162.328         81164.000
       254   12 Jun 2027 06:05:05.695   12 Jun 2027 06:05:12.596             6.901          3450.500
       255   12 Jun 2027 06:05:39.134   12 Jun 2027 06:05:53.733            14.599          7299.500
       256   12 Jun 2027 06:06:20.169   12 Jun 2027 06:06:21.989             1.820           837.625
       257   12 Jun 2027 06:06:37.941   12 Jun 2027 06:06:39.494             1.553           308.969
       258   12 Jun 2027 07:25:49.910   12 Jun 2027 07:26:02.199            12.289          5550.375
       259   12 Jun 2027 07:27:17.677   12 Jun 2027 07:27:20.435             2.758          1379.000
       260   12 Jun 2027 07:37:32.333   12 Jun 2027 07:37:37.001             4.668          2051.469
       261   12 Jun 2027 07:37:52.845   12 Jun 2027 07:37:54.081             1.236            45.469
       262   12 Jun 2027 07:38:33.487   12 Jun 2027 07:38:34.814             1.327           603.594
       263   12 Jun 2027 08:59:45.659   12 Jun 2027 09:00:11.269            25.610         12805.000
       264   12 Jun 2027 09:00:37.052   12 Jun 2027 09:00:39.533             2.481          1065.594
       265   12 Jun 2027 09:01:47.451   12 Jun 2027 09:01:51.185             3.734          1186.406
       266   12 Jun 2027 09:02:46.028   12 Jun 2027 09:02:48.337             2.309          1079.281
       267   12 Jun 2027 10:34:51.416   12 Jun 2027 10:35:05.093            13.677          3664.906
       268   12 Jun 2027 10:35:55.750   12 Jun 2027 10:35:57.306             1.556           772.219
       269   12 Jun 2027 10:37:56.515   12 Jun 2027 10:37:56.515             0.000             0.000
       270   12 Jun 2027 10:37:58.477   12 Jun 2027 10:38:10.672            12.195          3764.563
       271   12 Jun 2027 10:39:42.528   12 Jun 2027 10:39:47.718             5.190          1969.781
       272   12 Jun 2027 10:40:49.666   12 Jun 2027 10:40:51.432             1.766           114.625
       273   12 Jun 2027 10:41:22.084   12 Jun 2027 10:41:24.429             2.345           530.313
       274   12 Jun 2027 10:41:39.652   12 Jun 2027 10:41:39.652             0.000             0.000
       275   13 Jun 2027 03:00:00.000   13 Jun 2027 03:00:08.723             8.723          4361.500
       276   13 Jun 2027 03:00:12.437   13 Jun 2027 03:00:35.916            23.479         11739.500
       277   13 Jun 2027 03:00:36.939   13 Jun 2027 03:00:56.749            19.810          9905.000
       278   13 Jun 2027 04:34:12.042   13 Jun 2027 04:35:20.998            68.956         34478.000
       279   13 Jun 2027 04:35:23.214   13 Jun 2027 04:36:22.633            59.419         29709.500
       280   13 Jun 2027 04:36:24.984   13 Jun 2027 04:36:28.330             3.346          1673.000
       281   13 Jun 2027 04:36:37.031   13 Jun 2027 04:36:37.031             0.000             0.000
       282   13 Jun 2027 04:37:49.188   13 Jun 2027 04:37:50.136             0.948           474.000
       283   13 Jun 2027 06:12:59.471   13 Jun 2027 06:16:06.177           186.706         91817.188
       284   13 Jun 2027 06:16:37.569   13 Jun 2027 06:16:38.958             1.389           505.531
       285   13 Jun 2027 06:17:48.707   13 Jun 2027 06:17:51.175             2.468           376.344
       286   13 Jun 2027 06:18:30.857   13 Jun 2027 06:18:34.208             3.351          1055.344
       287   13 Jun 2027 07:37:18.864   13 Jun 2027 07:37:33.680            14.816          6290.219
       288   13 Jun 2027 07:38:23.452   13 Jun 2027 07:38:25.873             2.421          1112.031
       289   13 Jun 2027 07:38:42.082   13 Jun 2027 07:38:42.490             0.408           186.469
       290   13 Jun 2027 07:39:22.578   13 Jun 2027 07:39:24.260             1.682           841.000
       291   13 Jun 2027 07:49:34.399   13 Jun 2027 07:49:41.711             7.312          2596.062
       292   13 Jun 2027 09:11:31.160   13 Jun 2027 09:11:52.702            21.542          9184.250
       293   13 Jun 2027 09:13:33.913   13 Jun 2027 09:13:36.609             2.696           400.313
       294   13 Jun 2027 09:14:13.446   13 Jun 2027 09:14:23.727            10.281          1043.094
       295   13 Jun 2027 09:14:53.087   13 Jun 2027 09:14:56.348             3.261           544.187
       296   13 Jun 2027 09:16:39.713   13 Jun 2027 09:16:48.849             9.136          2409.781
       297   13 Jun 2027 10:46:20.053   13 Jun 2027 10:46:27.956             7.903          3407.531
       298   13 Jun 2027 10:48:19.992   13 Jun 2027 10:48:24.167             4.175          1875.625
       299   13 Jun 2027 10:49:53.617   13 Jun 2027 10:50:00.081             6.464          2208.312
       300   13 Jun 2027 10:53:23.145   13 Jun 2027 10:53:35.538            12.393          5909.281
       301   13 Jun 2027 10:53:42.977   13 Jun 2027 10:53:43.709             0.732           153.750
       302   13 Jun 2027 10:54:39.252   13 Jun 2027 10:54:42.849             3.597          1268.625
       303   13 Jun 2027 10:55:06.257   13 Jun 2027 10:55:07.545             1.288           580.500
