uniorb/output/strategy_4/Camera/Camera_KinoSat_110606.txt

KinoSat_110606
-------------------------
    Access    *     Start Time (UTCG)     *     Stop Time (UTCG)  *   Duration (s) *   Data (Mbytes)
         1   01 Jun 2027 03:34:28.878   01 Jun 2027 03:35:32.054            63.176         31588.000
         2   01 Jun 2027 03:35:49.668   01 Jun 2027 03:36:00.449            10.781          5390.500
         3   01 Jun 2027 03:36:31.453   01 Jun 2027 03:36:34.744             3.291          1645.500
         4   01 Jun 2027 03:36:44.515   01 Jun 2027 03:36:44.515             0.000             0.000
         5   01 Jun 2027 05:09:35.162   01 Jun 2027 05:11:41.962           126.800         63400.000
         6   01 Jun 2027 05:11:52.678   01 Jun 2027 05:12:04.905            12.227          6113.500
         7   01 Jun 2027 05:14:52.724   01 Jun 2027 05:14:52.724             0.000             0.000
         8   01 Jun 2027 05:15:31.004   01 Jun 2027 05:15:45.480            14.476          7238.000
         9   01 Jun 2027 05:16:03.803   01 Jun 2027 05:16:24.873            21.070         10535.000
        10   01 Jun 2027 06:45:55.882   01 Jun 2027 06:47:46.887           111.005         55502.500
        11   01 Jun 2027 06:48:42.291   01 Jun 2027 06:48:51.539             9.248          4624.000
        12   01 Jun 2027 06:50:06.559   01 Jun 2027 06:50:17.831            11.272          5636.000
        13   01 Jun 2027 08:23:25.799   01 Jun 2027 08:25:29.690           123.891         61945.500
        14   01 Jun 2027 08:26:00.415   01 Jun 2027 08:26:28.139            27.724         13862.000
        15   01 Jun 2027 08:27:42.410   01 Jun 2027 08:27:50.270             7.860          3930.000
        16   01 Jun 2027 09:59:30.256   01 Jun 2027 10:02:07.723           157.467         78733.500
        17   01 Jun 2027 10:02:24.679   01 Jun 2027 10:02:32.096             7.417          3708.500
        18   02 Jun 2027 03:46:39.191   02 Jun 2027 03:47:05.960            26.769         13384.500
        19   02 Jun 2027 03:49:12.120   02 Jun 2027 03:49:12.120             0.000             0.000
        20   02 Jun 2027 05:21:49.159   02 Jun 2027 05:24:43.317           174.158         87079.000
        21   02 Jun 2027 05:25:34.052   02 Jun 2027 05:25:34.052             0.000             0.000
        22   02 Jun 2027 05:25:38.024   02 Jun 2027 05:25:47.291             9.267          4633.500
        23   02 Jun 2027 05:27:20.187   02 Jun 2027 05:27:21.127             0.940           470.000
        24   02 Jun 2027 05:27:39.736   02 Jun 2027 05:27:57.824            18.088          9044.000
        25   02 Jun 2027 05:28:24.671   02 Jun 2027 05:28:25.053             0.382           191.000
        26   02 Jun 2027 06:58:10.646   02 Jun 2027 07:01:21.704           191.058         95529.000
        27   02 Jun 2027 08:35:29.077   02 Jun 2027 08:39:59.111           270.034        132989.875
        28   02 Jun 2027 10:11:41.192   02 Jun 2027 10:11:59.828            18.636          8854.844
        29   02 Jun 2027 10:16:04.511   02 Jun 2027 10:16:12.489             7.978           164.719
        30   03 Jun 2027 03:58:29.867   03 Jun 2027 03:58:54.466            24.599         12299.500
        31   03 Jun 2027 03:59:11.612   03 Jun 2027 03:59:12.478             0.866           433.000
        32   03 Jun 2027 05:33:23.747   03 Jun 2027 05:35:56.778           153.031         76515.500
        33   03 Jun 2027 05:39:12.575   03 Jun 2027 05:39:58.502            45.927         22963.500
        34   03 Jun 2027 05:40:30.002   03 Jun 2027 05:40:34.028             4.026          2013.000
        35   03 Jun 2027 07:09:46.606   03 Jun 2027 07:11:33.115           106.509         52607.188
        36   03 Jun 2027 07:16:11.049   03 Jun 2027 07:16:12.312             1.263           362.438
        37   03 Jun 2027 08:48:03.351   03 Jun 2027 08:48:15.838            12.487          5774.219
        38   03 Jun 2027 08:49:45.939   03 Jun 2027 08:49:47.985             2.046           759.781
        39   03 Jun 2027 08:50:13.867   03 Jun 2027 08:50:16.154             2.287           794.719
        40   03 Jun 2027 10:23:25.379   03 Jun 2027 10:23:37.378            11.999          5941.469
        41   04 Jun 2027 04:08:47.310   04 Jun 2027 04:09:17.937            30.627         15313.500
        42   04 Jun 2027 04:09:27.339   04 Jun 2027 04:09:33.105             5.766          2883.000
        43   04 Jun 2027 04:11:45.624   04 Jun 2027 04:11:45.624             0.000             0.000
        44   04 Jun 2027 04:13:32.484   04 Jun 2027 04:13:33.650             1.166           583.000
        45   04 Jun 2027 04:13:53.596   04 Jun 2027 04:13:54.501             0.905           452.500
        46   04 Jun 2027 04:14:36.716   04 Jun 2027 04:14:39.380             2.664          1332.000
        47   04 Jun 2027 05:45:00.000   04 Jun 2027 05:47:28.293           148.292         74146.000
        48   04 Jun 2027 05:48:21.382   04 Jun 2027 05:48:35.569            14.187          7093.500
        49   04 Jun 2027 05:49:06.801   04 Jun 2027 05:49:39.966            33.165         16582.500
        50   04 Jun 2027 05:51:50.491   04 Jun 2027 05:51:58.252             7.761          3880.500
        51   04 Jun 2027 05:52:34.543   04 Jun 2027 05:52:34.728             0.185            92.500
        52   04 Jun 2027 07:22:06.368   04 Jun 2027 07:23:43.812            97.444         47294.968
        53   04 Jun 2027 09:00:04.331   04 Jun 2027 09:00:16.162            11.831          5320.750
        54   04 Jun 2027 09:02:53.042   04 Jun 2027 09:02:58.571             5.529           613.187
        55   04 Jun 2027 09:03:44.769   04 Jun 2027 09:03:46.670             1.901           864.469
        56   04 Jun 2027 09:03:52.296   04 Jun 2027 09:03:53.345             1.049           131.500
        57   04 Jun 2027 10:33:12.028   04 Jun 2027 10:33:26.543            14.515          5353.750
        58   05 Jun 2027 04:19:54.022   05 Jun 2027 04:21:23.900            89.878         44939.000
        59   05 Jun 2027 04:25:02.811   05 Jun 2027 04:25:02.811             0.000             0.000
        60   05 Jun 2027 04:25:35.552   05 Jun 2027 04:25:43.000             7.448          3724.000
        61   05 Jun 2027 04:26:35.100   05 Jun 2027 04:26:37.444             2.344          1172.000
        62   05 Jun 2027 04:27:56.712   05 Jun 2027 04:27:57.175             0.463           231.500
        63   05 Jun 2027 04:27:57.229   05 Jun 2027 04:28:13.708            16.479          8239.500
        64   05 Jun 2027 05:57:19.845   05 Jun 2027 05:59:43.597           143.752         71876.000
        65   05 Jun 2027 06:00:43.157   05 Jun 2027 06:00:44.367             1.210           605.000
        66   05 Jun 2027 06:03:34.602   05 Jun 2027 06:04:13.985            39.383         19691.500
        67   05 Jun 2027 06:04:38.326   05 Jun 2027 06:04:38.806             0.480           240.000
        68   05 Jun 2027 07:34:06.806   05 Jun 2027 07:35:01.148            54.342         25541.125
        69   05 Jun 2027 07:37:58.702   05 Jun 2027 07:38:01.483             2.781           922.031
        70   05 Jun 2027 07:39:13.945   05 Jun 2027 07:39:18.454             4.509          1864.906
        71   05 Jun 2027 07:40:21.173   05 Jun 2027 07:40:25.376             4.203          1548.844
        72   05 Jun 2027 09:12:04.824   05 Jun 2027 09:12:17.887            13.063          6004.313
        73   05 Jun 2027 10:45:42.165   05 Jun 2027 10:45:50.534             8.369          1394.875
        74   06 Jun 2027 03:00:00.000   06 Jun 2027 03:00:00.606             0.606           303.000
        75   06 Jun 2027 03:00:31.087   06 Jun 2027 03:00:44.829            13.742          6871.000
        76   06 Jun 2027 04:31:22.680   06 Jun 2027 04:32:49.751            87.071         43535.500
        77   06 Jun 2027 04:33:42.655   06 Jun 2027 04:34:31.348            48.693         24346.500
        78   06 Jun 2027 04:35:16.715   06 Jun 2027 04:35:53.633            36.918         18459.000
        79   06 Jun 2027 04:36:30.768   06 Jun 2027 04:36:30.768             0.000             0.000
        80   06 Jun 2027 04:38:44.628   06 Jun 2027 04:38:56.617            11.989          5994.500
        81   06 Jun 2027 04:39:18.888   06 Jun 2027 04:39:22.856             3.968          1984.000
        82   06 Jun 2027 04:40:02.112   06 Jun 2027 04:40:07.435             5.323          2661.500
        83   06 Jun 2027 04:40:31.158   06 Jun 2027 04:40:31.257             0.099            49.500
        84   06 Jun 2027 06:09:13.835   06 Jun 2027 06:11:06.776           112.941         56246.437
        85   06 Jun 2027 06:11:45.378   06 Jun 2027 06:11:50.767             5.389           559.219
        86   06 Jun 2027 06:12:11.422   06 Jun 2027 06:12:15.812             4.390           645.469
        87   06 Jun 2027 06:12:26.875   06 Jun 2027 06:12:26.875             0.000             0.000
        88   06 Jun 2027 06:13:44.445   06 Jun 2027 06:13:46.867             2.422          1211.000
        89   06 Jun 2027 06:13:56.628   06 Jun 2027 06:14:02.872             6.244          1723.469
        90   06 Jun 2027 06:15:08.213   06 Jun 2027 06:15:13.383             5.170          1512.563
        91   06 Jun 2027 07:45:58.392   06 Jun 2027 07:46:04.484             6.092          1227.094
        92   06 Jun 2027 07:51:24.297   06 Jun 2027 07:51:28.820             4.523          2140.469
        93   06 Jun 2027 09:24:07.418   06 Jun 2027 09:24:19.177            11.759          3269.500
        94   06 Jun 2027 10:57:59.028   06 Jun 2027 10:58:04.210             5.182          1182.500
        95   07 Jun 2027 03:10:23.209   07 Jun 2027 03:10:38.547            15.338          7669.000
        96   07 Jun 2027 03:11:31.631   07 Jun 2027 03:11:31.631             0.000             0.000
        97   07 Jun 2027 04:44:11.285   07 Jun 2027 04:47:22.052           190.767         95383.500
        98   07 Jun 2027 04:51:43.132   07 Jun 2027 04:52:43.114            59.982         29991.000
        99   07 Jun 2027 06:21:20.853   07 Jun 2027 06:22:02.635            41.782         20261.094
       100   07 Jun 2027 06:22:39.530   07 Jun 2027 06:22:43.449             3.919           454.563
       101   07 Jun 2027 06:23:38.697   07 Jun 2027 06:23:46.866             8.169          1669.781
       102   07 Jun 2027 06:23:48.440   07 Jun 2027 06:23:55.087             6.647            49.188
       103   07 Jun 2027 06:24:27.782   07 Jun 2027 06:24:29.639             1.857           859.531
       104   07 Jun 2027 06:25:48.028   07 Jun 2027 06:25:49.906             1.878           193.719
       105   07 Jun 2027 06:26:17.154   07 Jun 2027 06:26:19.677             2.523           851.500
       106   07 Jun 2027 07:58:24.467   07 Jun 2027 07:58:26.407             1.940           683.906
       107   07 Jun 2027 08:02:28.275   07 Jun 2027 08:02:30.487             2.212           642.625
       108   07 Jun 2027 09:35:18.184   07 Jun 2027 09:35:23.446             5.262          2299.688
       109   07 Jun 2027 09:36:51.524   07 Jun 2027 09:37:00.214             8.690          1868.906
       110   07 Jun 2027 11:10:28.203   07 Jun 2027 11:10:29.684             1.481           235.781
       111   08 Jun 2027 03:22:40.139   08 Jun 2027 03:23:02.297            22.158         11079.000
       112   08 Jun 2027 03:25:34.850   08 Jun 2027 03:25:34.850             0.000             0.000
       113   08 Jun 2027 04:56:32.470   08 Jun 2027 04:59:42.151           189.681         94840.500
       114   08 Jun 2027 05:03:07.701   08 Jun 2027 05:03:40.030            32.329         16164.500
       115   08 Jun 2027 05:03:41.084   08 Jun 2027 05:03:45.218             4.134          2067.000
       116   08 Jun 2027 05:04:27.322   08 Jun 2027 05:04:27.322             0.000             0.000
       117   08 Jun 2027 05:04:39.253   08 Jun 2027 05:04:41.702             2.449          1224.500
       118   08 Jun 2027 06:33:47.318   08 Jun 2027 06:34:57.257            69.939         33570.062
       119   08 Jun 2027 08:10:49.156   08 Jun 2027 08:10:55.374             6.218          1090.094
       120   08 Jun 2027 08:14:06.467   08 Jun 2027 08:14:07.745             1.278           256.156
       121   08 Jun 2027 09:47:32.912   08 Jun 2027 09:47:45.489            12.577          3525.063
       122   08 Jun 2027 11:25:42.002   08 Jun 2027 11:25:43.723             1.721            77.313
       123   09 Jun 2027 03:34:43.394   09 Jun 2027 03:34:55.753            12.359          6179.500
       124   09 Jun 2027 03:36:23.808   09 Jun 2027 03:36:43.793            19.985          9992.500
       125   09 Jun 2027 05:09:50.192   09 Jun 2027 05:10:22.242            32.050         16025.000
       126   09 Jun 2027 05:11:12.316   09 Jun 2027 05:11:41.305            28.989         14494.500
       127   09 Jun 2027 05:12:54.459   09 Jun 2027 05:13:35.729            41.270         20635.000
       128   09 Jun 2027 05:13:46.422   09 Jun 2027 05:15:07.606            81.184         40592.000
       129   09 Jun 2027 05:15:42.922   09 Jun 2027 05:16:00.567            17.645          8822.500
       130   09 Jun 2027 05:16:19.004   09 Jun 2027 05:16:39.806            20.802         10401.000
       131   09 Jun 2027 06:46:10.760   09 Jun 2027 06:47:21.508            70.748         34360.594
       132   09 Jun 2027 06:51:38.143   09 Jun 2027 06:51:40.433             2.290          1109.031
       133   09 Jun 2027 08:23:40.951   09 Jun 2027 08:23:42.753             1.802           722.000
       134   09 Jun 2027 08:26:23.583   09 Jun 2027 08:26:24.872             1.289           447.844
       135   09 Jun 2027 09:59:45.416   09 Jun 2027 09:59:56.795            11.379          4964.250
       136   09 Jun 2027 10:03:17.673   09 Jun 2027 10:03:29.251            11.578           852.344
       137   10 Jun 2027 03:46:54.256   10 Jun 2027 03:46:58.751             4.495          2247.500
       138   10 Jun 2027 03:48:17.677   10 Jun 2027 03:48:31.030            13.353          6676.500
       139   10 Jun 2027 05:22:03.765   10 Jun 2027 05:24:54.231           170.466         85233.000
       140   10 Jun 2027 05:28:12.478   10 Jun 2027 05:28:39.718            27.240         13620.000
       141   10 Jun 2027 06:58:25.139   10 Jun 2027 07:00:08.980           103.841         50264.969
       142   10 Jun 2027 07:03:05.320   10 Jun 2027 07:03:06.911             1.591           546.125
       143   10 Jun 2027 08:35:43.156   10 Jun 2027 08:35:47.714             4.558          2183.031
       144   10 Jun 2027 08:37:33.355   10 Jun 2027 08:37:36.478             3.123           672.531
       145   10 Jun 2027 10:11:55.124   10 Jun 2027 10:12:07.269            12.145          4931.938
       146   11 Jun 2027 03:58:44.275   11 Jun 2027 03:59:09.261            24.986         12493.000
       147   11 Jun 2027 03:59:27.664   11 Jun 2027 03:59:28.589             0.925           462.500
       148   11 Jun 2027 05:33:38.003   11 Jun 2027 05:36:37.976           179.973         89986.500
       149   11 Jun 2027 05:38:30.146   11 Jun 2027 05:38:56.950            26.804         13402.000
       150   11 Jun 2027 05:40:17.516   11 Jun 2027 05:40:48.683            31.167         15583.500
       151   11 Jun 2027 07:10:01.722   11 Jun 2027 07:11:06.165            64.443         31849.188
       152   11 Jun 2027 07:14:34.969   11 Jun 2027 07:14:40.198             5.229          1601.594
       153   11 Jun 2027 08:48:18.136   11 Jun 2027 08:48:27.340             9.204          4349.312
       154   11 Jun 2027 08:49:37.262   11 Jun 2027 08:49:39.242             1.980           126.750
       155   11 Jun 2027 08:50:00.570   11 Jun 2027 08:50:02.797             2.227           531.187
       156   11 Jun 2027 08:50:28.596   11 Jun 2027 08:50:30.839             2.243           781.156
       157   11 Jun 2027 10:23:43.345   11 Jun 2027 10:23:55.726            12.381          5622.906
       158   12 Jun 2027 04:09:01.925   12 Jun 2027 04:09:32.723            30.798         15399.000
       159   12 Jun 2027 04:09:42.212   12 Jun 2027 04:09:48.131             5.919          2959.500
       160   12 Jun 2027 04:13:47.381   12 Jun 2027 04:14:08.649            21.268         10634.000
       161   12 Jun 2027 05:45:14.729   12 Jun 2027 05:47:42.937           148.208         74104.000
       162   12 Jun 2027 05:48:18.879   12 Jun 2027 05:48:50.308            31.429         15714.500
       163   12 Jun 2027 05:50:23.816   12 Jun 2027 05:50:25.617             1.801           900.500
       164   12 Jun 2027 05:52:49.242   12 Jun 2027 05:52:49.411             0.169            84.500
       165   12 Jun 2027 07:22:21.085   12 Jun 2027 07:24:12.013           110.928         54137.344
       166   12 Jun 2027 09:00:18.985   12 Jun 2027 09:00:29.993            11.008          4350.906
       167   12 Jun 2027 09:01:58.967   12 Jun 2027 09:02:09.250            10.283          2123.063
       168   12 Jun 2027 09:04:07.171   12 Jun 2027 09:04:08.377             1.206           147.719
       169   12 Jun 2027 10:33:25.823   12 Jun 2027 10:33:35.187             9.364          4495.000
       170   13 Jun 2027 04:20:08.491   13 Jun 2027 04:20:54.242            45.751         22875.500
       171   13 Jun 2027 04:21:06.002   13 Jun 2027 04:21:38.723            32.721         16360.500
       172   13 Jun 2027 04:25:17.573   13 Jun 2027 04:25:31.949            14.376          7188.000
       173   13 Jun 2027 04:26:02.321   13 Jun 2027 04:26:10.763             8.442          4221.000
       174   13 Jun 2027 04:26:56.504   13 Jun 2027 04:27:27.184            30.680         15340.000
       175   13 Jun 2027 05:57:34.608   13 Jun 2027 05:59:42.728           128.120         64060.000
       176   13 Jun 2027 06:00:25.175   13 Jun 2027 06:00:31.019             5.844          2922.000
       177   13 Jun 2027 06:01:59.226   13 Jun 2027 06:02:00.042             0.816           408.000
       178   13 Jun 2027 06:03:57.563   13 Jun 2027 06:04:53.491            55.928         27964.000
       179   13 Jun 2027 07:34:21.317   13 Jun 2027 07:35:02.168            40.851         20038.157
       180   13 Jun 2027 07:39:28.970   13 Jun 2027 07:39:34.797             5.827          2366.844
       181   13 Jun 2027 07:39:53.247   13 Jun 2027 07:39:55.083             1.836           565.250
       182   13 Jun 2027 09:12:19.437   13 Jun 2027 09:12:31.483            12.046          5470.938
       183   13 Jun 2027 09:16:10.893   13 Jun 2027 09:16:12.029             1.136             2.719
       184   13 Jun 2027 10:45:56.993   13 Jun 2027 10:46:05.749             8.756          1880.500
