uniorb/output/strategy_4/Camera/Camera_KinoSat_111901.txt

KinoSat_111901
-------------------------
    Access    *     Start Time (UTCG)     *     Stop Time (UTCG)  *   Duration (s) *   Data (Mbytes)
         1   01 Jun 2027 03:39:08.687   01 Jun 2027 03:41:21.888           133.201         66600.500
         2   01 Jun 2027 03:41:23.210   01 Jun 2027 03:41:25.341             2.131          1065.500
         3   01 Jun 2027 03:42:05.808   01 Jun 2027 03:42:12.838             7.030          3515.000
         4   01 Jun 2027 03:42:23.669   01 Jun 2027 03:42:23.669             0.000             0.000
         5   01 Jun 2027 03:43:26.955   01 Jun 2027 03:43:28.368             1.413           706.500
         6   01 Jun 2027 03:44:20.138   01 Jun 2027 03:44:28.877             8.739          4369.500
         7   01 Jun 2027 05:18:25.780   01 Jun 2027 05:20:09.635           103.855         51927.500
         8   01 Jun 2027 05:21:03.729   01 Jun 2027 05:21:32.171            28.442         14221.000
         9   01 Jun 2027 05:23:18.417   01 Jun 2027 05:23:33.957            15.540          7770.000
        10   01 Jun 2027 05:25:07.053   01 Jun 2027 05:25:11.094             4.041          2020.500
        11   01 Jun 2027 06:44:36.952   01 Jun 2027 06:45:00.559            23.607         11803.500
        12   01 Jun 2027 06:55:29.175   01 Jun 2027 06:56:21.743            52.568         26284.000
        13   01 Jun 2027 06:57:42.069   01 Jun 2027 06:58:09.929            27.860         13930.000
        14   01 Jun 2027 08:19:27.574   01 Jun 2027 08:20:19.849            52.275         26137.500
        15   01 Jun 2027 08:22:11.783   01 Jun 2027 08:22:13.620             1.837           918.500
        16   01 Jun 2027 09:55:12.228   01 Jun 2027 09:55:34.944            22.716         11358.000
        17   01 Jun 2027 09:57:13.107   01 Jun 2027 09:57:55.340            42.233         21116.500
        18   01 Jun 2027 09:58:06.094   01 Jun 2027 09:58:33.787            27.693         13846.500
        19   01 Jun 2027 11:30:30.509   01 Jun 2027 11:30:37.819             7.310          3655.000
        20   01 Jun 2027 11:33:46.023   01 Jun 2027 11:36:08.816           142.793         71396.500
        21   01 Jun 2027 11:36:51.858   01 Jun 2027 11:37:28.085            36.227         18113.500
        22   02 Jun 2027 03:51:48.543   02 Jun 2027 03:53:53.627           125.084         62542.000
        23   02 Jun 2027 03:54:25.274   02 Jun 2027 03:54:47.205            21.931         10965.500
        24   02 Jun 2027 03:55:48.822   02 Jun 2027 03:56:09.469            20.647         10323.500
        25   02 Jun 2027 03:57:40.125   02 Jun 2027 03:57:40.125             0.000             0.000
        26   02 Jun 2027 05:30:48.958   02 Jun 2027 05:34:14.367           205.409        102704.500
        27   02 Jun 2027 05:36:37.124   02 Jun 2027 05:38:06.176            89.052         44526.000
        28   02 Jun 2027 06:55:51.382   02 Jun 2027 06:56:28.788            37.406         18703.000
        29   02 Jun 2027 07:07:30.490   02 Jun 2027 07:08:43.520            73.030         36515.000
        30   02 Jun 2027 08:30:03.114   02 Jun 2027 08:31:03.769            60.655         30327.500
        31   02 Jun 2027 08:31:44.129   02 Jun 2027 08:32:19.807            35.678         17839.000
        32   02 Jun 2027 08:33:30.207   02 Jun 2027 08:33:50.414            20.207         10103.500
        33   02 Jun 2027 08:34:41.354   02 Jun 2027 08:34:48.619             7.265          3632.500
        34   02 Jun 2027 10:05:05.982   02 Jun 2027 10:06:13.043            67.061         32951.313
        35   02 Jun 2027 10:06:56.848   02 Jun 2027 10:06:58.470             1.622           417.156
        36   02 Jun 2027 10:09:50.172   02 Jun 2027 10:09:52.541             2.369          1184.500
        37   02 Jun 2027 10:10:55.006   02 Jun 2027 10:11:04.890             9.884          4444.625
        38   02 Jun 2027 10:11:28.451   02 Jun 2027 10:11:40.924            12.473           520.906
        39   02 Jun 2027 11:48:25.879   02 Jun 2027 11:49:03.112            37.233         17526.844
        40   03 Jun 2027 04:04:06.696   03 Jun 2027 04:06:21.374           134.678         67339.000
        41   03 Jun 2027 04:06:25.406   03 Jun 2027 04:06:54.199            28.793         14396.500
        42   03 Jun 2027 04:07:26.522   03 Jun 2027 04:08:00.793            34.271         17135.500
        43   03 Jun 2027 04:09:09.947   03 Jun 2027 04:09:09.947             0.000             0.000
        44   03 Jun 2027 04:09:54.923   03 Jun 2027 04:10:01.287             6.364          3182.000
        45   03 Jun 2027 05:43:07.649   03 Jun 2027 05:44:55.985           108.336         54168.000
        46   03 Jun 2027 05:45:17.498   03 Jun 2027 05:45:32.801            15.303          7554.438
        47   03 Jun 2027 05:48:04.166   03 Jun 2027 05:48:12.603             8.437          3578.312
        48   03 Jun 2027 05:48:35.835   03 Jun 2027 05:48:38.284             2.449           437.687
        49   03 Jun 2027 07:07:12.635   03 Jun 2027 07:07:30.433            17.798          6239.031
        50   03 Jun 2027 07:07:51.733   03 Jun 2027 07:07:51.733             0.000             0.000
        51   03 Jun 2027 07:08:02.117   03 Jun 2027 07:08:03.691             1.574           787.000
        52   03 Jun 2027 07:08:18.423   03 Jun 2027 07:08:22.094             3.671           663.500
        53   03 Jun 2027 07:09:15.220   03 Jun 2027 07:09:18.084             2.864          1395.594
        54   03 Jun 2027 07:09:26.307   03 Jun 2027 07:09:27.313             1.006           187.250
        55   03 Jun 2027 07:19:27.785   03 Jun 2027 07:19:34.500             6.715          2410.406
        56   03 Jun 2027 08:41:27.328   03 Jun 2027 08:41:53.481            26.153         11826.937
        57   03 Jun 2027 08:42:47.716   03 Jun 2027 08:42:50.608             2.892          1368.156
        58   03 Jun 2027 08:44:19.203   03 Jun 2027 08:44:24.394             5.191          2170.469
        59   03 Jun 2027 08:45:53.439   03 Jun 2027 08:46:04.200            10.761          2239.125
        60   03 Jun 2027 10:16:30.451   03 Jun 2027 10:16:41.836            11.385          2734.719
        61   03 Jun 2027 10:18:04.775   03 Jun 2027 10:18:08.492             3.717          1509.187
        62   03 Jun 2027 10:18:47.533   03 Jun 2027 10:18:52.725             5.192          1193.969
        63   03 Jun 2027 10:22:21.677   03 Jun 2027 10:22:32.721            11.044          5400.406
        64   03 Jun 2027 10:23:15.813   03 Jun 2027 10:23:19.777             3.964           499.781
        65   03 Jun 2027 10:24:01.414   03 Jun 2027 10:24:08.305             6.891          1213.562
        66   04 Jun 2027 04:16:30.705   04 Jun 2027 04:16:35.272             4.567          2283.500
        67   04 Jun 2027 04:16:51.875   04 Jun 2027 04:18:11.914            80.039         40019.500
        68   04 Jun 2027 04:18:53.028   04 Jun 2027 04:19:31.452            38.424         19212.000
        69   04 Jun 2027 04:20:43.793   04 Jun 2027 04:20:49.560             5.767          2883.500
        70   04 Jun 2027 04:20:55.805   04 Jun 2027 04:21:02.206             6.401          3200.500
        71   04 Jun 2027 05:55:12.844   04 Jun 2027 05:57:58.072           165.228         82614.000
        72   04 Jun 2027 05:59:27.949   04 Jun 2027 05:59:50.476            22.527          9517.187
        73   04 Jun 2027 06:00:24.844   04 Jun 2027 06:00:29.638             4.794          1000.344
        74   04 Jun 2027 07:19:20.268   04 Jun 2027 07:19:38.177            17.909          8501.656
        75   04 Jun 2027 07:20:04.559   04 Jun 2027 07:20:04.559             0.000             0.000
        76   04 Jun 2027 07:20:23.409   04 Jun 2027 07:20:25.653             2.244          1112.906
        77   04 Jun 2027 08:53:09.753   04 Jun 2027 08:53:30.597            20.844         10145.750
        78   04 Jun 2027 08:55:15.285   04 Jun 2027 08:55:23.106             7.821          2592.219
        79   04 Jun 2027 08:55:39.570   04 Jun 2027 08:55:41.930             2.360           473.031
        80   04 Jun 2027 08:56:50.226   04 Jun 2027 08:56:53.725             3.499          1270.312
        81   04 Jun 2027 10:28:01.795   04 Jun 2027 10:28:12.588            10.793          5329.906
        82   04 Jun 2027 10:30:58.082   04 Jun 2027 10:30:59.711             1.629           814.500
        83   04 Jun 2027 10:31:46.346   04 Jun 2027 10:31:46.618             0.272           136.000
        84   04 Jun 2027 10:33:51.043   04 Jun 2027 10:34:03.359            12.316          5232.219
        85   04 Jun 2027 10:34:26.133   04 Jun 2027 10:34:28.982             2.849           251.031
        86   04 Jun 2027 10:35:36.100   04 Jun 2027 10:35:37.743             1.643           671.500
        87   04 Jun 2027 10:37:33.904   04 Jun 2027 10:37:35.567             1.663           831.500
        88   05 Jun 2027 04:29:24.345   05 Jun 2027 04:30:21.902            57.557         28778.500
        89   05 Jun 2027 04:30:28.074   05 Jun 2027 04:30:51.838            23.764         11882.000
        90   05 Jun 2027 04:31:20.277   05 Jun 2027 04:32:06.634            46.357         23178.500
        91   05 Jun 2027 04:32:20.082   05 Jun 2027 04:32:22.607             2.525          1262.500
        92   05 Jun 2027 06:07:49.747   05 Jun 2027 06:11:06.337           196.590         97987.063
        93   05 Jun 2027 06:12:13.368   05 Jun 2027 06:12:15.244             1.876           682.781
        94   05 Jun 2027 07:31:17.051   05 Jun 2027 07:31:32.838            15.787          6901.406
        95   05 Jun 2027 07:32:33.741   05 Jun 2027 07:32:33.741             0.000             0.000
        96   05 Jun 2027 07:32:43.056   05 Jun 2027 07:32:47.273             4.217          1898.688
        97   05 Jun 2027 09:07:21.132   05 Jun 2027 09:07:45.039            23.907         11337.156
        98   05 Jun 2027 09:07:56.621   05 Jun 2027 09:08:00.155             3.534           361.937
        99   05 Jun 2027 09:08:10.926   05 Jun 2027 09:08:13.716             2.790           111.625
       100   05 Jun 2027 09:08:17.216   05 Jun 2027 09:08:22.079             4.863            47.375
       101   05 Jun 2027 09:08:39.492   05 Jun 2027 09:08:41.314             1.822           544.156
       102   05 Jun 2027 09:09:38.152   05 Jun 2027 09:09:38.152             0.000             0.000
       103   05 Jun 2027 09:09:56.498   05 Jun 2027 09:10:00.806             4.308          1719.312
       104   05 Jun 2027 10:41:02.639   05 Jun 2027 10:41:08.612             5.973          2902.031
       105   05 Jun 2027 10:42:39.225   05 Jun 2027 10:42:44.623             5.398          2190.063
       106   05 Jun 2027 10:43:14.913   05 Jun 2027 10:43:19.125             4.212           400.000
       107   05 Jun 2027 10:43:57.546   05 Jun 2027 10:43:57.546             0.000             0.000
       108   05 Jun 2027 10:44:03.728   05 Jun 2027 10:44:06.813             3.085           703.500
       109   05 Jun 2027 10:45:07.283   05 Jun 2027 10:45:10.662             3.379           367.625
       110   05 Jun 2027 10:48:11.573   05 Jun 2027 10:48:22.123            10.550          4918.156
       111   05 Jun 2027 10:49:36.258   05 Jun 2027 10:49:37.234             0.976           488.000
       112   06 Jun 2027 03:03:21.833   06 Jun 2027 03:03:28.968             7.135          3567.500
       113   06 Jun 2027 03:03:42.877   06 Jun 2027 03:03:47.218             4.341          2170.500
       114   06 Jun 2027 03:04:59.785   06 Jun 2027 03:05:24.775            24.990         12495.000
       115   06 Jun 2027 03:06:03.747   06 Jun 2027 03:06:23.640            19.893          9946.500
       116   06 Jun 2027 03:07:07.866   06 Jun 2027 03:07:14.407             6.541          3270.500
       117   06 Jun 2027 03:07:25.469   06 Jun 2027 03:07:34.391             8.922          4461.000
       118   06 Jun 2027 03:08:25.541   06 Jun 2027 03:08:31.742             6.201          3100.500
       119   06 Jun 2027 03:08:56.656   06 Jun 2027 03:09:05.356             8.700          4350.000
       120   06 Jun 2027 03:09:21.247   06 Jun 2027 03:09:32.334            11.087          5543.500
       121   06 Jun 2027 03:10:02.429   06 Jun 2027 03:10:08.115             5.686          2843.000
       122   06 Jun 2027 03:10:20.329   06 Jun 2027 03:10:34.343            14.014          7007.000
       123   06 Jun 2027 04:42:43.886   06 Jun 2027 04:44:22.814            98.928         49464.000
       124   06 Jun 2027 04:44:59.894   06 Jun 2027 04:46:19.558            79.664         39832.000
       125   06 Jun 2027 06:19:28.661   06 Jun 2027 06:20:32.318            63.657         31205.562
       126   06 Jun 2027 06:23:34.114   06 Jun 2027 06:23:35.727             1.613           420.719
       127   06 Jun 2027 06:23:52.225   06 Jun 2027 06:23:53.677             1.452           151.312
       128   06 Jun 2027 07:43:07.912   06 Jun 2027 07:43:20.951            13.039          5886.531
       129   06 Jun 2027 07:44:35.063   06 Jun 2027 07:44:42.033             6.970          1887.000
       130   06 Jun 2027 07:45:03.805   06 Jun 2027 07:45:05.951             2.146           278.625
       131   06 Jun 2027 09:19:34.786   06 Jun 2027 09:19:51.669            16.883          8433.125
       132   06 Jun 2027 09:20:31.185   06 Jun 2027 09:20:35.364             4.179           603.875
       133   06 Jun 2027 09:21:14.543   06 Jun 2027 09:21:15.520             0.977           217.531
       134   06 Jun 2027 09:21:17.550   06 Jun 2027 09:21:17.849             0.299            57.750
       135   06 Jun 2027 09:22:01.427   06 Jun 2027 09:22:04.679             3.252           862.156
       136   06 Jun 2027 09:23:04.118   06 Jun 2027 09:23:07.236             3.118          1495.344
       137   06 Jun 2027 10:51:42.842   06 Jun 2027 10:51:48.641             5.799          2826.313
       138   06 Jun 2027 10:55:33.326   06 Jun 2027 10:55:46.985            13.659          6626.125
       139   06 Jun 2027 10:57:03.739   06 Jun 2027 10:57:07.078             3.339           569.281
       140   06 Jun 2027 10:57:34.050   06 Jun 2027 10:57:37.903             3.853           827.812
       141   06 Jun 2027 10:58:48.935   06 Jun 2027 10:58:54.904             5.969          2075.156
       142   06 Jun 2027 10:58:56.008   06 Jun 2027 10:58:56.850             0.842            14.687
       143   06 Jun 2027 10:59:48.939   06 Jun 2027 10:59:54.097             5.158           168.938
       144   06 Jun 2027 11:01:22.155   06 Jun 2027 11:01:28.962             6.807          2061.219
       145   07 Jun 2027 03:15:24.692   07 Jun 2027 03:15:32.865             8.173          4086.500
       146   07 Jun 2027 03:16:30.038   07 Jun 2027 03:18:52.247           142.209         71104.500
       147   07 Jun 2027 03:19:46.002   07 Jun 2027 03:20:01.528            15.526          7763.000
       148   07 Jun 2027 03:20:33.272   07 Jun 2027 03:20:52.297            19.025          9512.500
       149   07 Jun 2027 04:53:33.876   07 Jun 2027 04:54:04.971            31.095         15547.500
       150   07 Jun 2027 04:55:03.468   07 Jun 2027 04:55:13.218             9.750          4875.000
       151   07 Jun 2027 04:55:33.970   07 Jun 2027 04:57:13.110            99.140         48541.563
       152   07 Jun 2027 04:59:39.427   07 Jun 2027 04:59:47.852             8.425          2467.125
       153   07 Jun 2027 06:32:42.089   07 Jun 2027 06:32:51.263             9.174          3561.094
       154   07 Jun 2027 06:35:21.306   07 Jun 2027 06:35:24.282             2.976           159.344
       155   07 Jun 2027 07:55:16.434   07 Jun 2027 07:55:30.180            13.746          5820.594
       156   07 Jun 2027 07:56:15.955   07 Jun 2027 07:56:17.119             1.164           161.719
       157   07 Jun 2027 07:57:45.873   07 Jun 2027 07:57:53.806             7.933          2179.219
       158   07 Jun 2027 07:58:00.221   07 Jun 2027 07:58:00.722             0.501            41.688
       159   07 Jun 2027 09:31:44.855   07 Jun 2027 09:31:53.179             8.324          3340.750
       160   07 Jun 2027 09:33:03.469   07 Jun 2027 09:33:07.705             4.236          1598.875
       161   07 Jun 2027 09:33:33.064   07 Jun 2027 09:33:36.061             2.997           160.188
       162   07 Jun 2027 11:06:56.180   07 Jun 2027 11:07:07.869            11.689          4143.313
       163   07 Jun 2027 11:07:55.195   07 Jun 2027 11:07:55.195             0.000             0.000
       164   07 Jun 2027 11:08:19.566   07 Jun 2027 11:08:27.216             7.650          1714.281
       165   07 Jun 2027 11:09:42.440   07 Jun 2027 11:09:45.342             2.902           763.469
       166   07 Jun 2027 11:13:00.286   07 Jun 2027 11:13:13.647            13.361          6035.000
       167   07 Jun 2027 11:13:26.577   07 Jun 2027 11:13:27.772             1.195           342.250
       168   07 Jun 2027 11:13:33.938   07 Jun 2027 11:13:36.297             2.359            39.719
       169   08 Jun 2027 03:27:22.097   08 Jun 2027 03:27:57.816            35.719         17859.500
       170   08 Jun 2027 03:28:05.677   08 Jun 2027 03:30:37.049           151.372         75686.000
       171   08 Jun 2027 03:31:31.417   08 Jun 2027 03:31:48.039            16.622          8311.000
       172   08 Jun 2027 03:32:26.367   08 Jun 2027 03:32:26.854             0.487           243.500
       173   08 Jun 2027 03:32:38.574   08 Jun 2027 03:32:51.735            13.161          6580.500
       174   08 Jun 2027 03:33:15.736   08 Jun 2027 03:33:18.007             2.271          1135.500
       175   08 Jun 2027 03:33:42.784   08 Jun 2027 03:33:52.382             9.598          4799.000
       176   08 Jun 2027 05:05:38.743   08 Jun 2027 05:05:55.508            16.765          8382.500
       177   08 Jun 2027 05:06:41.467   08 Jun 2027 05:08:04.795            83.328         41167.906
       178   08 Jun 2027 05:10:29.921   08 Jun 2027 05:10:35.597             5.676           881.000
       179   08 Jun 2027 05:13:56.948   08 Jun 2027 05:14:05.411             8.463          3475.281
       180   08 Jun 2027 06:43:50.394   08 Jun 2027 06:44:02.314            11.920          4925.125
       181   08 Jun 2027 06:47:13.614   08 Jun 2027 06:47:15.073             1.459            37.594
       182   08 Jun 2027 08:07:59.081   08 Jun 2027 08:08:12.381            13.300          6535.125
       183   08 Jun 2027 08:08:32.407   08 Jun 2027 08:08:36.592             4.185           429.438
       184   08 Jun 2027 08:09:59.547   08 Jun 2027 08:10:02.225             2.678          1339.000
       185   08 Jun 2027 09:43:44.528   08 Jun 2027 09:43:55.679            11.151          4801.562
       186   08 Jun 2027 09:46:13.945   08 Jun 2027 09:46:22.726             8.781          4157.813
       187   08 Jun 2027 11:18:57.391   08 Jun 2027 11:19:07.474            10.083          3967.719
       188   08 Jun 2027 11:20:20.839   08 Jun 2027 11:20:29.307             8.468          2160.312
       189   08 Jun 2027 11:21:03.091   08 Jun 2027 11:21:05.109             2.018           853.531
       190   08 Jun 2027 11:23:40.787   08 Jun 2027 11:23:40.787             0.000             0.000
       191   08 Jun 2027 11:24:34.488   08 Jun 2027 11:24:48.911            14.423          6427.156
       192   08 Jun 2027 11:25:18.892   08 Jun 2027 11:25:24.652             5.760           580.312
       193   09 Jun 2027 03:39:52.100   09 Jun 2027 03:42:40.833           168.733         84366.500
       194   09 Jun 2027 03:42:52.614   09 Jun 2027 03:43:43.099            50.485         25242.500
       195   09 Jun 2027 03:43:51.966   09 Jun 2027 03:44:04.897            12.931          6465.500
       196   09 Jun 2027 03:45:24.861   09 Jun 2027 03:45:26.444             1.583           791.500
       197   09 Jun 2027 05:18:44.234   09 Jun 2027 05:20:14.268            90.034         44796.937
       198   09 Jun 2027 05:20:25.480   09 Jun 2027 05:20:31.747             6.267           198.906
       199   09 Jun 2027 05:20:55.965   09 Jun 2027 05:20:56.666             0.701           230.187
       200   09 Jun 2027 05:21:08.352   09 Jun 2027 05:21:10.654             2.302           332.594
       201   09 Jun 2027 05:22:00.321   09 Jun 2027 05:22:03.800             3.479           386.750
       202   09 Jun 2027 05:22:33.290   09 Jun 2027 05:22:35.306             2.016           427.719
       203   09 Jun 2027 05:24:53.566   09 Jun 2027 05:25:01.484             7.918          3851.562
       204   09 Jun 2027 05:25:22.257   09 Jun 2027 05:25:23.737             1.480           649.156
       205   09 Jun 2027 06:44:51.063   09 Jun 2027 06:45:02.152            11.089          4978.906
       206   09 Jun 2027 06:55:46.578   09 Jun 2027 06:55:51.747             5.169          2193.375
       207   09 Jun 2027 08:19:06.190   09 Jun 2027 08:19:21.299            15.109          7554.500
       208   09 Jun 2027 08:20:37.288   09 Jun 2027 08:20:45.109             7.821          3792.906
       209   09 Jun 2027 08:22:01.428   09 Jun 2027 08:22:05.477             4.049          2024.500
       210   09 Jun 2027 09:55:29.166   09 Jun 2027 09:55:36.748             7.582          2980.062
       211   09 Jun 2027 09:56:20.590   09 Jun 2027 09:56:24.329             3.739          1074.313
       212   09 Jun 2027 09:58:07.034   09 Jun 2027 09:58:10.651             3.617          1807.125
       213   09 Jun 2027 09:58:24.856   09 Jun 2027 09:58:27.873             3.017           208.281
       214   09 Jun 2027 11:31:03.437   09 Jun 2027 11:31:21.874            18.437          7573.281
       215   09 Jun 2027 11:36:49.095   09 Jun 2027 11:37:06.129            17.034          7970.687
       216   09 Jun 2027 11:37:41.748   09 Jun 2027 11:37:46.306             4.558           947.656
       217   10 Jun 2027 03:52:06.792   10 Jun 2027 03:56:07.648           240.856        120428.000
       218   10 Jun 2027 03:56:55.109   10 Jun 2027 03:56:57.912             2.803          1401.500
       219   10 Jun 2027 05:31:08.273   10 Jun 2027 05:32:44.131            95.858         47929.000
       220   10 Jun 2027 05:32:49.042   10 Jun 2027 05:32:53.152             4.110           518.313
       221   10 Jun 2027 05:33:09.399   10 Jun 2027 05:33:10.919             1.520           306.094
       222   10 Jun 2027 05:33:56.102   10 Jun 2027 05:33:58.689             2.587            65.563
       223   10 Jun 2027 05:36:52.073   10 Jun 2027 05:37:03.696            11.623          4469.313
       224   10 Jun 2027 05:37:16.560   10 Jun 2027 05:37:17.843             1.283           310.969
       225   10 Jun 2027 06:56:08.657   10 Jun 2027 06:56:18.144             9.487          4743.500
       226   10 Jun 2027 06:56:46.085   10 Jun 2027 06:56:46.374             0.289           144.500
       227   10 Jun 2027 06:56:54.334   10 Jun 2027 06:56:57.223             2.889          1326.843
       228   10 Jun 2027 07:07:48.574   10 Jun 2027 07:07:55.766             7.192          2277.250
       229   10 Jun 2027 07:08:51.158   10 Jun 2027 07:08:52.675             1.517           739.062
       230   10 Jun 2027 08:30:04.679   10 Jun 2027 08:30:20.477            15.798          6552.938
       231   10 Jun 2027 08:30:28.183   10 Jun 2027 08:30:29.284             1.101           240.813
       232   10 Jun 2027 08:31:13.273   10 Jun 2027 08:31:16.949             3.676           889.500
       233   10 Jun 2027 08:31:17.739   10 Jun 2027 08:31:19.966             2.227            24.687
       234   10 Jun 2027 08:32:37.197   10 Jun 2027 08:32:44.928             7.731          2319.844
       235   10 Jun 2027 08:34:00.914   10 Jun 2027 08:34:08.626             7.712          2105.156
       236   10 Jun 2027 08:34:58.569   10 Jun 2027 08:35:03.887             5.318          1560.719
       237   10 Jun 2027 10:05:16.828   10 Jun 2027 10:05:24.308             7.480          2782.125
       238   10 Jun 2027 10:05:38.159   10 Jun 2027 10:05:42.259             4.100           215.969
       239   10 Jun 2027 10:07:13.079   10 Jun 2027 10:07:14.392             1.313           497.500
       240   10 Jun 2027 10:09:51.702   10 Jun 2027 10:10:04.252            12.550          4185.969
       241   10 Jun 2027 10:11:09.400   10 Jun 2027 10:11:13.767             4.367          1964.844
       242   10 Jun 2027 10:11:25.117   10 Jun 2027 10:11:25.743             0.626           247.875
       243   10 Jun 2027 11:42:21.403   10 Jun 2027 11:42:25.950             4.547          2273.500
       244   10 Jun 2027 11:48:54.057   10 Jun 2027 11:49:23.215            29.158         14217.312
       245   11 Jun 2027 04:04:24.719   11 Jun 2027 04:06:34.004           129.285         64642.500
       246   11 Jun 2027 04:07:11.347   11 Jun 2027 04:07:52.416            41.069         20534.500
       247   11 Jun 2027 04:08:15.477   11 Jun 2027 04:08:27.394            11.917          5958.500
       248   11 Jun 2027 04:08:39.007   11 Jun 2027 04:08:46.243             7.236          3618.000
       249   11 Jun 2027 05:43:27.002   11 Jun 2027 05:45:10.641           103.639         51819.500
       250   11 Jun 2027 05:45:32.741   11 Jun 2027 05:46:08.867            36.126         16036.844
       251   11 Jun 2027 05:48:18.845   11 Jun 2027 05:48:27.346             8.501          3576.406
       252   11 Jun 2027 05:48:51.829   11 Jun 2027 05:48:52.910             1.081           394.781
       253   11 Jun 2027 05:49:25.274   11 Jun 2027 05:49:28.363             3.089           686.625
       254   11 Jun 2027 07:07:30.209   11 Jun 2027 07:07:47.904            17.695          6548.313
       255   11 Jun 2027 07:08:07.532   11 Jun 2027 07:08:07.532             0.000             0.000
       256   11 Jun 2027 07:08:17.378   11 Jun 2027 07:08:19.910             2.532           921.063
       257   11 Jun 2027 07:08:48.135   11 Jun 2027 07:08:50.085             1.950           882.031
       258   11 Jun 2027 07:19:45.655   11 Jun 2027 07:19:52.704             7.049          2489.781
       259   11 Jun 2027 08:41:45.892   11 Jun 2027 08:42:08.913            23.021         11198.094
       260   11 Jun 2027 08:42:40.634   11 Jun 2027 08:42:44.015             3.381           784.250
       261   11 Jun 2027 08:44:24.493   11 Jun 2027 08:44:29.702             5.209          1686.312
       262   11 Jun 2027 08:46:32.520   11 Jun 2027 08:46:41.516             8.996          3624.437
       263   11 Jun 2027 08:46:54.519   11 Jun 2027 08:46:55.441             0.922            84.719
       264   11 Jun 2027 10:16:44.560   11 Jun 2027 10:16:50.203             5.643          2550.594
       265   11 Jun 2027 10:18:24.242   11 Jun 2027 10:18:29.184             4.942          1615.000
       266   11 Jun 2027 10:19:06.461   11 Jun 2027 10:19:10.175             3.714          1162.063
       267   11 Jun 2027 10:22:52.413   11 Jun 2027 10:23:04.447            12.034          5875.687
       268   11 Jun 2027 10:23:35.157   11 Jun 2027 10:23:36.507             1.350           484.563
       269   11 Jun 2027 10:24:22.532   11 Jun 2027 10:24:26.859             4.327          1354.344
       270   11 Jun 2027 11:58:05.541   11 Jun 2027 11:58:32.552            27.011         12206.156
       271   11 Jun 2027 11:59:54.233   11 Jun 2027 12:00:00.000             5.767          2245.438
       272   12 Jun 2027 04:17:10.776   12 Jun 2027 04:17:35.839            25.063         12531.500
       273   12 Jun 2027 04:17:38.266   12 Jun 2027 04:19:59.850           141.584         70792.000
       274   12 Jun 2027 05:55:33.000   12 Jun 2027 05:58:12.978           159.978         79989.000
       275   12 Jun 2027 05:59:42.334   12 Jun 2027 05:59:55.138            12.804          4245.187
       276   12 Jun 2027 06:00:42.251   12 Jun 2027 06:00:45.182             2.931           999.469
       277   12 Jun 2027 07:19:38.011   12 Jun 2027 07:19:49.385            11.374          5517.938
       278   12 Jun 2027 07:20:22.221   12 Jun 2027 07:20:22.221             0.000             0.000
       279   12 Jun 2027 07:20:41.377   12 Jun 2027 07:20:43.923             2.546          1182.813
       280   12 Jun 2027 08:53:26.207   12 Jun 2027 08:53:50.537            24.330         11970.375
       281   12 Jun 2027 08:55:35.040   12 Jun 2027 08:55:41.606             6.566          2700.844
       282   12 Jun 2027 08:55:57.486   12 Jun 2027 08:55:58.571             1.085           476.250
       283   12 Jun 2027 08:57:19.279   12 Jun 2027 08:57:25.786             6.507          2513.625
       284   12 Jun 2027 08:57:58.251   12 Jun 2027 08:58:00.336             2.085            20.219
       285   12 Jun 2027 08:58:35.157   12 Jun 2027 08:58:38.955             3.798           646.094
       286   12 Jun 2027 10:28:18.500   12 Jun 2027 10:28:23.830             5.330          2514.281
       287   12 Jun 2027 10:29:19.332   12 Jun 2027 10:29:23.393             4.061          1734.437
       288   12 Jun 2027 10:31:18.630   12 Jun 2027 10:31:23.874             5.244           860.437
       289   12 Jun 2027 10:32:03.398   12 Jun 2027 10:32:06.172             2.774            88.625
       290   12 Jun 2027 10:35:31.039   12 Jun 2027 10:35:38.187             7.148          2566.156
       291   12 Jun 2027 10:35:58.011   12 Jun 2027 10:35:59.005             0.994            70.656
       292   12 Jun 2027 10:36:54.099   12 Jun 2027 10:36:57.446             3.347           384.344
       293   13 Jun 2027 04:29:43.802   13 Jun 2027 04:30:35.319            51.517         25758.500
       294   13 Jun 2027 04:30:45.360   13 Jun 2027 04:31:27.357            41.997         20998.500
       295   13 Jun 2027 04:31:27.913   13 Jun 2027 04:32:22.657            54.744         27372.000
       296   13 Jun 2027 04:33:05.785   13 Jun 2027 04:34:02.069            56.284         28142.000
       297   13 Jun 2027 06:08:07.625   13 Jun 2027 06:10:07.133           119.508         58311.719
       298   13 Jun 2027 06:11:02.142   13 Jun 2027 06:11:03.309             1.167           561.969
       299   13 Jun 2027 06:12:28.763   13 Jun 2027 06:12:31.361             2.598           626.125
       300   13 Jun 2027 07:31:33.824   13 Jun 2027 07:31:48.857            15.033          6912.000
       301   13 Jun 2027 07:32:51.284   13 Jun 2027 07:32:56.911             5.627          1666.969
       302   13 Jun 2027 09:07:48.397   13 Jun 2027 09:08:16.280            27.883         11265.406
       303   13 Jun 2027 09:08:32.879   13 Jun 2027 09:08:37.705             4.826           518.719
       304   13 Jun 2027 09:08:38.109   13 Jun 2027 09:08:44.550             6.441            12.625
       305   13 Jun 2027 09:10:34.025   13 Jun 2027 09:10:48.323            14.298          3125.625
       306   13 Jun 2027 10:41:20.908   13 Jun 2027 10:41:29.950             9.042          4116.375
       307   13 Jun 2027 10:43:34.409   13 Jun 2027 10:43:44.042             9.633          3516.469
       308   13 Jun 2027 10:44:19.038   13 Jun 2027 10:44:20.545             1.507           653.469
       309   13 Jun 2027 10:46:08.376   13 Jun 2027 10:46:08.376             0.000             0.000
       310   13 Jun 2027 10:47:19.972   13 Jun 2027 10:47:31.490            11.518          5568.656
       311   13 Jun 2027 10:48:55.248   13 Jun 2027 10:48:59.146             3.898          1874.469
       312   13 Jun 2027 10:49:10.754   13 Jun 2027 10:49:11.798             1.044           131.938
       313   13 Jun 2027 10:49:17.956   13 Jun 2027 10:49:21.477             3.521            47.187
