uniorb/output/strategy_4/Camera/Camera_KinoSat_112007.txt

KinoSat_112007
-------------------------
    Access    *     Start Time (UTCG)     *     Stop Time (UTCG)  *   Duration (s) *   Data (Mbytes)
         1   01 Jun 2027 04:14:12.963   01 Jun 2027 04:16:22.093           129.130         64565.000
         2   01 Jun 2027 04:17:58.971   01 Jun 2027 04:18:11.052            12.081          6040.500
         3   01 Jun 2027 05:52:57.998   01 Jun 2027 05:55:04.519           126.521         63260.500
         4   01 Jun 2027 05:55:44.534   01 Jun 2027 05:55:47.238             2.704          1352.000
         5   01 Jun 2027 05:58:32.519   01 Jun 2027 05:58:43.930            11.411          5705.500
         6   01 Jun 2027 05:59:57.933   01 Jun 2027 06:00:32.165            34.232         17116.000
         7   01 Jun 2027 07:18:37.307   01 Jun 2027 07:19:37.814            60.507         30253.500
         8   01 Jun 2027 07:29:54.208   01 Jun 2027 07:31:02.566            68.358         34179.000
         9   01 Jun 2027 07:31:17.286   01 Jun 2027 07:31:33.490            16.204          8102.000
        10   01 Jun 2027 08:52:29.497   01 Jun 2027 08:53:34.294            64.797         32398.500
        11   01 Jun 2027 08:53:47.870   01 Jun 2027 08:56:08.188           140.318         70159.000
        12   02 Jun 2027 04:26:20.126   02 Jun 2027 04:29:25.467           185.341         92670.500
        13   02 Jun 2027 04:29:41.902   02 Jun 2027 04:30:02.583            20.681         10340.500
        14   02 Jun 2027 06:05:24.187   02 Jun 2027 06:08:11.690           167.503         83751.500
        15   02 Jun 2027 06:09:12.636   02 Jun 2027 06:10:20.005            67.369         33684.500
        16   02 Jun 2027 07:30:13.941   02 Jun 2027 07:31:45.806            91.865         45932.500
        17   02 Jun 2027 07:41:53.736   02 Jun 2027 07:42:54.088            60.352         30176.000
        18   02 Jun 2027 09:04:12.930   02 Jun 2027 09:05:18.971            66.041         33020.500
        19   02 Jun 2027 09:06:09.973   02 Jun 2027 09:07:58.124           108.151         54075.500
        20   02 Jun 2027 10:39:10.066   02 Jun 2027 10:40:27.280            77.214         38607.000
        21   02 Jun 2027 10:43:30.038   02 Jun 2027 10:43:44.722            14.684          6711.814
        22   02 Jun 2027 10:45:57.225   02 Jun 2027 10:46:04.467             7.242          2931.438
        23   02 Jun 2027 10:47:10.237   02 Jun 2027 10:47:12.554             2.317           618.219
        24   03 Jun 2027 03:01:44.364   03 Jun 2027 03:01:54.386            10.022          5011.000
        25   03 Jun 2027 03:02:07.167   03 Jun 2027 03:02:07.167             0.000             0.000
        26   03 Jun 2027 03:03:46.500   03 Jun 2027 03:03:49.916             3.416          1708.000
        27   03 Jun 2027 03:04:23.617   03 Jun 2027 03:04:48.165            24.548         12274.000
        28   03 Jun 2027 03:05:02.666   03 Jun 2027 03:05:12.404             9.738          4869.000
        29   03 Jun 2027 03:06:23.990   03 Jun 2027 03:06:27.128             3.138          1569.000
        30   03 Jun 2027 03:06:31.326   03 Jun 2027 03:06:36.990             5.664          2832.000
        31   03 Jun 2027 03:08:50.256   03 Jun 2027 03:08:59.746             9.490          4745.000
        32   03 Jun 2027 04:38:44.089   03 Jun 2027 04:39:06.037            21.948         10974.000
        33   03 Jun 2027 04:39:13.202   03 Jun 2027 04:39:43.087            29.885         14942.500
        34   03 Jun 2027 04:39:48.229   03 Jun 2027 04:40:42.295            54.066         27033.000
        35   03 Jun 2027 04:40:44.589   03 Jun 2027 04:41:26.219            41.630         20815.000
        36   03 Jun 2027 04:42:14.227   03 Jun 2027 04:42:20.713             6.486          3243.000
        37   03 Jun 2027 06:17:28.410   03 Jun 2027 06:19:49.674           141.264         69771.813
        38   03 Jun 2027 06:21:05.213   03 Jun 2027 06:21:08.517             3.304           384.719
        39   03 Jun 2027 06:21:55.291   03 Jun 2027 06:21:56.997             1.706           759.000
        40   03 Jun 2027 06:22:55.710   03 Jun 2027 06:23:02.958             7.248           851.594
        41   03 Jun 2027 07:41:47.380   03 Jun 2027 07:42:05.069            17.689          6632.812
        42   03 Jun 2027 07:42:33.970   03 Jun 2027 07:42:34.797             0.827           295.781
        43   03 Jun 2027 07:43:26.567   03 Jun 2027 07:43:28.621             2.054           978.500
        44   03 Jun 2027 07:54:08.181   03 Jun 2027 07:54:13.935             5.754          2734.687
        45   03 Jun 2027 09:15:45.373   03 Jun 2027 09:16:08.095            22.722          9244.594
        46   03 Jun 2027 09:17:54.719   03 Jun 2027 09:18:00.913             6.194          2099.250
        47   03 Jun 2027 09:18:38.953   03 Jun 2027 09:18:48.400             9.447           822.281
        48   03 Jun 2027 09:19:35.504   03 Jun 2027 09:19:36.937             1.433           453.094
        49   03 Jun 2027 10:50:38.570   03 Jun 2027 10:50:46.990             8.420          3885.281
        50   03 Jun 2027 10:52:52.632   03 Jun 2027 10:52:57.756             5.124          2218.875
        51   03 Jun 2027 10:54:17.603   03 Jun 2027 10:54:17.603             0.000             0.000
        52   03 Jun 2027 10:54:39.331   03 Jun 2027 10:54:47.051             7.720          2360.844
        53   03 Jun 2027 10:58:01.420   03 Jun 2027 10:58:01.420             0.000             0.000
        54   04 Jun 2027 03:13:42.515   04 Jun 2027 03:13:56.085            13.570          6785.000
        55   04 Jun 2027 03:14:05.434   04 Jun 2027 03:14:07.814             2.380          1190.000
        56   04 Jun 2027 03:16:19.037   04 Jun 2027 03:17:44.433            85.396         42698.000
        57   04 Jun 2027 03:18:13.005   04 Jun 2027 03:19:17.694            64.689         32344.500
        58   04 Jun 2027 03:21:14.836   04 Jun 2027 03:21:28.297            13.461          6730.500
        59   04 Jun 2027 04:51:23.597   04 Jun 2027 04:51:36.623            13.026          6513.000
        60   04 Jun 2027 04:51:46.602   04 Jun 2027 04:52:47.394            60.792         30396.000
        61   04 Jun 2027 04:52:56.478   04 Jun 2027 04:53:20.830            24.352         12176.000
        62   04 Jun 2027 04:53:32.836   04 Jun 2027 04:53:45.591            12.755          6377.500
        63   04 Jun 2027 04:55:48.292   04 Jun 2027 04:56:24.645            36.353         18176.500
        64   04 Jun 2027 06:29:54.801   04 Jun 2027 06:30:40.034            45.233         22488.281
        65   04 Jun 2027 06:30:59.390   04 Jun 2027 06:31:02.093             2.703           226.000
        66   04 Jun 2027 06:31:43.701   04 Jun 2027 06:31:45.102             1.401           184.406
        67   04 Jun 2027 06:33:10.530   04 Jun 2027 06:33:12.477             1.947           339.000
        68   04 Jun 2027 06:33:26.231   04 Jun 2027 06:33:28.860             2.629            61.937
        69   04 Jun 2027 06:33:45.971   04 Jun 2027 06:33:48.803             2.832           434.594
        70   04 Jun 2027 06:34:53.772   04 Jun 2027 06:34:56.382             2.610          1191.125
        71   04 Jun 2027 07:53:43.681   04 Jun 2027 07:53:51.971             8.290          3442.344
        72   04 Jun 2027 07:55:03.233   04 Jun 2027 07:55:10.787             7.554          1370.344
        73   04 Jun 2027 09:29:44.601   04 Jun 2027 09:29:54.623            10.022          3235.719
        74   04 Jun 2027 09:30:46.548   04 Jun 2027 09:30:49.426             2.878          1283.844
        75   04 Jun 2027 11:03:31.956   04 Jun 2027 11:03:48.497            16.541          5705.219
        76   04 Jun 2027 11:05:33.029   04 Jun 2027 11:05:33.029             0.000             0.000
        77   04 Jun 2027 11:06:11.311   04 Jun 2027 11:06:13.009             1.698           849.000
        78   04 Jun 2027 11:06:20.981   04 Jun 2027 11:06:23.726             2.745           937.062
        79   04 Jun 2027 11:09:51.698   04 Jun 2027 11:09:54.072             2.374           714.625
        80   04 Jun 2027 11:10:47.936   04 Jun 2027 11:10:50.193             2.257          1128.500
        81   04 Jun 2027 11:11:02.653   04 Jun 2027 11:11:03.573             0.920            33.437
        82   04 Jun 2027 11:11:15.497   04 Jun 2027 11:11:17.583             2.086           240.281
        83   04 Jun 2027 11:11:45.393   04 Jun 2027 11:11:47.243             1.850           467.531
        84   05 Jun 2027 03:25:44.245   05 Jun 2027 03:25:58.878            14.633          7316.500
        85   05 Jun 2027 03:26:08.022   05 Jun 2027 03:26:15.353             7.331          3665.500
        86   05 Jun 2027 03:27:46.349   05 Jun 2027 03:30:33.269           166.920         83460.000
        87   05 Jun 2027 03:31:46.542   05 Jun 2027 03:31:50.318             3.776          1888.000
        88   05 Jun 2027 03:32:51.088   05 Jun 2027 03:32:51.668             0.580           290.000
        89   05 Jun 2027 05:03:57.469   05 Jun 2027 05:04:24.736            27.267         13633.500
        90   05 Jun 2027 05:04:35.495   05 Jun 2027 05:05:21.384            45.889         22944.500
        91   05 Jun 2027 05:08:09.698   05 Jun 2027 05:09:27.067            77.369         38684.500
        92   05 Jun 2027 05:09:54.923   05 Jun 2027 05:09:59.328             4.405          1340.218
        93   05 Jun 2027 06:42:13.905   05 Jun 2027 06:42:41.789            27.884         13397.656
        94   05 Jun 2027 06:44:53.856   05 Jun 2027 06:44:58.646             4.790           998.719
        95   05 Jun 2027 06:45:26.615   05 Jun 2027 06:45:32.324             5.709           262.125
        96   05 Jun 2027 06:45:35.838   05 Jun 2027 06:45:36.987             1.149            47.094
        97   05 Jun 2027 08:05:36.937   05 Jun 2027 08:05:46.812             9.875          4101.656
        98   05 Jun 2027 08:07:04.667   05 Jun 2027 08:07:04.667             0.000             0.000
        99   05 Jun 2027 08:07:47.103   05 Jun 2027 08:07:54.499             7.396          2964.219
       100   05 Jun 2027 08:08:06.631   05 Jun 2027 08:08:08.019             1.388            76.063
       101   05 Jun 2027 09:41:57.678   05 Jun 2027 09:42:09.390            11.712          4336.719
       102   05 Jun 2027 09:42:38.579   05 Jun 2027 09:42:41.583             3.004            24.219
       103   05 Jun 2027 09:43:03.177   05 Jun 2027 09:43:10.217             7.040           674.813
       104   05 Jun 2027 09:43:45.213   05 Jun 2027 09:43:46.677             1.464           643.281
       105   05 Jun 2027 09:44:11.189   05 Jun 2027 09:44:13.829             2.640           266.844
       106   05 Jun 2027 11:17:56.357   05 Jun 2027 11:18:15.050            18.693          9173.031
       107   05 Jun 2027 11:21:26.131   05 Jun 2027 11:21:41.811            15.680          3461.719
       108   05 Jun 2027 11:22:35.138   05 Jun 2027 11:22:42.225             7.087          1284.781
       109   05 Jun 2027 11:24:00.091   05 Jun 2027 11:24:02.485             2.394          1197.000
       110   06 Jun 2027 03:37:50.422   06 Jun 2027 03:38:07.715            17.293          8646.500
       111   06 Jun 2027 03:39:04.473   06 Jun 2027 03:39:04.473             0.000             0.000
       112   06 Jun 2027 03:39:14.070   06 Jun 2027 03:42:18.582           184.512         92256.000
       113   06 Jun 2027 03:43:00.196   06 Jun 2027 03:43:03.980             3.784          1892.000
       114   06 Jun 2027 03:43:21.044   06 Jun 2027 03:43:47.129            26.085         13042.500
       115   06 Jun 2027 05:16:04.498   06 Jun 2027 05:16:13.324             8.826          4413.000
       116   06 Jun 2027 05:17:00.417   06 Jun 2027 05:17:05.948             5.531          2765.500
       117   06 Jun 2027 05:17:11.567   06 Jun 2027 05:17:59.208            47.641         23820.500
       118   06 Jun 2027 05:18:51.842   06 Jun 2027 05:19:49.575            57.733         28866.500
       119   06 Jun 2027 05:19:56.487   06 Jun 2027 05:20:03.603             7.116          3277.781
       120   06 Jun 2027 05:20:27.251   06 Jun 2027 05:20:28.661             1.410           378.375
       121   06 Jun 2027 05:20:45.927   06 Jun 2027 05:20:52.636             6.709           343.156
       122   06 Jun 2027 06:55:06.502   06 Jun 2027 06:55:32.684            26.182         11033.563
       123   06 Jun 2027 06:56:30.749   06 Jun 2027 06:56:32.045             1.296           326.156
       124   06 Jun 2027 06:57:39.162   06 Jun 2027 06:57:46.439             7.277          1810.313
       125   06 Jun 2027 06:57:49.918   06 Jun 2027 06:57:51.135             1.217            16.094
       126   06 Jun 2027 06:58:12.729   06 Jun 2027 06:58:16.031             3.302           139.781
       127   06 Jun 2027 08:17:33.426   06 Jun 2027 08:17:46.270            12.844          5155.219
       128   06 Jun 2027 08:19:05.871   06 Jun 2027 08:19:13.556             7.685          1987.000
       129   06 Jun 2027 08:19:24.699   06 Jun 2027 08:19:25.081             0.382            36.531
       130   06 Jun 2027 09:54:03.864   06 Jun 2027 09:54:09.710             5.846          2455.812
       131   06 Jun 2027 09:55:34.808   06 Jun 2027 09:55:39.036             4.228          1707.563
       132   06 Jun 2027 09:56:47.624   06 Jun 2027 09:56:52.204             4.580          1741.375
       133   06 Jun 2027 11:29:39.014   06 Jun 2027 11:29:52.910            13.896          6109.781
       134   06 Jun 2027 11:30:10.699   06 Jun 2027 11:30:12.591             1.892           394.594
       135   06 Jun 2027 11:33:06.692   06 Jun 2027 11:33:17.229            10.537          4703.937
       136   06 Jun 2027 11:34:02.737   06 Jun 2027 11:34:05.314             2.577          1261.125
       137   06 Jun 2027 11:34:19.541   06 Jun 2027 11:34:19.719             0.178            76.187
       138   06 Jun 2027 11:35:52.992   06 Jun 2027 11:35:57.137             4.145          1918.219
       139   07 Jun 2027 03:49:48.860   07 Jun 2027 03:50:33.034            44.174         22087.000
       140   07 Jun 2027 03:50:42.858   07 Jun 2027 03:52:50.289           127.431         63715.500
       141   07 Jun 2027 03:54:30.526   07 Jun 2027 03:54:44.328            13.802          6901.000
       142   07 Jun 2027 03:55:56.609   07 Jun 2027 03:55:59.414             2.805          1402.500
       143   07 Jun 2027 03:56:05.216   07 Jun 2027 03:56:08.446             3.230          1615.000
       144   07 Jun 2027 05:28:02.309   07 Jun 2027 05:28:50.721            48.412         24206.000
       145   07 Jun 2027 05:29:08.810   07 Jun 2027 05:30:35.748            86.938         43469.000
       146   07 Jun 2027 05:30:57.890   07 Jun 2027 05:31:20.170            22.280         11044.750
       147   07 Jun 2027 05:32:00.989   07 Jun 2027 05:32:05.272             4.283          1172.469
       148   07 Jun 2027 07:06:16.316   07 Jun 2027 07:06:29.712            13.396          6605.406
       149   07 Jun 2027 07:07:24.229   07 Jun 2027 07:07:29.086             4.857           736.375
       150   07 Jun 2027 07:08:16.931   07 Jun 2027 07:08:19.173             2.242           979.937
       151   07 Jun 2027 08:29:38.729   07 Jun 2027 08:29:56.751            18.022          8795.469
       152   07 Jun 2027 08:30:47.796   07 Jun 2027 08:30:50.824             3.028           637.719
       153   07 Jun 2027 08:31:22.603   07 Jun 2027 08:31:26.566             3.963           469.531
       154   07 Jun 2027 08:31:57.175   07 Jun 2027 08:31:57.175             0.000             0.000
       155   07 Jun 2027 08:32:37.003   07 Jun 2027 08:32:43.821             6.818          1558.219
       156   07 Jun 2027 10:06:14.591   07 Jun 2027 10:06:23.819             9.228          3946.719
       157   07 Jun 2027 10:07:58.047   07 Jun 2027 10:08:04.443             6.396          2365.906
       158   07 Jun 2027 10:08:21.885   07 Jun 2027 10:08:26.112             4.227           323.375
       159   07 Jun 2027 11:41:24.775   07 Jun 2027 11:41:37.421            12.646          5606.062
       160   07 Jun 2027 11:47:48.437   07 Jun 2027 11:48:00.554            12.117          6058.500
       161   08 Jun 2027 04:01:50.396   08 Jun 2027 04:02:13.446            23.050         11525.000
       162   08 Jun 2027 04:02:13.830   08 Jun 2027 04:02:50.082            36.252         18126.000
       163   08 Jun 2027 04:03:06.367   08 Jun 2027 04:05:16.897           130.530         65265.000
       164   08 Jun 2027 05:41:07.835   08 Jun 2027 05:42:58.402           110.567         55283.500
       165   08 Jun 2027 05:43:23.114   08 Jun 2027 05:43:27.630             4.516          2258.000
       166   08 Jun 2027 05:44:00.256   08 Jun 2027 05:44:13.219            12.963          6481.500
       167   08 Jun 2027 05:47:59.237   08 Jun 2027 05:48:42.498            43.261         21575.782
       168   08 Jun 2027 07:18:13.790   08 Jun 2027 07:18:28.958            15.168          6830.719
       169   08 Jun 2027 07:19:01.614   08 Jun 2027 07:19:05.891             4.277           118.188
       170   08 Jun 2027 07:20:35.742   08 Jun 2027 07:20:37.781             2.039           540.313
       171   08 Jun 2027 08:42:13.133   08 Jun 2027 08:42:34.840            21.707         10150.000
       172   08 Jun 2027 08:42:50.417   08 Jun 2027 08:42:51.287             0.870           180.031
       173   08 Jun 2027 08:44:31.765   08 Jun 2027 08:44:38.065             6.300          2638.187
       174   08 Jun 2027 10:18:00.327   08 Jun 2027 10:18:09.395             9.068          3374.656
       175   08 Jun 2027 10:19:47.829   08 Jun 2027 10:19:52.051             4.222          2063.625
       176   08 Jun 2027 10:20:54.436   08 Jun 2027 10:20:58.157             3.721           279.969
       177   08 Jun 2027 11:52:53.800   08 Jun 2027 11:52:59.738             5.938          2638.844
       178   08 Jun 2027 11:58:42.753   08 Jun 2027 11:59:01.407            18.654          8871.500
       179   08 Jun 2027 11:59:27.001   08 Jun 2027 11:59:30.564             3.563           799.813
       180   08 Jun 2027 11:59:46.724   08 Jun 2027 11:59:48.357             1.633           464.406
       181   09 Jun 2027 04:14:30.965   09 Jun 2027 04:16:34.952           123.987         61993.500
       182   09 Jun 2027 04:18:24.053   09 Jun 2027 04:18:25.472             1.419           709.500
       183   09 Jun 2027 05:53:17.816   09 Jun 2027 05:54:55.226            97.410         48705.000
       184   09 Jun 2027 05:55:47.694   09 Jun 2027 05:56:01.920            14.226          7113.000
       185   09 Jun 2027 05:58:51.409   09 Jun 2027 06:00:52.509           121.100         60550.000
       186   09 Jun 2027 07:18:50.677   09 Jun 2027 07:19:13.292            22.615         10811.125
       187   09 Jun 2027 07:19:31.093   09 Jun 2027 07:19:31.093             0.000             0.000
       188   09 Jun 2027 07:19:55.121   09 Jun 2027 07:19:58.022             2.901          1226.219
       189   09 Jun 2027 07:30:12.384   09 Jun 2027 07:30:21.272             8.888          4193.344
       190   09 Jun 2027 08:52:48.489   09 Jun 2027 08:53:06.827            18.338          8504.500
       191   09 Jun 2027 08:55:07.454   09 Jun 2027 08:55:15.053             7.599          2702.500
       192   09 Jun 2027 08:56:37.703   09 Jun 2027 08:56:44.728             7.025          2248.813
       193   09 Jun 2027 10:28:14.922   09 Jun 2027 10:28:25.139            10.217          3364.094
       194   09 Jun 2027 10:29:46.959   09 Jun 2027 10:29:52.755             5.796          2224.187
       195   09 Jun 2027 10:31:33.845   09 Jun 2027 10:31:37.269             3.424          1667.281
       196   09 Jun 2027 10:33:38.061   09 Jun 2027 10:33:40.620             2.559           782.531
       197   09 Jun 2027 10:34:09.935   09 Jun 2027 10:34:17.374             7.439           767.344
       198   10 Jun 2027 04:26:39.089   10 Jun 2027 04:28:13.197            94.108         47054.000
       199   10 Jun 2027 04:28:14.102   10 Jun 2027 04:28:37.314            23.212         11606.000
       200   10 Jun 2027 04:32:01.477   10 Jun 2027 04:32:45.030            43.553         21776.500
       201   10 Jun 2027 06:05:43.703   10 Jun 2027 06:08:26.413           162.710         81355.000
       202   10 Jun 2027 06:08:56.491   10 Jun 2027 06:09:10.829            14.338          5887.625
       203   10 Jun 2027 06:10:07.881   10 Jun 2027 06:10:18.237            10.356          1572.000
       204   10 Jun 2027 06:10:47.930   10 Jun 2027 06:10:50.771             2.841           893.656
       205   10 Jun 2027 06:11:11.814   10 Jun 2027 06:11:14.712             2.898           632.813
       206   10 Jun 2027 06:11:41.844   10 Jun 2027 06:11:45.114             3.270           546.344
       207   10 Jun 2027 07:30:31.825   10 Jun 2027 07:30:44.229            12.404          6202.000
       208   10 Jun 2027 07:30:51.041   10 Jun 2027 07:30:51.976             0.935           232.250
       209   10 Jun 2027 07:31:02.484   10 Jun 2027 07:31:02.484             0.000             0.000
       210   10 Jun 2027 07:31:17.716   10 Jun 2027 07:31:19.245             1.529           752.719
       211   10 Jun 2027 07:31:43.585   10 Jun 2027 07:31:48.098             4.513           452.469
       212   10 Jun 2027 07:42:11.819   10 Jun 2027 07:42:19.139             7.320          1834.656
       213   10 Jun 2027 09:04:29.652   10 Jun 2027 09:05:03.172            33.520         14079.750
       214   10 Jun 2027 09:05:34.377   10 Jun 2027 09:05:35.559             1.182           103.594
       215   10 Jun 2027 09:06:23.665   10 Jun 2027 09:06:30.738             7.073          1060.594
       216   10 Jun 2027 09:06:54.952   10 Jun 2027 09:06:56.976             2.024           698.969
       217   10 Jun 2027 09:08:14.121   10 Jun 2027 09:08:19.599             5.478          2096.562
       218   10 Jun 2027 09:09:21.951   10 Jun 2027 09:09:25.336             3.385          1415.750
       219   10 Jun 2027 10:39:23.589   10 Jun 2027 10:39:30.213             6.624          2329.063
       220   10 Jun 2027 10:40:47.054   10 Jun 2027 10:40:52.031             4.977          1154.125
       221   10 Jun 2027 10:42:38.265   10 Jun 2027 10:42:48.488            10.223          3165.875
       222   10 Jun 2027 10:43:43.332   10 Jun 2027 10:43:47.215             3.883           915.094
       223   10 Jun 2027 10:45:54.059   10 Jun 2027 10:45:55.035             0.976           283.031
       224   10 Jun 2027 10:47:27.466   10 Jun 2027 10:47:30.096             2.630          1069.625
       225   10 Jun 2027 10:47:48.368   10 Jun 2027 10:47:49.617             1.249           566.344
       226   11 Jun 2027 03:02:02.394   11 Jun 2027 03:02:10.208             7.814          3907.000
       227   11 Jun 2027 03:03:02.731   11 Jun 2027 03:03:25.417            22.686         11343.000
       228   11 Jun 2027 03:03:49.432   11 Jun 2027 03:03:49.892             0.460           230.000
       229   11 Jun 2027 03:04:15.165   11 Jun 2027 03:04:19.855             4.690          2345.000
       230   11 Jun 2027 03:04:59.455   11 Jun 2027 03:05:18.564            19.109          9554.500
       231   11 Jun 2027 03:05:53.901   11 Jun 2027 03:05:56.257             2.356          1178.000
       232   11 Jun 2027 03:06:38.967   11 Jun 2027 03:06:46.322             7.355          3677.500
       233   11 Jun 2027 03:06:56.902   11 Jun 2027 03:07:03.143             6.241          3120.500
       234   11 Jun 2027 03:08:24.471   11 Jun 2027 03:08:56.930            32.459         16229.500
       235   11 Jun 2027 04:39:06.088   11 Jun 2027 04:39:23.053            16.965          8482.500
       236   11 Jun 2027 04:39:31.910   11 Jun 2027 04:40:01.099            29.189         14594.500
       237   11 Jun 2027 04:40:05.866   11 Jun 2027 04:40:59.959            54.093         27046.500
       238   11 Jun 2027 04:41:02.152   11 Jun 2027 04:41:41.193            39.041         19520.500
       239   11 Jun 2027 04:42:29.033   11 Jun 2027 04:42:35.403             6.370          3185.000
       240   11 Jun 2027 06:17:48.960   11 Jun 2027 06:19:43.230           114.270         55248.313
       241   11 Jun 2027 06:19:59.104   11 Jun 2027 06:20:00.446             1.342            23.250
       242   11 Jun 2027 06:20:16.600   11 Jun 2027 06:20:19.899             3.299           504.812
       243   11 Jun 2027 06:21:22.412   11 Jun 2027 06:21:28.198             5.786           455.531
       244   11 Jun 2027 06:21:47.925   11 Jun 2027 06:21:50.288             2.363            74.531
       245   11 Jun 2027 06:22:43.341   11 Jun 2027 06:22:47.364             4.023          1014.469
       246   11 Jun 2027 07:42:05.633   11 Jun 2027 07:42:19.834            14.201          7034.500
       247   11 Jun 2027 07:42:52.154   11 Jun 2027 07:42:53.667             1.513           363.719
       248   11 Jun 2027 07:43:11.692   11 Jun 2027 07:43:13.464             1.772           563.281
       249   11 Jun 2027 07:43:19.446   11 Jun 2027 07:43:19.446             0.000             0.000
       250   11 Jun 2027 07:54:28.122   11 Jun 2027 07:54:36.130             8.008          3043.219
       251   11 Jun 2027 09:16:01.451   11 Jun 2027 09:16:24.179            22.728          9832.437
       252   11 Jun 2027 09:18:10.137   11 Jun 2027 09:18:15.656             5.519          2057.437
       253   11 Jun 2027 09:18:56.788   11 Jun 2027 09:19:05.934             9.146           806.281
       254   11 Jun 2027 09:21:08.904   11 Jun 2027 09:21:17.909             9.005          3842.812
       255   11 Jun 2027 10:50:54.454   11 Jun 2027 10:51:02.201             7.747          2722.812
       256   11 Jun 2027 10:53:12.750   11 Jun 2027 10:53:17.621             4.871          2346.281
       257   11 Jun 2027 10:58:06.546   11 Jun 2027 10:58:22.131            15.585          7792.500
       258   12 Jun 2027 03:14:00.275   12 Jun 2027 03:14:11.098            10.823          5411.500
       259   12 Jun 2027 03:14:22.442   12 Jun 2027 03:14:36.355            13.913          6956.500
       260   12 Jun 2027 03:16:33.958   12 Jun 2027 03:17:34.518            60.560         30280.000
       261   12 Jun 2027 03:17:48.105   12 Jun 2027 03:17:54.673             6.568          3284.000
       262   12 Jun 2027 03:17:56.559   12 Jun 2027 03:18:17.689            21.130         10565.000
       263   12 Jun 2027 03:19:33.367   12 Jun 2027 03:20:41.063            67.696         33848.000
       264   12 Jun 2027 03:21:44.971   12 Jun 2027 03:21:46.071             1.100           550.000
       265   12 Jun 2027 04:51:42.644   12 Jun 2027 04:51:53.980            11.336          5668.000
       266   12 Jun 2027 04:52:05.423   12 Jun 2027 04:53:06.268            60.845         30422.500
       267   12 Jun 2027 04:53:13.176   12 Jun 2027 04:53:43.498            30.322         15161.000
       268   12 Jun 2027 04:53:50.953   12 Jun 2027 04:53:59.901             8.948          4474.000
       269   12 Jun 2027 06:30:12.723   12 Jun 2027 06:31:29.683            76.960         37626.938
       270   12 Jun 2027 06:31:58.425   12 Jun 2027 06:31:59.845             1.420           159.906
       271   12 Jun 2027 06:32:54.752   12 Jun 2027 06:32:57.016             2.264           683.875
       272   12 Jun 2027 06:33:27.762   12 Jun 2027 06:33:30.320             2.558           411.156
       273   12 Jun 2027 06:33:42.830   12 Jun 2027 06:33:43.185             0.355           126.187
       274   12 Jun 2027 06:34:01.519   12 Jun 2027 06:34:03.224             1.705           353.906
       275   12 Jun 2027 06:35:09.369   12 Jun 2027 06:35:13.032             3.663          1213.438
       276   12 Jun 2027 07:54:01.554   12 Jun 2027 07:54:14.378            12.824          6323.750
       277   12 Jun 2027 07:55:21.046   12 Jun 2027 07:55:21.046             0.000             0.000
       278   12 Jun 2027 07:55:30.145   12 Jun 2027 07:55:33.912             3.767          1714.094
       279   12 Jun 2027 09:30:01.293   12 Jun 2027 09:30:12.121            10.828          4612.688
       280   12 Jun 2027 09:31:03.996   12 Jun 2027 09:31:07.419             3.423          1191.563
       281   12 Jun 2027 09:32:44.321   12 Jun 2027 09:32:49.771             5.450          2137.719
       282   12 Jun 2027 09:33:19.152   12 Jun 2027 09:33:21.859             2.707           864.312
       283   12 Jun 2027 11:03:48.578   12 Jun 2027 11:03:54.296             5.718          2470.250
       284   12 Jun 2027 11:06:30.187   12 Jun 2027 11:06:34.484             4.297          1485.750
       285   12 Jun 2027 11:09:56.283   12 Jun 2027 11:10:11.021            14.738          6039.312
       286   13 Jun 2027 03:26:03.334   13 Jun 2027 03:26:32.439            29.105         14552.500
       287   13 Jun 2027 03:28:01.294   13 Jun 2027 03:29:29.136            87.842         43921.000
       288   13 Jun 2027 03:30:35.053   13 Jun 2027 03:31:45.152            70.099         35049.500
       289   13 Jun 2027 03:33:08.549   13 Jun 2027 03:33:18.159             9.610          4805.000
       290   13 Jun 2027 05:05:35.736   13 Jun 2027 05:07:00.450            84.714         42357.000
       291   13 Jun 2027 05:08:21.621   13 Jun 2027 05:09:40.686            79.065         39272.688
       292   13 Jun 2027 05:10:19.163   13 Jun 2027 05:10:22.797             3.634          1161.906
       293   13 Jun 2027 06:42:31.519   13 Jun 2027 06:42:58.942            27.423         12549.156
       294   13 Jun 2027 06:45:10.444   13 Jun 2027 06:45:15.541             5.097          1058.313
       295   13 Jun 2027 06:45:33.674   13 Jun 2027 06:45:37.461             3.787           405.719
       296   13 Jun 2027 06:45:51.352   13 Jun 2027 06:45:52.206             0.854           254.906
       297   13 Jun 2027 06:46:15.336   13 Jun 2027 06:46:17.649             2.313           714.969
       298   13 Jun 2027 08:05:53.831   13 Jun 2027 08:06:05.904            12.073          5780.156
       299   13 Jun 2027 08:08:05.939   13 Jun 2027 08:08:12.680             6.741          3059.781
       300   13 Jun 2027 09:42:15.528   13 Jun 2027 09:42:24.447             8.919          3514.000
       301   13 Jun 2027 09:42:58.543   13 Jun 2027 09:42:59.340             0.797           251.250
       302   13 Jun 2027 09:43:22.061   13 Jun 2027 09:43:26.026             3.965           710.031
       303   13 Jun 2027 09:44:03.899   13 Jun 2027 09:44:06.138             2.239           627.375
       304   13 Jun 2027 09:44:27.710   13 Jun 2027 09:44:28.518             0.808           351.875
       305   13 Jun 2027 11:14:33.486   13 Jun 2027 11:14:39.116             5.630          2657.906
       306   13 Jun 2027 11:18:17.325   13 Jun 2027 11:18:31.456            14.131          6593.906
       307   13 Jun 2027 11:21:42.180   13 Jun 2027 11:21:42.180             0.000             0.000
       308   13 Jun 2027 11:23:02.814   13 Jun 2027 11:23:17.531            14.717          5731.938
       309   13 Jun 2027 11:23:34.069   13 Jun 2027 11:23:36.953             2.884           246.406
       310   13 Jun 2027 11:24:09.951   13 Jun 2027 11:24:15.519             5.568           687.063
       311   13 Jun 2027 11:24:17.582   13 Jun 2027 11:24:20.068             2.486            39.500
