uniorb/output/strategy_4/Camera/Camera_KinoSat_111110.txt

KinoSat_111110
-------------------------
    Access    *     Start Time (UTCG)     *     Stop Time (UTCG)  *   Duration (s) *   Data (Mbytes)
         1   01 Jun 2027 04:11:11.822   01 Jun 2027 04:12:46.222            94.400         47200.000
         2   01 Jun 2027 04:13:05.682   01 Jun 2027 04:13:07.901             2.219          1109.500
         3   01 Jun 2027 04:13:31.568   01 Jun 2027 04:13:32.692             1.124           562.000
         4   01 Jun 2027 05:47:25.413   01 Jun 2027 05:49:56.971           151.558         75779.000
         5   01 Jun 2027 07:20:58.192   01 Jun 2027 07:23:04.474           126.282         63141.000
         6   01 Jun 2027 07:23:17.047   01 Jun 2027 07:23:17.047             0.000             0.000
         7   01 Jun 2027 07:23:25.167   01 Jun 2027 07:23:37.553            12.386          6193.000
         8   01 Jun 2027 07:24:06.043   01 Jun 2027 07:24:06.969             0.926           463.000
         9   01 Jun 2027 07:25:01.023   01 Jun 2027 07:25:14.175            13.152          6576.000
        10   01 Jun 2027 07:27:28.458   01 Jun 2027 07:27:28.458             0.000             0.000
        11   01 Jun 2027 07:28:29.929   01 Jun 2027 07:28:34.620             4.691          2345.500
        12   01 Jun 2027 08:58:30.649   01 Jun 2027 09:00:34.298           123.649         61824.500
        13   01 Jun 2027 09:00:52.042   01 Jun 2027 09:02:13.277            81.235         40617.500
        14   01 Jun 2027 10:35:25.877   01 Jun 2027 10:36:22.912            57.035         28517.500
        15   01 Jun 2027 10:37:24.624   01 Jun 2027 10:37:27.848             3.224          1612.000
        16   01 Jun 2027 10:37:51.737   01 Jun 2027 10:39:13.959            82.222         41111.000
        17   01 Jun 2027 10:41:16.092   01 Jun 2027 10:41:16.766             0.674           337.000
        18   02 Jun 2027 03:00:01.639   02 Jun 2027 03:00:21.663            20.024         10012.000
        19   02 Jun 2027 03:00:39.145   02 Jun 2027 03:00:43.765             4.620          2310.000
        20   02 Jun 2027 03:01:14.879   02 Jun 2027 03:01:14.879             0.000             0.000
        21   02 Jun 2027 03:01:39.095   02 Jun 2027 03:01:46.473             7.378          3689.000
        22   02 Jun 2027 03:02:24.910   02 Jun 2027 03:03:02.802            37.892         18946.000
        23   02 Jun 2027 04:23:02.979   02 Jun 2027 04:23:55.130            52.151         26075.500
        24   02 Jun 2027 04:24:06.044   02 Jun 2027 04:24:06.044             0.000             0.000
        25   02 Jun 2027 04:24:13.502   02 Jun 2027 04:24:32.864            19.362          9681.000
        26   02 Jun 2027 05:59:30.161   02 Jun 2027 06:02:11.465           161.304         80652.000
        27   02 Jun 2027 06:02:16.344   02 Jun 2027 06:02:29.598            13.254          6627.000
        28   02 Jun 2027 07:31:37.852   02 Jun 2027 07:31:48.822            10.970          5485.000
        29   02 Jun 2027 07:33:36.970   02 Jun 2027 07:36:09.456           152.486         76243.000
        30   02 Jun 2027 07:37:47.973   02 Jun 2027 07:37:57.277             9.304          4652.000
        31   02 Jun 2027 07:38:26.749   02 Jun 2027 07:38:37.671            10.922          5461.000
        32   02 Jun 2027 07:39:37.986   02 Jun 2027 07:39:43.787             5.801          2900.500
        33   02 Jun 2027 07:40:27.997   02 Jun 2027 07:40:31.133             3.136          1568.000
        34   02 Jun 2027 07:40:43.926   02 Jun 2027 07:40:57.853            13.927          6963.500
        35   02 Jun 2027 07:41:21.266   02 Jun 2027 07:41:26.067             4.801          2400.500
        36   02 Jun 2027 09:10:35.471   02 Jun 2027 09:13:52.583           197.112         96832.251
        37   02 Jun 2027 09:14:31.273   02 Jun 2027 09:14:33.306             2.033           436.125
        38   02 Jun 2027 09:14:46.459   02 Jun 2027 09:14:51.255             4.796           241.969
        39   02 Jun 2027 09:17:00.907   02 Jun 2027 09:17:08.851             7.944          3841.406
        40   02 Jun 2027 10:48:03.920   02 Jun 2027 10:48:21.379            17.459          8196.750
        41   02 Jun 2027 10:49:19.177   02 Jun 2027 10:49:32.464            13.287          1457.813
        42   02 Jun 2027 10:50:35.466   02 Jun 2027 10:50:38.632             3.166           333.812
        43   02 Jun 2027 10:50:48.391   02 Jun 2027 10:50:50.363             1.972           304.969
        44   02 Jun 2027 10:51:17.506   02 Jun 2027 10:51:19.860             2.354           848.219
        45   02 Jun 2027 10:51:40.522   02 Jun 2027 10:51:41.801             1.279           246.594
        46   02 Jun 2027 10:52:28.156   02 Jun 2027 10:52:32.290             4.134          1142.469
        47   02 Jun 2027 10:52:42.573   02 Jun 2027 10:52:42.801             0.228           114.000
        48   03 Jun 2027 03:11:54.518   03 Jun 2027 03:13:45.670           111.152         55576.000
        49   03 Jun 2027 03:14:47.603   03 Jun 2027 03:15:32.678            45.075         22537.500
        50   03 Jun 2027 04:35:11.172   03 Jun 2027 04:35:52.639            41.467         20733.500
        51   03 Jun 2027 04:37:59.981   03 Jun 2027 04:38:10.921            10.940          5470.000
        52   03 Jun 2027 06:11:39.977   03 Jun 2027 06:13:34.205           114.228         56949.813
        53   03 Jun 2027 06:13:40.446   03 Jun 2027 06:13:43.202             2.756           131.781
        54   03 Jun 2027 06:14:03.395   03 Jun 2027 06:14:06.813             3.418           442.906
        55   03 Jun 2027 06:14:14.698   03 Jun 2027 06:14:14.698             0.000             0.000
        56   03 Jun 2027 06:14:23.199   03 Jun 2027 06:14:27.174             3.975           512.062
        57   03 Jun 2027 07:46:50.983   03 Jun 2027 07:46:58.895             7.912          3271.250
        58   03 Jun 2027 07:47:19.541   03 Jun 2027 07:47:21.112             1.571           260.969
        59   03 Jun 2027 07:48:17.260   03 Jun 2027 07:48:19.635             2.375           137.125
        60   03 Jun 2027 07:48:58.465   03 Jun 2027 07:49:00.897             2.432          1128.875
        61   03 Jun 2027 07:50:21.259   03 Jun 2027 07:50:26.023             4.764          1124.531
        62   03 Jun 2027 07:51:59.629   03 Jun 2027 07:52:07.425             7.796          2218.625
        63   03 Jun 2027 07:52:55.595   03 Jun 2027 07:52:59.294             3.699          1348.062
        64   03 Jun 2027 07:53:19.771   03 Jun 2027 07:53:22.345             2.574           248.156
        65   03 Jun 2027 09:23:09.975   03 Jun 2027 09:23:23.504            13.529          5176.094
        66   03 Jun 2027 09:23:54.692   03 Jun 2027 09:23:55.406             0.714           176.688
        67   03 Jun 2027 09:25:12.598   03 Jun 2027 09:25:14.345             1.747           776.625
        68   03 Jun 2027 09:26:22.614   03 Jun 2027 09:26:24.852             2.238           646.281
        69   03 Jun 2027 09:27:59.141   03 Jun 2027 09:28:04.100             4.959          1684.156
        70   03 Jun 2027 09:28:48.223   03 Jun 2027 09:28:52.564             4.341           813.250
        71   03 Jun 2027 11:00:33.343   03 Jun 2027 11:00:49.587            16.244          6537.094
        72   03 Jun 2027 11:02:22.675   03 Jun 2027 11:02:33.297            10.622           293.750
        73   03 Jun 2027 11:03:39.355   03 Jun 2027 11:03:43.848             4.493          2064.313
        74   03 Jun 2027 11:04:40.701   03 Jun 2027 11:04:46.703             6.002          1235.031
        75   03 Jun 2027 11:04:56.596   03 Jun 2027 11:04:57.195             0.599           122.125
        76   04 Jun 2027 03:23:46.313   04 Jun 2027 03:24:22.677            36.364         18182.000
        77   04 Jun 2027 03:24:51.249   04 Jun 2027 03:27:17.262           146.013         73006.500
        78   04 Jun 2027 04:47:53.643   04 Jun 2027 04:48:33.790            40.147         20073.500
        79   04 Jun 2027 04:49:10.941   04 Jun 2027 04:49:13.586             2.645          1322.500
        80   04 Jun 2027 04:49:33.293   04 Jun 2027 04:50:02.844            29.551         14775.500
        81   04 Jun 2027 06:23:38.077   04 Jun 2027 06:24:23.059            44.982         21499.969
        82   04 Jun 2027 06:25:07.225   04 Jun 2027 06:25:10.649             3.424           815.125
        83   04 Jun 2027 06:25:41.750   04 Jun 2027 06:25:44.634             2.884           223.687
        84   04 Jun 2027 06:26:12.467   04 Jun 2027 06:26:14.333             1.866           669.406
        85   04 Jun 2027 06:26:47.303   04 Jun 2027 06:26:50.231             2.928           917.219
        86   04 Jun 2027 07:58:42.871   04 Jun 2027 07:58:53.316            10.445          2990.844
        87   04 Jun 2027 07:59:07.635   04 Jun 2027 07:59:10.188             2.553            63.719
        88   04 Jun 2027 08:00:07.404   04 Jun 2027 08:00:08.359             0.955           345.437
        89   04 Jun 2027 08:00:22.973   04 Jun 2027 08:00:26.453             3.480           148.094
        90   04 Jun 2027 08:01:12.110   04 Jun 2027 08:01:18.586             6.476            38.781
        91   04 Jun 2027 08:01:32.729   04 Jun 2027 08:01:36.199             3.470           135.813
        92   04 Jun 2027 08:01:41.440   04 Jun 2027 08:01:43.908             2.468            77.875
        93   04 Jun 2027 08:02:50.731   04 Jun 2027 08:02:54.044             3.313           848.187
        94   04 Jun 2027 08:02:56.285   04 Jun 2027 08:03:02.447             6.162            70.031
        95   04 Jun 2027 08:03:59.852   04 Jun 2027 08:04:11.850            11.998          1635.125
        96   04 Jun 2027 08:04:53.003   04 Jun 2027 08:04:59.330             6.327          1209.406
        97   04 Jun 2027 08:05:11.604   04 Jun 2027 08:05:12.730             1.126           218.250
        98   04 Jun 2027 08:05:31.604   04 Jun 2027 08:05:32.569             0.965           478.875
        99   04 Jun 2027 09:34:47.966   04 Jun 2027 09:34:59.967            12.001          5256.562
       100   04 Jun 2027 09:37:28.376   04 Jun 2027 09:37:38.153             9.777          1024.062
       101   04 Jun 2027 09:38:19.376   04 Jun 2027 09:38:19.933             0.557           276.000
       102   04 Jun 2027 09:39:56.010   04 Jun 2027 09:40:02.230             6.220          1434.875
       103   04 Jun 2027 09:40:20.439   04 Jun 2027 09:40:25.093             4.654           346.313
       104   04 Jun 2027 11:12:45.987   04 Jun 2027 11:12:59.947            13.960          6682.406
       105   04 Jun 2027 11:15:14.874   04 Jun 2027 11:15:20.211             5.337          2120.094
       106   04 Jun 2027 11:16:14.099   04 Jun 2027 11:16:14.559             0.460            69.844
       107   04 Jun 2027 11:16:51.303   04 Jun 2027 11:16:51.992             0.689            66.531
       108   04 Jun 2027 11:16:58.433   04 Jun 2027 11:16:58.476             0.043            21.500
       109   05 Jun 2027 03:24:41.822   05 Jun 2027 03:24:55.470            13.648          6824.000
       110   05 Jun 2027 03:35:41.869   05 Jun 2027 03:39:08.548           206.679        103339.500
       111   05 Jun 2027 04:59:00.317   05 Jun 2027 04:59:21.200            20.883         10441.500
       112   05 Jun 2027 05:02:28.505   05 Jun 2027 05:02:31.915             3.410          1705.000
       113   05 Jun 2027 06:35:22.684   05 Jun 2027 06:36:42.178            79.494         39747.000
       114   05 Jun 2027 06:37:30.447   05 Jun 2027 06:37:35.404             4.957          2427.875
       115   05 Jun 2027 06:38:10.044   05 Jun 2027 06:38:13.667             3.623          1058.094
       116   05 Jun 2027 06:38:36.255   05 Jun 2027 06:38:36.255             0.000             0.000
       117   05 Jun 2027 06:38:58.059   05 Jun 2027 06:39:01.214             3.155          1152.344
       118   05 Jun 2027 08:10:08.275   05 Jun 2027 08:10:18.472            10.197          2713.781
       119   05 Jun 2027 08:12:18.760   05 Jun 2027 08:12:24.048             5.288          2259.500
       120   05 Jun 2027 08:14:25.664   05 Jun 2027 08:14:26.612             0.948           383.437
       121   05 Jun 2027 08:15:07.621   05 Jun 2027 08:15:10.164             2.543           424.094
       122   05 Jun 2027 08:16:00.414   05 Jun 2027 08:16:03.563             3.149           675.344
       123   05 Jun 2027 08:16:59.687   05 Jun 2027 08:17:02.687             3.000          1284.094
       124   05 Jun 2027 08:17:36.626   05 Jun 2027 08:17:41.089             4.463          1060.594
       125   05 Jun 2027 09:46:57.711   05 Jun 2027 09:47:14.634            16.923          6327.906
       126   05 Jun 2027 09:49:00.600   05 Jun 2027 09:49:02.416             1.816           472.469
       127   05 Jun 2027 09:49:26.631   05 Jun 2027 09:49:29.317             2.686           756.719
       128   05 Jun 2027 09:50:43.641   05 Jun 2027 09:50:47.370             3.729          1739.125
       129   05 Jun 2027 09:51:48.616   05 Jun 2027 09:51:51.555             2.939          1026.875
       130   05 Jun 2027 09:52:02.332   05 Jun 2027 09:52:03.995             1.663           336.781
       131   05 Jun 2027 09:52:17.844   05 Jun 2027 09:52:18.735             0.891           432.781
       132   05 Jun 2027 11:25:08.264   05 Jun 2027 11:25:20.052            11.788          5241.375
       133   05 Jun 2027 11:27:14.745   05 Jun 2027 11:27:19.449             4.704          2225.031
       134   05 Jun 2027 11:28:30.579   05 Jun 2027 11:28:38.539             7.960          2016.531
       135   05 Jun 2027 11:28:44.555   05 Jun 2027 11:28:46.745             2.190           188.000
       136   05 Jun 2027 11:29:00.525   05 Jun 2027 11:29:04.059             3.534           342.469
       137   06 Jun 2027 03:36:01.842   06 Jun 2027 03:36:16.900            15.058          7529.000
       138   06 Jun 2027 03:47:42.726   06 Jun 2027 03:49:06.580            83.854         41927.000
       139   06 Jun 2027 05:09:58.320   06 Jun 2027 05:11:14.010            75.690         37845.000
       140   06 Jun 2027 05:11:55.417   06 Jun 2027 05:12:33.138            37.721         18860.500
       141   06 Jun 2027 05:14:18.454   06 Jun 2027 05:14:29.530            11.076          5538.000
       142   06 Jun 2027 05:14:49.085   06 Jun 2027 05:14:49.085             0.000             0.000
       143   06 Jun 2027 06:45:10.663   06 Jun 2027 06:46:35.528            84.865         42432.500
       144   06 Jun 2027 06:47:06.712   06 Jun 2027 06:47:14.074             7.362          2035.281
       145   06 Jun 2027 06:47:34.767   06 Jun 2027 06:47:36.991             2.224           151.656
       146   06 Jun 2027 06:48:14.413   06 Jun 2027 06:48:14.413             0.000             0.000
       147   06 Jun 2027 06:48:18.489   06 Jun 2027 06:48:22.395             3.906           397.438
       148   06 Jun 2027 06:48:53.207   06 Jun 2027 06:48:54.960             1.753           876.500
       149   06 Jun 2027 06:49:10.523   06 Jun 2027 06:49:10.523             0.000             0.000
       150   06 Jun 2027 06:50:06.564   06 Jun 2027 06:50:08.794             2.230          1115.000
       151   06 Jun 2027 06:50:28.408   06 Jun 2027 06:50:34.461             6.053          1764.313
       152   06 Jun 2027 06:51:37.962   06 Jun 2027 06:51:42.504             4.542          1497.062
       153   06 Jun 2027 08:22:15.294   06 Jun 2027 08:22:18.772             3.478          1328.344
       154   06 Jun 2027 08:23:07.720   06 Jun 2027 08:23:10.793             3.073           910.125
       155   06 Jun 2027 08:24:02.796   06 Jun 2027 08:24:09.566             6.770           518.250
       156   06 Jun 2027 08:25:20.651   06 Jun 2027 08:25:24.518             3.867          1807.000
       157   06 Jun 2027 08:25:44.951   06 Jun 2027 08:25:47.040             2.089           494.687
       158   06 Jun 2027 08:27:02.656   06 Jun 2027 08:27:05.926             3.270          1100.281
       159   06 Jun 2027 08:28:01.932   06 Jun 2027 08:28:05.489             3.557          1341.031
       160   06 Jun 2027 08:28:21.721   06 Jun 2027 08:28:24.418             2.697           118.281
       161   06 Jun 2027 08:29:16.063   06 Jun 2027 08:29:21.639             5.576          1417.313
       162   06 Jun 2027 09:59:13.406   06 Jun 2027 09:59:24.239            10.833          4986.406
       163   06 Jun 2027 10:00:39.852   06 Jun 2027 10:00:49.236             9.384           140.063
       164   06 Jun 2027 10:02:56.403   06 Jun 2027 10:03:02.407             6.004          2116.563
       165   06 Jun 2027 10:03:24.049   06 Jun 2027 10:03:25.882             1.833           638.469
       166   06 Jun 2027 10:03:52.028   06 Jun 2027 10:03:54.094             2.066           654.656
       167   06 Jun 2027 10:04:44.945   06 Jun 2027 10:04:49.859             4.914           756.219
       168   06 Jun 2027 11:37:09.717   06 Jun 2027 11:37:21.973            12.256          5940.781
       169   06 Jun 2027 11:38:02.880   06 Jun 2027 11:38:08.724             5.844           855.312
       170   06 Jun 2027 11:39:13.795   06 Jun 2027 11:39:19.391             5.596          1909.625
       171   06 Jun 2027 11:39:46.287   06 Jun 2027 11:39:51.216             4.929           836.500
       172   06 Jun 2027 11:40:22.152   06 Jun 2027 11:40:24.346             2.194           966.750
       173   06 Jun 2027 11:40:33.322   06 Jun 2027 11:40:36.683             3.361           280.500
       174   07 Jun 2027 03:47:25.064   07 Jun 2027 03:47:27.131             2.067          1033.500
       175   07 Jun 2027 03:48:44.909   07 Jun 2027 03:48:49.451             4.542          2271.000
       176   07 Jun 2027 03:49:40.506   07 Jun 2027 03:49:41.208             0.702           351.000
       177   07 Jun 2027 03:59:39.849   07 Jun 2027 04:00:34.684            54.835         27417.500
       178   07 Jun 2027 05:21:39.913   07 Jun 2027 05:23:00.924            81.011         40505.500
       179   07 Jun 2027 05:23:45.572   07 Jun 2027 05:24:31.984            46.412         23206.000
       180   07 Jun 2027 05:25:01.149   07 Jun 2027 05:25:01.149             0.000             0.000
       181   07 Jun 2027 05:25:16.576   07 Jun 2027 05:25:58.415            41.839         20919.500
       182   07 Jun 2027 06:56:38.477   07 Jun 2027 06:58:01.242            82.765         38390.188
       183   07 Jun 2027 06:58:21.660   07 Jun 2027 06:58:21.660             0.000             0.000
       184   07 Jun 2027 06:59:07.034   07 Jun 2027 06:59:10.965             3.931          1747.094
       185   07 Jun 2027 07:00:02.676   07 Jun 2027 07:00:02.676             0.000             0.000
       186   07 Jun 2027 07:00:17.609   07 Jun 2027 07:00:22.332             4.723          1331.938
       187   07 Jun 2027 07:02:06.756   07 Jun 2027 07:02:15.664             8.908          3132.750
       188   07 Jun 2027 07:03:18.486   07 Jun 2027 07:03:23.769             5.283          1594.000
       189   07 Jun 2027 07:03:40.183   07 Jun 2027 07:03:41.293             1.110           364.500
       190   07 Jun 2027 07:04:12.183   07 Jun 2027 07:04:14.513             2.330           918.094
       191   07 Jun 2027 07:05:21.466   07 Jun 2027 07:05:21.509             0.043            21.500
       192   07 Jun 2027 08:34:17.411   07 Jun 2027 08:34:22.678             5.267          2588.250
       193   07 Jun 2027 08:35:11.505   07 Jun 2027 08:35:14.233             2.728           958.719
       194   07 Jun 2027 08:36:36.805   07 Jun 2027 08:36:41.843             5.038           998.906
       195   07 Jun 2027 08:38:07.072   07 Jun 2027 08:38:10.132             3.060          1481.625
       196   07 Jun 2027 08:38:39.542   07 Jun 2027 08:38:41.963             2.421           101.719
       197   07 Jun 2027 08:40:01.601   07 Jun 2027 08:40:05.142             3.541          1025.781
       198   07 Jun 2027 08:40:29.207   07 Jun 2027 08:40:30.795             1.588           291.938
       199   07 Jun 2027 08:41:17.825   07 Jun 2027 08:41:29.259            11.434           811.563
       200   07 Jun 2027 08:41:33.408   07 Jun 2027 08:41:34.362             0.954           128.563
       201   07 Jun 2027 10:11:04.167   07 Jun 2027 10:11:24.868            20.701          7413.531
       202   07 Jun 2027 10:13:46.475   07 Jun 2027 10:13:53.646             7.171           824.687
       203   07 Jun 2027 10:14:44.442   07 Jun 2027 10:14:57.467            13.025          1301.031
       204   07 Jun 2027 10:15:20.560   07 Jun 2027 10:15:25.217             4.657           629.219
       205   07 Jun 2027 10:15:56.699   07 Jun 2027 10:16:00.897             4.198           547.406
       206   07 Jun 2027 10:16:13.595   07 Jun 2027 10:16:16.199             2.604           182.250
       207   07 Jun 2027 10:16:48.385   07 Jun 2027 10:16:50.963             2.578           705.594
       208   07 Jun 2027 10:17:27.594   07 Jun 2027 10:17:29.349             1.755           426.938
       209   07 Jun 2027 11:49:06.961   07 Jun 2027 11:49:25.168            18.207          6025.781
       210   07 Jun 2027 11:51:17.538   07 Jun 2027 11:51:19.556             2.018           523.812
       211   07 Jun 2027 11:51:46.745   07 Jun 2027 11:51:58.075            11.330           817.250
       212   07 Jun 2027 11:52:24.801   07 Jun 2027 11:52:26.433             1.632           620.062
       213   07 Jun 2027 11:53:15.458   07 Jun 2027 11:53:17.308             1.850           925.000
       214   08 Jun 2027 03:59:31.390   08 Jun 2027 03:59:44.363            12.973          6486.500
       215   08 Jun 2027 04:00:22.432   08 Jun 2027 04:00:22.432             0.000             0.000
       216   08 Jun 2027 04:00:50.851   08 Jun 2027 04:01:22.793            31.942         15971.000
       217   08 Jun 2027 05:33:19.696   08 Jun 2027 05:35:58.291           158.595         79297.500
       218   08 Jun 2027 05:36:30.089   08 Jun 2027 05:36:35.664             5.575          2787.500
       219   08 Jun 2027 05:38:00.358   08 Jun 2027 05:38:24.187            23.829         11914.500
       220   08 Jun 2027 07:08:12.453   08 Jun 2027 07:09:46.807            94.354         46054.906
       221   08 Jun 2027 07:10:38.976   08 Jun 2027 07:10:40.205             1.229           511.656
       222   08 Jun 2027 07:11:18.075   08 Jun 2027 07:11:20.462             2.387           891.906
       223   08 Jun 2027 07:12:03.295   08 Jun 2027 07:12:05.019             1.724           359.406
       224   08 Jun 2027 07:12:32.551   08 Jun 2027 07:12:37.298             4.747           363.563
       225   08 Jun 2027 07:12:53.963   08 Jun 2027 07:12:53.963             0.000             0.000
       226   08 Jun 2027 07:13:28.900   08 Jun 2027 07:13:32.324             3.424          1424.000
       227   08 Jun 2027 07:14:52.926   08 Jun 2027 07:14:58.022             5.096          1817.094
       228   08 Jun 2027 07:15:13.312   08 Jun 2027 07:15:14.577             1.265           477.813
       229   08 Jun 2027 07:16:06.089   08 Jun 2027 07:16:09.341             3.252          1217.187
       230   08 Jun 2027 07:16:20.223   08 Jun 2027 07:16:21.088             0.865           203.656
       231   08 Jun 2027 07:16:49.723   08 Jun 2027 07:16:52.934             3.211           880.094
       232   08 Jun 2027 08:46:19.425   08 Jun 2027 08:46:32.923            13.498          5233.469
       233   08 Jun 2027 08:47:17.906   08 Jun 2027 08:47:21.801             3.895           733.938
       234   08 Jun 2027 08:50:32.014   08 Jun 2027 08:50:33.001             0.987           493.500
       235   08 Jun 2027 08:50:55.522   08 Jun 2027 08:51:01.972             6.450           735.875
       236   08 Jun 2027 08:52:17.252   08 Jun 2027 08:52:26.567             9.315          2309.625
       237   08 Jun 2027 08:52:50.481   08 Jun 2027 08:52:54.194             3.713           450.969
       238   08 Jun 2027 08:53:24.279   08 Jun 2027 08:53:26.120             1.841           539.719
       239   08 Jun 2027 10:23:14.450   08 Jun 2027 10:23:29.809            15.359          6571.625
       240   08 Jun 2027 10:23:41.141   08 Jun 2027 10:23:43.093             1.952           207.094
       241   08 Jun 2027 10:24:38.005   08 Jun 2027 10:24:42.140             4.135           867.000
       242   08 Jun 2027 10:25:44.002   08 Jun 2027 10:25:47.298             3.296           838.344
       243   08 Jun 2027 10:26:19.438   08 Jun 2027 10:26:20.857             1.419           501.875
       244   08 Jun 2027 10:27:24.575   08 Jun 2027 10:27:26.716             2.141           529.313
       245   08 Jun 2027 10:27:34.876   08 Jun 2027 10:27:36.136             1.260           114.875
       246   08 Jun 2027 10:28:03.098   08 Jun 2027 10:28:05.243             2.145           182.031
       247   08 Jun 2027 10:29:18.882   08 Jun 2027 10:29:25.598             6.716          2100.062
       248   09 Jun 2027 04:11:26.544   09 Jun 2027 04:12:04.587            38.043         19021.500
       249   09 Jun 2027 05:47:41.526   09 Jun 2027 05:50:25.720           164.194         82097.000
       250   09 Jun 2027 05:50:38.125   09 Jun 2027 05:50:46.715             8.590          4295.000
       251   09 Jun 2027 07:21:13.963   09 Jun 2027 07:22:56.272           102.309         50437.813
       252   09 Jun 2027 07:23:33.405   09 Jun 2027 07:23:33.405             0.000             0.000
       253   09 Jun 2027 07:23:39.978   09 Jun 2027 07:23:41.644             1.666           606.469
       254   09 Jun 2027 07:24:24.303   09 Jun 2027 07:24:30.595             6.292          1333.094
       255   09 Jun 2027 07:25:48.347   09 Jun 2027 07:25:54.203             5.856          2420.938
       256   09 Jun 2027 07:26:33.364   09 Jun 2027 07:26:38.339             4.975           874.687
       257   09 Jun 2027 07:27:08.378   09 Jun 2027 07:27:12.254             3.876           902.969
       258   09 Jun 2027 07:28:12.318   09 Jun 2027 07:28:12.318             0.000             0.000
       259   09 Jun 2027 07:28:14.868   09 Jun 2027 07:28:19.214             4.346          1699.219
       260   09 Jun 2027 07:28:44.215   09 Jun 2027 07:28:49.041             4.826           781.281
       261   09 Jun 2027 07:29:12.333   09 Jun 2027 07:29:15.000             2.667           414.375
       262   09 Jun 2027 08:58:46.574   09 Jun 2027 08:58:56.174             9.600          4656.844
       263   09 Jun 2027 09:02:30.491   09 Jun 2027 09:02:37.719             7.228          2524.406
       264   09 Jun 2027 09:03:57.681   09 Jun 2027 09:03:59.323             1.642           409.313
       265   09 Jun 2027 09:04:16.967   09 Jun 2027 09:04:23.713             6.746           405.531
       266   09 Jun 2027 09:04:58.841   09 Jun 2027 09:05:04.047             5.206           673.844
       267   09 Jun 2027 10:35:41.167   09 Jun 2027 10:36:02.963            21.796          7132.156
       268   09 Jun 2027 10:38:09.336   09 Jun 2027 10:38:12.711             3.375           861.219
       269   09 Jun 2027 10:39:26.947   09 Jun 2027 10:39:28.621             1.674           326.125
       270   09 Jun 2027 10:40:00.768   09 Jun 2027 10:40:06.051             5.283           903.906
       271   09 Jun 2027 10:40:46.442   09 Jun 2027 10:40:49.528             3.086           951.500
       272   09 Jun 2027 10:41:23.328   09 Jun 2027 10:41:31.849             8.521            25.938
       273   10 Jun 2027 03:00:00.000   10 Jun 2027 03:00:10.701            10.701          5350.500
       274   10 Jun 2027 03:00:16.105   10 Jun 2027 03:00:16.515             0.410           205.000
       275   10 Jun 2027 03:01:26.243   10 Jun 2027 03:01:28.322             2.079          1039.500
       276   10 Jun 2027 03:02:01.049   10 Jun 2027 03:02:18.689            17.640          8820.000
       277   10 Jun 2027 03:02:23.164   10 Jun 2027 03:02:23.164             0.000             0.000
       278   10 Jun 2027 03:04:12.273   10 Jun 2027 03:04:25.898            13.625          6812.500
       279   10 Jun 2027 04:23:18.444   10 Jun 2027 04:24:09.430            50.986         25493.000
       280   10 Jun 2027 04:24:22.818   10 Jun 2027 04:24:48.079            25.261         12630.500
       281   10 Jun 2027 05:59:45.623   10 Jun 2027 06:02:49.570           183.947         91973.500
       282   10 Jun 2027 07:31:54.108   10 Jun 2027 07:32:03.911             9.803          4901.500
       283   10 Jun 2027 07:33:52.771   10 Jun 2027 07:34:07.953            15.182          7548.844
       284   10 Jun 2027 07:35:18.475   10 Jun 2027 07:35:21.201             2.726          1037.219
       285   10 Jun 2027 07:35:44.780   10 Jun 2027 07:35:49.802             5.022           346.375
       286   10 Jun 2027 07:35:56.634   10 Jun 2027 07:35:57.904             1.270           146.344
       287   10 Jun 2027 07:37:05.643   10 Jun 2027 07:37:08.679             3.036          1033.781
       288   10 Jun 2027 07:38:54.873   10 Jun 2027 07:38:59.574             4.701          2184.313
       289   10 Jun 2027 07:39:05.781   10 Jun 2027 07:39:08.140             2.359            92.906
       290   10 Jun 2027 07:40:09.622   10 Jun 2027 07:40:14.638             5.016           346.563
       291   10 Jun 2027 07:40:27.216   10 Jun 2027 07:40:28.058             0.842           362.281
       292   10 Jun 2027 07:40:49.250   10 Jun 2027 07:40:50.624             1.374           590.656
       293   10 Jun 2027 07:41:34.704   10 Jun 2027 07:41:37.845             3.141          1122.438
       294   10 Jun 2027 07:41:41.130   10 Jun 2027 07:41:41.488             0.358           102.656
       295   10 Jun 2027 09:10:51.188   10 Jun 2027 09:11:01.388            10.200          4751.437
       296   10 Jun 2027 09:14:37.810   10 Jun 2027 09:14:40.947             3.137           182.375
       297   10 Jun 2027 09:15:15.816   10 Jun 2027 09:15:22.244             6.428           960.125
       298   10 Jun 2027 09:16:15.863   10 Jun 2027 09:16:21.188             5.325          1673.406
       299   10 Jun 2027 09:17:15.791   10 Jun 2027 09:17:17.957             2.166           860.906
       300   10 Jun 2027 10:48:23.102   10 Jun 2027 10:48:36.267            13.165          5290.563
       301   10 Jun 2027 10:49:36.527   10 Jun 2027 10:49:49.904            13.377           152.031
       302   10 Jun 2027 10:50:52.997   10 Jun 2027 10:50:55.411             2.414           469.406
       303   10 Jun 2027 10:51:24.390   10 Jun 2027 10:51:28.769             4.379           652.375
       304   10 Jun 2027 10:51:29.120   10 Jun 2027 10:51:30.258             1.138            10.969
       305   10 Jun 2027 10:51:48.815   10 Jun 2027 10:51:51.103             2.288           433.563
       306   10 Jun 2027 10:52:57.556   10 Jun 2027 10:52:58.574             1.018           509.000
       307   11 Jun 2027 03:12:09.733   11 Jun 2027 03:14:02.140           112.407         56203.500
       308   11 Jun 2027 03:15:05.717   11 Jun 2027 03:15:40.552            34.835         17417.500
       309   11 Jun 2027 03:15:49.869   11 Jun 2027 03:15:53.375             3.506          1753.000
       310   11 Jun 2027 04:35:26.527   11 Jun 2027 04:36:07.512            40.985         20492.500
       311   11 Jun 2027 04:38:28.247   11 Jun 2027 04:38:30.841             2.594          1297.000
       312   11 Jun 2027 06:11:55.777   11 Jun 2027 06:13:57.548           121.771         60761.593
       313   11 Jun 2027 06:14:29.662   11 Jun 2027 06:14:31.844             2.182          1003.562
       314   11 Jun 2027 06:14:38.154   11 Jun 2027 06:14:38.154             0.000             0.000
       315   11 Jun 2027 06:14:54.976   11 Jun 2027 06:14:56.860             1.884           713.781
       316   11 Jun 2027 07:47:06.851   11 Jun 2027 07:47:13.207             6.356          1928.500
       317   11 Jun 2027 07:48:13.954   11 Jun 2027 07:48:18.802             4.848          1236.219
       318   11 Jun 2027 07:48:33.904   11 Jun 2027 07:48:33.904             0.000             0.000
       319   11 Jun 2027 07:48:38.769   11 Jun 2027 07:48:39.625             0.856           238.969
       320   11 Jun 2027 07:49:09.904   11 Jun 2027 07:49:11.742             1.838           288.000
       321   11 Jun 2027 07:50:00.828   11 Jun 2027 07:50:04.156             3.328          1421.875
       322   11 Jun 2027 07:50:36.882   11 Jun 2027 07:50:38.614             1.732           866.000
       323   11 Jun 2027 07:51:05.572   11 Jun 2027 07:51:10.957             5.385           865.969
       324   11 Jun 2027 07:52:30.438   11 Jun 2027 07:52:37.151             6.713           454.406
       325   11 Jun 2027 07:53:11.666   11 Jun 2027 07:53:14.505             2.839           829.719
       326   11 Jun 2027 07:53:29.536   11 Jun 2027 07:53:31.151             1.615           134.781
       327   11 Jun 2027 07:53:34.953   11 Jun 2027 07:53:37.239             2.286           118.813
       328   11 Jun 2027 09:23:25.897   11 Jun 2027 09:23:37.740            11.843          4690.500
       329   11 Jun 2027 09:24:08.260   11 Jun 2027 09:24:10.246             1.986           127.750
       330   11 Jun 2027 09:25:27.581   11 Jun 2027 09:25:29.318             1.737           747.688
       331   11 Jun 2027 09:27:48.172   11 Jun 2027 09:27:53.744             5.572          2184.219
       332   11 Jun 2027 09:28:05.511   11 Jun 2027 09:28:12.267             6.756           280.500
       333   11 Jun 2027 09:28:37.253   11 Jun 2027 09:28:40.720             3.467           732.406
       334   11 Jun 2027 09:28:48.530   11 Jun 2027 09:28:54.080             5.550           244.063
       335   11 Jun 2027 11:00:48.327   11 Jun 2027 11:01:04.503            16.176          6860.500
       336   11 Jun 2027 11:02:50.140   11 Jun 2027 11:02:53.251             3.111           978.437
       337   11 Jun 2027 11:03:31.463   11 Jun 2027 11:03:31.830             0.367            45.656
       338   11 Jun 2027 11:03:58.579   11 Jun 2027 11:04:00.485             1.906           724.500
       339   11 Jun 2027 11:05:07.924   11 Jun 2027 11:05:11.836             3.912          1824.344
       340   11 Jun 2027 11:05:13.380   11 Jun 2027 11:05:14.950             1.570            48.250
       341   12 Jun 2027 03:24:01.589   12 Jun 2027 03:24:37.953            36.364         18182.000
       342   12 Jun 2027 03:25:06.542   12 Jun 2027 03:27:02.654           116.112         58056.000
       343   12 Jun 2027 03:27:05.786   12 Jun 2027 03:27:32.643            26.857         13428.500
       344   12 Jun 2027 04:48:09.150   12 Jun 2027 04:48:28.164            19.014          9507.000
       345   12 Jun 2027 04:48:32.292   12 Jun 2027 04:48:48.981            16.689          8344.500
       346   12 Jun 2027 06:23:52.833   12 Jun 2027 06:25:09.048            76.215         38107.500
       347   12 Jun 2027 06:25:17.494   12 Jun 2027 06:25:20.179             2.685           891.281
       348   12 Jun 2027 06:25:51.845   12 Jun 2027 06:25:54.146             2.301           870.344
       349   12 Jun 2027 06:26:28.063   12 Jun 2027 06:26:35.380             7.317           933.344
       350   12 Jun 2027 06:27:03.044   12 Jun 2027 06:27:03.955             0.911           455.500
       351   12 Jun 2027 06:27:25.006   12 Jun 2027 06:27:25.302             0.296           148.000
       352   12 Jun 2027 07:58:56.776   12 Jun 2027 07:59:01.028             4.252          1987.657
       353   12 Jun 2027 08:00:34.849   12 Jun 2027 08:00:36.626             1.777            10.906
       354   12 Jun 2027 08:00:57.860   12 Jun 2027 08:00:58.681             0.821           119.531
       355   12 Jun 2027 08:01:52.512   12 Jun 2027 08:01:54.838             2.326           741.344
       356   12 Jun 2027 08:02:40.922   12 Jun 2027 08:02:43.733             2.811          1403.500
       357   12 Jun 2027 08:02:48.261   12 Jun 2027 08:02:52.566             4.305            74.531
       358   12 Jun 2027 08:04:15.609   12 Jun 2027 08:04:26.605            10.996          2117.781
       359   12 Jun 2027 08:05:07.979   12 Jun 2027 08:05:13.306             5.327          1231.687
       360   12 Jun 2027 08:05:26.703   12 Jun 2027 08:05:27.419             0.716           160.594
       361   12 Jun 2027 08:05:47.223   12 Jun 2027 08:05:49.179             1.956           497.031
       362   12 Jun 2027 09:35:02.547   12 Jun 2027 09:35:12.738            10.191          5080.500
       363   12 Jun 2027 09:37:44.927   12 Jun 2027 09:37:46.663             1.736             0.094
       364   12 Jun 2027 09:38:26.200   12 Jun 2027 09:38:28.567             2.367           724.500
       365   12 Jun 2027 09:39:25.984   12 Jun 2027 09:39:29.651             3.667          1735.344
       366   12 Jun 2027 09:40:24.713   12 Jun 2027 09:40:26.893             2.180           732.281
       367   12 Jun 2027 11:13:01.551   12 Jun 2027 11:13:13.483            11.932          5942.469
       368   12 Jun 2027 11:15:21.987   12 Jun 2027 11:15:24.501             2.514           360.156
       369   12 Jun 2027 11:15:37.858   12 Jun 2027 11:15:39.324             1.466           227.562
       370   12 Jun 2027 11:16:06.195   12 Jun 2027 11:16:08.443             2.248           409.406
       371   12 Jun 2027 11:16:30.013   12 Jun 2027 11:16:32.700             2.687            74.875
       372   12 Jun 2027 11:17:09.894   12 Jun 2027 11:17:12.358             2.464           185.594
       373   13 Jun 2027 03:24:57.406   13 Jun 2027 03:25:12.062            14.656          7328.000
       374   13 Jun 2027 03:35:57.173   13 Jun 2027 03:39:23.753           206.580        103290.000
       375   13 Jun 2027 04:59:14.844   13 Jun 2027 04:59:25.701            10.857          5428.500
       376   13 Jun 2027 05:01:52.053   13 Jun 2027 05:01:52.053             0.000             0.000
       377   13 Jun 2027 06:34:30.113   13 Jun 2027 06:34:33.074             2.961          1480.500
       378   13 Jun 2027 06:35:37.668   13 Jun 2027 06:37:06.627            88.959         44295.750
       379   13 Jun 2027 06:38:25.598   13 Jun 2027 06:38:31.526             5.928          2467.844
       380   13 Jun 2027 06:39:13.892   13 Jun 2027 06:39:16.130             2.238          1102.531
       381   13 Jun 2027 08:10:23.731   13 Jun 2027 08:10:25.534             1.803           901.500
       382   13 Jun 2027 08:10:53.771   13 Jun 2027 08:10:59.854             6.083          2385.094
       383   13 Jun 2027 08:12:24.254   13 Jun 2027 08:12:25.603             1.349           281.469
       384   13 Jun 2027 08:12:58.178   13 Jun 2027 08:13:01.169             2.991           815.250
       385   13 Jun 2027 08:13:43.480   13 Jun 2027 08:13:45.758             2.278          1053.250
       386   13 Jun 2027 08:13:51.618   13 Jun 2027 08:13:51.997             0.379           183.125
       387   13 Jun 2027 08:14:42.974   13 Jun 2027 08:14:44.453             1.479           390.406
       388   13 Jun 2027 08:15:24.583   13 Jun 2027 08:15:27.869             3.286           483.906
       389   13 Jun 2027 08:16:16.343   13 Jun 2027 08:16:19.935             3.592           720.250
       390   13 Jun 2027 08:17:17.726   13 Jun 2027 08:17:21.924             4.198          1805.969
       391   13 Jun 2027 09:47:13.735   13 Jun 2027 09:47:30.950            17.215          7006.062
       392   13 Jun 2027 09:50:03.687   13 Jun 2027 09:50:04.659             0.972           190.750
       393   13 Jun 2027 09:50:30.241   13 Jun 2027 09:50:33.934             3.693           404.500
       394   13 Jun 2027 09:51:30.307   13 Jun 2027 09:51:36.221             5.914          1281.406
       395   13 Jun 2027 09:52:14.888   13 Jun 2027 09:52:17.278             2.390           301.000
       396   13 Jun 2027 09:52:19.223   13 Jun 2027 09:52:25.030             5.807            58.562
       397   13 Jun 2027 11:25:23.742   13 Jun 2027 11:25:42.060            18.318          7108.813
       398   13 Jun 2027 11:25:55.242   13 Jun 2027 11:25:56.339             1.097           192.813
       399   13 Jun 2027 11:27:13.703   13 Jun 2027 11:27:17.176             3.473          1687.250
       400   13 Jun 2027 11:27:43.649   13 Jun 2027 11:27:48.361             4.712           413.594
       401   13 Jun 2027 11:28:23.351   13 Jun 2027 11:28:27.410             4.059           206.125
       402   13 Jun 2027 11:28:53.250   13 Jun 2027 11:28:55.415             2.165           207.469
       403   13 Jun 2027 11:29:05.463   13 Jun 2027 11:29:11.159             5.696           152.781
