uniorb/output/strategy_4/Camera/Camera_KinoSat_112007.txt

KinoSat_112007
-------------------------
    Access    *     Start Time (UTCG)     *     Stop Time (UTCG)  *   Duration (s) *   Data (Mbytes)
         1   01 Jun 2027 04:14:12.963   01 Jun 2027 04:16:22.093           129.130         64565.000
         2   01 Jun 2027 04:17:58.971   01 Jun 2027 04:18:11.052            12.081          6040.500
         3   01 Jun 2027 05:52:57.998   01 Jun 2027 05:55:04.519           126.521         63260.500
         4   01 Jun 2027 05:55:44.534   01 Jun 2027 05:55:47.238             2.704          1352.000
         5   01 Jun 2027 05:58:32.519   01 Jun 2027 05:58:43.930            11.411          5705.500
         6   01 Jun 2027 05:59:57.933   01 Jun 2027 06:00:32.165            34.232         17116.000
         7   01 Jun 2027 07:18:37.307   01 Jun 2027 07:19:37.814            60.507         30253.500
         8   01 Jun 2027 07:29:54.208   01 Jun 2027 07:31:02.566            68.358         34179.000
         9   01 Jun 2027 07:31:17.286   01 Jun 2027 07:31:33.490            16.204          8102.000
        10   01 Jun 2027 08:52:29.497   01 Jun 2027 08:53:34.294            64.797         32398.500
        11   01 Jun 2027 08:53:47.870   01 Jun 2027 08:55:07.974            80.104         40052.000
        12   01 Jun 2027 08:56:20.886   01 Jun 2027 08:56:20.886             0.000             0.000
        13   01 Jun 2027 08:57:09.574   01 Jun 2027 08:57:10.481             0.907           453.500
        14   02 Jun 2027 04:26:20.126   02 Jun 2027 04:28:31.096           130.970         65485.000
        15   02 Jun 2027 04:30:10.643   02 Jun 2027 04:30:44.360            33.717         16858.500
        16   02 Jun 2027 04:31:46.801   02 Jun 2027 04:32:26.790            39.989         19994.500
        17   02 Jun 2027 06:05:24.187   02 Jun 2027 06:09:51.944           267.757        133878.500
        18   02 Jun 2027 06:10:54.157   02 Jun 2027 06:12:31.844            97.687         48843.500
        19   02 Jun 2027 07:30:13.941   02 Jun 2027 07:30:24.366            10.425          5212.500
        20   02 Jun 2027 07:31:27.405   02 Jun 2027 07:31:45.806            18.401          9200.500
        21   02 Jun 2027 07:41:53.736   02 Jun 2027 07:42:54.088            60.352         30176.000
        22   02 Jun 2027 09:04:12.930   02 Jun 2027 09:04:35.487            22.557         11278.500
        23   02 Jun 2027 09:05:11.241   02 Jun 2027 09:05:18.971             7.730          3865.000
        24   02 Jun 2027 09:06:09.973   02 Jun 2027 09:06:49.429            39.456         19728.000
        25   02 Jun 2027 09:07:58.124   02 Jun 2027 09:09:13.653            75.529         37764.500
        26   02 Jun 2027 10:39:10.066   02 Jun 2027 10:40:01.938            51.872         25936.000
        27   02 Jun 2027 10:44:48.979   02 Jun 2027 10:45:24.748            35.769         17884.500
        28   02 Jun 2027 10:45:34.511   02 Jun 2027 10:45:53.320            18.809          9186.970
        29   02 Jun 2027 10:47:10.237   02 Jun 2027 10:47:13.908             3.671          1536.375
        30   03 Jun 2027 03:01:44.364   03 Jun 2027 03:01:54.386            10.022          5011.000
        31   03 Jun 2027 03:02:07.167   03 Jun 2027 03:02:12.206             5.039          2519.500
        32   03 Jun 2027 03:02:16.230   03 Jun 2027 03:02:18.028             1.798           899.000
        33   03 Jun 2027 03:02:48.224   03 Jun 2027 03:02:58.425            10.201          5100.500
        34   03 Jun 2027 03:04:51.623   03 Jun 2027 03:05:07.086            15.463          7731.500
        35   03 Jun 2027 03:05:31.429   03 Jun 2027 03:05:51.494            20.065         10032.500
        36   03 Jun 2027 03:07:53.687   03 Jun 2027 03:08:09.562            15.875          7937.500
        37   03 Jun 2027 03:08:58.930   03 Jun 2027 03:09:06.029             7.099          3549.500
        38   03 Jun 2027 04:38:44.089   03 Jun 2027 04:39:06.037            21.948         10974.000
        39   03 Jun 2027 04:39:13.202   03 Jun 2027 04:39:43.087            29.885         14942.500
        40   03 Jun 2027 04:39:48.229   03 Jun 2027 04:40:42.295            54.066         27033.000
        41   03 Jun 2027 04:40:44.589   03 Jun 2027 04:42:09.656            85.067         42533.500
        42   03 Jun 2027 06:17:28.410   03 Jun 2027 06:18:53.548            85.138         41108.938
        43   03 Jun 2027 06:19:01.884   03 Jun 2027 06:19:03.625             1.741             8.313
        44   03 Jun 2027 06:19:43.639   03 Jun 2027 06:19:45.399             1.760             0.562
        45   03 Jun 2027 06:20:42.745   03 Jun 2027 06:20:46.475             3.730          1552.125
        46   03 Jun 2027 06:21:16.392   03 Jun 2027 06:21:19.249             2.857           749.250
        47   03 Jun 2027 06:21:55.291   03 Jun 2027 06:21:56.997             1.706           759.000
        48   03 Jun 2027 06:22:57.120   03 Jun 2027 06:23:02.958             5.838          1645.031
        49   03 Jun 2027 07:41:47.380   03 Jun 2027 07:42:05.069            17.689          5839.844
        50   03 Jun 2027 07:42:33.970   03 Jun 2027 07:42:34.797             0.827           295.781
        51   03 Jun 2027 07:43:26.567   03 Jun 2027 07:43:28.621             2.054           978.500
        52   03 Jun 2027 07:54:08.181   03 Jun 2027 07:54:12.808             4.627          2077.500
        53   03 Jun 2027 09:15:45.373   03 Jun 2027 09:16:08.095            22.722          9756.938
        54   03 Jun 2027 09:17:54.719   03 Jun 2027 09:18:00.913             6.194          2110.094
        55   03 Jun 2027 09:18:38.953   03 Jun 2027 09:18:48.400             9.447           822.281
        56   03 Jun 2027 09:19:35.504   03 Jun 2027 09:19:36.937             1.433           453.094
        57   03 Jun 2027 09:20:54.667   03 Jun 2027 09:20:58.469             3.802          1901.000
        58   03 Jun 2027 09:21:01.582   03 Jun 2027 09:21:06.925             5.343           417.375
        59   03 Jun 2027 10:50:38.570   03 Jun 2027 10:50:46.990             8.420          3776.438
        60   03 Jun 2027 10:52:52.632   03 Jun 2027 10:52:57.756             5.124          2218.875
        61   03 Jun 2027 10:56:28.597   03 Jun 2027 10:56:42.822            14.225          6196.062
        62   03 Jun 2027 10:57:46.321   03 Jun 2027 10:57:49.429             3.108           571.063
        63   03 Jun 2027 10:58:01.420   03 Jun 2027 10:58:01.420             0.000             0.000
        64   04 Jun 2027 03:13:42.515   04 Jun 2027 03:13:56.484            13.969          6984.500
        65   04 Jun 2027 03:15:58.504   04 Jun 2027 03:16:01.653             3.149          1574.500
        66   04 Jun 2027 03:16:14.473   04 Jun 2027 03:18:13.005           118.532         59266.000
        67   04 Jun 2027 03:19:17.694   04 Jun 2027 03:19:52.476            34.782         17391.000
        68   04 Jun 2027 03:21:10.922   04 Jun 2027 03:21:28.297            17.375          8687.500
        69   04 Jun 2027 04:51:23.597   04 Jun 2027 04:51:36.623            13.026          6513.000
        70   04 Jun 2027 04:51:46.602   04 Jun 2027 04:52:47.394            60.792         30396.000
        71   04 Jun 2027 04:52:56.478   04 Jun 2027 04:53:20.830            24.352         12176.000
        72   04 Jun 2027 04:53:32.836   04 Jun 2027 04:53:45.591            12.755          6377.500
        73   04 Jun 2027 06:29:54.801   04 Jun 2027 06:31:05.454            70.653         33857.656
        74   04 Jun 2027 06:31:43.701   04 Jun 2027 06:31:45.102             1.401           184.406
        75   04 Jun 2027 06:32:22.398   04 Jun 2027 06:32:28.325             5.927           848.500
        76   04 Jun 2027 06:33:24.249   04 Jun 2027 06:33:26.231             1.982           835.781
        77   04 Jun 2027 06:33:45.971   04 Jun 2027 06:33:48.803             2.832           616.875
        78   04 Jun 2027 06:34:53.772   04 Jun 2027 06:34:56.382             2.610          1191.125
        79   04 Jun 2027 07:53:43.681   04 Jun 2027 07:53:51.971             8.290          3435.687
        80   04 Jun 2027 07:55:03.233   04 Jun 2027 07:55:10.787             7.554          1370.344
        81   04 Jun 2027 09:29:44.601   04 Jun 2027 09:29:54.623            10.022          4812.406
        82   04 Jun 2027 09:30:43.047   04 Jun 2027 09:30:45.403             2.356          1174.437
        83   04 Jun 2027 09:31:21.125   04 Jun 2027 09:31:23.605             2.480          1080.531
        84   04 Jun 2027 09:32:15.236   04 Jun 2027 09:32:22.636             7.400          1362.312
        85   04 Jun 2027 09:33:01.158   04 Jun 2027 09:33:03.535             2.377           761.406
        86   04 Jun 2027 11:03:31.956   04 Jun 2027 11:03:40.570             8.614          4068.312
        87   04 Jun 2027 11:05:33.029   04 Jun 2027 11:05:33.029             0.000             0.000
        88   04 Jun 2027 11:06:11.311   04 Jun 2027 11:06:13.009             1.698           849.000
        89   04 Jun 2027 11:10:15.930   04 Jun 2027 11:10:33.177            17.247          8279.218
        90   05 Jun 2027 03:25:44.245   05 Jun 2027 03:26:06.728            22.483         11241.500
        91   05 Jun 2027 03:27:46.349   05 Jun 2027 03:30:14.921           148.572         74286.000
        92   05 Jun 2027 03:30:33.269   05 Jun 2027 03:30:37.070             3.801          1900.500
        93   05 Jun 2027 03:31:27.958   05 Jun 2027 03:31:46.542            18.584          9292.000
        94   05 Jun 2027 03:32:09.031   05 Jun 2027 03:32:34.646            25.615         12807.500
        95   05 Jun 2027 05:05:21.384   05 Jun 2027 05:06:04.143            42.759         21379.500
        96   05 Jun 2027 05:06:27.316   05 Jun 2027 05:06:45.706            18.390          9195.000
        97   05 Jun 2027 05:08:09.698   05 Jun 2027 05:09:14.041            64.343         32000.468
        98   05 Jun 2027 05:09:38.647   05 Jun 2027 05:09:42.673             4.026           715.375
        99   05 Jun 2027 06:42:13.905   05 Jun 2027 06:42:44.724            30.819         14581.625
       100   05 Jun 2027 06:42:56.598   05 Jun 2027 06:42:57.804             1.206           218.719
       101   05 Jun 2027 06:44:53.856   05 Jun 2027 06:44:58.646             4.790           998.719
       102   05 Jun 2027 06:46:18.799   05 Jun 2027 06:46:24.096             5.297          2281.969
       103   05 Jun 2027 06:46:34.827   05 Jun 2027 06:46:37.443             2.616            96.906
       104   05 Jun 2027 08:05:36.937   05 Jun 2027 08:05:46.812             9.875          4132.781
       105   05 Jun 2027 08:07:04.667   05 Jun 2027 08:07:04.667             0.000             0.000
       106   05 Jun 2027 08:07:47.103   05 Jun 2027 08:07:54.499             7.396          2964.219
       107   05 Jun 2027 08:08:06.631   05 Jun 2027 08:08:08.019             1.388            76.063
       108   05 Jun 2027 09:41:57.678   05 Jun 2027 09:42:09.390            11.712          4619.312
       109   05 Jun 2027 09:43:38.531   05 Jun 2027 09:43:44.576             6.045          1897.719
       110   05 Jun 2027 09:45:03.212   05 Jun 2027 09:45:09.681             6.469          2437.469
       111   05 Jun 2027 11:17:52.515   05 Jun 2027 11:18:06.678            14.163          7081.500
       112   05 Jun 2027 11:21:26.131   05 Jun 2027 11:21:26.131             0.000             0.000
       113   05 Jun 2027 11:22:42.225   05 Jun 2027 11:23:00.204            17.979          8989.500
       114   05 Jun 2027 11:23:01.251   05 Jun 2027 11:23:04.890             3.639          1684.750
       115   05 Jun 2027 11:23:19.075   05 Jun 2027 11:23:21.770             2.695           289.500
       116   05 Jun 2027 11:23:29.964   05 Jun 2027 11:23:30.264             0.300           101.375
       117   05 Jun 2027 11:23:54.462   05 Jun 2027 11:23:59.034             4.572           756.187
       118   06 Jun 2027 03:37:50.422   06 Jun 2027 03:38:07.715            17.293          8646.500
       119   06 Jun 2027 03:38:11.334   06 Jun 2027 03:38:11.334             0.000             0.000
       120   06 Jun 2027 03:39:04.473   06 Jun 2027 03:41:12.455           127.982         63991.000
       121   06 Jun 2027 03:42:30.784   06 Jun 2027 03:43:36.196            65.412         32706.000
       122   06 Jun 2027 05:16:04.498   06 Jun 2027 05:16:13.324             8.826          4413.000
       123   06 Jun 2027 05:17:00.417   06 Jun 2027 05:17:05.948             5.531          2765.500
       124   06 Jun 2027 05:17:11.567   06 Jun 2027 05:17:59.208            47.641         23820.500
       125   06 Jun 2027 05:18:51.842   06 Jun 2027 05:19:49.575            57.733         28866.500
       126   06 Jun 2027 05:21:38.412   06 Jun 2027 05:21:40.606             2.194          1097.000
       127   06 Jun 2027 05:22:10.553   06 Jun 2027 05:22:13.832             3.279          1639.500
       128   06 Jun 2027 06:55:06.502   06 Jun 2027 06:55:41.258            34.756         17195.500
       129   06 Jun 2027 06:56:28.287   06 Jun 2027 06:56:31.044             2.757          1362.156
       130   06 Jun 2027 06:56:47.526   06 Jun 2027 06:56:48.968             1.442           237.000
       131   06 Jun 2027 06:58:08.256   06 Jun 2027 06:58:12.599             4.343          1780.688
       132   06 Jun 2027 08:17:33.426   06 Jun 2027 08:17:46.270            12.844          5663.187
       133   06 Jun 2027 08:19:05.871   06 Jun 2027 08:19:13.556             7.685          1987.000
       134   06 Jun 2027 08:19:24.699   06 Jun 2027 08:19:24.699             0.000             0.000
       135   06 Jun 2027 09:54:03.864   06 Jun 2027 09:54:14.059            10.195          4042.031
       136   06 Jun 2027 09:54:42.233   06 Jun 2027 09:54:44.685             2.452            64.594
       137   06 Jun 2027 09:56:01.893   06 Jun 2027 09:56:05.609             3.716           846.406
       138   06 Jun 2027 09:56:25.327   06 Jun 2027 09:56:30.329             5.002           616.188
       139   06 Jun 2027 11:29:39.014   06 Jun 2027 11:29:39.014             0.000             0.000
       140   06 Jun 2027 11:30:36.166   06 Jun 2027 11:30:51.989            15.823          7895.781
       141   06 Jun 2027 11:32:32.777   06 Jun 2027 11:32:34.098             1.321           432.469
       142   06 Jun 2027 11:35:12.785   06 Jun 2027 11:35:21.394             8.609          3940.406
       143   07 Jun 2027 03:49:48.860   07 Jun 2027 03:50:06.794            17.934          8967.000
       144   07 Jun 2027 03:50:42.858   07 Jun 2027 03:53:05.922           143.064         71532.000
       145   07 Jun 2027 03:54:28.771   07 Jun 2027 03:54:28.771             0.000             0.000
       146   07 Jun 2027 03:54:59.184   07 Jun 2027 03:55:12.859            13.675          6837.500
       147   07 Jun 2027 03:56:32.356   07 Jun 2027 03:56:57.961            25.605         12802.500
       148   07 Jun 2027 05:28:02.309   07 Jun 2027 05:28:50.721            48.412         24206.000
       149   07 Jun 2027 05:29:08.810   07 Jun 2027 05:30:35.748            86.938         43168.906
       150   07 Jun 2027 05:31:19.135   07 Jun 2027 05:31:20.170             1.035           334.156
       151   07 Jun 2027 07:06:16.316   07 Jun 2027 07:06:30.938            14.622          7032.062
       152   07 Jun 2027 07:08:42.904   07 Jun 2027 07:08:49.759             6.855           741.594
       153   07 Jun 2027 07:09:26.351   07 Jun 2027 07:09:28.264             1.913           563.625
       154   07 Jun 2027 08:29:38.729   07 Jun 2027 08:29:55.020            16.291          7782.531
       155   07 Jun 2027 08:30:47.796   07 Jun 2027 08:30:50.824             3.028           637.719
       156   07 Jun 2027 08:31:47.140   07 Jun 2027 08:31:47.140             0.000             0.000
       157   07 Jun 2027 08:32:37.003   07 Jun 2027 08:32:43.821             6.818          2819.281
       158   07 Jun 2027 10:06:14.591   07 Jun 2027 10:06:23.819             9.228          3693.750
       159   07 Jun 2027 10:07:58.047   07 Jun 2027 10:08:04.443             6.396          2365.906
       160   07 Jun 2027 10:08:21.885   07 Jun 2027 10:08:26.112             4.227           323.375
       161   07 Jun 2027 11:43:22.929   07 Jun 2027 11:43:35.021            12.092          6046.000
       162   07 Jun 2027 11:47:48.240   07 Jun 2027 11:48:00.554            12.314          6157.000
       163   08 Jun 2027 04:01:50.396   08 Jun 2027 04:02:13.446            23.050         11525.000
       164   08 Jun 2027 04:02:13.830   08 Jun 2027 04:06:03.955           230.125        115062.500
       165   08 Jun 2027 05:41:07.835   08 Jun 2027 05:42:57.128           109.293         54496.406
       166   08 Jun 2027 05:43:18.564   08 Jun 2027 05:43:20.652             2.088           156.094
       167   08 Jun 2027 05:44:36.059   08 Jun 2027 05:44:41.704             5.645          1836.625
       168   08 Jun 2027 05:44:45.381   08 Jun 2027 05:44:46.609             1.228           114.906
       169   08 Jun 2027 05:45:09.386   08 Jun 2027 05:45:11.271             1.885           340.563
       170   08 Jun 2027 05:47:47.509   08 Jun 2027 05:47:59.222            11.713          4345.531
       171   08 Jun 2027 07:18:13.790   08 Jun 2027 07:18:25.557            11.767          5536.406
       172   08 Jun 2027 07:19:20.923   08 Jun 2027 07:19:23.892             2.969           816.844
       173   08 Jun 2027 07:19:46.663   08 Jun 2027 07:19:51.048             4.385           357.312
       174   08 Jun 2027 07:20:35.742   08 Jun 2027 07:20:37.781             2.039           540.313
       175   08 Jun 2027 07:21:24.758   08 Jun 2027 07:21:28.356             3.598           725.125
       176   08 Jun 2027 08:42:13.133   08 Jun 2027 08:42:34.840            21.707         10222.469
       177   08 Jun 2027 08:42:50.417   08 Jun 2027 08:42:51.287             0.870           180.031
       178   08 Jun 2027 08:44:31.765   08 Jun 2027 08:44:38.065             6.300          2638.187
       179   08 Jun 2027 10:18:00.327   08 Jun 2027 10:18:13.718            13.391          6590.938
       180   08 Jun 2027 10:19:47.829   08 Jun 2027 10:19:52.051             4.222          2063.625
       181   08 Jun 2027 10:20:54.436   08 Jun 2027 10:20:58.157             3.721           279.969
       182   08 Jun 2027 11:59:39.250   08 Jun 2027 12:00:00.000            20.750         10375.000
       183   09 Jun 2027 04:14:30.965   09 Jun 2027 04:17:43.475           192.510         96255.000
       184   09 Jun 2027 04:18:19.671   09 Jun 2027 04:18:25.472             5.801          2900.500
       185   09 Jun 2027 05:53:17.816   09 Jun 2027 05:54:59.171           101.355         50677.500
       186   09 Jun 2027 05:55:16.682   09 Jun 2027 05:55:22.322             5.640          2820.000
       187   09 Jun 2027 05:56:09.224   09 Jun 2027 05:56:20.174            10.950          5475.000
       188   09 Jun 2027 05:58:51.409   09 Jun 2027 05:59:54.030            62.621         31127.438
       189   09 Jun 2027 07:18:50.677   09 Jun 2027 07:19:03.205            12.528          5500.156
       190   09 Jun 2027 07:19:31.093   09 Jun 2027 07:19:33.444             2.351           475.344
       191   09 Jun 2027 07:30:12.384   09 Jun 2027 07:30:16.806             4.422          2108.094
       192   09 Jun 2027 07:31:18.187   09 Jun 2027 07:31:19.843             1.656           673.156
       193   09 Jun 2027 08:52:48.489   09 Jun 2027 08:53:04.460            15.971          6996.500
       194   09 Jun 2027 08:53:31.926   09 Jun 2027 08:53:34.077             2.151           858.312
       195   09 Jun 2027 08:55:07.454   09 Jun 2027 08:55:15.053             7.599          2702.500
       196   09 Jun 2027 08:56:37.703   09 Jun 2027 08:56:44.728             7.025          2248.813
       197   09 Jun 2027 10:28:16.293   09 Jun 2027 10:28:28.677            12.384          4894.000
       198   09 Jun 2027 10:30:40.492   09 Jun 2027 10:30:46.308             5.816          2005.594
       199   09 Jun 2027 10:33:13.020   09 Jun 2027 10:33:20.769             7.749          3099.219
       200   09 Jun 2027 10:33:45.380   09 Jun 2027 10:33:46.412             1.032           228.719
       201   09 Jun 2027 10:34:19.666   09 Jun 2027 10:34:20.417             0.751           304.094
       202   10 Jun 2027 04:26:39.089   10 Jun 2027 04:28:13.197            94.108         47054.000
       203   10 Jun 2027 04:28:14.102   10 Jun 2027 04:28:37.314            23.212         11606.000
       204   10 Jun 2027 04:30:25.462   10 Jun 2027 04:30:32.495             7.033          3516.500
       205   10 Jun 2027 04:32:01.477   10 Jun 2027 04:32:45.030            43.553         21776.500
       206   10 Jun 2027 06:05:43.703   10 Jun 2027 06:08:40.379           176.676         86600.344
       207   10 Jun 2027 06:09:05.505   10 Jun 2027 06:09:10.829             5.324           659.281
       208   10 Jun 2027 06:09:28.340   10 Jun 2027 06:09:30.877             2.537           336.344
       209   10 Jun 2027 06:10:38.028   10 Jun 2027 06:10:40.377             2.349           942.094
       210   10 Jun 2027 06:10:55.944   10 Jun 2027 06:10:58.148             2.204           250.437
       211   10 Jun 2027 07:30:31.825   10 Jun 2027 07:30:44.229            12.404          5826.031
       212   10 Jun 2027 07:30:51.041   10 Jun 2027 07:30:51.976             0.935           212.875
       213   10 Jun 2027 07:31:02.484   10 Jun 2027 07:31:02.484             0.000             0.000
       214   10 Jun 2027 07:31:17.716   10 Jun 2027 07:31:19.245             1.529           752.719
       215   10 Jun 2027 07:42:11.819   10 Jun 2027 07:42:19.139             7.320          2228.156
       216   10 Jun 2027 09:04:29.652   10 Jun 2027 09:05:03.172            33.520         15352.125
       217   10 Jun 2027 09:05:34.377   10 Jun 2027 09:05:35.559             1.182           103.594
       218   10 Jun 2027 09:06:23.665   10 Jun 2027 09:06:30.738             7.073          1108.250
       219   10 Jun 2027 09:06:54.952   10 Jun 2027 09:06:56.976             2.024           698.969
       220   10 Jun 2027 09:08:14.121   10 Jun 2027 09:08:14.121             0.000             0.000
       221   10 Jun 2027 10:39:23.589   10 Jun 2027 10:39:37.376            13.787          6264.250
       222   10 Jun 2027 10:40:56.957   10 Jun 2027 10:40:59.315             2.358          1179.000
       223   10 Jun 2027 10:45:03.295   10 Jun 2027 10:45:19.983            16.688          7908.969
       224   10 Jun 2027 10:45:54.059   10 Jun 2027 10:45:54.059             0.000             0.000
       225   10 Jun 2027 10:46:14.111   10 Jun 2027 10:46:16.742             2.631           909.656
       226   10 Jun 2027 10:47:27.466   10 Jun 2027 10:47:29.485             2.019           795.344
       227   11 Jun 2027 03:02:02.394   11 Jun 2027 03:02:10.208             7.814          3907.000
       228   11 Jun 2027 03:03:02.731   11 Jun 2027 03:03:13.178            10.447          5223.500
       229   11 Jun 2027 03:03:38.940   11 Jun 2027 03:03:38.940             0.000             0.000
       230   11 Jun 2027 03:03:49.892   11 Jun 2027 03:04:01.310            11.418          5709.000
       231   11 Jun 2027 03:04:26.789   11 Jun 2027 03:04:28.198             1.409           704.500
       232   11 Jun 2027 03:05:03.255   11 Jun 2027 03:05:46.245            42.990         21495.000
       233   11 Jun 2027 03:08:08.614   11 Jun 2027 03:08:24.471            15.857          7928.500
       234   11 Jun 2027 04:39:31.910   11 Jun 2027 04:40:01.099            29.189         14594.500
       235   11 Jun 2027 04:42:16.910   11 Jun 2027 04:42:43.271            26.361         13180.500
       236   11 Jun 2027 04:44:00.666   11 Jun 2027 04:44:30.889            30.223         15111.500
       237   11 Jun 2027 06:17:48.960   11 Jun 2027 06:20:41.984           173.024         86349.500
       238   11 Jun 2027 06:21:29.965   11 Jun 2027 06:21:33.680             3.715          1037.594
       239   11 Jun 2027 06:21:47.925   11 Jun 2027 06:21:50.288             2.363            74.531
       240   11 Jun 2027 06:22:43.341   11 Jun 2027 06:22:47.364             4.023          1014.469
       241   11 Jun 2027 07:42:05.633   11 Jun 2027 07:42:19.834            14.201          5931.281
       242   11 Jun 2027 07:42:52.154   11 Jun 2027 07:42:53.667             1.513           363.719
       243   11 Jun 2027 07:43:11.692   11 Jun 2027 07:43:13.464             1.772           563.281
       244   11 Jun 2027 07:43:19.446   11 Jun 2027 07:43:19.446             0.000             0.000
       245   11 Jun 2027 07:54:28.122   11 Jun 2027 07:54:36.130             8.008          1891.594
       246   11 Jun 2027 09:16:01.451   11 Jun 2027 09:16:24.179            22.728          9996.750
       247   11 Jun 2027 09:18:10.137   11 Jun 2027 09:18:15.656             5.519          2057.437
       248   11 Jun 2027 09:18:56.788   11 Jun 2027 09:19:05.934             9.146           806.281
       249   11 Jun 2027 09:19:59.181   11 Jun 2027 09:20:02.548             3.367          1663.969
       250   11 Jun 2027 09:21:13.578   11 Jun 2027 09:21:13.578             0.000             0.000
       251   11 Jun 2027 09:21:19.348   11 Jun 2027 09:21:23.339             3.991          1393.594
       252   11 Jun 2027 10:50:54.454   11 Jun 2027 10:51:02.201             7.747          3530.375
       253   11 Jun 2027 10:53:12.750   11 Jun 2027 10:53:17.144             4.394          2197.000
       254   11 Jun 2027 10:56:43.030   11 Jun 2027 10:56:59.670            16.640          6583.219
       255   12 Jun 2027 03:14:00.275   12 Jun 2027 03:14:12.313            12.038          6019.000
       256   12 Jun 2027 03:16:14.714   12 Jun 2027 03:16:16.499             1.785           892.500
       257   12 Jun 2027 03:16:29.548   12 Jun 2027 03:18:47.191           137.643         68821.500
       258   12 Jun 2027 03:18:55.406   12 Jun 2027 03:19:33.367            37.961         18980.500
       259   12 Jun 2027 03:21:25.338   12 Jun 2027 03:21:44.971            19.633          9816.500
       260   12 Jun 2027 04:51:42.644   12 Jun 2027 04:51:53.980            11.336          5668.000
       261   12 Jun 2027 04:52:05.423   12 Jun 2027 04:53:06.268            60.845         30422.500
       262   12 Jun 2027 04:53:13.176   12 Jun 2027 04:53:43.498            30.322         15161.000
       263   12 Jun 2027 04:54:06.657   12 Jun 2027 04:54:17.294            10.637          3822.812
       264   12 Jun 2027 06:30:12.723   12 Jun 2027 06:31:02.725            50.002         21128.750
       265   12 Jun 2027 06:31:08.191   12 Jun 2027 06:31:11.376             3.185           170.813
       266   12 Jun 2027 06:31:53.308   12 Jun 2027 06:31:58.425             5.117          1133.063
       267   12 Jun 2027 06:32:54.752   12 Jun 2027 06:32:58.591             3.839          1760.219
       268   12 Jun 2027 06:33:27.762   12 Jun 2027 06:33:30.320             2.558           411.156
       269   12 Jun 2027 06:33:42.830   12 Jun 2027 06:33:43.185             0.355           126.187
       270   12 Jun 2027 06:34:39.589   12 Jun 2027 06:34:45.224             5.635          1762.625
       271   12 Jun 2027 07:54:01.554   12 Jun 2027 07:54:10.365             8.811          3470.844
       272   12 Jun 2027 07:55:21.046   12 Jun 2027 07:55:25.441             4.395          1429.750
       273   12 Jun 2027 09:30:01.293   12 Jun 2027 09:30:18.328            17.035          5528.625
       274   12 Jun 2027 09:31:03.996   12 Jun 2027 09:31:07.419             3.423          1191.563
       275   12 Jun 2027 09:32:44.321   12 Jun 2027 09:32:49.771             5.450          2137.719
       276   12 Jun 2027 09:33:19.152   12 Jun 2027 09:33:21.859             2.707           864.312
       277   12 Jun 2027 11:03:48.578   12 Jun 2027 11:03:57.683             9.105          4160.438
       278   12 Jun 2027 11:09:56.283   12 Jun 2027 11:10:12.146            15.863          7926.250
       279   13 Jun 2027 03:26:03.334   13 Jun 2027 03:26:14.712            11.378          5689.000
       280   13 Jun 2027 03:26:21.394   13 Jun 2027 03:26:22.636             1.242           621.000
       281   13 Jun 2027 03:26:32.439   13 Jun 2027 03:26:52.592            20.153         10076.500
       282   13 Jun 2027 03:28:01.294   13 Jun 2027 03:30:31.205           149.911         74955.500
       283   13 Jun 2027 03:30:56.392   13 Jun 2027 03:31:08.436            12.044          6022.000
       284   13 Jun 2027 03:32:09.520   13 Jun 2027 03:33:06.128            56.608         28304.000
       285   13 Jun 2027 05:06:18.902   13 Jun 2027 05:07:00.450            41.548         20774.000
       286   13 Jun 2027 05:08:21.621   13 Jun 2027 05:09:30.299            68.678         33885.125
       287   13 Jun 2027 05:09:58.143   13 Jun 2027 05:10:02.416             4.273           870.125
       288   13 Jun 2027 05:10:09.070   13 Jun 2027 05:10:10.287             1.217           118.875
       289   13 Jun 2027 06:42:31.519   13 Jun 2027 06:42:58.942            27.423         13236.156
       290   13 Jun 2027 06:43:14.202   13 Jun 2027 06:43:14.915             0.713           311.500
       291   13 Jun 2027 06:44:11.529   13 Jun 2027 06:44:14.381             2.852           879.375
       292   13 Jun 2027 06:45:10.444   13 Jun 2027 06:45:15.541             5.097          1058.313
       293   13 Jun 2027 06:46:36.067   13 Jun 2027 06:46:42.174             6.107          2355.500
       294   13 Jun 2027 08:05:53.831   13 Jun 2027 08:06:03.267             9.436          4510.375
       295   13 Jun 2027 08:08:05.939   13 Jun 2027 08:08:12.680             6.741          3059.781
       296   13 Jun 2027 08:08:23.425   13 Jun 2027 08:08:24.813             1.388            69.437
       297   13 Jun 2027 09:42:50.503   13 Jun 2027 09:43:01.004            10.501          5250.500
       298   13 Jun 2027 11:14:33.486   13 Jun 2027 11:14:46.320            12.834          6417.000
       299   13 Jun 2027 11:18:23.679   13 Jun 2027 11:18:47.477            23.798          9112.969
       300   13 Jun 2027 11:20:19.798   13 Jun 2027 11:20:25.044             5.246          1519.031
       301   13 Jun 2027 11:21:24.997   13 Jun 2027 11:21:28.785             3.788          1526.031
       302   13 Jun 2027 11:22:57.667   13 Jun 2027 11:23:02.814             5.147          2573.500
       303   13 Jun 2027 11:24:17.582   13 Jun 2027 11:24:20.068             2.486          1243.000
