uniorb/output/strategy_4/Camera/Camera_KinoSat_110610.txt

KinoSat_110610
-------------------------
    Access    *     Start Time (UTCG)     *     Stop Time (UTCG)  *   Duration (s) *   Data (Mbytes)
         1   01 Jun 2027 04:28:54.882   01 Jun 2027 04:31:16.190           141.308         70654.000
         2   01 Jun 2027 04:31:38.672   01 Jun 2027 04:31:38.672             0.000             0.000
         3   01 Jun 2027 04:32:50.922   01 Jun 2027 04:32:50.922             0.000             0.000
         4   01 Jun 2027 04:33:07.653   01 Jun 2027 04:33:19.062            11.409          5704.500
         5   01 Jun 2027 04:36:10.886   01 Jun 2027 04:36:29.467            18.581          9290.500
         6   01 Jun 2027 06:06:41.190   01 Jun 2027 06:08:50.458           129.268         64634.000
         7   01 Jun 2027 06:09:20.041   01 Jun 2027 06:09:31.489            11.448          5724.000
         8   01 Jun 2027 06:13:22.027   01 Jun 2027 06:13:22.381             0.354           177.000
         9   01 Jun 2027 06:13:43.715   01 Jun 2027 06:13:50.802             7.087          3543.500
        10   01 Jun 2027 07:43:26.594   01 Jun 2027 07:46:20.216           173.622         86811.000
        11   01 Jun 2027 07:48:36.556   01 Jun 2027 07:48:48.662            12.106          6053.000
        12   01 Jun 2027 09:21:31.801   01 Jun 2027 09:24:26.603           174.802         87401.000
        13   01 Jun 2027 09:24:59.392   01 Jun 2027 09:25:28.093            28.701         14350.500
        14   01 Jun 2027 10:55:22.796   01 Jun 2027 10:57:48.518           145.722         72861.000
        15   01 Jun 2027 11:00:10.903   01 Jun 2027 11:00:17.100             6.197          3098.500
        16   02 Jun 2027 03:05:38.938   02 Jun 2027 03:05:53.667            14.729          7364.500
        17   02 Jun 2027 03:09:39.908   02 Jun 2027 03:09:41.360             1.452           726.000
        18   02 Jun 2027 03:10:26.729   02 Jun 2027 03:11:04.252            37.523         18761.500
        19   02 Jun 2027 04:41:40.749   02 Jun 2027 04:43:38.423           117.674         58837.000
        20   02 Jun 2027 04:45:35.612   02 Jun 2027 04:45:53.586            17.974          8987.000
        21   02 Jun 2027 04:48:00.949   02 Jun 2027 04:48:15.563            14.614          7307.000
        22   02 Jun 2027 04:49:51.558   02 Jun 2027 04:50:10.311            18.753          9376.500
        23   02 Jun 2027 06:18:44.785   02 Jun 2027 06:21:46.724           181.939         90969.500
        24   02 Jun 2027 06:25:02.988   02 Jun 2027 06:25:43.625            40.637         20318.500
        25   02 Jun 2027 07:55:40.581   02 Jun 2027 07:59:08.030           207.449        103724.500
        26   02 Jun 2027 08:00:13.418   02 Jun 2027 08:00:15.095             1.677           838.500
        27   02 Jun 2027 08:00:38.826   02 Jun 2027 08:00:40.915             2.089          1044.500
        28   02 Jun 2027 08:00:48.289   02 Jun 2027 08:01:35.469            47.180         23272.186
        29   02 Jun 2027 09:32:45.460   02 Jun 2027 09:32:59.008            13.548          5500.156
        30   02 Jun 2027 09:33:18.548   02 Jun 2027 09:33:20.753             2.205            10.812
        31   02 Jun 2027 11:07:48.878   02 Jun 2027 11:07:49.580             0.702            26.406
        32   02 Jun 2027 11:12:13.087   02 Jun 2027 11:12:13.640             0.553            44.500
        33   03 Jun 2027 03:20:10.276   03 Jun 2027 03:20:30.609            20.333         10166.500
        34   03 Jun 2027 03:21:13.375   03 Jun 2027 03:21:15.528             2.153          1076.500
        35   03 Jun 2027 04:53:38.816   03 Jun 2027 04:55:33.395           114.579         57289.500
        36   03 Jun 2027 04:58:24.431   03 Jun 2027 05:00:00.628            96.197         48098.500
        37   03 Jun 2027 05:00:06.905   03 Jun 2027 05:00:10.773             3.868          1934.000
        38   03 Jun 2027 05:01:47.577   03 Jun 2027 05:01:59.873            12.296          6148.000
        39   03 Jun 2027 05:02:07.387   03 Jun 2027 05:02:09.588             2.201          1100.500
        40   03 Jun 2027 06:31:11.073   03 Jun 2027 06:32:19.760            68.687         34043.156
        41   03 Jun 2027 08:08:05.867   03 Jun 2027 08:08:08.239             2.372           206.750
        42   03 Jun 2027 09:44:56.697   03 Jun 2027 09:45:05.939             9.242          3230.000
        43   03 Jun 2027 09:47:40.232   03 Jun 2027 09:47:44.971             4.739           601.188
        44   03 Jun 2027 11:22:33.304   03 Jun 2027 11:22:36.829             3.525           170.344
        45   04 Jun 2027 03:32:24.444   04 Jun 2027 03:32:40.594            16.150          8075.000
        46   04 Jun 2027 05:06:41.378   04 Jun 2027 05:07:40.815            59.437         29718.500
        47   04 Jun 2027 05:07:56.039   04 Jun 2027 05:08:39.581            43.542         21771.000
        48   04 Jun 2027 05:10:58.283   04 Jun 2027 05:13:03.539           125.256         62628.000
        49   04 Jun 2027 05:13:07.503   04 Jun 2027 05:13:08.086             0.583           291.500
        50   04 Jun 2027 05:13:09.174   04 Jun 2027 05:13:10.432             1.258           629.000
        51   04 Jun 2027 05:13:37.771   04 Jun 2027 05:13:45.925             8.154          4077.000
        52   04 Jun 2027 05:14:02.403   04 Jun 2027 05:14:05.364             2.961          1480.500
        53   04 Jun 2027 06:43:18.064   04 Jun 2027 06:44:15.361            57.297         28550.750
        54   04 Jun 2027 06:46:26.744   04 Jun 2027 06:46:29.620             2.876           707.625
        55   04 Jun 2027 06:49:59.645   04 Jun 2027 06:49:59.840             0.195            97.500
        56   04 Jun 2027 08:21:00.235   04 Jun 2027 08:21:02.894             2.659           979.813
        57   04 Jun 2027 09:56:58.877   04 Jun 2027 09:57:08.519             9.642          4524.844
        58   05 Jun 2027 03:44:20.439   05 Jun 2027 03:44:43.395            22.956         11478.000
        59   05 Jun 2027 05:19:29.555   05 Jun 2027 05:22:21.233           171.678         85839.000
        60   05 Jun 2027 05:25:31.575   05 Jun 2027 05:25:39.447             7.872          3936.000
        61   05 Jun 2027 05:26:05.394   05 Jun 2027 05:26:06.752             1.358           679.000
        62   05 Jun 2027 06:55:53.278   05 Jun 2027 06:57:50.025           116.747         57067.531
        63   05 Jun 2027 08:33:06.985   05 Jun 2027 08:33:16.163             9.178          3411.344
        64   05 Jun 2027 10:09:25.901   05 Jun 2027 10:09:41.034            15.133          7052.656
        65   05 Jun 2027 10:10:50.007   05 Jun 2027 10:10:54.057             4.050           406.313
        66   06 Jun 2027 03:56:13.351   06 Jun 2027 03:56:41.008            27.657         13828.500
        67   06 Jun 2027 03:56:43.314   06 Jun 2027 03:56:45.671             2.357          1178.500
        68   06 Jun 2027 03:59:21.714   06 Jun 2027 03:59:21.714             0.000             0.000
        69   06 Jun 2027 05:31:10.897   06 Jun 2027 05:34:00.159           169.262         84631.000
        70   06 Jun 2027 05:35:14.404   06 Jun 2027 05:35:22.308             7.904          3952.000
        71   06 Jun 2027 05:37:46.913   06 Jun 2027 05:38:14.464            27.551         13775.500
        72   06 Jun 2027 07:07:24.879   06 Jun 2027 07:08:49.230            84.351         42141.656
        73   06 Jun 2027 07:12:13.776   06 Jun 2027 07:12:16.078             2.302           179.156
        74   06 Jun 2027 07:12:45.718   06 Jun 2027 07:12:47.766             2.048           709.531
        75   06 Jun 2027 08:45:44.867   06 Jun 2027 08:45:54.180             9.313          4440.969
        76   06 Jun 2027 08:48:37.900   06 Jun 2027 08:48:41.405             3.505           823.344
        77   06 Jun 2027 08:49:29.831   06 Jun 2027 08:49:33.202             3.371           518.531
        78   06 Jun 2027 10:21:04.266   06 Jun 2027 10:21:16.040            11.774          5877.031
        79   07 Jun 2027 04:06:35.532   07 Jun 2027 04:06:58.972            23.440         11720.000
        80   07 Jun 2027 04:08:19.962   07 Jun 2027 04:08:29.978            10.016          5008.000
        81   07 Jun 2027 05:42:43.881   07 Jun 2027 05:45:23.446           159.565         79782.500
        82   07 Jun 2027 05:49:14.875   07 Jun 2027 05:49:14.875             0.000             0.000
        83   07 Jun 2027 05:49:22.551   07 Jun 2027 05:49:23.166             0.615           307.500
        84   07 Jun 2027 05:49:32.846   07 Jun 2027 05:49:40.232             7.386          3693.000
        85   07 Jun 2027 05:50:15.581   07 Jun 2027 05:50:18.090             2.509          1254.500
        86   07 Jun 2027 07:19:46.388   07 Jun 2027 07:22:06.477           140.089         69904.531
        87   07 Jun 2027 08:57:45.996   07 Jun 2027 08:58:00.884            14.888          7284.312
        88   07 Jun 2027 10:30:57.356   07 Jun 2027 10:31:10.041            12.685          5359.969
        89   08 Jun 2027 04:17:39.968   08 Jun 2027 04:18:31.697            51.729         25864.500
        90   08 Jun 2027 04:19:56.711   08 Jun 2027 04:20:15.351            18.640          9320.000
        91   08 Jun 2027 04:21:48.488   08 Jun 2027 04:21:48.656             0.168            84.000
        92   08 Jun 2027 04:22:20.603   08 Jun 2027 04:22:25.365             4.762          2381.000
        93   08 Jun 2027 04:23:24.355   08 Jun 2027 04:23:24.355             0.000             0.000
        94   08 Jun 2027 04:23:27.635   08 Jun 2027 04:23:37.324             9.689          4844.500
        95   08 Jun 2027 04:25:33.763   08 Jun 2027 04:25:38.658             4.895          2447.500
        96   08 Jun 2027 05:54:55.636   08 Jun 2027 05:57:36.135           160.499         80249.500
        97   08 Jun 2027 05:58:31.529   08 Jun 2027 05:58:33.018             1.489           744.500
        98   08 Jun 2027 06:01:07.340   08 Jun 2027 06:01:39.174            31.834         15917.000
        99   08 Jun 2027 06:02:00.646   08 Jun 2027 06:02:19.720            19.074          9537.000
       100   08 Jun 2027 07:31:49.558   08 Jun 2027 07:32:42.599            53.041         26160.626
       101   08 Jun 2027 07:36:00.170   08 Jun 2027 07:36:07.238             7.068          2017.281
       102   08 Jun 2027 09:09:45.736   08 Jun 2027 09:09:58.370            12.634          5372.813
       103   08 Jun 2027 10:43:19.576   08 Jun 2027 10:43:24.683             5.107          1971.656
       104   09 Jun 2027 04:29:09.215   09 Jun 2027 04:31:12.526           123.311         61655.500
       105   09 Jun 2027 04:31:32.968   09 Jun 2027 04:31:35.345             2.377          1188.500
       106   09 Jun 2027 04:33:48.882   09 Jun 2027 04:34:03.158            14.276          7138.000
       107   09 Jun 2027 04:37:26.241   09 Jun 2027 04:37:38.529            12.288          6144.000
       108   09 Jun 2027 04:37:49.145   09 Jun 2027 04:37:51.178             2.033          1016.500
       109   09 Jun 2027 06:06:55.770   09 Jun 2027 06:09:47.866           172.096         85532.219
       110   09 Jun 2027 06:11:26.830   09 Jun 2027 06:11:33.056             6.226          2723.688
       111   09 Jun 2027 06:12:02.933   09 Jun 2027 06:12:02.933             0.000             0.000
       112   09 Jun 2027 06:12:55.819   09 Jun 2027 06:13:03.742             7.923          2295.594
       113   09 Jun 2027 09:21:46.413   09 Jun 2027 09:21:50.985             4.572          2219.781
       114   09 Jun 2027 10:55:37.516   09 Jun 2027 10:55:40.941             3.425           867.344
       115   10 Jun 2027 03:05:53.356   10 Jun 2027 03:06:09.356            16.000          8000.000
       116   10 Jun 2027 03:09:20.265   10 Jun 2027 03:09:20.265             0.000             0.000
       117   10 Jun 2027 03:09:31.301   10 Jun 2027 03:09:34.059             2.758          1379.000
       118   10 Jun 2027 03:09:57.332   10 Jun 2027 03:10:12.064            14.732          7366.000
       119   10 Jun 2027 04:41:55.307   10 Jun 2027 04:44:30.236           154.929         77464.500
       120   10 Jun 2027 04:45:02.675   10 Jun 2027 04:45:07.378             4.703          2351.500
       121   10 Jun 2027 04:49:25.280   10 Jun 2027 04:49:32.367             7.087          3543.500
       122   10 Jun 2027 04:49:58.011   10 Jun 2027 04:50:24.981            26.970         13485.000
       123   10 Jun 2027 06:18:59.807   10 Jun 2027 06:20:36.387            96.580         47845.281
       124   10 Jun 2027 06:21:28.694   10 Jun 2027 06:21:28.694             0.000             0.000
       125   10 Jun 2027 06:21:42.601   10 Jun 2027 06:21:46.696             4.095           513.937
       126   10 Jun 2027 06:22:44.803   10 Jun 2027 06:22:49.087             4.284          1139.063
       127   10 Jun 2027 06:23:30.100   10 Jun 2027 06:23:31.471             1.371           130.719
       128   10 Jun 2027 06:23:59.853   10 Jun 2027 06:24:01.914             2.061           855.312
       129   10 Jun 2027 06:24:18.710   10 Jun 2027 06:24:23.666             4.956           410.656
       130   10 Jun 2027 07:55:58.923   10 Jun 2027 07:56:00.681             1.758           177.781
       131   10 Jun 2027 07:59:52.021   10 Jun 2027 07:59:58.592             6.571           796.625
       132   10 Jun 2027 09:33:00.253   10 Jun 2027 09:33:05.718             5.465          2691.906
       133   10 Jun 2027 11:08:03.892   10 Jun 2027 11:08:06.865             2.973           531.531
       134   11 Jun 2027 03:20:25.159   11 Jun 2027 03:20:45.249            20.090         10045.000
       135   11 Jun 2027 03:23:23.353   11 Jun 2027 03:23:23.353             0.000             0.000
       136   11 Jun 2027 04:53:53.371   11 Jun 2027 04:55:32.337            98.966         49483.000
       137   11 Jun 2027 04:56:54.166   11 Jun 2027 04:57:21.593            27.427         13713.500
       138   11 Jun 2027 04:58:44.835   11 Jun 2027 05:00:18.327            93.492         46746.000
       139   11 Jun 2027 05:01:12.878   11 Jun 2027 05:01:22.365             9.487          4743.500
       140   11 Jun 2027 05:02:21.969   11 Jun 2027 05:02:24.223             2.254          1127.000
       141   11 Jun 2027 06:31:26.534   11 Jun 2027 06:32:32.269            65.735         32018.469
       142   11 Jun 2027 08:08:20.586   11 Jun 2027 08:08:22.904             2.318           254.937
       143   11 Jun 2027 08:12:00.370   11 Jun 2027 08:12:03.013             2.643           359.188
       144   11 Jun 2027 09:45:11.676   11 Jun 2027 09:45:20.885             9.209          4265.469
       145   11 Jun 2027 09:47:55.652   11 Jun 2027 09:47:57.211             1.559           615.625
       146   11 Jun 2027 11:22:48.042   11 Jun 2027 11:22:49.878             1.836           688.563
       147   12 Jun 2027 03:32:26.424   12 Jun 2027 03:32:39.058            12.634          6317.000
       148   12 Jun 2027 03:35:25.023   12 Jun 2027 03:35:27.750             2.727          1363.500
       149   12 Jun 2027 03:35:42.839   12 Jun 2027 03:35:56.573            13.734          6867.000
       150   12 Jun 2027 05:07:08.930   12 Jun 2027 05:09:33.380           144.450         72225.000
       151   12 Jun 2027 05:11:21.046   12 Jun 2027 05:12:31.923            70.877         35438.500
       152   12 Jun 2027 05:13:52.433   12 Jun 2027 05:14:01.115             8.682          4341.000
       153   12 Jun 2027 05:14:16.963   12 Jun 2027 05:14:20.090             3.127          1563.500
       154   12 Jun 2027 06:43:32.870   12 Jun 2027 06:44:36.665            63.795         30906.125
       155   12 Jun 2027 08:21:15.371   12 Jun 2027 08:21:19.674             4.303          1067.031
       156   12 Jun 2027 09:57:13.739   12 Jun 2027 09:57:24.196            10.457          4624.969
       157   13 Jun 2027 03:44:35.101   13 Jun 2027 03:44:50.772            15.671          7835.500
       158   13 Jun 2027 03:46:00.694   13 Jun 2027 03:46:00.694             0.000             0.000
       159   13 Jun 2027 03:47:26.732   13 Jun 2027 03:47:45.428            18.696          9348.000
       160   13 Jun 2027 03:48:01.415   13 Jun 2027 03:48:03.624             2.209          1104.500
       161   13 Jun 2027 05:19:44.328   13 Jun 2027 05:21:09.377            85.049         42524.500
       162   13 Jun 2027 05:21:43.380   13 Jun 2027 05:21:52.173             8.793          4396.500
       163   13 Jun 2027 05:22:35.881   13 Jun 2027 05:23:37.092            61.211         30605.500
       164   13 Jun 2027 05:24:12.883   13 Jun 2027 05:24:53.135            40.252         20126.000
       165   13 Jun 2027 05:25:22.364   13 Jun 2027 05:25:33.393            11.029          5514.500
       166   13 Jun 2027 05:26:10.284   13 Jun 2027 05:26:21.427            11.143          5571.500
       167   13 Jun 2027 06:56:08.300   13 Jun 2027 06:57:17.503            69.203         33173.875
       168   13 Jun 2027 08:33:21.729   13 Jun 2027 08:33:31.031             9.302          3199.438
       169   13 Jun 2027 10:09:40.401   13 Jun 2027 10:09:52.252            11.851          5378.781
       170   13 Jun 2027 10:10:52.253   13 Jun 2027 10:10:54.058             1.805           176.937
