uniorb/output/strategy_4/Camera/Camera_KinoSat_111303.txt

KinoSat_111303
-------------------------
    Access    *     Start Time (UTCG)     *     Stop Time (UTCG)  *   Duration (s) *   Data (Mbytes)
         1   01 Jun 2027 03:47:13.558   01 Jun 2027 03:49:36.889           143.331         71665.500
         2   01 Jun 2027 03:49:58.094   01 Jun 2027 03:50:02.441             4.347          2173.500
         3   01 Jun 2027 03:51:11.319   01 Jun 2027 03:51:21.780            10.461          5230.500
         4   01 Jun 2027 05:10:35.330   01 Jun 2027 05:11:34.294            58.964         29482.000
         5   01 Jun 2027 05:11:41.962   01 Jun 2027 05:11:52.678            10.716          5358.000
         6   01 Jun 2027 05:12:04.905   01 Jun 2027 05:12:17.982            13.077          6538.500
         7   01 Jun 2027 06:46:57.533   01 Jun 2027 06:48:35.213            97.680         48840.000
         8   01 Jun 2027 06:49:12.117   01 Jun 2027 06:49:23.722            11.605          5802.500
         9   01 Jun 2027 06:49:56.683   01 Jun 2027 06:50:02.873             6.190          3095.000
        10   01 Jun 2027 06:50:18.089   01 Jun 2027 06:50:30.683            12.594          6297.000
        11   01 Jun 2027 08:19:14.558   01 Jun 2027 08:19:33.816            19.258          9629.000
        12   01 Jun 2027 08:21:01.616   01 Jun 2027 08:22:45.857           104.241         52120.500
        13   01 Jun 2027 08:26:16.189   01 Jun 2027 08:26:16.189             0.000             0.000
        14   01 Jun 2027 08:28:22.732   01 Jun 2027 08:28:48.221            25.489         12744.500
        15   01 Jun 2027 08:28:57.827   01 Jun 2027 08:29:00.738             2.911          1455.500
        16   01 Jun 2027 09:58:05.965   01 Jun 2027 10:00:32.591           146.626         73313.000
        17   01 Jun 2027 10:00:41.782   01 Jun 2027 10:00:44.059             2.277          1138.500
        18   01 Jun 2027 10:03:38.247   01 Jun 2027 10:03:49.921            11.674          5837.000
        19   01 Jun 2027 10:04:31.228   01 Jun 2027 10:04:38.777             7.549          3774.500
        20   01 Jun 2027 11:35:02.455   01 Jun 2027 11:36:55.478           113.023         56511.500
        21   02 Jun 2027 03:59:41.877   02 Jun 2027 04:01:57.323           135.446         67723.000
        22   02 Jun 2027 04:02:55.618   02 Jun 2027 04:03:05.397             9.779          4889.500
        23   02 Jun 2027 04:03:28.951   02 Jun 2027 04:03:35.601             6.650          3325.000
        24   02 Jun 2027 05:22:38.941   02 Jun 2027 05:23:30.558            51.617         25808.500
        25   02 Jun 2027 06:59:08.214   02 Jun 2027 07:02:36.700           208.486        104243.000
        26   02 Jun 2027 08:34:13.070   02 Jun 2027 08:37:28.755           195.685         97842.500
        27   02 Jun 2027 08:38:13.136   02 Jun 2027 08:39:02.080            48.944         24472.000
        28   02 Jun 2027 08:39:16.967   02 Jun 2027 08:39:18.436             1.469           585.813
        29   02 Jun 2027 08:40:52.360   02 Jun 2027 08:40:57.474             5.114          2316.969
        30   02 Jun 2027 10:10:34.634   02 Jun 2027 10:10:58.533            23.899         11931.406
        31   02 Jun 2027 10:12:20.388   02 Jun 2027 10:12:26.065             5.677           685.281
        32   02 Jun 2027 10:12:42.172   02 Jun 2027 10:12:43.704             1.532            52.188
        33   02 Jun 2027 10:13:20.229   02 Jun 2027 10:13:23.692             3.463          1077.813
        34   02 Jun 2027 10:14:12.084   02 Jun 2027 10:14:16.116             4.032          1512.250
        35   02 Jun 2027 10:14:54.894   02 Jun 2027 10:14:59.343             4.449           498.844
        36   02 Jun 2027 10:16:03.487   02 Jun 2027 10:16:12.489             9.002          1429.469
        37   02 Jun 2027 11:48:05.442   02 Jun 2027 11:48:19.150            13.708          5629.625
        38   02 Jun 2027 11:49:12.205   02 Jun 2027 11:49:14.456             2.251           825.062
        39   02 Jun 2027 11:49:52.478   02 Jun 2027 11:49:54.978             2.500           494.125
        40   02 Jun 2027 11:50:36.417   02 Jun 2027 11:50:38.769             2.352          1157.563
        41   02 Jun 2027 11:51:15.430   02 Jun 2027 11:51:18.114             2.684          1145.656
        42   02 Jun 2027 11:52:02.954   02 Jun 2027 11:52:06.279             3.325          1401.250
        43   03 Jun 2027 04:11:16.272   03 Jun 2027 04:11:52.604            36.332         18166.000
        44   03 Jun 2027 04:12:05.366   03 Jun 2027 04:14:55.660           170.294         85147.000
        45   03 Jun 2027 05:34:35.410   03 Jun 2027 05:35:00.535            25.125         12562.500
        46   03 Jun 2027 05:35:52.431   03 Jun 2027 05:35:57.305             4.874          2437.000
        47   03 Jun 2027 05:36:49.572   03 Jun 2027 05:37:37.047            47.475         23737.500
        48   03 Jun 2027 07:11:13.241   03 Jun 2027 07:12:12.540            59.299         29426.656
        49   03 Jun 2027 07:12:43.941   03 Jun 2027 07:12:48.959             5.018           800.625
        50   03 Jun 2027 07:13:10.642   03 Jun 2027 07:13:10.642             0.000             0.000
        51   03 Jun 2027 07:13:38.154   03 Jun 2027 07:13:43.155             5.001          1112.094
        52   03 Jun 2027 08:46:23.288   03 Jun 2027 08:46:35.468            12.180          4301.625
        53   03 Jun 2027 08:47:52.857   03 Jun 2027 08:47:58.404             5.547          2380.188
        54   03 Jun 2027 08:48:48.116   03 Jun 2027 08:48:57.783             9.667          1169.094
        55   03 Jun 2027 08:49:27.620   03 Jun 2027 08:49:30.166             2.546           813.531
        56   03 Jun 2027 08:50:23.928   03 Jun 2027 08:50:28.463             4.535          1018.000
        57   03 Jun 2027 08:50:42.470   03 Jun 2027 08:50:45.107             2.637           374.812
        58   03 Jun 2027 08:51:13.265   03 Jun 2027 08:51:16.098             2.833           702.500
        59   03 Jun 2027 08:51:51.971   03 Jun 2027 08:51:54.263             2.292          1085.250
        60   03 Jun 2027 10:22:39.262   03 Jun 2027 10:22:49.407            10.145          4826.281
        61   03 Jun 2027 10:25:06.243   03 Jun 2027 10:25:07.707             1.464           395.344
        62   03 Jun 2027 10:25:22.072   03 Jun 2027 10:25:23.636             1.564           433.125
        63   03 Jun 2027 10:25:30.502   03 Jun 2027 10:25:32.219             1.717           214.563
        64   03 Jun 2027 10:26:44.003   03 Jun 2027 10:26:51.903             7.900          2095.875
        65   03 Jun 2027 10:27:47.759   03 Jun 2027 10:27:54.743             6.984           781.875
        66   04 Jun 2027 04:12:25.192   04 Jun 2027 04:12:38.480            13.288          6644.000
        67   04 Jun 2027 04:23:12.828   04 Jun 2027 04:23:54.915            42.087         21043.500
        68   04 Jun 2027 04:24:01.009   04 Jun 2027 04:26:06.247           125.238         62619.000
        69   04 Jun 2027 05:47:11.558   04 Jun 2027 05:47:41.568            30.010         15005.000
        70   04 Jun 2027 05:49:15.542   04 Jun 2027 05:49:36.747            21.205         10602.500
        71   04 Jun 2027 07:22:56.864   04 Jun 2027 07:24:19.501            82.637         41318.500
        72   04 Jun 2027 07:25:05.533   04 Jun 2027 07:25:15.012             9.479          2739.625
        73   04 Jun 2027 07:25:45.257   04 Jun 2027 07:25:45.257             0.000             0.000
        74   04 Jun 2027 07:25:46.094   04 Jun 2027 07:25:48.446             2.352           499.250
        75   04 Jun 2027 07:26:23.665   04 Jun 2027 07:26:26.585             2.920          1100.594
        76   04 Jun 2027 08:57:48.140   04 Jun 2027 08:57:56.308             8.168          3290.094
        77   04 Jun 2027 08:58:35.196   04 Jun 2027 08:58:36.648             1.452           466.562
        78   04 Jun 2027 09:00:21.991   04 Jun 2027 09:00:23.621             1.630           809.031
        79   04 Jun 2027 09:01:03.358   04 Jun 2027 09:01:05.902             2.544          1006.625
        80   04 Jun 2027 09:01:53.619   04 Jun 2027 09:01:58.979             5.360          1491.156
        81   04 Jun 2027 09:02:28.093   04 Jun 2027 09:02:31.092             2.999           421.781
        82   04 Jun 2027 09:03:15.369   04 Jun 2027 09:03:18.968             3.599           964.469
        83   04 Jun 2027 09:03:24.672   04 Jun 2027 09:03:31.629             6.957           126.500
        84   04 Jun 2027 09:04:23.431   04 Jun 2027 09:04:26.465             3.034          1438.094
        85   04 Jun 2027 10:34:23.750   04 Jun 2027 10:34:40.002            16.252          6895.156
        86   04 Jun 2027 10:37:26.483   04 Jun 2027 10:37:33.430             6.947           673.250
        87   04 Jun 2027 10:38:09.759   04 Jun 2027 10:38:18.340             8.581          1069.875
        88   04 Jun 2027 10:38:50.269   04 Jun 2027 10:38:55.975             5.706            53.187
        89   04 Jun 2027 10:39:26.957   04 Jun 2027 10:39:27.346             0.389            17.875
        90   04 Jun 2027 10:39:43.196   04 Jun 2027 10:39:53.069             9.873           214.125
        91   04 Jun 2027 10:39:56.889   04 Jun 2027 10:40:02.616             5.727           119.375
        92   04 Jun 2027 10:40:22.466   04 Jun 2027 10:40:23.996             1.530           109.500
        93   04 Jun 2027 10:40:44.628   04 Jun 2027 10:40:45.679             1.051           334.781
        94   05 Jun 2027 03:00:00.000   05 Jun 2027 03:00:09.191             9.191          4595.500
        95   05 Jun 2027 03:00:18.746   05 Jun 2027 03:00:45.896            27.150         13575.000
        96   05 Jun 2027 03:01:56.221   05 Jun 2027 03:01:56.221             0.000             0.000
        97   05 Jun 2027 03:02:41.597   05 Jun 2027 03:02:42.902             1.305           652.500
        98   05 Jun 2027 03:03:09.991   05 Jun 2027 03:03:22.700            12.709          6354.500
        99   05 Jun 2027 03:04:37.693   05 Jun 2027 03:04:54.399            16.706          8353.000
       100   05 Jun 2027 04:23:41.796   05 Jun 2027 04:24:30.228            48.432         24216.000
       101   05 Jun 2027 04:35:10.813   05 Jun 2027 04:36:42.586            91.773         45886.500
       102   05 Jun 2027 05:57:50.136   05 Jun 2027 05:58:27.588            37.452         18726.000
       103   05 Jun 2027 05:59:32.388   05 Jun 2027 06:00:11.131            38.743         19371.500
       104   05 Jun 2027 06:01:27.861   05 Jun 2027 06:01:42.793            14.932          7466.000
       105   05 Jun 2027 06:02:24.786   05 Jun 2027 06:02:29.599             4.813          2406.500
       106   05 Jun 2027 07:33:10.116   05 Jun 2027 07:33:58.245            48.129         23915.938
       107   05 Jun 2027 07:34:42.064   05 Jun 2027 07:34:44.356             2.292           993.156
       108   05 Jun 2027 07:36:20.406   05 Jun 2027 07:36:25.849             5.443          2467.313
       109   05 Jun 2027 07:36:34.128   05 Jun 2027 07:36:38.719             4.591            64.469
       110   05 Jun 2027 07:38:05.121   05 Jun 2027 07:38:08.058             2.937           862.156
       111   05 Jun 2027 07:38:37.585   05 Jun 2027 07:38:39.094             1.509           735.812
       112   05 Jun 2027 07:39:09.008   05 Jun 2027 07:39:09.649             0.641            93.031
       113   05 Jun 2027 09:09:40.282   05 Jun 2027 09:09:46.810             6.528          3146.312
       114   05 Jun 2027 09:09:58.978   05 Jun 2027 09:10:00.806             1.828            77.500
       115   05 Jun 2027 09:11:56.282   05 Jun 2027 09:12:01.369             5.087          2517.375
       116   05 Jun 2027 09:13:21.813   05 Jun 2027 09:13:24.218             2.405           488.375
       117   05 Jun 2027 09:14:16.661   05 Jun 2027 09:14:19.372             2.711           658.125
       118   05 Jun 2027 09:14:56.267   05 Jun 2027 09:15:00.890             4.623           234.219
       119   05 Jun 2027 09:15:58.636   05 Jun 2027 09:16:01.439             2.803          1311.875
       120   05 Jun 2027 09:16:13.645   05 Jun 2027 09:16:14.682             1.037           160.313
       121   05 Jun 2027 09:16:21.716   05 Jun 2027 09:16:23.057             1.341            62.094
       122   05 Jun 2027 09:17:09.867   05 Jun 2027 09:17:09.916             0.049            24.500
       123   05 Jun 2027 10:46:44.951   05 Jun 2027 10:46:58.905            13.954          5907.250
       124   05 Jun 2027 10:48:32.401   05 Jun 2027 10:48:35.630             3.229           745.813
       125   05 Jun 2027 10:49:47.057   05 Jun 2027 10:49:51.076             4.019          1050.437
       126   05 Jun 2027 10:50:33.481   05 Jun 2027 10:50:37.537             4.056           766.812
       127   05 Jun 2027 10:50:52.643   05 Jun 2027 10:50:53.721             1.078           203.000
       128   05 Jun 2027 10:51:30.395   05 Jun 2027 10:51:33.809             3.414           692.062
       129   05 Jun 2027 10:52:20.980   05 Jun 2027 10:52:23.601             2.621          1126.188
       130   05 Jun 2027 10:52:46.268   05 Jun 2027 10:52:53.223             6.955            71.781
       131   06 Jun 2027 03:10:40.682   06 Jun 2027 03:12:23.783           103.101         51550.500
       132   06 Jun 2027 03:13:01.178   06 Jun 2027 03:13:24.253            23.075         11537.500
       133   06 Jun 2027 03:14:35.593   06 Jun 2027 03:14:50.827            15.234          7617.000
       134   06 Jun 2027 03:15:54.700   06 Jun 2027 03:16:25.725            31.025         15512.500
       135   06 Jun 2027 03:17:30.173   06 Jun 2027 03:17:32.466             2.293          1146.500
       136   06 Jun 2027 04:34:57.758   06 Jun 2027 04:35:22.636            24.878         12439.000
       137   06 Jun 2027 04:35:41.738   06 Jun 2027 04:35:41.738             0.000             0.000
       138   06 Jun 2027 04:47:10.105   06 Jun 2027 04:48:09.329            59.224         29612.000
       139   06 Jun 2027 06:09:26.087   06 Jun 2027 06:10:32.716            66.629         33314.500
       140   06 Jun 2027 06:11:24.643   06 Jun 2027 06:11:29.980             5.337          2526.687
       141   06 Jun 2027 06:11:50.767   06 Jun 2027 06:11:52.184             1.417           168.406
       142   06 Jun 2027 06:12:27.424   06 Jun 2027 06:12:27.424             0.000             0.000
       143   06 Jun 2027 06:13:15.407   06 Jun 2027 06:13:15.407             0.000             0.000
       144   06 Jun 2027 06:14:05.606   06 Jun 2027 06:14:16.637            11.031          4034.094
       145   06 Jun 2027 07:44:19.692   06 Jun 2027 07:44:24.583             4.891          1940.094
       146   06 Jun 2027 07:44:54.889   06 Jun 2027 07:45:03.009             8.120           810.375
       147   06 Jun 2027 07:45:35.303   06 Jun 2027 07:45:45.971            10.668           984.312
       148   06 Jun 2027 07:45:59.677   06 Jun 2027 07:46:04.484             4.807           130.625
       149   06 Jun 2027 07:46:43.702   06 Jun 2027 07:46:43.702             0.000             0.000
       150   06 Jun 2027 07:47:08.410   06 Jun 2027 07:47:16.986             8.576          1942.500
       151   06 Jun 2027 07:48:03.710   06 Jun 2027 07:48:06.402             2.692          1112.063
       152   06 Jun 2027 07:48:31.274   06 Jun 2027 07:48:40.062             8.788           651.438
       153   06 Jun 2027 07:49:55.013   06 Jun 2027 07:49:56.370             1.357           402.875
       154   06 Jun 2027 07:50:19.950   06 Jun 2027 07:50:19.950             0.000             0.000
       155   06 Jun 2027 07:50:27.821   06 Jun 2027 07:50:31.417             3.596           445.656
       156   06 Jun 2027 07:50:53.496   06 Jun 2027 07:50:55.347             1.851           689.969
       157   06 Jun 2027 07:51:03.222   06 Jun 2027 07:51:05.024             1.802           218.531
       158   06 Jun 2027 07:52:22.397   06 Jun 2027 07:52:27.261             4.864          1254.375
       159   06 Jun 2027 09:21:53.524   06 Jun 2027 09:22:01.427             7.903          3383.094
       160   06 Jun 2027 09:22:38.764   06 Jun 2027 09:22:42.709             3.945          1166.781
       161   06 Jun 2027 09:23:50.735   06 Jun 2027 09:23:53.381             2.646           946.719
       162   06 Jun 2027 09:24:57.348   06 Jun 2027 09:25:05.137             7.789          1921.969
       163   06 Jun 2027 09:25:21.550   06 Jun 2027 09:25:23.815             2.265           116.625
       164   06 Jun 2027 09:25:43.722   06 Jun 2027 09:25:53.677             9.955           267.000
       165   06 Jun 2027 09:26:44.544   06 Jun 2027 09:26:48.022             3.478          1477.813
       166   06 Jun 2027 09:27:17.051   06 Jun 2027 09:27:21.742             4.691           335.187
       167   06 Jun 2027 09:28:02.963   06 Jun 2027 09:28:10.286             7.323           921.000
       168   06 Jun 2027 09:28:22.262   06 Jun 2027 09:28:23.562             1.300            26.219
       169   06 Jun 2027 09:28:24.955   06 Jun 2027 09:28:28.403             3.448            43.531
       170   06 Jun 2027 09:28:51.061   06 Jun 2027 09:28:53.237             2.176            10.500
       171   06 Jun 2027 09:29:09.370   06 Jun 2027 09:29:10.488             1.118            30.625
       172   06 Jun 2027 10:58:36.083   06 Jun 2027 10:58:47.279            11.196          5036.344
       173   06 Jun 2027 11:00:09.711   06 Jun 2027 11:00:15.025             5.314           333.500
       174   06 Jun 2027 11:02:44.094   06 Jun 2027 11:02:47.608             3.514           984.969
       175   06 Jun 2027 11:03:33.054   06 Jun 2027 11:03:36.162             3.108          1242.969
       176   06 Jun 2027 11:04:43.564   06 Jun 2027 11:04:47.846             4.282          1915.812
       177   07 Jun 2027 03:22:44.912   07 Jun 2027 03:24:07.471            82.559         41279.500
       178   07 Jun 2027 03:24:31.553   07 Jun 2027 03:26:15.940           104.387         52193.500
       179   07 Jun 2027 03:26:46.567   07 Jun 2027 03:26:56.058             9.491          4745.500
       180   07 Jun 2027 03:27:21.547   07 Jun 2027 03:27:21.909             0.362           181.000
       181   07 Jun 2027 03:28:03.716   07 Jun 2027 03:28:29.821            26.105         13052.500
       182   07 Jun 2027 04:47:03.523   07 Jun 2027 04:47:44.608            41.085         20542.500
       183   07 Jun 2027 04:59:24.668   07 Jun 2027 04:59:43.831            19.163          9581.500
       184   07 Jun 2027 06:20:55.270   07 Jun 2027 06:21:51.399            56.129         24199.688
       185   07 Jun 2027 06:22:00.971   07 Jun 2027 06:22:02.635             1.664           299.125
       186   07 Jun 2027 06:23:15.261   07 Jun 2027 06:23:18.186             2.925          1159.875
       187   07 Jun 2027 06:23:55.087   07 Jun 2027 06:23:57.377             2.290          1142.781
       188   07 Jun 2027 06:24:27.782   07 Jun 2027 06:24:29.223             1.441           720.500
       189   07 Jun 2027 06:24:57.111   07 Jun 2027 06:24:59.737             2.626          1010.531
       190   07 Jun 2027 06:26:06.258   07 Jun 2027 06:26:11.917             5.659          2049.125
       191   07 Jun 2027 07:55:50.395   07 Jun 2027 07:55:57.797             7.402          2453.125
       192   07 Jun 2027 07:56:15.955   07 Jun 2027 07:56:17.119             1.164           161.719
       193   07 Jun 2027 07:57:58.887   07 Jun 2027 07:58:03.516             4.629          2123.250
       194   07 Jun 2027 07:58:26.407   07 Jun 2027 07:58:26.407             0.000             0.000
       195   07 Jun 2027 07:59:17.555   07 Jun 2027 07:59:23.626             6.071          1883.875
       196   07 Jun 2027 07:59:31.845   07 Jun 2027 07:59:32.730             0.885           228.969
       197   07 Jun 2027 08:01:32.138   07 Jun 2027 08:01:36.786             4.648          2218.844
       198   07 Jun 2027 08:01:58.164   07 Jun 2027 08:02:00.580             2.416           505.844
       199   07 Jun 2027 08:02:53.555   07 Jun 2027 08:02:56.303             2.748          1002.969
       200   07 Jun 2027 08:03:12.668   07 Jun 2027 08:03:13.045             0.377           159.156
       201   07 Jun 2027 08:04:18.715   07 Jun 2027 08:04:21.066             2.351           748.781
       202   07 Jun 2027 09:33:47.565   07 Jun 2027 09:33:59.320            11.755          5488.187
       203   07 Jun 2027 09:34:03.616   07 Jun 2027 09:34:06.404             2.788            61.531
       204   07 Jun 2027 09:35:54.686   07 Jun 2027 09:35:59.178             4.492          2196.750
       205   07 Jun 2027 09:37:09.413   07 Jun 2027 09:37:17.113             7.700          1806.906
       206   07 Jun 2027 09:37:56.021   07 Jun 2027 09:37:58.522             2.501           923.062
       207   07 Jun 2027 09:38:42.049   07 Jun 2027 09:38:44.917             2.868          1206.781
       208   07 Jun 2027 09:39:16.480   07 Jun 2027 09:39:22.463             5.983            45.219
       209   07 Jun 2027 09:39:34.833   07 Jun 2027 09:39:35.937             1.104           152.813
       210   07 Jun 2027 09:40:34.656   07 Jun 2027 09:40:38.819             4.163           843.313
       211   07 Jun 2027 09:40:40.003   07 Jun 2027 09:40:44.075             4.072            37.000
       212   07 Jun 2027 11:10:42.021   07 Jun 2027 11:10:59.794            17.773          8752.438
       213   07 Jun 2027 11:12:16.666   07 Jun 2027 11:12:24.529             7.863           917.625
       214   07 Jun 2027 11:13:29.881   07 Jun 2027 11:13:30.703             0.822           308.156
       215   07 Jun 2027 11:14:41.436   07 Jun 2027 11:14:44.756             3.320          1520.906
       216   07 Jun 2027 11:15:08.532   07 Jun 2027 11:15:14.323             5.791           320.937
       217   07 Jun 2027 11:15:57.129   07 Jun 2027 11:16:05.042             7.913          1257.563
       218   07 Jun 2027 11:16:50.792   07 Jun 2027 11:16:57.069             6.277          1232.063
       219   08 Jun 2027 03:35:10.934   08 Jun 2027 03:36:29.362            78.428         39214.000
       220   08 Jun 2027 03:36:38.254   08 Jun 2027 03:38:48.156           129.902         64951.000
       221   08 Jun 2027 03:40:04.185   08 Jun 2027 03:40:11.334             7.149          3574.500
       222   08 Jun 2027 04:58:59.392   08 Jun 2027 04:59:08.447             9.055          4527.500
       223   08 Jun 2027 06:34:59.214   08 Jun 2027 06:36:33.532            94.318         46447.000
       224   08 Jun 2027 06:37:26.481   08 Jun 2027 06:37:30.106             3.625          1514.844
       225   08 Jun 2027 06:37:50.381   08 Jun 2027 06:37:51.217             0.836           382.781
       226   08 Jun 2027 06:38:16.874   08 Jun 2027 06:38:19.824             2.950           775.156
       227   08 Jun 2027 08:08:43.820   08 Jun 2027 08:08:49.356             5.536          2467.250
       228   08 Jun 2027 08:10:29.255   08 Jun 2027 08:10:35.273             6.018           872.594
       229   08 Jun 2027 08:11:13.536   08 Jun 2027 08:11:16.672             3.136           241.000
       230   08 Jun 2027 08:12:20.783   08 Jun 2027 08:12:26.345             5.562          1970.500
       231   08 Jun 2027 08:13:41.193   08 Jun 2027 08:13:50.797             9.604          2001.937
       232   08 Jun 2027 08:14:43.325   08 Jun 2027 08:14:49.673             6.348          1316.656
       233   08 Jun 2027 08:15:54.432   08 Jun 2027 08:15:58.830             4.398           995.281
       234   08 Jun 2027 08:16:25.043   08 Jun 2027 08:16:27.455             2.412           819.156
       235   08 Jun 2027 08:17:17.492   08 Jun 2027 08:17:18.379             0.887           443.500
       236   08 Jun 2027 09:46:08.654   08 Jun 2027 09:46:21.468            12.814          4799.156
       237   08 Jun 2027 09:48:28.883   08 Jun 2027 09:48:33.957             5.074          1131.937
       238   08 Jun 2027 09:50:27.164   08 Jun 2027 09:50:29.801             2.637           471.656
       239   08 Jun 2027 09:51:17.731   08 Jun 2027 09:51:19.530             1.799            90.750
       240   08 Jun 2027 09:52:12.658   08 Jun 2027 09:52:22.133             9.475          1563.437
       241   08 Jun 2027 09:52:41.710   08 Jun 2027 09:52:44.158             2.448           499.219
       242   08 Jun 2027 11:23:12.364   08 Jun 2027 11:23:25.607            13.243          6054.031
       243   08 Jun 2027 11:25:16.526   08 Jun 2027 11:25:24.652             8.126          1753.531
       244   08 Jun 2027 11:25:46.813   08 Jun 2027 11:25:53.235             6.422           314.406
       245   08 Jun 2027 11:26:22.805   08 Jun 2027 11:26:23.827             1.022           419.281
       246   08 Jun 2027 11:26:29.519   08 Jun 2027 11:26:32.692             3.173           177.875
       247   08 Jun 2027 11:27:35.876   08 Jun 2027 11:27:41.745             5.869          1974.500
       248   08 Jun 2027 11:28:27.208   08 Jun 2027 11:28:28.993             1.785           520.469
       249   08 Jun 2027 11:29:01.688   08 Jun 2027 11:29:02.921             1.233           616.500
       250   09 Jun 2027 03:47:29.486   09 Jun 2027 03:51:06.677           217.191        108595.500
       251   09 Jun 2027 05:10:50.980   09 Jun 2027 05:11:50.112            59.132         29566.000
       252   09 Jun 2027 06:47:13.673   09 Jun 2027 06:47:57.502            43.829         19751.032
       253   09 Jun 2027 06:48:41.822   09 Jun 2027 06:48:44.075             2.253          1097.312
       254   09 Jun 2027 06:49:14.532   09 Jun 2027 06:49:18.467             3.935           731.437
       255   09 Jun 2027 06:50:06.412   09 Jun 2027 06:50:11.356             4.944          1490.000
       256   09 Jun 2027 08:21:17.866   09 Jun 2027 08:21:26.693             8.827          2706.500
       257   09 Jun 2027 08:23:02.974   09 Jun 2027 08:23:09.046             6.072          1923.312
       258   09 Jun 2027 08:23:23.879   09 Jun 2027 08:23:23.879             0.000             0.000
       259   09 Jun 2027 08:24:10.033   09 Jun 2027 08:24:14.516             4.483          1786.969
       260   09 Jun 2027 08:25:11.002   09 Jun 2027 08:25:13.949             2.947          1012.969
       261   09 Jun 2027 08:26:04.074   09 Jun 2027 08:26:09.112             5.038           763.219
       262   09 Jun 2027 08:26:55.122   09 Jun 2027 08:26:59.790             4.668          1437.812
       263   09 Jun 2027 08:28:01.900   09 Jun 2027 08:28:03.412             1.512           226.063
       264   09 Jun 2027 08:28:51.228   09 Jun 2027 08:28:52.380             1.152           351.813
       265   09 Jun 2027 08:29:13.571   09 Jun 2027 08:29:14.803             1.232           266.219
       266   09 Jun 2027 09:58:22.263   09 Jun 2027 09:58:37.465            15.202          6758.875
       267   09 Jun 2027 10:00:26.128   09 Jun 2027 10:00:31.946             5.818           655.938
       268   09 Jun 2027 10:01:41.871   09 Jun 2027 10:01:44.998             3.127           411.594
       269   09 Jun 2027 10:02:34.591   09 Jun 2027 10:02:38.987             4.396          1000.438
       270   09 Jun 2027 10:03:04.793   09 Jun 2027 10:03:05.758             0.965           464.375
       271   09 Jun 2027 10:03:54.231   09 Jun 2027 10:04:00.063             5.832          1358.875
       272   09 Jun 2027 10:04:34.239   09 Jun 2027 10:04:38.288             4.049           280.125
       273   09 Jun 2027 10:04:54.298   09 Jun 2027 10:04:55.702             1.404           368.125
       274   09 Jun 2027 10:05:04.757   09 Jun 2027 10:05:04.856             0.099            49.500
       275   09 Jun 2027 11:35:18.133   09 Jun 2027 11:35:29.327            11.194          5529.531
       276   09 Jun 2027 11:36:56.313   09 Jun 2027 11:37:01.706             5.393          1400.719
       277   09 Jun 2027 11:37:28.669   09 Jun 2027 11:37:36.970             8.301           827.406
       278   09 Jun 2027 11:38:27.070   09 Jun 2027 11:38:31.643             4.573          1416.313
       279   09 Jun 2027 11:38:56.798   09 Jun 2027 11:39:00.600             3.802           382.000
       280   09 Jun 2027 11:39:07.486   09 Jun 2027 11:39:11.321             3.835           110.469
       281   10 Jun 2027 03:59:58.668   10 Jun 2027 04:03:24.314           205.646        102823.000
       282   10 Jun 2027 05:22:55.306   10 Jun 2027 05:22:58.252             2.946          1473.000
       283   10 Jun 2027 05:24:21.121   10 Jun 2027 05:24:31.158            10.037          5018.500
       284   10 Jun 2027 05:25:50.510   10 Jun 2027 05:25:50.510             0.000             0.000
       285   10 Jun 2027 06:59:24.303   10 Jun 2027 07:00:58.806            94.503         46258.656
       286   10 Jun 2027 07:01:05.107   10 Jun 2027 07:01:05.107             0.000             0.000
       287   10 Jun 2027 07:01:07.311   10 Jun 2027 07:01:08.682             1.371            80.500
       288   10 Jun 2027 07:01:26.321   10 Jun 2027 07:01:26.321             0.000             0.000
       289   10 Jun 2027 07:01:54.385   10 Jun 2027 07:01:57.056             2.671          1224.219
       290   10 Jun 2027 07:02:23.770   10 Jun 2027 07:02:25.586             1.816           751.312
       291   10 Jun 2027 08:34:29.646   10 Jun 2027 08:34:33.896             4.250          2046.437
       292   10 Jun 2027 08:35:03.887   10 Jun 2027 08:35:04.830             0.943           166.188
       293   10 Jun 2027 08:35:45.360   10 Jun 2027 08:35:46.635             1.275            97.969
       294   10 Jun 2027 08:36:53.505   10 Jun 2027 08:36:58.825             5.320          1311.750
       295   10 Jun 2027 08:38:06.767   10 Jun 2027 08:38:08.916             2.149           924.062
       296   10 Jun 2027 08:39:55.097   10 Jun 2027 08:40:03.872             8.775          3242.938
       297   10 Jun 2027 08:40:54.769   10 Jun 2027 08:41:02.294             7.525           687.594
       298   10 Jun 2027 08:41:08.023   10 Jun 2027 08:41:09.957             1.934            12.094
       299   10 Jun 2027 10:10:51.825   10 Jun 2027 10:11:02.522            10.697          5138.719
       300   10 Jun 2027 10:12:21.415   10 Jun 2027 10:12:22.076             0.661           240.375
       301   10 Jun 2027 10:13:01.697   10 Jun 2027 10:13:03.385             1.688            69.187
       302   10 Jun 2027 10:14:26.466   10 Jun 2027 10:14:31.602             5.136          1480.750
       303   10 Jun 2027 10:15:09.860   10 Jun 2027 10:15:11.397             1.537           448.438
       304   10 Jun 2027 10:16:19.681   10 Jun 2027 10:16:27.763             8.082          1396.344
       305   10 Jun 2027 11:48:21.035   10 Jun 2027 11:48:34.070            13.035          5885.437
       306   10 Jun 2027 11:49:46.462   10 Jun 2027 11:49:50.735             4.273          1315.438
       307   10 Jun 2027 11:50:14.837   10 Jun 2027 11:50:16.974             2.137           187.781
       308   10 Jun 2027 11:50:40.188   10 Jun 2027 11:50:46.650             6.462           689.969
       309   10 Jun 2027 11:50:49.482   10 Jun 2027 11:50:52.696             3.214            88.500
       310   10 Jun 2027 11:50:57.958   10 Jun 2027 11:51:00.243             2.285           164.437
       311   10 Jun 2027 11:51:33.785   10 Jun 2027 11:51:39.871             6.086           887.031
       312   10 Jun 2027 11:52:00.906   10 Jun 2027 11:52:02.234             1.328           513.438
       313   11 Jun 2027 04:11:31.450   11 Jun 2027 04:12:08.814            37.364         18682.000
       314   11 Jun 2027 04:12:21.331   11 Jun 2027 04:14:57.081           155.750         77875.000
       315   11 Jun 2027 04:14:58.925   11 Jun 2027 04:15:04.916             5.991          2995.500
       316   11 Jun 2027 05:34:51.217   11 Jun 2027 05:35:14.603            23.386         11693.000
       317   11 Jun 2027 05:36:09.106   11 Jun 2027 05:36:26.286            17.180          8590.000
       318   11 Jun 2027 05:37:57.410   11 Jun 2027 05:38:02.472             5.062          2531.000
       319   11 Jun 2027 07:11:28.865   11 Jun 2027 07:12:54.819            85.954         42538.937
       320   11 Jun 2027 07:13:01.340   11 Jun 2027 07:13:01.765             0.425           203.781
       321   11 Jun 2027 07:13:26.767   11 Jun 2027 07:13:29.110             2.343           295.250
       322   11 Jun 2027 07:14:04.384   11 Jun 2027 07:14:07.742             3.358           574.000
       323   11 Jun 2027 08:46:39.268   11 Jun 2027 08:46:43.163             3.895          1891.938
       324   11 Jun 2027 08:46:54.519   11 Jun 2027 08:46:55.441             0.922            84.719
       325   11 Jun 2027 08:48:12.633   11 Jun 2027 08:48:14.750             2.117            64.187
       326   11 Jun 2027 08:49:18.314   11 Jun 2027 08:49:23.842             5.528          1986.375
       327   11 Jun 2027 08:49:41.367   11 Jun 2027 08:49:42.372             1.005           241.438
       328   11 Jun 2027 08:50:13.248   11 Jun 2027 08:50:16.387             3.139           958.469
       329   11 Jun 2027 08:51:54.973   11 Jun 2027 08:52:01.986             7.013          2292.500
       330   11 Jun 2027 08:52:10.854   11 Jun 2027 08:52:11.474             0.620           111.000
       331   11 Jun 2027 10:22:52.627   11 Jun 2027 10:23:04.447            11.820          5400.625
       332   11 Jun 2027 10:25:38.423   11 Jun 2027 10:25:41.368             2.945           479.188
       333   11 Jun 2027 10:27:00.550   11 Jun 2027 10:27:07.312             6.762          2155.688
       334   11 Jun 2027 10:28:03.315   11 Jun 2027 10:28:09.521             6.206           730.625
       335   12 Jun 2027 04:12:39.170   12 Jun 2027 04:12:56.405            17.235          8617.500
       336   12 Jun 2027 04:23:28.686   12 Jun 2027 04:25:57.854           149.168         74584.000
       337   12 Jun 2027 04:26:33.188   12 Jun 2027 04:26:45.210            12.022          6011.000
       338   12 Jun 2027 05:47:26.847   12 Jun 2027 05:47:57.354            30.507         15253.500
       339   12 Jun 2027 07:23:13.065   12 Jun 2027 07:24:59.904           106.839         53001.687
       340   12 Jun 2027 07:25:57.196   12 Jun 2027 07:26:02.199             5.003          1623.500
       341   12 Jun 2027 07:26:03.401   12 Jun 2027 07:26:06.446             3.045            37.563
       342   12 Jun 2027 07:26:39.755   12 Jun 2027 07:26:43.003             3.248          1040.906
       343   12 Jun 2027 08:58:03.325   12 Jun 2027 08:58:13.161             9.836          3167.094
       344   12 Jun 2027 08:58:52.833   12 Jun 2027 08:58:55.839             3.006           552.375
       345   12 Jun 2027 09:00:39.946   12 Jun 2027 09:00:43.417             3.471           833.000
       346   12 Jun 2027 09:01:21.382   12 Jun 2027 09:01:24.022             2.640          1186.406
       347   12 Jun 2027 09:02:11.491   12 Jun 2027 09:02:17.623             6.132          1483.406
       348   12 Jun 2027 09:02:43.487   12 Jun 2027 09:02:46.028             2.541           464.156
       349   12 Jun 2027 09:03:54.197   12 Jun 2027 09:03:59.439             5.242          2130.281
       350   12 Jun 2027 09:05:21.495   12 Jun 2027 09:05:25.889             4.394          2112.000
       351   12 Jun 2027 10:34:39.689   12 Jun 2027 10:34:50.219            10.530          4617.031
       352   12 Jun 2027 10:37:08.829   12 Jun 2027 10:37:10.153             1.324           339.562
       353   12 Jun 2027 10:37:39.367   12 Jun 2027 10:37:42.060             2.693           501.875
       354   12 Jun 2027 10:38:12.129   12 Jun 2027 10:38:16.270             4.141           512.500
       355   12 Jun 2027 10:38:53.188   12 Jun 2027 10:38:56.693             3.505           838.750
       356   12 Jun 2027 10:39:39.029   12 Jun 2027 10:39:42.211             3.182          1057.719
       357   12 Jun 2027 10:40:10.441   12 Jun 2027 10:40:13.462             3.021           823.250
       358   13 Jun 2027 03:00:00.000   13 Jun 2027 03:00:08.137             8.137          4068.500
       359   13 Jun 2027 03:01:00.527   13 Jun 2027 03:01:09.843             9.316          4658.000
       360   13 Jun 2027 03:01:49.982   13 Jun 2027 03:02:10.847            20.865         10432.500
       361   13 Jun 2027 03:02:58.980   13 Jun 2027 03:02:58.980             0.000             0.000
       362   13 Jun 2027 03:03:24.838   13 Jun 2027 03:03:35.803            10.965          5482.500
       363   13 Jun 2027 03:04:49.908   13 Jun 2027 03:04:52.270             2.362          1181.000
       364   13 Jun 2027 03:05:14.036   13 Jun 2027 03:06:07.922            53.886         26943.000
       365   13 Jun 2027 04:23:55.426   13 Jun 2027 04:24:22.239            26.813         13406.500
       366   13 Jun 2027 04:25:00.200   13 Jun 2027 04:25:13.607            13.407          6703.500
       367   13 Jun 2027 04:35:26.950   13 Jun 2027 04:36:37.031            70.081         35040.500
       368   13 Jun 2027 04:36:58.038   13 Jun 2027 04:37:04.740             6.702          3351.000
       369   13 Jun 2027 04:37:56.222   13 Jun 2027 04:37:57.913             1.691           845.500
       370   13 Jun 2027 05:58:05.960   13 Jun 2027 05:58:45.599            39.639         19819.500
       371   13 Jun 2027 05:59:49.324   13 Jun 2027 06:00:42.917            53.593         26796.500
       372   13 Jun 2027 06:01:08.229   13 Jun 2027 06:01:42.596            34.367         17183.500
       373   13 Jun 2027 07:33:14.253   13 Jun 2027 07:33:38.607            24.354          9539.468
       374   13 Jun 2027 07:34:14.918   13 Jun 2027 07:34:19.362             4.444           143.437
       375   13 Jun 2027 07:35:03.532   13 Jun 2027 07:35:06.852             3.320          1219.969
       376   13 Jun 2027 07:35:19.667   13 Jun 2027 07:35:21.778             2.111            82.875
       377   13 Jun 2027 07:36:08.581   13 Jun 2027 07:36:10.143             1.562           698.125
       378   13 Jun 2027 07:36:48.668   13 Jun 2027 07:36:52.521             3.853           942.625
       379   13 Jun 2027 07:37:58.027   13 Jun 2027 07:37:58.969             0.942           471.000
       380   13 Jun 2027 07:38:23.452   13 Jun 2027 07:38:28.952             5.500          1362.250
       381   13 Jun 2027 07:39:28.021   13 Jun 2027 07:39:32.733             4.712          1622.062
       382   13 Jun 2027 09:09:57.891   13 Jun 2027 09:10:08.007            10.116          3821.187
       383   13 Jun 2027 09:10:53.577   13 Jun 2027 09:11:00.963             7.386          1138.875
       384   13 Jun 2027 09:15:03.609   13 Jun 2027 09:15:08.202             4.593           977.469
       385   13 Jun 2027 09:15:32.116   13 Jun 2027 09:15:34.756             2.640           569.094
       386   13 Jun 2027 09:16:36.927   13 Jun 2027 09:16:39.713             2.786          1384.031
       387   13 Jun 2027 09:17:26.046   13 Jun 2027 09:17:26.523             0.477           238.500
       388   13 Jun 2027 10:47:00.953   13 Jun 2027 10:47:10.799             9.846          4673.844
       389   13 Jun 2027 10:48:35.501   13 Jun 2027 10:48:36.647             1.146           253.562
       390   13 Jun 2027 10:49:05.990   13 Jun 2027 10:49:10.754             4.764           468.875
       391   13 Jun 2027 10:49:29.474   13 Jun 2027 10:49:31.391             1.917           359.938
       392   13 Jun 2027 10:49:39.369   13 Jun 2027 10:49:45.478             6.109           206.656
       393   13 Jun 2027 10:50:27.942   13 Jun 2027 10:50:31.057             3.115          1247.906
       394   13 Jun 2027 10:51:24.337   13 Jun 2027 10:51:28.862             4.525          1318.156
       395   13 Jun 2027 10:51:46.312   13 Jun 2027 10:51:47.478             1.166           316.938
       396   13 Jun 2027 10:52:15.132   13 Jun 2027 10:52:25.389            10.257           864.188
       397   13 Jun 2027 10:52:36.748   13 Jun 2027 10:52:37.780             1.032           205.688
       398   13 Jun 2027 10:53:03.568   13 Jun 2027 10:53:07.173             3.605           130.250
