uniorb/output/strategy_4/Camera/Camera_KinoSat_111703.txt

KinoSat_111703
-------------------------
    Access    *     Start Time (UTCG)     *     Stop Time (UTCG)  *   Duration (s) *   Data (Mbytes)
         1   01 Jun 2027 03:29:17.118   01 Jun 2027 03:30:57.952           100.834         50417.000
         2   01 Jun 2027 03:31:18.342   01 Jun 2027 03:32:06.175            47.833         23916.500
         3   01 Jun 2027 05:07:39.840   01 Jun 2027 05:09:04.734            84.894         42447.000
         4   01 Jun 2027 05:10:43.715   01 Jun 2027 05:11:05.331            21.616         10808.000
         5   01 Jun 2027 05:11:10.040   01 Jun 2027 05:11:18.015             7.975          3987.500
         6   01 Jun 2027 05:11:40.632   01 Jun 2027 05:11:44.526             3.894          1947.000
         7   01 Jun 2027 06:31:42.547   01 Jun 2027 06:32:37.375            54.828         27414.000
         8   01 Jun 2027 06:33:42.349   01 Jun 2027 06:33:46.789             4.440          2220.000
         9   01 Jun 2027 08:07:40.157   01 Jun 2027 08:09:54.802           134.645         67322.500
        10   01 Jun 2027 09:41:29.389   01 Jun 2027 09:43:27.640           118.251         59125.500
        11   01 Jun 2027 09:49:20.026   01 Jun 2027 09:49:59.664            39.638         19819.000
        12   01 Jun 2027 11:18:34.583   01 Jun 2027 11:19:23.426            48.843         24421.500
        13   01 Jun 2027 11:23:23.992   01 Jun 2027 11:23:23.992             0.000             0.000
        14   01 Jun 2027 11:23:56.460   01 Jun 2027 11:25:53.745           117.285         58642.500
        15   02 Jun 2027 03:41:54.648   02 Jun 2027 03:42:38.626            43.978         21989.000
        16   02 Jun 2027 03:42:45.432   02 Jun 2027 03:43:30.935            45.503         22751.500
        17   02 Jun 2027 03:43:32.766   02 Jun 2027 03:44:38.747            65.981         32990.500
        18   02 Jun 2027 03:46:28.003   02 Jun 2027 03:46:52.784            24.781         12390.500
        19   02 Jun 2027 05:20:14.641   02 Jun 2027 05:22:29.100           134.459         67229.500
        20   02 Jun 2027 05:23:11.367   02 Jun 2027 05:24:52.648           101.281         50640.500
        21   02 Jun 2027 06:43:36.738   02 Jun 2027 06:44:28.341            51.603         25801.500
        22   02 Jun 2027 08:19:59.409   02 Jun 2027 08:23:26.053           206.644        103322.000
        23   02 Jun 2027 09:53:27.755   02 Jun 2027 09:54:06.726            38.971         19344.719
        24   02 Jun 2027 09:55:25.209   02 Jun 2027 09:55:29.687             4.478          1619.844
        25   02 Jun 2027 09:55:57.404   02 Jun 2027 09:55:59.502             2.098           155.750
        26   02 Jun 2027 09:56:58.593   02 Jun 2027 09:56:58.593             0.000             0.000
        27   02 Jun 2027 09:58:19.534   02 Jun 2027 09:58:28.582             9.048          3880.656
        28   02 Jun 2027 10:00:15.071   02 Jun 2027 10:00:19.919             4.848          1831.500
        29   02 Jun 2027 10:00:42.879   02 Jun 2027 10:00:47.736             4.857           695.125
        30   02 Jun 2027 10:01:57.661   02 Jun 2027 10:01:59.237             1.576           788.000
        31   02 Jun 2027 11:31:01.511   02 Jun 2027 11:31:14.136            12.625          5918.500
        32   02 Jun 2027 11:33:02.999   02 Jun 2027 11:33:08.216             5.217          1640.750
        33   02 Jun 2027 11:33:54.692   02 Jun 2027 11:33:58.005             3.313          1251.813
        34   02 Jun 2027 11:34:42.969   02 Jun 2027 11:34:47.575             4.606          1009.375
        35   02 Jun 2027 11:34:56.060   02 Jun 2027 11:34:58.317             2.257            26.875
        36   02 Jun 2027 11:35:12.248   02 Jun 2027 11:35:13.716             1.468           267.094
        37   02 Jun 2027 11:35:56.967   02 Jun 2027 11:36:03.737             6.770          1105.156
        38   02 Jun 2027 11:36:44.865   02 Jun 2027 11:36:51.981             7.116          1009.344
        39   02 Jun 2027 11:37:14.000   02 Jun 2027 11:37:16.735             2.735           688.094
        40   02 Jun 2027 11:37:35.932   02 Jun 2027 11:37:43.858             7.926           444.469
        41   03 Jun 2027 03:53:48.208   03 Jun 2027 03:53:53.548             5.340          2670.000
        42   03 Jun 2027 03:54:18.194   03 Jun 2027 03:56:24.763           126.569         63284.500
        43   03 Jun 2027 03:57:17.718   03 Jun 2027 03:58:20.273            62.555         31277.500
        44   03 Jun 2027 03:58:59.528   03 Jun 2027 03:59:14.571            15.043          7521.500
        45   03 Jun 2027 03:59:34.513   03 Jun 2027 03:59:50.493            15.980          7990.000
        46   03 Jun 2027 05:32:29.412   03 Jun 2027 05:34:10.836           101.424         50661.438
        47   03 Jun 2027 05:34:14.382   03 Jun 2027 05:34:17.591             3.209            61.937
        48   03 Jun 2027 05:34:54.728   03 Jun 2027 05:34:57.451             2.723          1150.406
        49   03 Jun 2027 06:55:26.445   03 Jun 2027 06:55:34.802             8.357          4178.500
        50   03 Jun 2027 06:56:52.614   03 Jun 2027 06:57:05.839            13.225          3002.562
        51   03 Jun 2027 08:32:01.241   03 Jun 2027 08:32:09.692             8.451          3992.969
        52   03 Jun 2027 08:32:41.946   03 Jun 2027 08:32:46.476             4.530           412.937
        53   03 Jun 2027 08:33:14.233   03 Jun 2027 08:33:17.653             3.420           826.250
        54   03 Jun 2027 08:33:35.146   03 Jun 2027 08:33:35.146             0.000             0.000
        55   03 Jun 2027 08:33:37.037   03 Jun 2027 08:33:40.664             3.627           176.938
        56   03 Jun 2027 08:34:45.475   03 Jun 2027 08:34:49.916             4.441          2025.344
        57   03 Jun 2027 10:06:45.289   03 Jun 2027 10:06:55.428            10.139          4298.656
        58   03 Jun 2027 10:08:01.750   03 Jun 2027 10:08:04.841             3.091           369.656
        59   03 Jun 2027 10:09:05.736   03 Jun 2027 10:09:11.798             6.062          1670.656
        60   03 Jun 2027 10:11:00.991   03 Jun 2027 10:11:08.138             7.147          2625.688
        61   03 Jun 2027 10:12:05.683   03 Jun 2027 10:12:12.814             7.131           231.031
        62   03 Jun 2027 10:12:59.269   03 Jun 2027 10:13:02.128             2.859          1347.438
        63   03 Jun 2027 10:13:38.664   03 Jun 2027 10:13:42.184             3.520           848.687
        64   03 Jun 2027 11:43:08.098   03 Jun 2027 11:43:22.813            14.715          6464.437
        65   03 Jun 2027 11:45:09.329   03 Jun 2027 11:45:15.930             6.601          1738.344
        66   03 Jun 2027 11:45:36.858   03 Jun 2027 11:45:38.225             1.367           522.813
        67   03 Jun 2027 11:46:46.057   03 Jun 2027 11:46:48.081             2.024          1004.031
        68   03 Jun 2027 11:47:12.467   03 Jun 2027 11:47:15.009             2.542           206.875
        69   03 Jun 2027 11:47:22.128   03 Jun 2027 11:47:23.133             1.005           182.438
        70   03 Jun 2027 11:47:30.657   03 Jun 2027 11:47:35.154             4.497           235.125
        71   03 Jun 2027 11:47:50.499   03 Jun 2027 11:47:51.607             1.108           148.500
        72   03 Jun 2027 11:48:09.459   03 Jun 2027 11:48:10.652             1.193           445.438
        73   03 Jun 2027 11:48:27.297   03 Jun 2027 11:48:32.386             5.089           248.594
        74   03 Jun 2027 11:48:54.958   03 Jun 2027 11:48:55.788             0.830           364.562
        75   04 Jun 2027 04:05:57.037   04 Jun 2027 04:06:59.089            62.052         31026.000
        76   04 Jun 2027 04:07:06.065   04 Jun 2027 04:09:19.891           133.826         66913.000
        77   04 Jun 2027 04:11:32.929   04 Jun 2027 04:11:35.994             3.065          1532.500
        78   04 Jun 2027 05:44:15.722   04 Jun 2027 05:44:18.100             2.378          1189.000
        79   04 Jun 2027 05:45:21.121   04 Jun 2027 05:47:14.913           113.792         55817.719
        80   04 Jun 2027 07:07:38.384   04 Jun 2027 07:07:50.722            12.338          6048.062
        81   04 Jun 2027 07:08:32.722   04 Jun 2027 07:08:33.977             1.255           627.500
        82   04 Jun 2027 07:09:04.940   04 Jun 2027 07:09:08.086             3.146          1089.188
        83   04 Jun 2027 07:10:14.599   04 Jun 2027 07:10:16.631             2.032          1016.000
        84   04 Jun 2027 07:10:31.934   04 Jun 2027 07:10:37.123             5.189          1123.344
        85   04 Jun 2027 08:44:10.249   04 Jun 2027 08:44:20.826            10.577          2510.375
        86   04 Jun 2027 08:45:04.088   04 Jun 2027 08:45:09.047             4.959          1266.625
        87   04 Jun 2027 08:47:42.423   04 Jun 2027 08:47:43.898             1.475           737.500
        88   04 Jun 2027 10:19:19.730   04 Jun 2027 10:19:32.336            12.606          3717.500
        89   04 Jun 2027 10:20:35.710   04 Jun 2027 10:20:39.774             4.064          1746.844
        90   04 Jun 2027 10:22:15.096   04 Jun 2027 10:22:21.578             6.482          2833.844
        91   04 Jun 2027 10:24:16.750   04 Jun 2027 10:24:26.668             9.918          3062.844
        92   04 Jun 2027 10:25:36.218   04 Jun 2027 10:25:45.539             9.321          2075.344
        93   04 Jun 2027 10:25:46.829   04 Jun 2027 10:25:48.467             1.638            40.312
        94   04 Jun 2027 11:55:44.476   04 Jun 2027 11:55:59.180            14.704          4513.531
        95   04 Jun 2027 11:57:07.378   04 Jun 2027 11:57:12.556             5.178          1759.813
        96   04 Jun 2027 11:57:41.587   04 Jun 2027 11:57:45.097             3.510           605.937
        97   04 Jun 2027 11:59:08.035   04 Jun 2027 11:59:15.666             7.631          2334.906
        98   04 Jun 2027 11:59:41.004   04 Jun 2027 11:59:47.436             6.432           652.562
        99   04 Jun 2027 11:59:58.551   04 Jun 2027 12:00:00.000             1.449           148.563
       100   05 Jun 2027 04:18:08.111   05 Jun 2027 04:18:08.841             0.730           365.000
       101   05 Jun 2027 04:19:03.804   05 Jun 2027 04:20:10.774            66.970         33485.000
       102   05 Jun 2027 04:21:28.187   05 Jun 2027 04:22:14.695            46.508         23254.000
       103   05 Jun 2027 04:22:50.146   05 Jun 2027 04:22:50.146             0.000             0.000
       104   05 Jun 2027 04:23:46.035   05 Jun 2027 04:24:05.106            19.071          9535.500
       105   05 Jun 2027 04:25:40.802   05 Jun 2027 04:25:51.814            11.012          5506.000
       106   05 Jun 2027 05:56:12.733   05 Jun 2027 05:56:51.573            38.840         19420.000
       107   05 Jun 2027 05:57:14.017   05 Jun 2027 05:59:00.027           106.010         53005.000
       108   05 Jun 2027 05:59:36.747   05 Jun 2027 05:59:47.431            10.684          5342.000
       109   05 Jun 2027 07:20:14.740   05 Jun 2027 07:20:30.246            15.506          6489.750
       110   05 Jun 2027 07:21:03.484   05 Jun 2027 07:21:06.085             2.601           841.906
       111   05 Jun 2027 07:22:37.657   05 Jun 2027 07:22:47.603             9.946          2181.937
       112   05 Jun 2027 08:56:03.284   05 Jun 2027 08:56:13.901            10.617          4049.156
       113   05 Jun 2027 08:57:46.938   05 Jun 2027 08:57:53.388             6.450          2832.062
       114   05 Jun 2027 08:58:09.829   05 Jun 2027 08:58:09.829             0.000             0.000
       115   05 Jun 2027 08:58:35.634   05 Jun 2027 08:58:38.651             3.017          1167.750
       116   05 Jun 2027 10:31:00.197   05 Jun 2027 10:31:14.774            14.577          5905.062
       117   05 Jun 2027 10:33:03.085   05 Jun 2027 10:33:10.029             6.944          3034.375
       118   05 Jun 2027 10:33:35.034   05 Jun 2027 10:33:36.015             0.981           206.344
       119   05 Jun 2027 10:34:54.624   05 Jun 2027 10:34:59.405             4.781          1694.531
       120   05 Jun 2027 10:35:15.071   05 Jun 2027 10:35:20.045             4.974           163.844
       121   05 Jun 2027 10:36:12.566   05 Jun 2027 10:36:15.072             2.506           946.156
       122   05 Jun 2027 10:37:38.347   05 Jun 2027 10:37:44.290             5.943          2548.781
       123   06 Jun 2027 04:31:07.573   06 Jun 2027 04:33:08.847           121.274         60637.000
       124   06 Jun 2027 04:33:25.902   06 Jun 2027 04:34:04.203            38.301         19150.500
       125   06 Jun 2027 04:35:19.043   06 Jun 2027 04:35:21.315             2.272          1136.000
       126   06 Jun 2027 04:37:37.202   06 Jun 2027 04:38:40.639            63.437         31718.500
       127   06 Jun 2027 05:57:00.759   06 Jun 2027 05:57:31.157            30.398         15199.000
       128   06 Jun 2027 06:08:08.732   06 Jun 2027 06:09:21.185            72.453         36226.500
       129   06 Jun 2027 06:10:18.885   06 Jun 2027 06:10:22.267             3.382          1213.250
       130   06 Jun 2027 06:11:02.987   06 Jun 2027 06:11:05.196             2.209          1061.531
       131   06 Jun 2027 07:31:05.976   06 Jun 2027 07:31:16.627            10.651          4471.719
       132   06 Jun 2027 07:31:35.497   06 Jun 2027 07:31:36.628             1.131           458.469
       133   06 Jun 2027 07:32:54.343   06 Jun 2027 07:32:58.823             4.480          1856.531
       134   06 Jun 2027 07:34:06.534   06 Jun 2027 07:34:09.344             2.810          1202.188
       135   06 Jun 2027 07:34:36.433   06 Jun 2027 07:34:38.481             2.048           669.969
       136   06 Jun 2027 07:35:17.136   06 Jun 2027 07:35:17.136             0.000             0.000
       137   06 Jun 2027 09:06:22.296   06 Jun 2027 09:06:27.275             4.979          2460.125
       138   06 Jun 2027 09:08:28.267   06 Jun 2027 09:08:34.169             5.902          2683.469
       139   06 Jun 2027 09:09:21.329   06 Jun 2027 09:09:25.425             4.096           254.844
       140   06 Jun 2027 09:10:26.345   06 Jun 2027 09:10:28.394             2.049           278.500
       141   06 Jun 2027 09:10:36.901   06 Jun 2027 09:10:36.901             0.000             0.000
       142   06 Jun 2027 09:10:42.648   06 Jun 2027 09:10:43.312             0.664           256.719
       143   06 Jun 2027 09:12:13.434   06 Jun 2027 09:12:18.383             4.949          2379.125
       144   06 Jun 2027 10:42:33.370   06 Jun 2027 10:42:40.205             6.835          2554.219
       145   06 Jun 2027 10:43:36.675   06 Jun 2027 10:43:39.765             3.090           944.687
       146   06 Jun 2027 10:44:17.824   06 Jun 2027 10:44:19.851             2.027           853.750
       147   06 Jun 2027 10:45:44.283   06 Jun 2027 10:45:46.076             1.793           294.094
       148   06 Jun 2027 10:46:55.136   06 Jun 2027 10:47:02.218             7.082          1545.813
       149   06 Jun 2027 10:48:06.679   06 Jun 2027 10:48:11.665             4.986           899.531
       150   06 Jun 2027 10:49:26.827   06 Jun 2027 10:49:41.188            14.361          2208.281
       151   07 Jun 2027 03:04:31.130   07 Jun 2027 03:05:10.616            39.486         19743.000
       152   07 Jun 2027 03:06:49.561   07 Jun 2027 03:06:56.369             6.808          3404.000
       153   07 Jun 2027 03:07:32.845   07 Jun 2027 03:07:33.082             0.237           118.500
       154   07 Jun 2027 03:07:42.063   07 Jun 2027 03:07:44.100             2.037          1018.500
       155   07 Jun 2027 03:08:33.045   07 Jun 2027 03:08:46.826            13.781          6890.500
       156   07 Jun 2027 03:09:22.523   07 Jun 2027 03:09:33.032            10.509          5254.500
       157   07 Jun 2027 04:43:37.147   07 Jun 2027 04:46:26.122           168.975         84487.500
       158   07 Jun 2027 04:47:25.851   07 Jun 2027 04:48:22.650            56.799         28399.500
       159   07 Jun 2027 04:48:50.822   07 Jun 2027 04:48:54.547             3.725          1097.500
       160   07 Jun 2027 04:49:29.522   07 Jun 2027 04:49:33.117             3.595           232.250
       161   07 Jun 2027 06:08:29.207   07 Jun 2027 06:08:54.703            25.496         11729.000
       162   07 Jun 2027 06:20:11.410   07 Jun 2027 06:20:19.913             8.503          3790.250
       163   07 Jun 2027 07:42:24.922   07 Jun 2027 07:42:40.662            15.740          7624.281
       164   07 Jun 2027 07:43:34.917   07 Jun 2027 07:43:36.204             1.287           643.500
       165   07 Jun 2027 07:45:30.226   07 Jun 2027 07:45:36.344             6.118          2969.812
       166   07 Jun 2027 07:46:07.799   07 Jun 2027 07:46:08.610             0.811           309.313
       167   07 Jun 2027 07:46:39.428   07 Jun 2027 07:46:39.428             0.000             0.000
       168   07 Jun 2027 07:46:50.780   07 Jun 2027 07:46:57.333             6.553          1139.625
       169   07 Jun 2027 09:17:29.341   07 Jun 2027 09:17:37.850             8.509          2716.750
       170   07 Jun 2027 09:18:57.168   07 Jun 2027 09:19:00.605             3.437          1600.594
       171   07 Jun 2027 09:19:45.377   07 Jun 2027 09:19:47.549             2.172           477.219
       172   07 Jun 2027 09:21:01.781   07 Jun 2027 09:21:06.027             4.246          2123.000
       173   07 Jun 2027 09:21:10.463   07 Jun 2027 09:21:14.236             3.773           215.250
       174   07 Jun 2027 09:22:37.266   07 Jun 2027 09:22:37.740             0.474           237.000
       175   07 Jun 2027 09:23:03.105   07 Jun 2027 09:23:10.682             7.577          1985.656
       176   07 Jun 2027 09:23:35.727   07 Jun 2027 09:23:35.727             0.000             0.000
       177   07 Jun 2027 09:23:44.758   07 Jun 2027 09:23:48.441             3.683           423.563
       178   07 Jun 2027 09:24:27.699   07 Jun 2027 09:24:30.943             3.244           915.000
       179   07 Jun 2027 10:57:58.202   07 Jun 2027 10:58:17.301            19.099          9213.969
       180   07 Jun 2027 10:59:23.284   07 Jun 2027 10:59:24.255             0.971           429.094
       181   07 Jun 2027 10:59:39.820   07 Jun 2027 10:59:42.576             2.756           486.406
       182   07 Jun 2027 11:00:29.581   07 Jun 2027 11:00:33.038             3.457          1358.187
       183   07 Jun 2027 11:01:19.388   07 Jun 2027 11:01:21.821             2.433           865.156
       184   07 Jun 2027 11:01:32.769   07 Jun 2027 11:01:36.234             3.465           342.125
       185   07 Jun 2027 11:02:10.096   07 Jun 2027 11:02:10.638             0.542           271.000
       186   08 Jun 2027 03:16:50.442   08 Jun 2027 03:18:00.158            69.716         34858.000
       187   08 Jun 2027 03:18:01.850   08 Jun 2027 03:19:01.812            59.962         29981.000
       188   08 Jun 2027 03:19:03.669   08 Jun 2027 03:19:17.271            13.602          6801.000
       189   08 Jun 2027 03:19:36.659   08 Jun 2027 03:19:44.298             7.639          3819.500
       190   08 Jun 2027 03:20:33.846   08 Jun 2027 03:20:56.662            22.816         11408.000
       191   08 Jun 2027 03:21:44.213   08 Jun 2027 03:22:17.737            33.524         16762.000
       192   08 Jun 2027 04:55:38.280   08 Jun 2027 04:56:33.527            55.247         27623.500
       193   08 Jun 2027 04:57:08.560   08 Jun 2027 04:58:04.334            55.774         27459.406
       194   08 Jun 2027 04:58:10.736   08 Jun 2027 04:58:13.233             2.497           200.063
       195   08 Jun 2027 04:59:30.888   08 Jun 2027 04:59:34.236             3.348          1535.313
       196   08 Jun 2027 05:01:47.133   08 Jun 2027 05:01:48.445             1.312           404.438
       197   08 Jun 2027 05:02:17.274   08 Jun 2027 05:02:19.816             2.542           495.094
       198   08 Jun 2027 06:19:59.197   08 Jun 2027 06:20:08.906             9.709          4827.937
       199   08 Jun 2027 06:21:47.946   08 Jun 2027 06:22:01.448            13.502          2790.094
       200   08 Jun 2027 06:32:13.285   08 Jun 2027 06:32:21.504             8.219          2514.875
       201   08 Jun 2027 07:54:09.471   08 Jun 2027 07:54:22.609            13.138          4522.281
       202   08 Jun 2027 07:55:29.460   08 Jun 2027 07:55:29.974             0.514           257.000
       203   08 Jun 2027 07:56:42.887   08 Jun 2027 07:56:48.471             5.584          1595.750
       204   08 Jun 2027 07:57:34.393   08 Jun 2027 07:57:37.343             2.950          1287.563
       205   08 Jun 2027 07:59:02.065   08 Jun 2027 07:59:09.256             7.191          2347.938
       206   08 Jun 2027 07:59:16.133   08 Jun 2027 07:59:17.372             1.239            99.063
       207   08 Jun 2027 09:28:57.583   08 Jun 2027 09:29:09.128            11.545          4221.063
       208   08 Jun 2027 09:30:49.368   08 Jun 2027 09:30:52.939             3.571           128.750
       209   08 Jun 2027 09:31:28.534   08 Jun 2027 09:31:30.975             2.441          1039.375
       210   08 Jun 2027 09:33:10.153   08 Jun 2027 09:33:11.861             1.708           812.625
       211   08 Jun 2027 09:35:36.400   08 Jun 2027 09:35:41.625             5.225          1822.656
       212   08 Jun 2027 09:36:02.798   08 Jun 2027 09:36:06.545             3.747           333.219
       213   08 Jun 2027 09:36:41.538   08 Jun 2027 09:36:42.989             1.451           659.563
       214   08 Jun 2027 11:06:46.476   08 Jun 2027 11:06:56.356             9.880          4182.781
       215   08 Jun 2027 11:07:44.439   08 Jun 2027 11:07:44.957             0.518           155.719
       216   08 Jun 2027 11:08:57.420   08 Jun 2027 11:09:08.678            11.258          1003.969
       217   08 Jun 2027 11:10:19.691   08 Jun 2027 11:10:24.177             4.486          1064.281
       218   08 Jun 2027 11:10:54.863   08 Jun 2027 11:10:54.863             0.000             0.000
       219   08 Jun 2027 11:12:12.371   08 Jun 2027 11:12:19.671             7.300          3323.125
       220   08 Jun 2027 11:13:06.288   08 Jun 2027 11:13:08.485             2.197           839.250
       221   08 Jun 2027 11:13:51.382   08 Jun 2027 11:13:55.640             4.258          1314.188
       222   09 Jun 2027 03:29:34.778   09 Jun 2027 03:31:13.777            98.999         49499.500
       223   09 Jun 2027 03:31:37.000   09 Jun 2027 03:33:31.263           114.263         57131.500
       224   09 Jun 2027 05:08:49.678   09 Jun 2027 05:09:34.528            44.850         22425.000
       225   09 Jun 2027 05:09:57.991   09 Jun 2027 05:10:50.980            52.989         26413.719
       226   09 Jun 2027 05:11:51.329   09 Jun 2027 05:11:53.911             2.582          1149.094
       227   09 Jun 2027 05:12:51.849   09 Jun 2027 05:12:54.459             2.610           765.406
       228   09 Jun 2027 06:31:58.811   09 Jun 2027 06:32:11.404            12.593          3752.000
       229   09 Jun 2027 06:32:54.044   09 Jun 2027 06:32:56.112             2.068           966.250
       230   09 Jun 2027 06:33:07.017   09 Jun 2027 06:33:11.046             4.029           322.438
       231   09 Jun 2027 06:33:46.051   09 Jun 2027 06:33:47.112             1.061           213.531
       232   09 Jun 2027 08:07:55.787   09 Jun 2027 08:08:09.232            13.445          5903.750
       233   09 Jun 2027 08:08:15.027   09 Jun 2027 08:08:17.675             2.648            72.719
       234   09 Jun 2027 08:08:51.567   09 Jun 2027 08:08:53.938             2.371           504.062
       235   09 Jun 2027 08:10:10.643   09 Jun 2027 08:10:10.643             0.000             0.000
       236   09 Jun 2027 08:10:17.273   09 Jun 2027 08:10:22.016             4.743          1703.594
       237   09 Jun 2027 08:10:53.339   09 Jun 2027 08:10:55.425             2.086           262.281
       238   09 Jun 2027 09:41:46.362   09 Jun 2027 09:41:53.685             7.323          2545.188
       239   09 Jun 2027 09:43:12.618   09 Jun 2027 09:43:18.353             5.735           692.344
       240   09 Jun 2027 09:43:54.555   09 Jun 2027 09:43:58.814             4.259           635.406
       241   09 Jun 2027 09:44:19.452   09 Jun 2027 09:44:19.452             0.000             0.000
       242   09 Jun 2027 09:45:12.327   09 Jun 2027 09:45:16.998             4.671          1961.406
       243   09 Jun 2027 09:48:38.680   09 Jun 2027 09:48:47.146             8.466          4179.875
       244   09 Jun 2027 09:49:17.004   09 Jun 2027 09:49:19.377             2.373           460.594
       245   09 Jun 2027 11:18:53.197   09 Jun 2027 11:19:06.312            13.115          3687.594
       246   09 Jun 2027 11:21:34.162   09 Jun 2027 11:21:50.416            16.254          3338.094
       247   09 Jun 2027 11:23:00.189   09 Jun 2027 11:23:09.042             8.853           894.687
       248   09 Jun 2027 11:23:35.745   09 Jun 2027 11:23:37.982             2.237            62.500
       249   09 Jun 2027 11:24:02.282   09 Jun 2027 11:24:07.278             4.996           723.969
       250   09 Jun 2027 11:24:55.903   09 Jun 2027 11:25:06.449            10.546          1519.531
       251   09 Jun 2027 11:25:13.536   09 Jun 2027 11:25:15.023             1.487           221.469
       252   09 Jun 2027 11:25:24.958   09 Jun 2027 11:25:25.736             0.778           146.344
       253   10 Jun 2027 03:42:12.703   10 Jun 2027 03:42:52.227            39.524         19762.000
       254   10 Jun 2027 03:42:59.414   10 Jun 2027 03:43:47.410            47.996         23998.000
       255   10 Jun 2027 03:43:49.933   10 Jun 2027 03:44:52.915            62.982         31491.000
       256   10 Jun 2027 03:45:57.042   10 Jun 2027 03:47:09.961            72.919         36459.500
       257   10 Jun 2027 05:20:30.794   10 Jun 2027 05:21:46.019            75.225         37612.500
       258   10 Jun 2027 05:21:47.898   10 Jun 2027 05:21:53.925             6.027          2866.625
       259   10 Jun 2027 05:23:05.152   10 Jun 2027 05:23:11.257             6.105          1813.000
       260   10 Jun 2027 05:23:23.783   10 Jun 2027 05:23:29.589             5.806            46.344
       261   10 Jun 2027 06:43:53.387   10 Jun 2027 06:44:01.112             7.725          3744.188
       262   10 Jun 2027 06:45:08.388   10 Jun 2027 06:45:14.112             5.724          1609.594
       263   10 Jun 2027 06:45:34.025   10 Jun 2027 06:45:34.025             0.000             0.000
       264   10 Jun 2027 06:45:55.437   10 Jun 2027 06:46:00.532             5.095          1068.813
       265   10 Jun 2027 08:20:17.555   10 Jun 2027 08:20:35.101            17.546          8682.406
       266   10 Jun 2027 08:20:45.561   10 Jun 2027 08:20:46.301             0.740           270.062
       267   10 Jun 2027 08:20:53.956   10 Jun 2027 08:20:55.712             1.756           154.281
       268   10 Jun 2027 08:21:34.351   10 Jun 2027 08:21:38.043             3.692          1067.469
       269   10 Jun 2027 08:23:03.051   10 Jun 2027 08:23:11.029             7.978          2313.125
       270   10 Jun 2027 09:53:58.622   10 Jun 2027 09:54:06.530             7.908          3154.750
       271   10 Jun 2027 09:56:13.810   10 Jun 2027 09:56:16.358             2.548            76.500
       272   10 Jun 2027 09:57:17.058   10 Jun 2027 09:57:20.037             2.979          1304.656
       273   10 Jun 2027 09:59:32.199   10 Jun 2027 09:59:36.418             4.219          1729.688
       274   10 Jun 2027 10:01:04.806   10 Jun 2027 10:01:10.311             5.505          1831.312
       275   10 Jun 2027 10:01:35.118   10 Jun 2027 10:01:37.677             2.559           216.719
       276   10 Jun 2027 10:01:57.583   10 Jun 2027 10:02:01.792             4.209            62.406
       277   10 Jun 2027 10:02:16.081   10 Jun 2027 10:02:16.332             0.251           125.500
       278   10 Jun 2027 11:31:19.564   10 Jun 2027 11:31:31.510            11.946          5854.875
       279   10 Jun 2027 11:33:20.503   10 Jun 2027 11:33:25.001             4.498          1660.187
       280   10 Jun 2027 11:34:10.789   10 Jun 2027 11:34:25.064            14.275          1270.719
       281   10 Jun 2027 11:34:28.410   10 Jun 2027 11:34:28.864             0.454            59.594
       282   10 Jun 2027 11:36:02.293   10 Jun 2027 11:36:06.469             4.176          1938.781
       283   10 Jun 2027 11:36:15.040   10 Jun 2027 11:36:18.644             3.604            48.500
       284   10 Jun 2027 11:37:03.831   10 Jun 2027 11:37:06.965             3.134          1095.563
       285   10 Jun 2027 11:37:29.947   10 Jun 2027 11:37:33.200             3.253           718.187
       286   10 Jun 2027 11:37:52.833   10 Jun 2027 11:37:59.942             7.109           523.844
       287   11 Jun 2027 03:54:05.726   11 Jun 2027 03:54:10.207             4.481          2240.500
       288   11 Jun 2027 03:54:35.123   11 Jun 2027 03:57:04.969           149.846         74923.000
       289   11 Jun 2027 03:57:31.816   11 Jun 2027 03:57:48.390            16.574          8287.000
       290   11 Jun 2027 03:58:37.031   11 Jun 2027 03:58:55.713            18.682          9341.000
       291   11 Jun 2027 03:59:27.883   11 Jun 2027 03:59:28.885             1.002           501.000
       292   11 Jun 2027 05:32:46.541   11 Jun 2027 05:34:46.345           119.804         59902.000
       293   11 Jun 2027 05:34:59.590   11 Jun 2027 05:35:14.603            15.013          7378.031
       294   11 Jun 2027 06:55:40.881   11 Jun 2027 06:55:52.542            11.661          5830.500
       295   11 Jun 2027 06:57:09.550   11 Jun 2027 06:57:21.820            12.270          2767.031
       296   11 Jun 2027 08:32:19.397   11 Jun 2027 08:32:26.489             7.092          2676.344
       297   11 Jun 2027 08:33:01.303   11 Jun 2027 08:33:02.692             1.389           500.969
       298   11 Jun 2027 08:33:26.904   11 Jun 2027 08:33:29.424             2.520           679.187
       299   11 Jun 2027 08:33:52.060   11 Jun 2027 08:33:54.445             2.385            98.000
       300   11 Jun 2027 08:34:49.630   11 Jun 2027 08:34:53.616             3.986          1724.531
       301   11 Jun 2027 10:07:19.131   11 Jun 2027 10:07:24.171             5.040          2515.031
       302   11 Jun 2027 10:08:21.329   11 Jun 2027 10:08:22.366             1.037           473.813
       303   11 Jun 2027 10:09:24.454   11 Jun 2027 10:09:29.306             4.852          1654.844
       304   11 Jun 2027 10:11:16.403   11 Jun 2027 10:11:24.476             8.073          2423.656
       305   11 Jun 2027 10:12:21.323   11 Jun 2027 10:12:28.214             6.891           194.063
       306   11 Jun 2027 10:13:18.802   11 Jun 2027 10:13:23.176             4.374          1395.969
       307   11 Jun 2027 10:13:54.282   11 Jun 2027 10:14:04.842            10.560           800.094
       308   11 Jun 2027 11:43:27.387   11 Jun 2027 11:43:36.720             9.333          4089.500
       309   11 Jun 2027 11:45:18.211   11 Jun 2027 11:45:22.514             4.303          1600.844
       310   11 Jun 2027 11:45:25.926   11 Jun 2027 11:45:32.061             6.135            92.062
       311   11 Jun 2027 11:45:53.259   11 Jun 2027 11:45:54.559             1.300           480.656
       312   11 Jun 2027 11:47:03.589   11 Jun 2027 11:47:08.104             4.515           999.656
       313   11 Jun 2027 11:47:27.439   11 Jun 2027 11:47:30.629             3.190           162.812
       314   11 Jun 2027 11:47:39.886   11 Jun 2027 11:47:41.241             1.355           233.156
       315   11 Jun 2027 11:48:12.478   11 Jun 2027 11:48:19.903             7.425           976.156
       316   11 Jun 2027 11:49:06.393   11 Jun 2027 11:49:09.653             3.260          1260.563
       317   11 Jun 2027 11:49:27.343   11 Jun 2027 11:49:32.910             5.567           473.469
       318   11 Jun 2027 11:49:58.970   11 Jun 2027 11:50:00.601             1.631           814.375
       319   12 Jun 2027 04:06:14.472   12 Jun 2027 04:07:16.454            61.982         30991.000
       320   12 Jun 2027 04:07:22.907   12 Jun 2027 04:09:12.092           109.185         54592.500
       321   12 Jun 2027 05:45:35.439   12 Jun 2027 05:48:01.728           146.289         72110.656
       322   12 Jun 2027 07:07:55.412   12 Jun 2027 07:08:08.317            12.905          5667.813
       323   12 Jun 2027 07:08:48.824   12 Jun 2027 07:08:51.041             2.217           772.312
       324   12 Jun 2027 07:09:21.360   12 Jun 2027 07:09:26.108             4.748           947.469
       325   12 Jun 2027 07:10:30.605   12 Jun 2027 07:10:35.744             5.139          1710.188
       326   12 Jun 2027 07:10:57.520   12 Jun 2027 07:11:02.720             5.200           302.500
       327   12 Jun 2027 08:44:27.201   12 Jun 2027 08:44:36.278             9.077          3014.625
       328   12 Jun 2027 08:45:39.407   12 Jun 2027 08:45:39.976             0.569           284.500
       329   12 Jun 2027 08:46:12.651   12 Jun 2027 08:46:22.557             9.906          2594.000
       330   12 Jun 2027 08:47:03.462   12 Jun 2027 08:47:05.658             2.196           371.531
       331   12 Jun 2027 08:47:58.096   12 Jun 2027 08:47:58.096             0.000             0.000
       332   12 Jun 2027 10:19:37.406   12 Jun 2027 10:19:48.900            11.494          3446.875
       333   12 Jun 2027 10:20:55.246   12 Jun 2027 10:20:59.334             4.088          1856.469
       334   12 Jun 2027 10:21:34.615   12 Jun 2027 10:21:34.615             0.000             0.000
       335   12 Jun 2027 10:22:53.582   12 Jun 2027 10:23:01.634             8.052          3409.906
       336   12 Jun 2027 10:23:23.997   12 Jun 2027 10:23:25.691             1.694           342.219
       337   12 Jun 2027 10:24:46.203   12 Jun 2027 10:24:50.401             4.198           861.188
       338   12 Jun 2027 10:25:51.783   12 Jun 2027 10:25:52.852             1.069           534.500
       339   12 Jun 2027 10:26:03.409   12 Jun 2027 10:26:04.942             1.533           659.594
       340   12 Jun 2027 11:56:01.385   12 Jun 2027 11:56:12.949            11.564          4429.531
       341   12 Jun 2027 11:57:23.130   12 Jun 2027 11:57:27.029             3.899          1667.625
       342   12 Jun 2027 11:57:59.617   12 Jun 2027 11:58:02.196             2.579           647.719
       343   12 Jun 2027 11:59:24.415   12 Jun 2027 11:59:32.556             8.141          2309.219
       344   12 Jun 2027 11:59:57.219   12 Jun 2027 11:59:59.369             2.150           729.844
       345   13 Jun 2027 04:19:21.040   13 Jun 2027 04:20:07.276            46.236         23118.000
       346   13 Jun 2027 04:20:42.177   13 Jun 2027 04:20:53.452            11.275          5637.500
       347   13 Jun 2027 04:21:32.484   13 Jun 2027 04:22:42.547            70.063         35031.500
       348   13 Jun 2027 04:22:51.593   13 Jun 2027 04:23:04.711            13.118          6559.000
       349   13 Jun 2027 04:23:30.154   13 Jun 2027 04:23:32.585             2.431          1215.500
       350   13 Jun 2027 04:23:35.532   13 Jun 2027 04:23:51.672            16.140          8070.000
       351   13 Jun 2027 04:25:51.440   13 Jun 2027 04:25:58.483             7.043          3521.500
       352   13 Jun 2027 04:26:20.419   13 Jun 2027 04:26:26.454             6.035          3017.500
       353   13 Jun 2027 05:56:29.414   13 Jun 2027 05:57:08.905            39.491         19745.500
       354   13 Jun 2027 05:57:29.312   13 Jun 2027 05:59:05.896            96.584         48292.000
       355   13 Jun 2027 05:59:54.060   13 Jun 2027 05:59:59.371             5.311          1896.437
       356   13 Jun 2027 07:20:25.500   13 Jun 2027 07:20:36.783            11.283          5492.844
       357   13 Jun 2027 07:21:20.044   13 Jun 2027 07:21:21.769             1.725           826.687
       358   13 Jun 2027 07:22:28.122   13 Jun 2027 07:22:28.122             0.000             0.000
       359   13 Jun 2027 07:22:55.358   13 Jun 2027 07:23:03.830             8.472          2177.344
       360   13 Jun 2027 08:56:20.249   13 Jun 2027 08:56:26.306             6.057          2215.250
       361   13 Jun 2027 08:58:06.751   13 Jun 2027 08:58:13.011             6.260          2943.750
       362   13 Jun 2027 08:58:27.790   13 Jun 2027 08:58:28.067             0.277           138.500
       363   13 Jun 2027 08:59:40.719   13 Jun 2027 08:59:46.682             5.963          2496.000
       364   13 Jun 2027 10:31:16.211   13 Jun 2027 10:31:30.186            13.975          3584.406
       365   13 Jun 2027 10:33:22.959   13 Jun 2027 10:33:29.415             6.456          3164.500
       366   13 Jun 2027 10:33:55.732   13 Jun 2027 10:33:57.902             2.170           251.313
       367   13 Jun 2027 10:34:28.176   13 Jun 2027 10:34:30.461             2.285           359.094
       368   13 Jun 2027 10:35:29.213   13 Jun 2027 10:35:31.573             2.360           620.750
       369   13 Jun 2027 10:35:52.080   13 Jun 2027 10:35:53.546             1.466           500.219
       370   13 Jun 2027 10:36:27.774   13 Jun 2027 10:36:30.179             2.405           872.875
       371   13 Jun 2027 10:37:54.727   13 Jun 2027 10:37:59.906             5.179          2502.344
