uniorb/output/strategy_4/Camera/Camera_KinoSat_110309.txt

KinoSat_110309
-------------------------
    Access    *     Start Time (UTCG)     *     Stop Time (UTCG)  *   Duration (s) *   Data (Mbytes)
         1   01 Jun 2027 03:18:23.544   01 Jun 2027 03:19:49.921            86.377         43188.500
         2   01 Jun 2027 03:21:38.156   01 Jun 2027 03:22:01.289            23.133         11566.500
         3   01 Jun 2027 03:22:51.670   01 Jun 2027 03:23:07.097            15.427          7713.500
         4   01 Jun 2027 03:24:06.441   01 Jun 2027 03:24:13.666             7.225          3612.500
         5   01 Jun 2027 03:24:17.166   01 Jun 2027 03:24:22.641             5.475          2737.500
         6   01 Jun 2027 03:25:11.966   01 Jun 2027 03:25:16.420             4.454          2227.000
         7   01 Jun 2027 04:54:31.693   01 Jun 2027 04:56:57.512           145.819         72909.500
         8   01 Jun 2027 04:56:57.964   01 Jun 2027 04:57:23.975            26.011         13005.500
         9   01 Jun 2027 04:57:54.390   01 Jun 2027 04:58:07.239            12.849          6424.500
        10   01 Jun 2027 05:00:02.049   01 Jun 2027 05:00:20.519            18.470          9235.000
        11   01 Jun 2027 05:00:41.838   01 Jun 2027 05:00:53.947            12.109          6054.500
        12   01 Jun 2027 05:01:04.088   01 Jun 2027 05:01:11.374             7.286          3643.000
        13   01 Jun 2027 06:32:15.941   01 Jun 2027 06:34:58.022           162.081         81040.500
        14   01 Jun 2027 06:35:24.553   01 Jun 2027 06:35:30.831             6.278          3139.000
        15   01 Jun 2027 06:35:58.493   01 Jun 2027 06:36:18.342            19.849          9924.500
        16   01 Jun 2027 08:08:21.397   01 Jun 2027 08:11:33.323           191.926         95963.000
        17   02 Jun 2027 03:30:40.994   02 Jun 2027 03:37:17.116           396.122        198061.000
        18   02 Jun 2027 05:07:04.071   02 Jun 2027 05:10:15.823           191.752         95876.000
        19   02 Jun 2027 05:11:00.354   02 Jun 2027 05:11:34.950            34.596         17298.000
        20   02 Jun 2027 06:44:21.229   02 Jun 2027 06:48:57.824           276.595        138297.500
        21   02 Jun 2027 08:20:48.009   02 Jun 2027 08:25:18.138           270.129        135064.500
        22   03 Jun 2027 03:42:18.799   03 Jun 2027 03:49:26.032           427.233        213616.500
        23   03 Jun 2027 05:18:38.299   03 Jun 2027 05:25:03.596           385.297        192648.500
        24   03 Jun 2027 06:57:21.946   03 Jun 2027 07:00:47.146           205.200        102600.000
        25   03 Jun 2027 08:32:22.126   03 Jun 2027 08:36:25.608           243.482        121741.000
        26   03 Jun 2027 08:36:51.369   03 Jun 2027 08:37:45.045            53.676         26838.000
        27   04 Jun 2027 03:53:52.342   04 Jun 2027 04:01:26.593           454.251        227125.500
        28   04 Jun 2027 05:30:58.234   04 Jun 2027 05:37:20.613           382.379        191189.500
        29   04 Jun 2027 07:09:21.239   04 Jun 2027 07:12:52.027           210.788        105394.000
        30   04 Jun 2027 08:42:05.335   04 Jun 2027 08:48:19.367           374.032        187016.000
        31   04 Jun 2027 08:48:26.285   04 Jun 2027 08:50:01.614            95.329         47664.500
        32   05 Jun 2027 04:06:11.920   05 Jun 2027 04:13:30.799           438.879        219439.500
        33   05 Jun 2027 05:42:59.636   05 Jun 2027 05:49:28.101           388.465        194232.500
        34   05 Jun 2027 07:21:19.457   05 Jun 2027 07:24:55.377           215.920        107960.000
        35   05 Jun 2027 08:54:32.481   05 Jun 2027 09:01:41.668           429.187        214593.500
        36   06 Jun 2027 04:18:05.756   06 Jun 2027 04:25:31.207           445.451        222725.500
        37   06 Jun 2027 05:54:50.229   06 Jun 2027 06:00:43.617           353.388        176694.000
        38   06 Jun 2027 06:00:49.853   06 Jun 2027 06:01:34.981            45.128         22564.000
        39   06 Jun 2027 07:32:58.823   06 Jun 2027 07:37:04.899           246.076        123038.000
        40   06 Jun 2027 09:06:49.526   06 Jun 2027 09:13:06.392           376.866        188433.000
        41   07 Jun 2027 03:00:00.000   07 Jun 2027 03:00:22.843            22.843         11421.500
        42   07 Jun 2027 03:00:35.275   07 Jun 2027 03:01:35.513            60.238         30119.000
        43   07 Jun 2027 04:30:12.607   07 Jun 2027 04:37:31.869           439.262        219631.000
        44   07 Jun 2027 06:07:15.518   07 Jun 2027 06:12:02.494           286.976        143488.000
        45   07 Jun 2027 06:13:00.824   07 Jun 2027 06:13:21.651            20.827         10413.500
        46   07 Jun 2027 07:44:50.329   07 Jun 2027 07:49:05.090           254.761        127380.500
        47   07 Jun 2027 09:19:18.248   07 Jun 2027 09:19:40.801            22.553         11276.500
        48   07 Jun 2027 09:20:56.233   07 Jun 2027 09:24:07.509           191.276         95638.000
        49   08 Jun 2027 03:03:45.723   08 Jun 2027 03:13:34.251           588.528        294264.000
        50   08 Jun 2027 04:42:38.885   08 Jun 2027 04:49:20.001           401.116        200558.000
        51   08 Jun 2027 06:21:15.025   08 Jun 2027 06:23:57.146           162.121         81060.500
        52   08 Jun 2027 06:23:59.099   08 Jun 2027 06:25:05.779            66.680         33340.000
        53   08 Jun 2027 07:56:25.679   08 Jun 2027 08:00:53.985           268.306        134153.000
        54   08 Jun 2027 09:34:31.412   08 Jun 2027 09:35:42.826            71.414         35707.000
        55   09 Jun 2027 03:18:38.338   09 Jun 2027 03:24:28.491           350.153        175076.500
        56   09 Jun 2027 03:24:31.816   09 Jun 2027 03:25:31.233            59.417         29708.500
        57   09 Jun 2027 04:54:47.989   09 Jun 2027 05:01:26.188           398.199        199099.500
        58   09 Jun 2027 06:32:39.771   09 Jun 2027 06:36:55.253           255.482        127741.000
        59   09 Jun 2027 08:09:14.000   09 Jun 2027 08:12:55.313           221.313        110656.500
        60   10 Jun 2027 03:30:55.843   10 Jun 2027 03:37:31.796           395.953        197976.500
        61   10 Jun 2027 05:07:18.384   10 Jun 2027 05:13:27.904           369.520        184760.000
        62   10 Jun 2027 06:44:52.974   10 Jun 2027 06:49:12.755           259.781        129890.500
        63   10 Jun 2027 08:21:02.551   10 Jun 2027 08:25:33.305           270.754        135377.000
        64   11 Jun 2027 03:42:32.954   11 Jun 2027 03:49:40.809           427.855        213927.500
        65   11 Jun 2027 05:18:52.928   11 Jun 2027 05:25:18.517           385.589        192794.500
        66   11 Jun 2027 06:57:36.585   11 Jun 2027 07:01:01.902           205.317        102658.500
        67   11 Jun 2027 08:32:36.762   11 Jun 2027 08:36:40.294           243.532        121766.000
        68   11 Jun 2027 08:37:01.782   11 Jun 2027 08:37:59.697            57.915         28957.500
        69   12 Jun 2027 03:54:06.881   12 Jun 2027 04:01:41.395           454.514        227257.000
        70   12 Jun 2027 05:31:13.021   12 Jun 2027 05:37:35.374           382.353        191176.500
        71   12 Jun 2027 07:09:35.864   12 Jun 2027 07:13:06.973           211.109        105554.500
        72   12 Jun 2027 08:42:20.072   12 Jun 2027 08:48:34.717           374.645        187322.500
        73   12 Jun 2027 08:48:41.475   12 Jun 2027 08:50:16.566            95.091         47545.500
        74   13 Jun 2027 04:06:26.690   13 Jun 2027 04:13:45.563           438.873        219436.500
        75   13 Jun 2027 05:43:14.268   13 Jun 2027 05:49:43.154           388.886        194443.000
        76   13 Jun 2027 07:21:34.065   13 Jun 2027 07:25:10.012           215.947        107973.500
        77   13 Jun 2027 08:54:47.387   13 Jun 2027 09:01:56.304           428.917        214458.500
