uniorb/output/strategy_4/Camera/Camera_KinoSat_111402.txt

KinoSat_111402
-------------------------
    Access    *     Start Time (UTCG)     *     Stop Time (UTCG)  *   Duration (s) *   Data (Mbytes)
         1   01 Jun 2027 03:52:31.757   01 Jun 2027 03:54:43.530           131.773         65886.500
         2   01 Jun 2027 03:55:47.754   01 Jun 2027 03:55:48.646             0.892           446.000
         3   01 Jun 2027 03:56:09.370   01 Jun 2027 03:56:23.616            14.246          7123.000
         4   01 Jun 2027 03:57:25.103   01 Jun 2027 03:57:42.865            17.762          8881.000
         5   01 Jun 2027 05:16:38.086   01 Jun 2027 05:17:38.990            60.904         30452.000
         6   01 Jun 2027 06:50:24.435   01 Jun 2027 06:52:19.681           115.246         57623.000
         7   01 Jun 2027 06:53:22.018   01 Jun 2027 06:53:29.310             7.292          3646.000
         8   01 Jun 2027 06:54:38.629   01 Jun 2027 06:54:38.629             0.000             0.000
         9   01 Jun 2027 06:55:50.665   01 Jun 2027 06:56:27.167            36.502         18251.000
        10   01 Jun 2027 08:26:24.922   01 Jun 2027 08:28:15.709           110.787         55393.500
        11   01 Jun 2027 08:34:16.345   01 Jun 2027 08:34:54.708            38.363         19181.500
        12   01 Jun 2027 10:03:27.530   01 Jun 2027 10:04:08.135            40.605         20302.500
        13   01 Jun 2027 10:05:27.155   01 Jun 2027 10:06:16.694            49.539         24769.500
        14   01 Jun 2027 10:08:19.964   01 Jun 2027 10:08:19.964             0.000             0.000
        15   01 Jun 2027 10:08:29.960   01 Jun 2027 10:09:52.257            82.297         41148.500
        16   01 Jun 2027 11:40:22.314   01 Jun 2027 11:40:54.130            31.816         15908.000
        17   01 Jun 2027 11:40:55.208   01 Jun 2027 11:42:21.442            86.234         43117.000
        18   01 Jun 2027 11:42:30.331   01 Jun 2027 11:42:36.073             5.742          2871.000
        19   01 Jun 2027 11:42:55.916   01 Jun 2027 11:42:59.771             3.855          1927.500
        20   01 Jun 2027 11:43:23.347   01 Jun 2027 11:43:25.345             1.998           999.000
        21   01 Jun 2027 11:43:51.810   01 Jun 2027 11:43:56.076             4.266          2133.000
        22   01 Jun 2027 11:46:13.851   01 Jun 2027 11:46:19.799             5.948          2974.000
        23   02 Jun 2027 04:05:07.992   02 Jun 2027 04:07:23.071           135.079         67539.500
        24   02 Jun 2027 04:07:56.499   02 Jun 2027 04:08:11.748            15.249          7624.500
        25   02 Jun 2027 05:28:32.941   02 Jun 2027 05:29:30.568            57.627         28813.500
        26   02 Jun 2027 05:29:45.766   02 Jun 2027 05:30:08.184            22.418         11209.000
        27   02 Jun 2027 07:04:52.138   02 Jun 2027 07:08:20.704           208.566        104283.000
        28   02 Jun 2027 08:38:21.838   02 Jun 2027 08:40:37.733           135.895         67947.500
        29   02 Jun 2027 08:40:49.968   02 Jun 2027 08:40:52.360             2.392          1196.000
        30   02 Jun 2027 08:41:41.714   02 Jun 2027 08:41:53.642            11.928          5964.000
        31   02 Jun 2027 08:44:42.729   02 Jun 2027 08:45:21.772            39.043         19521.500
        32   02 Jun 2027 08:46:52.802   02 Jun 2027 08:46:54.234             1.432           716.000
        33   02 Jun 2027 10:15:53.623   02 Jun 2027 10:17:24.034            90.411         44650.846
        34   02 Jun 2027 10:19:33.502   02 Jun 2027 10:19:40.368             6.866          2604.250
        35   02 Jun 2027 10:20:06.776   02 Jun 2027 10:20:12.498             5.722            18.000
        36   02 Jun 2027 10:20:34.716   02 Jun 2027 10:20:37.100             2.384           357.688
        37   02 Jun 2027 10:20:46.234   02 Jun 2027 10:20:50.014             3.780           285.438
        38   02 Jun 2027 10:20:56.608   02 Jun 2027 10:20:56.970             0.362           158.750
        39   02 Jun 2027 10:21:32.428   02 Jun 2027 10:21:36.150             3.722          1002.156
        40   02 Jun 2027 10:22:11.348   02 Jun 2027 10:22:14.453             3.105           255.625
        41   02 Jun 2027 10:22:33.175   02 Jun 2027 10:22:35.410             2.235           273.813
        42   02 Jun 2027 11:52:50.024   02 Jun 2027 11:53:04.231            14.207          5781.625
        43   02 Jun 2027 11:54:46.630   02 Jun 2027 11:54:51.851             5.221          1520.313
        44   02 Jun 2027 11:55:02.464   02 Jun 2027 11:55:04.480             2.016           331.656
        45   02 Jun 2027 11:55:51.106   02 Jun 2027 11:55:52.154             1.048           140.500
        46   02 Jun 2027 11:56:39.906   02 Jun 2027 11:56:42.681             2.775           977.000
        47   02 Jun 2027 11:56:57.845   02 Jun 2027 11:57:01.800             3.955            90.281
        48   02 Jun 2027 11:58:11.334   02 Jun 2027 11:58:15.703             4.369          1970.281
        49   02 Jun 2027 11:58:21.139   02 Jun 2027 11:58:24.210             3.071           115.937
        50   02 Jun 2027 11:58:29.244   02 Jun 2027 11:58:32.475             3.231           157.313
        51   03 Jun 2027 04:16:46.618   03 Jun 2027 04:19:09.141           142.523         71261.500
        52   03 Jun 2027 04:19:43.659   03 Jun 2027 04:19:55.184            11.525          5762.500
        53   03 Jun 2027 05:40:24.401   03 Jun 2027 05:41:18.826            54.425         27212.500
        54   03 Jun 2027 07:16:53.801   03 Jun 2027 07:19:12.796           138.995         67572.781
        55   03 Jun 2027 07:19:30.431   03 Jun 2027 07:19:34.500             4.069           258.375
        56   03 Jun 2027 08:51:01.595   03 Jun 2027 08:51:09.168             7.573          3416.250
        57   03 Jun 2027 08:52:45.001   03 Jun 2027 08:52:47.989             2.988           485.906
        58   03 Jun 2027 08:54:22.534   03 Jun 2027 08:54:29.330             6.796          2283.469
        59   03 Jun 2027 08:55:16.037   03 Jun 2027 08:55:19.850             3.813           853.063
        60   03 Jun 2027 08:56:09.628   03 Jun 2027 08:56:12.190             2.562          1240.531
        61   03 Jun 2027 08:57:32.160   03 Jun 2027 08:57:35.647             3.487           893.750
        62   03 Jun 2027 08:58:21.734   03 Jun 2027 08:58:28.113             6.379           990.969
        63   03 Jun 2027 08:58:34.262   03 Jun 2027 08:58:35.433             1.171           192.156
        64   03 Jun 2027 10:27:59.986   03 Jun 2027 10:28:10.104            10.118          4396.375
        65   03 Jun 2027 10:31:40.422   03 Jun 2027 10:31:45.705             5.283           878.781
        66   03 Jun 2027 10:32:42.989   03 Jun 2027 10:32:50.752             7.763          1508.969
        67   03 Jun 2027 10:33:13.556   03 Jun 2027 10:33:18.406             4.850           617.938
        68   03 Jun 2027 10:33:25.093   03 Jun 2027 10:33:26.924             1.831            95.875
        69   03 Jun 2027 10:34:00.345   03 Jun 2027 10:34:00.663             0.318           136.312
        70   03 Jun 2027 10:34:18.406   03 Jun 2027 10:34:20.529             2.123           554.469
        71   03 Jun 2027 10:34:27.007   03 Jun 2027 10:34:29.694             2.687           202.437
        72   03 Jun 2027 10:34:34.773   03 Jun 2027 10:34:35.323             0.550            16.469
        73   03 Jun 2027 10:34:35.428   03 Jun 2027 10:34:35.845             0.417             3.281
        74   04 Jun 2027 04:29:12.913   04 Jun 2027 04:29:38.070            25.157         12578.500
        75   04 Jun 2027 04:29:59.892   04 Jun 2027 04:31:35.480            95.588         47794.000
        76   04 Jun 2027 04:32:43.923   04 Jun 2027 04:32:52.751             8.828          4414.000
        77   04 Jun 2027 05:52:33.508   04 Jun 2027 05:53:43.335            69.827         34913.500
        78   04 Jun 2027 07:29:04.038   04 Jun 2027 07:30:57.484           113.446         56309.938
        79   04 Jun 2027 07:31:42.640   04 Jun 2027 07:31:42.640             0.000             0.000
        80   04 Jun 2027 07:31:56.405   04 Jun 2027 07:32:02.880             6.475          1393.875
        81   04 Jun 2027 09:04:14.134   04 Jun 2027 09:04:23.191             9.057          4158.594
        82   04 Jun 2027 09:04:35.125   04 Jun 2027 09:04:35.960             0.835           365.438
        83   04 Jun 2027 09:05:44.933   04 Jun 2027 09:05:46.555             1.622           391.844
        84   04 Jun 2027 09:07:13.221   04 Jun 2027 09:07:13.221             0.000             0.000
        85   04 Jun 2027 09:07:32.643   04 Jun 2027 09:07:36.614             3.971          1857.906
        86   04 Jun 2027 09:08:09.642   04 Jun 2027 09:08:12.380             2.738          1032.125
        87   04 Jun 2027 09:09:32.848   04 Jun 2027 09:09:37.154             4.306          1061.344
        88   04 Jun 2027 09:10:10.963   04 Jun 2027 09:10:12.998             2.035           903.719
        89   04 Jun 2027 09:10:42.074   04 Jun 2027 09:10:43.949             1.875           601.437
        90   04 Jun 2027 10:40:36.281   04 Jun 2027 10:40:47.521            11.240          5225.937
        91   04 Jun 2027 10:41:42.452   04 Jun 2027 10:41:43.994             1.542            65.094
        92   04 Jun 2027 10:42:26.713   04 Jun 2027 10:42:31.074             4.361          1065.094
        93   04 Jun 2027 10:42:36.875   04 Jun 2027 10:42:38.648             1.773           144.063
        94   04 Jun 2027 10:42:45.553   04 Jun 2027 10:42:47.109             1.556           196.969
        95   04 Jun 2027 10:42:49.832   04 Jun 2027 10:42:50.471             0.639            85.094
        96   04 Jun 2027 10:44:33.681   04 Jun 2027 10:44:40.619             6.938          2587.063
        97   04 Jun 2027 10:45:51.311   04 Jun 2027 10:45:54.177             2.866          1221.344
        98   04 Jun 2027 10:46:46.605   04 Jun 2027 10:46:49.652             3.047          1523.500
        99   05 Jun 2027 03:02:56.338   05 Jun 2027 03:03:12.595            16.257          8128.500
       100   05 Jun 2027 03:03:24.621   05 Jun 2027 03:03:36.192            11.571          5785.500
       101   05 Jun 2027 03:03:58.907   05 Jun 2027 03:04:28.540            29.633         14816.500
       102   05 Jun 2027 03:05:14.711   05 Jun 2027 03:05:16.008             1.297           648.500
       103   05 Jun 2027 03:05:49.201   05 Jun 2027 03:05:49.236             0.035            17.500
       104   05 Jun 2027 03:06:14.169   05 Jun 2027 03:06:14.910             0.741           370.500
       105   05 Jun 2027 03:06:35.410   05 Jun 2027 03:06:38.534             3.124          1562.000
       106   05 Jun 2027 03:06:50.872   05 Jun 2027 03:06:55.440             4.568          2284.000
       107   05 Jun 2027 03:08:57.184   05 Jun 2027 03:08:59.491             2.307          1153.500
       108   05 Jun 2027 04:41:07.656   05 Jun 2027 04:41:45.333            37.677         18838.500
       109   05 Jun 2027 04:42:15.245   05 Jun 2027 04:44:30.975           135.730         67865.000
       110   05 Jun 2027 06:05:13.506   05 Jun 2027 06:06:00.557            47.051         23525.500
       111   05 Jun 2027 06:06:28.126   05 Jun 2027 06:07:05.864            37.738         18424.813
       112   05 Jun 2027 07:40:59.105   05 Jun 2027 07:41:10.852            11.747          4673.687
       113   05 Jun 2027 07:41:46.710   05 Jun 2027 07:41:57.930            11.220           726.063
       114   05 Jun 2027 07:42:30.284   05 Jun 2027 07:42:37.133             6.849           720.719
       115   05 Jun 2027 07:43:05.119   05 Jun 2027 07:43:08.044             2.925           769.375
       116   05 Jun 2027 07:43:28.989   05 Jun 2027 07:43:28.989             0.000             0.000
       117   05 Jun 2027 07:43:33.754   05 Jun 2027 07:43:37.723             3.969           378.063
       118   05 Jun 2027 07:43:58.339   05 Jun 2027 07:43:58.339             0.000             0.000
       119   05 Jun 2027 07:44:22.525   05 Jun 2027 07:44:25.838             3.313          1296.688
       120   05 Jun 2027 09:15:56.343   05 Jun 2027 09:16:07.165            10.822          4776.313
       121   05 Jun 2027 09:16:21.716   05 Jun 2027 09:16:23.057             1.341            62.094
       122   05 Jun 2027 09:18:58.611   05 Jun 2027 09:19:04.702             6.091          2267.469
       123   05 Jun 2027 09:19:35.144   05 Jun 2027 09:19:37.119             1.975           811.063
       124   05 Jun 2027 09:21:30.275   05 Jun 2027 09:21:35.612             5.337          2441.406
       125   05 Jun 2027 09:22:38.919   05 Jun 2027 09:22:47.186             8.267          1941.344
       126   05 Jun 2027 09:22:54.812   05 Jun 2027 09:22:57.980             3.168            81.188
       127   05 Jun 2027 10:52:08.869   05 Jun 2027 10:52:20.980            12.111          5130.281
       128   05 Jun 2027 10:54:39.370   05 Jun 2027 10:54:42.106             2.736           554.531
       129   05 Jun 2027 10:55:11.795   05 Jun 2027 10:55:14.222             2.427           927.781
       130   05 Jun 2027 10:55:19.112   05 Jun 2027 10:55:21.052             1.940           152.813
       131   05 Jun 2027 10:56:15.539   05 Jun 2027 10:56:23.237             7.698           624.094
       132   05 Jun 2027 10:56:51.912   05 Jun 2027 10:56:54.813             2.901           716.687
       133   05 Jun 2027 10:57:27.682   05 Jun 2027 10:57:33.283             5.601           335.812
       134   05 Jun 2027 10:57:39.598   05 Jun 2027 10:57:42.170             2.572           197.344
       135   05 Jun 2027 10:58:28.322   05 Jun 2027 10:58:32.952             4.630          1222.500
       136   06 Jun 2027 03:16:01.654   06 Jun 2027 03:18:04.155           122.501         61250.500
       137   06 Jun 2027 03:18:35.247   06 Jun 2027 03:19:33.374            58.127         29063.500
       138   06 Jun 2027 03:19:58.690   06 Jun 2027 03:20:05.111             6.421          3210.500
       139   06 Jun 2027 03:22:59.988   06 Jun 2027 03:23:03.102             3.114          1557.000
       140   06 Jun 2027 04:42:00.287   06 Jun 2027 04:42:22.443            22.156         11078.000
       141   06 Jun 2027 04:42:27.616   06 Jun 2027 04:42:40.138            12.522          6261.000
       142   06 Jun 2027 04:53:03.858   06 Jun 2027 04:54:40.117            96.259         47769.749
       143   06 Jun 2027 04:54:59.836   06 Jun 2027 04:55:01.737             1.901           251.687
       144   06 Jun 2027 06:16:02.698   06 Jun 2027 06:16:13.455            10.757          5114.656
       145   06 Jun 2027 06:16:52.446   06 Jun 2027 06:16:57.014             4.568          1218.469
       146   06 Jun 2027 06:17:27.401   06 Jun 2027 06:17:30.289             2.888           755.906
       147   06 Jun 2027 06:17:41.837   06 Jun 2027 06:17:43.441             1.604           278.094
       148   06 Jun 2027 06:18:14.711   06 Jun 2027 06:18:14.711             0.000             0.000
       149   06 Jun 2027 06:18:42.270   06 Jun 2027 06:18:47.086             4.816          1690.281
       150   06 Jun 2027 07:51:34.935   06 Jun 2027 07:51:40.557             5.622          2679.938
       151   06 Jun 2027 07:52:45.078   06 Jun 2027 07:52:48.568             3.490          1204.781
       152   06 Jun 2027 07:54:10.194   06 Jun 2027 07:54:16.741             6.547          2164.719
       153   06 Jun 2027 07:54:28.145   06 Jun 2027 07:54:29.391             1.246            71.625
       154   06 Jun 2027 07:55:11.291   06 Jun 2027 07:55:13.558             2.267           301.344
       155   06 Jun 2027 07:55:32.386   06 Jun 2027 07:55:32.763             0.377            97.906
       156   06 Jun 2027 07:56:08.064   06 Jun 2027 07:56:16.256             8.192          1036.906
       157   06 Jun 2027 07:56:59.787   06 Jun 2027 07:57:03.215             3.428          1160.812
       158   06 Jun 2027 09:27:30.060   06 Jun 2027 09:27:33.491             3.431          1715.500
       159   06 Jun 2027 09:28:02.963   06 Jun 2027 09:28:10.286             7.323          2213.344
       160   06 Jun 2027 09:28:22.023   06 Jun 2027 09:28:22.262             0.239           113.031
       161   06 Jun 2027 09:30:30.756   06 Jun 2027 09:30:34.764             4.008          1382.563
       162   06 Jun 2027 09:31:03.646   06 Jun 2027 09:31:03.646             0.000             0.000
       163   06 Jun 2027 09:31:21.739   06 Jun 2027 09:31:22.973             1.234           570.687
       164   06 Jun 2027 09:32:17.223   06 Jun 2027 09:32:21.523             4.300          1244.812
       165   06 Jun 2027 09:33:03.468   06 Jun 2027 09:33:07.111             3.643           160.125
       166   06 Jun 2027 09:33:24.239   06 Jun 2027 09:33:25.281             1.042           269.531
       167   06 Jun 2027 09:33:25.724   06 Jun 2027 09:33:26.230             0.506            13.844
       168   06 Jun 2027 09:34:24.987   06 Jun 2027 09:34:35.452            10.465          1805.000
       169   06 Jun 2027 09:34:59.907   06 Jun 2027 09:35:02.740             2.833           449.375
       170   06 Jun 2027 11:04:30.851   06 Jun 2027 11:04:43.564            12.713          4763.281
       171   06 Jun 2027 11:06:15.217   06 Jun 2027 11:06:16.154             0.937            35.219
       172   06 Jun 2027 11:07:16.777   06 Jun 2027 11:07:19.714             2.937           832.000
       173   06 Jun 2027 11:08:22.646   06 Jun 2027 11:08:26.612             3.966           439.906
       174   06 Jun 2027 11:08:43.977   06 Jun 2027 11:08:45.008             1.031           471.469
       175   06 Jun 2027 11:09:25.213   06 Jun 2027 11:09:27.440             2.227           690.656
       176   06 Jun 2027 11:09:50.615   06 Jun 2027 11:09:51.727             1.112           200.562
       177   06 Jun 2027 11:10:35.010   06 Jun 2027 11:10:37.234             2.224           111.906
       178   07 Jun 2027 03:28:26.014   07 Jun 2027 03:31:01.838           155.824         77912.000
       179   07 Jun 2027 03:31:55.620   07 Jun 2027 03:32:03.754             8.134          4067.000
       180   07 Jun 2027 03:32:12.716   07 Jun 2027 03:32:27.399            14.683          7341.500
       181   07 Jun 2027 03:32:40.204   07 Jun 2027 03:33:48.030            67.826         33913.000
       182   07 Jun 2027 03:35:15.286   07 Jun 2027 03:35:18.553             3.267          1633.500
       183   07 Jun 2027 04:53:23.456   07 Jun 2027 04:53:30.420             6.964          3482.000
       184   07 Jun 2027 04:54:03.162   07 Jun 2027 04:54:04.347             1.185           592.500
       185   07 Jun 2027 04:54:22.799   07 Jun 2027 04:54:34.612            11.813          5906.500
       186   07 Jun 2027 05:05:05.902   07 Jun 2027 05:06:12.187            66.285         33074.781
       187   07 Jun 2027 06:27:18.957   07 Jun 2027 06:27:28.515             9.558          3652.406
       188   07 Jun 2027 06:27:49.801   07 Jun 2027 06:27:50.792             0.991           442.094
       189   07 Jun 2027 06:28:15.029   07 Jun 2027 06:28:16.216             1.187           584.625
       190   07 Jun 2027 06:29:47.802   07 Jun 2027 06:29:52.066             4.264          1285.500
       191   07 Jun 2027 06:31:25.037   07 Jun 2027 06:31:27.726             2.689          1344.500
       192   07 Jun 2027 06:31:58.796   07 Jun 2027 06:32:04.443             5.647          2147.438
       193   07 Jun 2027 08:02:26.615   07 Jun 2027 08:02:32.338             5.723          2576.969
       194   07 Jun 2027 08:03:37.010   07 Jun 2027 08:03:41.800             4.790          1335.031
       195   07 Jun 2027 08:04:46.182   07 Jun 2027 08:04:46.710             0.528           264.000
       196   07 Jun 2027 08:06:11.031   07 Jun 2027 08:06:21.877            10.846          3783.875
       197   07 Jun 2027 08:06:30.153   07 Jun 2027 08:06:38.906             8.753           199.500
       198   07 Jun 2027 08:07:34.827   07 Jun 2027 08:07:37.875             3.048          1263.125
       199   07 Jun 2027 08:08:02.032   07 Jun 2027 08:08:03.567             1.535           456.219
       200   07 Jun 2027 08:08:38.656   07 Jun 2027 08:08:43.115             4.459           982.812
       201   07 Jun 2027 08:09:04.155   07 Jun 2027 08:09:05.084             0.929           447.250
       202   07 Jun 2027 08:10:24.884   07 Jun 2027 08:10:27.867             2.983           884.406
       203   07 Jun 2027 09:39:39.119   07 Jun 2027 09:39:45.985             6.866          2276.063
       204   07 Jun 2027 09:43:23.485   07 Jun 2027 09:43:29.235             5.750           511.719
       205   07 Jun 2027 09:44:24.972   07 Jun 2027 09:44:28.178             3.206          1425.813
       206   07 Jun 2027 09:44:53.079   07 Jun 2027 09:44:57.985             4.906           778.156
       207   07 Jun 2027 09:45:28.018   07 Jun 2027 09:45:33.818             5.800           896.594
       208   07 Jun 2027 09:45:53.619   07 Jun 2027 09:45:55.010             1.391           224.281
       209   07 Jun 2027 09:46:36.549   07 Jun 2027 09:46:40.233             3.684          1298.094
       210   07 Jun 2027 11:16:36.261   07 Jun 2027 11:16:49.034            12.773          5612.188
       211   07 Jun 2027 11:20:10.716   07 Jun 2027 11:20:15.067             4.351          1696.750
       212   07 Jun 2027 11:20:31.692   07 Jun 2027 11:20:36.165             4.473           464.719
       213   07 Jun 2027 11:21:03.961   07 Jun 2027 11:21:05.476             1.515           502.187
       214   07 Jun 2027 11:22:31.424   07 Jun 2027 11:22:35.874             4.450          2187.125
       215   08 Jun 2027 03:40:42.994   08 Jun 2027 03:43:34.495           171.501         85750.500
       216   08 Jun 2027 03:44:45.645   08 Jun 2027 03:45:02.159            16.514          8257.000
       217   08 Jun 2027 03:47:27.301   08 Jun 2027 03:47:42.371            15.070          7535.000
       218   08 Jun 2027 05:04:50.794   08 Jun 2027 05:05:33.381            42.587         21293.500
       219   08 Jun 2027 05:17:02.758   08 Jun 2027 05:17:41.020            38.262         19131.000
       220   08 Jun 2027 06:39:04.266   08 Jun 2027 06:39:52.831            48.565         22450.500
       221   08 Jun 2027 06:41:07.679   08 Jun 2027 06:41:10.841             3.162          1539.250
       222   08 Jun 2027 06:41:46.850   08 Jun 2027 06:41:46.850             0.000             0.000
       223   08 Jun 2027 06:42:18.418   08 Jun 2027 06:42:23.862             5.444          1937.594
       224   08 Jun 2027 06:42:52.996   08 Jun 2027 06:42:53.980             0.984           105.687
       225   08 Jun 2027 06:43:30.652   08 Jun 2027 06:43:31.602             0.950           231.000
       226   08 Jun 2027 06:43:41.605   08 Jun 2027 06:43:44.824             3.219            42.875
       227   08 Jun 2027 08:13:56.170   08 Jun 2027 08:14:01.192             5.022          2161.563
       228   08 Jun 2027 08:15:35.350   08 Jun 2027 08:15:40.156             4.806          1569.781
       229   08 Jun 2027 08:15:54.432   08 Jun 2027 08:15:58.830             4.398           425.688
       230   08 Jun 2027 08:16:25.043   08 Jun 2027 08:16:27.455             2.412           819.156
       231   08 Jun 2027 08:18:11.501   08 Jun 2027 08:18:18.395             6.894          2432.375
       232   08 Jun 2027 08:19:35.798   08 Jun 2027 08:19:43.460             7.662          2240.531
       233   08 Jun 2027 08:20:25.625   08 Jun 2027 08:20:25.625             0.000             0.000
       234   08 Jun 2027 08:21:13.904   08 Jun 2027 08:21:19.672             5.768          2193.625
       235   08 Jun 2027 09:51:41.237   08 Jun 2027 09:51:51.485            10.248          4549.156
       236   08 Jun 2027 09:54:34.167   08 Jun 2027 09:54:38.291             4.124          1273.094
       237   08 Jun 2027 09:56:01.638   08 Jun 2027 09:56:04.316             2.678            97.062
       238   08 Jun 2027 09:57:07.125   08 Jun 2027 09:57:09.770             2.645           725.937
       239   08 Jun 2027 09:57:21.942   08 Jun 2027 09:57:24.201             2.259           262.750
       240   08 Jun 2027 09:57:45.037   08 Jun 2027 09:57:50.128             5.091           638.406
       241   08 Jun 2027 09:58:14.442   08 Jun 2027 09:58:16.048             1.606           149.000
       242   08 Jun 2027 09:58:24.615   08 Jun 2027 09:58:28.556             3.941            27.156
       243   08 Jun 2027 09:59:04.523   08 Jun 2027 09:59:06.693             2.170           967.156
       244   08 Jun 2027 11:28:28.993   08 Jun 2027 11:28:42.899            13.906          5925.437
       245   08 Jun 2027 11:28:51.409   08 Jun 2027 11:28:57.799             6.390            53.500
       246   08 Jun 2027 11:31:07.613   08 Jun 2027 11:31:14.562             6.949          1850.375
       247   08 Jun 2027 11:31:54.720   08 Jun 2027 11:32:06.558            11.838          1241.906
       248   08 Jun 2027 11:32:18.826   08 Jun 2027 11:32:21.628             2.802           350.313
       249   08 Jun 2027 11:32:52.181   08 Jun 2027 11:32:54.087             1.906           588.625
       250   08 Jun 2027 11:33:19.681   08 Jun 2027 11:33:26.374             6.693           718.313
       251   08 Jun 2027 11:34:00.105   08 Jun 2027 11:34:05.151             5.046          1054.094
       252   08 Jun 2027 11:34:36.239   08 Jun 2027 11:34:45.141             8.902           675.969
       253   09 Jun 2027 03:52:50.121   09 Jun 2027 03:54:11.286            81.165         40582.500
       254   09 Jun 2027 03:54:45.005   09 Jun 2027 03:55:59.115            74.110         37055.000
       255   09 Jun 2027 03:56:51.185   09 Jun 2027 03:57:21.391            30.206         15103.000
       256   09 Jun 2027 03:57:52.372   09 Jun 2027 03:57:58.704             6.332          3166.000
       257   09 Jun 2027 05:16:54.185   09 Jun 2027 05:17:35.228            41.043         20521.500
       258   09 Jun 2027 06:52:51.343   09 Jun 2027 06:54:42.030           110.687         53020.312
       259   09 Jun 2027 06:56:00.201   09 Jun 2027 06:56:03.954             3.753          1876.500
       260   09 Jun 2027 08:26:41.188   09 Jun 2027 08:26:55.122            13.934          2602.156
       261   09 Jun 2027 08:28:39.970   09 Jun 2027 08:28:46.261             6.291          1189.688
       262   09 Jun 2027 08:29:37.297   09 Jun 2027 08:29:39.910             2.613          1076.875
       263   09 Jun 2027 08:30:26.928   09 Jun 2027 08:30:34.156             7.228           927.344
       264   09 Jun 2027 08:30:35.371   09 Jun 2027 08:30:37.514             2.143            15.938
       265   09 Jun 2027 08:31:47.888   09 Jun 2027 08:31:54.250             6.362           598.719
       266   09 Jun 2027 08:32:06.868   09 Jun 2027 08:32:07.807             0.939            89.125
       267   09 Jun 2027 08:32:40.367   09 Jun 2027 08:32:40.367             0.000             0.000
       268   09 Jun 2027 08:33:08.147   09 Jun 2027 08:33:14.343             6.196          1068.906
       269   09 Jun 2027 08:33:45.533   09 Jun 2027 08:33:52.708             7.175           953.250
       270   09 Jun 2027 10:03:44.413   09 Jun 2027 10:03:55.221            10.808          5170.156
       271   09 Jun 2027 10:06:32.257   09 Jun 2027 10:06:40.143             7.886          3837.781
       272   09 Jun 2027 10:08:20.333   09 Jun 2027 10:08:26.227             5.894          2075.500
       273   09 Jun 2027 10:09:16.570   09 Jun 2027 10:09:18.512             1.942           931.375
       274   09 Jun 2027 10:10:08.672   09 Jun 2027 10:10:13.167             4.495           927.750
       275   09 Jun 2027 10:10:44.504   09 Jun 2027 10:10:46.633             2.129           846.969
       276   09 Jun 2027 10:10:55.241   09 Jun 2027 10:10:57.299             2.058           269.000
       277   09 Jun 2027 11:40:38.798   09 Jun 2027 11:40:49.987            11.189          5437.281
       278   09 Jun 2027 11:41:03.860   09 Jun 2027 11:41:05.119             1.259           395.187
       279   09 Jun 2027 11:41:12.468   09 Jun 2027 11:41:13.726             1.258           227.406
       280   09 Jun 2027 11:43:14.726   09 Jun 2027 11:43:14.952             0.226            76.437
       281   09 Jun 2027 11:43:46.008   09 Jun 2027 11:43:52.094             6.086           494.969
       282   09 Jun 2027 11:44:18.191   09 Jun 2027 11:44:20.445             2.254           224.062
       283   09 Jun 2027 11:44:30.586   09 Jun 2027 11:44:35.172             4.586           265.469
       284   09 Jun 2027 11:45:04.933   09 Jun 2027 11:45:09.793             4.860           930.031
       285   09 Jun 2027 11:45:27.897   09 Jun 2027 11:45:29.086             1.189           470.156
       286   09 Jun 2027 11:46:16.741   09 Jun 2027 11:46:19.638             2.897          1182.562
       287   09 Jun 2027 11:46:35.270   09 Jun 2027 11:46:37.344             2.074           181.437
       288   10 Jun 2027 04:05:24.318   10 Jun 2027 04:08:00.603           156.285         78142.500
       289   10 Jun 2027 04:09:00.653   10 Jun 2027 04:09:08.742             8.089          4044.500
       290   10 Jun 2027 05:28:48.582   10 Jun 2027 05:29:39.106            50.524         25262.000
       291   10 Jun 2027 07:05:09.330   10 Jun 2027 07:07:02.964           113.634         56148.281
       292   10 Jun 2027 07:08:00.363   10 Jun 2027 07:08:09.702             9.339          1720.094
       293   10 Jun 2027 08:38:39.398   10 Jun 2027 08:38:48.621             9.223          2283.125
       294   10 Jun 2027 08:40:54.769   10 Jun 2027 08:41:02.294             7.525           687.594
       295   10 Jun 2027 08:41:41.842   10 Jun 2027 08:41:42.335             0.493           246.500
       296   10 Jun 2027 08:42:10.989   10 Jun 2027 08:42:19.071             8.082          1717.875
       297   10 Jun 2027 08:43:34.352   10 Jun 2027 08:43:38.771             4.419          1938.406
       298   10 Jun 2027 08:44:29.012   10 Jun 2027 08:44:33.563             4.551          1368.375
       299   10 Jun 2027 08:45:46.722   10 Jun 2027 08:45:47.962             1.240           227.250
       300   10 Jun 2027 08:45:50.240   10 Jun 2027 08:45:51.507             1.267            71.188
       301   10 Jun 2027 08:46:37.430   10 Jun 2027 08:46:40.238             2.808          1396.844
       302   10 Jun 2027 10:16:10.511   10 Jun 2027 10:16:19.885             9.374          4676.875
       303   10 Jun 2027 10:19:18.679   10 Jun 2027 10:19:25.967             7.288          1277.656
       304   10 Jun 2027 10:19:54.250   10 Jun 2027 10:19:56.553             2.303           883.844
       305   10 Jun 2027 10:21:18.053   10 Jun 2027 10:21:20.278             2.225           507.188
       306   10 Jun 2027 10:22:26.374   10 Jun 2027 10:22:31.705             5.331          1235.187
       307   10 Jun 2027 10:22:47.720   10 Jun 2027 10:22:48.219             0.499           234.125
       308   10 Jun 2027 11:53:06.338   10 Jun 2027 11:53:28.170            21.832          7091.563
       309   10 Jun 2027 11:55:00.759   10 Jun 2027 11:55:05.439             4.680          1409.250
       310   10 Jun 2027 11:55:20.929   10 Jun 2027 11:55:23.777             2.848           400.406
       311   10 Jun 2027 11:56:03.042   10 Jun 2027 11:56:07.077             4.035            74.500
       312   10 Jun 2027 11:56:27.400   10 Jun 2027 11:56:29.467             2.067           343.594
       313   10 Jun 2027 11:57:13.396   10 Jun 2027 11:57:19.256             5.860            43.281
       314   10 Jun 2027 11:58:26.897   10 Jun 2027 11:58:31.412             4.515          1938.844
       315   10 Jun 2027 11:58:38.701   10 Jun 2027 11:58:40.975             2.274           203.937
       316   11 Jun 2027 04:17:03.070   11 Jun 2027 04:18:13.449            70.379         35189.500
       317   11 Jun 2027 04:18:41.718   11 Jun 2027 04:19:02.842            21.124         10562.000
       318   11 Jun 2027 04:19:56.022   11 Jun 2027 04:20:43.934            47.912         23956.000
       319   11 Jun 2027 05:40:39.520   11 Jun 2027 05:41:33.378            53.858         26929.000
       320   11 Jun 2027 07:17:11.246   11 Jun 2027 07:19:23.718           132.472         66067.094
       321   11 Jun 2027 07:19:47.128   11 Jun 2027 07:19:47.128             0.000             0.000
       322   11 Jun 2027 07:20:31.629   11 Jun 2027 07:20:35.218             3.589          1600.312
       323   11 Jun 2027 08:51:38.822   11 Jun 2027 08:51:44.558             5.736          2585.594
       324   11 Jun 2027 08:53:27.336   11 Jun 2027 08:53:29.723             2.387           836.781
       325   11 Jun 2027 08:54:40.403   11 Jun 2027 08:54:44.365             3.962          1229.125
       326   11 Jun 2027 08:55:32.455   11 Jun 2027 08:55:34.719             2.264           770.250
       327   11 Jun 2027 08:56:13.465   11 Jun 2027 08:56:16.446             2.981           792.344
       328   11 Jun 2027 08:57:47.479   11 Jun 2027 08:57:53.051             5.572          2508.156
       329   11 Jun 2027 08:58:34.775   11 Jun 2027 08:58:37.724             2.949           839.063
       330   11 Jun 2027 08:58:52.245   11 Jun 2027 08:58:55.130             2.885           191.344
       331   11 Jun 2027 10:28:18.536   11 Jun 2027 10:28:27.360             8.824          3587.187
       332   11 Jun 2027 10:33:10.225   11 Jun 2027 10:33:15.264             5.039           813.844
       333   11 Jun 2027 10:33:24.342   11 Jun 2027 10:33:25.394             1.052           283.687
       334   11 Jun 2027 10:33:36.636   11 Jun 2027 10:33:38.419             1.783           244.656
       335   11 Jun 2027 10:34:20.646   11 Jun 2027 10:34:26.176             5.530          1249.375
       336   11 Jun 2027 10:34:35.017   11 Jun 2027 10:34:37.530             2.513           142.688
       337   12 Jun 2027 04:29:27.669   12 Jun 2027 04:29:55.328            27.659         13829.500
       338   12 Jun 2027 04:30:15.931   12 Jun 2027 04:32:01.330           105.399         52699.500
       339   12 Jun 2027 04:33:01.724   12 Jun 2027 04:33:18.854            17.130          8565.000
       340   12 Jun 2027 05:52:49.711   12 Jun 2027 05:53:16.210            26.499         13249.500
       341   12 Jun 2027 05:54:59.722   12 Jun 2027 05:55:39.240            39.518         19759.000
       342   12 Jun 2027 07:29:20.924   12 Jun 2027 07:30:54.118            93.194         46569.406
       343   12 Jun 2027 07:31:01.062   12 Jun 2027 07:31:04.648             3.586            83.062
       344   12 Jun 2027 07:31:48.929   12 Jun 2027 07:31:53.437             4.508          1383.781
       345   12 Jun 2027 07:32:14.494   12 Jun 2027 07:32:14.494             0.000             0.000
       346   12 Jun 2027 07:32:52.675   12 Jun 2027 07:32:55.390             2.715          1357.500
       347   12 Jun 2027 09:04:30.428   12 Jun 2027 09:04:38.920             8.492          3329.719
       348   12 Jun 2027 09:04:50.541   12 Jun 2027 09:04:51.569             1.028           301.594
       349   12 Jun 2027 09:06:02.466   12 Jun 2027 09:06:05.469             3.003           375.250
       350   12 Jun 2027 09:07:29.568   12 Jun 2027 09:07:32.764             3.196          1196.719
       351   12 Jun 2027 09:07:51.211   12 Jun 2027 09:07:53.248             2.037            12.813
       352   12 Jun 2027 09:09:47.729   12 Jun 2027 09:09:52.986             5.257          2508.781
       353   12 Jun 2027 09:11:05.521   12 Jun 2027 09:11:07.340             1.819           909.500
       354   12 Jun 2027 10:40:53.480   12 Jun 2027 10:41:03.602            10.122          4802.719
       355   12 Jun 2027 10:42:07.268   12 Jun 2027 10:42:13.192             5.924          1122.250
       356   12 Jun 2027 10:42:48.520   12 Jun 2027 10:42:49.665             1.145            80.594
       357   12 Jun 2027 10:43:31.329   12 Jun 2027 10:43:40.277             8.948          1182.781
       358   12 Jun 2027 10:44:53.674   12 Jun 2027 10:44:56.848             3.174           986.000
       359   12 Jun 2027 10:45:34.712   12 Jun 2027 10:45:42.683             7.971           812.281
       360   12 Jun 2027 10:46:22.481   12 Jun 2027 10:46:26.555             4.074           845.437
       361   12 Jun 2027 10:46:34.255   12 Jun 2027 10:46:35.757             1.502           101.094
       362   12 Jun 2027 10:46:38.678   12 Jun 2027 10:46:39.206             0.528            72.250
       363   13 Jun 2027 03:03:12.725   13 Jun 2027 03:03:26.770            14.045          7022.500
       364   13 Jun 2027 03:04:15.092   13 Jun 2027 03:04:49.908            34.816         17408.000
       365   13 Jun 2027 03:06:13.950   13 Jun 2027 03:06:24.934            10.984          5492.000
       366   13 Jun 2027 03:07:56.617   13 Jun 2027 03:08:11.355            14.738          7369.000
       367   13 Jun 2027 03:11:20.907   13 Jun 2027 03:12:05.981            45.074         22537.000
       368   13 Jun 2027 04:41:23.805   13 Jun 2027 04:42:01.884            38.079         19039.500
       369   13 Jun 2027 04:42:31.169   13 Jun 2027 04:43:46.114            74.945         37472.500
       370   13 Jun 2027 04:44:40.686   13 Jun 2027 04:44:52.901            12.215          6107.500
       371   13 Jun 2027 06:05:29.628   13 Jun 2027 06:07:13.703           104.075         50448.375
       372   13 Jun 2027 07:41:14.858   13 Jun 2027 07:41:26.400            11.542          5060.375
       373   13 Jun 2027 07:42:04.402   13 Jun 2027 07:42:14.144             9.742           781.000
       374   13 Jun 2027 07:42:47.032   13 Jun 2027 07:42:52.416             5.384           741.844
       375   13 Jun 2027 07:43:21.687   13 Jun 2027 07:43:24.451             2.764           821.906
       376   13 Jun 2027 07:43:50.406   13 Jun 2027 07:43:53.725             3.319           387.656
       377   13 Jun 2027 07:44:37.346   13 Jun 2027 07:44:40.243             2.897          1246.656
       378   13 Jun 2027 09:16:12.497   13 Jun 2027 09:16:17.285             4.788          2280.625
       379   13 Jun 2027 09:18:03.454   13 Jun 2027 09:18:12.080             8.626          2703.969
       380   13 Jun 2027 09:19:05.089   13 Jun 2027 09:19:11.076             5.987           783.219
       381   13 Jun 2027 09:19:25.450   13 Jun 2027 09:19:26.606             1.156           299.844
       382   13 Jun 2027 09:20:30.180   13 Jun 2027 09:20:32.644             2.464          1153.281
       383   13 Jun 2027 09:20:43.739   13 Jun 2027 09:20:46.822             3.083           276.937
       384   13 Jun 2027 09:20:53.396   13 Jun 2027 09:20:56.384             2.988           190.875
       385   13 Jun 2027 09:21:46.874   13 Jun 2027 09:21:49.248             2.374           922.219
       386   13 Jun 2027 09:22:54.592   13 Jun 2027 09:23:00.069             5.477          1943.031
       387   13 Jun 2027 09:23:11.390   13 Jun 2027 09:23:14.793             3.403           134.781
       388   13 Jun 2027 10:52:25.389   13 Jun 2027 10:52:36.748            11.359          5149.219
       389   13 Jun 2027 10:54:58.386   13 Jun 2027 10:54:59.365             0.979           489.500
       390   13 Jun 2027 10:55:19.395   13 Jun 2027 10:55:27.145             7.750           769.969
       391   13 Jun 2027 10:55:29.000   13 Jun 2027 10:55:32.790             3.790            44.219
       392   13 Jun 2027 10:56:46.955   13 Jun 2027 10:56:54.893             7.938          2111.563
       393   13 Jun 2027 10:57:49.100   13 Jun 2027 10:57:53.867             4.767          1645.406
       394   13 Jun 2027 10:58:04.456   13 Jun 2027 10:58:07.130             2.674           330.906
