uniorb/output/strategy_4/Camera/Camera_KinoSat_111809.txt

KinoSat_111809
-------------------------
    Access    *     Start Time (UTCG)     *     Stop Time (UTCG)  *   Duration (s) *   Data (Mbytes)
         1   01 Jun 2027 04:04:20.417   01 Jun 2027 04:05:14.251            53.834         26917.000
         2   01 Jun 2027 04:05:23.607   01 Jun 2027 04:06:05.323            41.716         20858.000
         3   01 Jun 2027 04:06:05.879   01 Jun 2027 04:06:50.988            45.109         22554.500
         4   01 Jun 2027 04:07:16.458   01 Jun 2027 04:07:19.259             2.801          1400.500
         5   01 Jun 2027 04:07:52.285   01 Jun 2027 04:07:54.607             2.322          1161.000
         6   01 Jun 2027 05:42:45.655   01 Jun 2027 05:44:28.535           102.880         51440.000
         7   01 Jun 2027 05:45:41.945   01 Jun 2027 05:46:02.863            20.918         10459.000
         8   01 Jun 2027 05:46:36.279   01 Jun 2027 05:46:36.279             0.000             0.000
         9   01 Jun 2027 07:06:12.172   01 Jun 2027 07:07:45.395            93.223         46611.500
        10   01 Jun 2027 07:07:52.272   01 Jun 2027 07:08:11.282            19.010          9505.000
        11   01 Jun 2027 08:42:25.380   01 Jun 2027 08:44:27.937           122.557         61278.500
        12   01 Jun 2027 10:15:58.575   01 Jun 2027 10:17:37.753            99.178         49589.000
        13   01 Jun 2027 10:20:49.776   01 Jun 2027 10:21:47.017            57.241         28620.500
        14   01 Jun 2027 10:23:33.821   01 Jun 2027 10:23:50.913            17.092          8546.000
        15   01 Jun 2027 10:24:11.245   01 Jun 2027 10:24:24.652            13.407          6703.500
        16   01 Jun 2027 11:53:31.096   01 Jun 2027 11:55:23.936           112.840         56420.000
        17   01 Jun 2027 11:57:32.669   01 Jun 2027 11:57:39.896             7.227          3613.500
        18   02 Jun 2027 04:16:21.356   02 Jun 2027 04:16:49.491            28.135         14067.500
        19   02 Jun 2027 04:16:51.841   02 Jun 2027 04:18:35.069           103.228         51614.000
        20   02 Jun 2027 05:54:24.338   02 Jun 2027 05:55:21.500            57.162         28581.000
        21   02 Jun 2027 05:55:59.286   02 Jun 2027 05:58:58.193           178.907         89453.500
        22   02 Jun 2027 07:18:03.450   02 Jun 2027 07:19:25.558            82.108         41054.000
        23   02 Jun 2027 07:19:45.848   02 Jun 2027 07:20:02.190            16.342          8171.000
        24   02 Jun 2027 08:54:30.610   02 Jun 2027 08:57:15.532           164.922         82461.000
        25   02 Jun 2027 10:26:39.057   02 Jun 2027 10:26:48.952             9.895          4947.500
        26   02 Jun 2027 10:28:37.626   02 Jun 2027 10:30:17.169            99.543         49662.999
        27   02 Jun 2027 10:31:58.445   02 Jun 2027 10:32:08.719            10.274          2864.375
        28   02 Jun 2027 10:32:31.513   02 Jun 2027 10:32:33.215             1.702           712.313
        29   02 Jun 2027 10:35:25.097   02 Jun 2027 10:35:25.269             0.172            86.000
        30   02 Jun 2027 10:35:28.646   02 Jun 2027 10:35:39.571            10.925          4811.719
        31   02 Jun 2027 10:36:02.049   02 Jun 2027 10:36:06.074             4.025           450.750
        32   02 Jun 2027 10:36:18.704   02 Jun 2027 10:36:19.469             0.765           342.437
        33   03 Jun 2027 04:28:29.551   03 Jun 2027 04:29:29.928            60.377         30188.500
        34   03 Jun 2027 04:29:38.595   03 Jun 2027 04:29:50.989            12.394          6197.000
        35   03 Jun 2027 04:30:20.761   03 Jun 2027 04:31:18.344            57.583         28791.500
        36   03 Jun 2027 04:31:20.048   03 Jun 2027 04:31:21.197             1.149           574.500
        37   03 Jun 2027 04:31:42.980   03 Jun 2027 04:31:51.183             8.203          4101.500
        38   03 Jun 2027 04:33:19.886   03 Jun 2027 04:33:25.321             5.435          2717.500
        39   03 Jun 2027 04:34:41.080   03 Jun 2027 04:34:48.939             7.859          3929.500
        40   03 Jun 2027 06:07:37.786   03 Jun 2027 06:10:31.295           173.509         86094.844
        41   03 Jun 2027 07:30:11.907   03 Jun 2027 07:30:22.479            10.572          5220.531
        42   03 Jun 2027 07:31:04.519   03 Jun 2027 07:31:07.423             2.904           758.219
        43   03 Jun 2027 07:31:08.570   03 Jun 2027 07:31:08.570             0.000             0.000
        44   03 Jun 2027 07:31:41.715   03 Jun 2027 07:31:44.111             2.396          1064.312
        45   03 Jun 2027 07:32:50.171   03 Jun 2027 07:32:53.125             2.954          1477.000
        46   03 Jun 2027 09:06:40.744   03 Jun 2027 09:06:50.818            10.074          3173.969
        47   03 Jun 2027 09:07:42.074   03 Jun 2027 09:07:47.364             5.290          1312.719
        48   03 Jun 2027 09:09:10.017   03 Jun 2027 09:09:17.828             7.811          2558.406
        49   03 Jun 2027 10:42:17.276   03 Jun 2027 10:42:17.276             0.000             0.000
        50   03 Jun 2027 10:42:58.022   03 Jun 2027 10:43:11.148            13.126          6044.281
        51   03 Jun 2027 10:44:46.025   03 Jun 2027 10:44:46.025             0.000             0.000
        52   03 Jun 2027 10:45:19.500   03 Jun 2027 10:45:27.994             8.494          4003.750
        53   03 Jun 2027 10:46:23.925   03 Jun 2027 10:46:26.617             2.692          1344.875
        54   03 Jun 2027 10:47:06.045   03 Jun 2027 10:47:08.851             2.806           886.000
        55   03 Jun 2027 10:47:29.011   03 Jun 2027 10:47:29.865             0.854           110.062
        56   03 Jun 2027 10:47:54.778   03 Jun 2027 10:47:57.685             2.907            44.344
        57   03 Jun 2027 10:48:21.614   03 Jun 2027 10:48:23.149             1.535           747.781
        58   03 Jun 2027 10:48:30.515   03 Jun 2027 10:48:31.339             0.824           221.281
        59   04 Jun 2027 03:02:17.770   04 Jun 2027 03:02:25.262             7.492          3746.000
        60   04 Jun 2027 03:02:34.616   04 Jun 2027 03:02:48.618            14.002          7001.000
        61   04 Jun 2027 03:03:00.490   04 Jun 2027 03:03:10.915            10.425          5212.500
        62   04 Jun 2027 03:03:21.586   04 Jun 2027 03:03:29.389             7.803          3901.500
        63   04 Jun 2027 03:03:58.277   04 Jun 2027 03:03:58.911             0.634           317.000
        64   04 Jun 2027 03:04:32.727   04 Jun 2027 03:04:42.775            10.048          5024.000
        65   04 Jun 2027 03:05:12.984   04 Jun 2027 03:05:29.983            16.999          8499.500
        66   04 Jun 2027 03:05:55.364   04 Jun 2027 03:05:58.120             2.756          1378.000
        67   04 Jun 2027 03:06:49.701   04 Jun 2027 03:06:49.701             0.000             0.000
        68   04 Jun 2027 03:07:51.113   04 Jun 2027 03:07:56.752             5.639          2819.500
        69   04 Jun 2027 03:08:52.359   04 Jun 2027 03:09:07.292            14.933          7466.500
        70   04 Jun 2027 04:40:34.332   04 Jun 2027 04:40:49.796            15.464          7732.000
        71   04 Jun 2027 04:41:36.910   04 Jun 2027 04:45:06.360           209.450        104470.656
        72   04 Jun 2027 04:45:57.372   04 Jun 2027 04:46:00.496             3.124          1195.375
        73   04 Jun 2027 04:48:50.234   04 Jun 2027 04:49:03.321            13.087          4833.531
        74   04 Jun 2027 06:18:45.686   04 Jun 2027 06:19:06.126            20.440          9325.344
        75   04 Jun 2027 06:20:46.584   04 Jun 2027 06:20:49.342             2.758           578.563
        76   04 Jun 2027 06:21:54.032   04 Jun 2027 06:21:54.892             0.860           346.031
        77   04 Jun 2027 07:42:54.636   04 Jun 2027 07:43:08.495            13.859          3332.813
        78   04 Jun 2027 07:44:49.210   04 Jun 2027 07:44:58.220             9.010          2495.469
        79   04 Jun 2027 09:18:38.855   04 Jun 2027 09:18:50.819            11.964          2390.375
        80   04 Jun 2027 09:20:08.212   04 Jun 2027 09:20:13.392             5.180          2340.563
        81   04 Jun 2027 09:20:42.844   04 Jun 2027 09:20:47.914             5.070           494.719
        82   04 Jun 2027 09:21:48.727   04 Jun 2027 09:21:52.659             3.932          1364.312
        83   04 Jun 2027 10:53:42.566   04 Jun 2027 10:54:01.042            18.476          5253.562
        84   04 Jun 2027 10:55:24.201   04 Jun 2027 10:55:30.605             6.404          2497.188
        85   04 Jun 2027 10:56:46.899   04 Jun 2027 10:56:46.899             0.000             0.000
        86   04 Jun 2027 10:56:58.063   04 Jun 2027 10:57:10.255            12.192          1801.219
        87   04 Jun 2027 10:57:44.354   04 Jun 2027 10:57:45.843             1.489           513.062
        88   04 Jun 2027 10:58:08.846   04 Jun 2027 10:58:11.047             2.201           680.000
        89   04 Jun 2027 10:59:16.699   04 Jun 2027 10:59:22.453             5.754           968.406
        90   04 Jun 2027 10:59:53.899   04 Jun 2027 10:59:57.051             3.152           713.687
        91   04 Jun 2027 11:00:18.253   04 Jun 2027 11:00:20.054             1.801           343.906
        92   05 Jun 2027 03:14:47.752   05 Jun 2027 03:16:39.541           111.789         55894.500
        93   05 Jun 2027 03:17:39.242   05 Jun 2027 03:17:44.570             5.328          2664.000
        94   05 Jun 2027 03:18:43.930   05 Jun 2027 03:18:59.972            16.042          8021.000
        95   05 Jun 2027 03:19:34.477   05 Jun 2027 03:19:47.387            12.910          6455.000
        96   05 Jun 2027 03:20:40.350   05 Jun 2027 03:20:50.765            10.415          5207.500
        97   05 Jun 2027 04:53:39.846   05 Jun 2027 04:55:50.917           131.071         65535.500
        98   05 Jun 2027 04:56:58.329   05 Jun 2027 04:57:12.568            14.239          6619.906
        99   05 Jun 2027 05:00:16.560   05 Jun 2027 05:00:27.498            10.938          5146.625
       100   05 Jun 2027 06:19:44.023   05 Jun 2027 06:19:54.078            10.055          4756.406
       101   05 Jun 2027 06:20:14.455   05 Jun 2027 06:20:15.431             0.976           243.406
       102   05 Jun 2027 06:30:42.029   05 Jun 2027 06:30:47.213             5.184          1798.844
       103   05 Jun 2027 06:30:52.195   05 Jun 2027 06:30:54.727             2.532           155.687
       104   05 Jun 2027 06:31:43.536   05 Jun 2027 06:31:48.497             4.961          1525.281
       105   05 Jun 2027 07:54:01.101   05 Jun 2027 07:54:14.725            13.624          6324.375
       106   05 Jun 2027 07:55:29.699   05 Jun 2027 07:55:35.934             6.235          2117.906
       107   05 Jun 2027 07:56:50.855   05 Jun 2027 07:56:59.394             8.539          2196.344
       108   05 Jun 2027 09:30:23.629   05 Jun 2027 09:30:37.578            13.949          3489.156
       109   05 Jun 2027 09:31:59.504   05 Jun 2027 09:32:04.179             4.675          1739.625
       110   05 Jun 2027 09:33:59.965   05 Jun 2027 09:34:05.503             5.538          1670.656
       111   05 Jun 2027 11:05:46.071   05 Jun 2027 11:05:59.117            13.046          4810.719
       112   05 Jun 2027 11:07:54.633   05 Jun 2027 11:07:59.161             4.528           622.250
       113   05 Jun 2027 11:12:03.088   05 Jun 2027 11:12:16.815            13.727          6421.156
       114   05 Jun 2027 11:12:19.744   05 Jun 2027 11:12:21.599             1.855            91.531
       115   06 Jun 2027 03:27:02.581   06 Jun 2027 03:30:19.269           196.688         98344.000
       116   06 Jun 2027 03:31:37.139   06 Jun 2027 03:32:00.200            23.061         11530.500
       117   06 Jun 2027 03:32:46.683   06 Jun 2027 03:32:46.683             0.000             0.000
       118   06 Jun 2027 05:06:05.855   06 Jun 2027 05:07:06.661            60.806         30403.000
       119   06 Jun 2027 05:08:22.180   06 Jun 2027 05:09:02.851            40.671         19207.219
       120   06 Jun 2027 05:11:10.259   06 Jun 2027 05:11:20.187             9.928          3803.156
       121   06 Jun 2027 05:11:35.466   06 Jun 2027 05:11:37.024             1.558           265.187
       122   06 Jun 2027 05:12:07.183   06 Jun 2027 05:12:10.497             3.314           861.281
       123   06 Jun 2027 06:31:03.359   06 Jun 2027 06:31:14.170            10.811          4895.719
       124   06 Jun 2027 06:31:50.392   06 Jun 2027 06:31:52.778             2.386           361.469
       125   06 Jun 2027 06:42:44.302   06 Jun 2027 06:42:54.122             9.820          3348.719
       126   06 Jun 2027 08:04:59.224   06 Jun 2027 08:05:09.248            10.024          4789.750
       127   06 Jun 2027 08:05:25.750   06 Jun 2027 08:05:27.158             1.408           497.687
       128   06 Jun 2027 08:06:56.941   06 Jun 2027 08:07:01.745             4.804          1765.750
       129   06 Jun 2027 08:07:43.712   06 Jun 2027 08:07:51.198             7.486           868.562
       130   06 Jun 2027 08:09:30.708   06 Jun 2027 08:09:35.023             4.315          1706.719
       131   06 Jun 2027 08:09:58.623   06 Jun 2027 08:10:00.986             2.363           151.531
       132   06 Jun 2027 09:40:10.919   06 Jun 2027 09:40:14.924             4.005          1944.656
       133   06 Jun 2027 09:43:02.189   06 Jun 2027 09:43:11.283             9.094          2025.906
       134   06 Jun 2027 09:45:07.528   06 Jun 2027 09:45:12.804             5.276          2575.688
       135   06 Jun 2027 09:46:01.628   06 Jun 2027 09:46:06.874             5.246           831.281
       136   06 Jun 2027 09:46:18.313   06 Jun 2027 09:46:19.668             1.355           129.563
       137   06 Jun 2027 11:17:16.650   06 Jun 2027 11:17:18.741             2.091          1045.500
       138   06 Jun 2027 11:20:14.934   06 Jun 2027 11:20:29.943            15.009          6907.375
       139   06 Jun 2027 11:22:20.562   06 Jun 2027 11:22:29.124             8.562          3428.188
       140   06 Jun 2027 11:22:37.305   06 Jun 2027 11:22:39.268             1.963           163.656
       141   06 Jun 2027 11:23:26.552   06 Jun 2027 11:23:29.908             3.356          1323.250
       142   06 Jun 2027 11:23:55.852   06 Jun 2027 11:23:59.607             3.755           644.438
       143   07 Jun 2027 03:39:20.384   07 Jun 2027 03:42:36.756           196.372         98186.000
       144   07 Jun 2027 03:43:26.343   07 Jun 2027 03:43:33.810             7.467          3733.500
       145   07 Jun 2027 03:44:07.924   07 Jun 2027 03:44:29.050            21.126         10563.000
       146   07 Jun 2027 03:45:00.858   07 Jun 2027 03:45:04.413             3.555          1777.500
       147   07 Jun 2027 05:18:21.122   07 Jun 2027 05:19:49.507            88.385         42530.031
       148   07 Jun 2027 05:21:41.630   07 Jun 2027 05:21:46.021             4.391          2195.500
       149   07 Jun 2027 05:22:43.909   07 Jun 2027 05:22:49.142             5.233          2242.688
       150   07 Jun 2027 05:23:29.411   07 Jun 2027 05:23:32.180             2.769          1010.594
       151   07 Jun 2027 05:24:26.785   07 Jun 2027 05:24:31.984             5.199          1221.188
       152   07 Jun 2027 05:25:06.762   07 Jun 2027 05:25:09.957             3.195           409.844
       153   07 Jun 2027 06:42:27.518   07 Jun 2027 06:42:38.367            10.849          5222.875
       154   07 Jun 2027 06:43:40.539   07 Jun 2027 06:43:44.722             4.183          1886.750
       155   07 Jun 2027 06:44:22.894   07 Jun 2027 06:44:27.184             4.290          1192.875
       156   07 Jun 2027 06:54:41.368   07 Jun 2027 06:54:45.867             4.499          1476.656
       157   07 Jun 2027 08:16:43.125   07 Jun 2027 08:16:57.523            14.398          6493.031
       158   07 Jun 2027 08:17:12.544   07 Jun 2027 08:17:12.544             0.000             0.000
       159   07 Jun 2027 08:17:57.475   07 Jun 2027 08:18:00.319             2.844          1422.000
       160   07 Jun 2027 08:18:47.267   07 Jun 2027 08:18:52.305             5.038          1458.656
       161   07 Jun 2027 08:19:34.486   07 Jun 2027 08:19:36.485             1.999           519.000
       162   07 Jun 2027 08:20:49.130   07 Jun 2027 08:20:56.519             7.389          1865.563
       163   07 Jun 2027 08:21:46.236   07 Jun 2027 08:21:48.759             2.523          1090.156
       164   07 Jun 2027 09:51:37.104   07 Jun 2027 09:51:45.199             8.095          3232.156
       165   07 Jun 2027 09:53:16.166   07 Jun 2027 09:53:16.166             0.000             0.000
       166   07 Jun 2027 09:54:07.296   07 Jun 2027 09:54:12.241             4.945          1638.594
       167   07 Jun 2027 09:57:08.070   07 Jun 2027 09:57:17.222             9.152          4015.500
       168   07 Jun 2027 09:58:29.911   07 Jun 2027 09:58:31.517             1.606           695.688
       169   07 Jun 2027 09:59:05.463   07 Jun 2027 09:59:16.274            10.811          1060.812
       170   07 Jun 2027 11:31:16.794   07 Jun 2027 11:31:34.652            17.858          8455.875
       171   07 Jun 2027 11:32:22.479   07 Jun 2027 11:32:24.404             1.925           384.188
       172   07 Jun 2027 11:33:37.546   07 Jun 2027 11:33:46.824             9.278          1548.125
       173   07 Jun 2027 11:34:05.379   07 Jun 2027 11:34:10.370             4.991           404.656
       174   07 Jun 2027 11:35:47.087   07 Jun 2027 11:35:56.440             9.353          2041.594
       175   07 Jun 2027 11:35:57.208   07 Jun 2027 11:35:59.927             2.719            24.000
       176   07 Jun 2027 11:36:21.321   07 Jun 2027 11:36:24.560             3.239           339.875
       177   08 Jun 2027 03:52:06.425   08 Jun 2027 03:52:31.163            24.738         12369.000
       178   08 Jun 2027 03:52:33.807   08 Jun 2027 03:53:36.853            63.046         31523.000
       179   08 Jun 2027 03:55:11.236   08 Jun 2027 03:55:17.302             6.066          3033.000
       180   08 Jun 2027 03:55:29.816   08 Jun 2027 03:55:38.225             8.409          4204.500
       181   08 Jun 2027 03:56:08.989   08 Jun 2027 03:56:51.696            42.707         21353.500
       182   08 Jun 2027 03:57:12.229   08 Jun 2027 03:57:23.570            11.341          5670.500
       183   08 Jun 2027 05:30:29.008   08 Jun 2027 05:32:13.491           104.483         52241.500
       184   08 Jun 2027 05:32:37.760   08 Jun 2027 05:33:23.434            45.674         22837.000
       185   08 Jun 2027 05:34:01.778   08 Jun 2027 05:34:11.233             9.455          2830.593
       186   08 Jun 2027 05:34:36.301   08 Jun 2027 05:34:43.931             7.630           493.688
       187   08 Jun 2027 05:35:56.917   08 Jun 2027 05:36:02.193             5.276          1843.188
       188   08 Jun 2027 06:54:33.348   08 Jun 2027 06:54:48.277            14.929          6288.531
       189   08 Jun 2027 06:55:14.387   08 Jun 2027 06:55:14.387             0.000             0.000
       190   08 Jun 2027 06:55:28.695   08 Jun 2027 06:55:30.981             2.286          1026.656
       191   08 Jun 2027 08:28:20.323   08 Jun 2027 08:28:38.235            17.912          7960.656
       192   08 Jun 2027 08:29:15.738   08 Jun 2027 08:29:21.386             5.648           182.719
       193   08 Jun 2027 08:30:26.865   08 Jun 2027 08:30:30.406             3.541          1491.781
       194   08 Jun 2027 08:31:00.375   08 Jun 2027 08:31:02.651             2.276           827.750
       195   08 Jun 2027 08:32:09.901   08 Jun 2027 08:32:14.054             4.153          1326.656
       196   08 Jun 2027 08:33:14.130   08 Jun 2027 08:33:16.854             2.724           845.500
       197   08 Jun 2027 08:33:29.146   08 Jun 2027 08:33:29.864             0.718           171.437
       198   08 Jun 2027 10:03:12.356   08 Jun 2027 10:03:18.739             6.383          2782.750
       199   08 Jun 2027 10:05:16.163   08 Jun 2027 10:05:22.832             6.669          2073.156
       200   08 Jun 2027 10:06:03.076   08 Jun 2027 10:06:06.183             3.107           631.250
       201   08 Jun 2027 10:06:53.214   08 Jun 2027 10:06:55.364             2.150          1033.688
       202   08 Jun 2027 10:09:08.046   08 Jun 2027 10:09:16.615             8.569          4133.469
       203   08 Jun 2027 10:10:22.112   08 Jun 2027 10:10:23.801             1.689           114.687
       204   08 Jun 2027 10:10:52.234   08 Jun 2027 10:10:59.422             7.188           208.875
       205   08 Jun 2027 10:11:29.316   08 Jun 2027 10:11:31.195             1.879            21.812
       206   08 Jun 2027 10:11:49.180   08 Jun 2027 10:11:51.682             2.502           508.625
       207   08 Jun 2027 10:12:17.711   08 Jun 2027 10:12:18.826             1.115           211.000
       208   08 Jun 2027 11:41:22.238   08 Jun 2027 11:41:40.304            18.066          6777.312
       209   08 Jun 2027 11:43:52.806   08 Jun 2027 11:44:00.759             7.953          3500.687
       210   08 Jun 2027 11:45:33.750   08 Jun 2027 11:45:42.810             9.060          1271.969
       211   08 Jun 2027 11:45:48.749   08 Jun 2027 11:45:50.857             2.108           185.594
       212   08 Jun 2027 11:46:03.393   08 Jun 2027 11:46:05.110             1.717           373.750
       213   08 Jun 2027 11:46:36.877   08 Jun 2027 11:46:44.062             7.185           992.719
       214   08 Jun 2027 11:47:33.270   08 Jun 2027 11:47:39.291             6.021          1537.750
       215   08 Jun 2027 11:47:58.767   08 Jun 2027 11:48:01.793             3.026           608.625
       216   08 Jun 2027 11:48:24.235   08 Jun 2027 11:48:25.712             1.477           620.625
       217   09 Jun 2027 04:04:40.821   09 Jun 2027 04:05:09.945            29.124         14562.000
       218   09 Jun 2027 04:05:40.448   09 Jun 2027 04:06:22.702            42.254         21127.000
       219   09 Jun 2027 04:06:23.329   09 Jun 2027 04:06:50.708            27.379         13689.500
       220   09 Jun 2027 04:09:00.607   09 Jun 2027 04:09:14.008            13.401          6700.500
       221   09 Jun 2027 04:09:26.302   09 Jun 2027 04:09:43.473            17.171          8585.500
       222   09 Jun 2027 05:43:03.161   09 Jun 2027 05:43:41.556            38.395         19197.500
       223   09 Jun 2027 05:44:47.043   09 Jun 2027 05:47:28.772           161.729         78855.125
       224   09 Jun 2027 07:06:28.504   09 Jun 2027 07:06:42.131            13.627          6650.844
       225   09 Jun 2027 07:08:48.200   09 Jun 2027 07:08:50.730             2.530          1265.000
       226   09 Jun 2027 08:42:44.204   09 Jun 2027 08:43:05.799            21.595         10551.719
       227   09 Jun 2027 08:43:20.792   09 Jun 2027 08:43:22.258             1.466           104.406
       228   09 Jun 2027 08:43:45.643   09 Jun 2027 08:43:50.266             4.623           640.719
       229   09 Jun 2027 08:44:44.001   09 Jun 2027 08:44:50.018             6.017          1091.969
       230   09 Jun 2027 08:45:16.709   09 Jun 2027 08:45:19.775             3.066           390.125
       231   09 Jun 2027 10:16:16.560   09 Jun 2027 10:16:21.787             5.227          2592.438
       232   09 Jun 2027 10:17:47.801   09 Jun 2027 10:17:50.455             2.654           961.719
       233   09 Jun 2027 10:18:36.029   09 Jun 2027 10:18:43.091             7.062           691.125
       234   09 Jun 2027 10:21:07.360   09 Jun 2027 10:21:16.352             8.992          4277.188
       235   09 Jun 2027 10:23:16.613   09 Jun 2027 10:23:21.594             4.981          2051.125
       236   09 Jun 2027 10:23:53.375   09 Jun 2027 10:23:55.847             2.472           733.156
       237   09 Jun 2027 10:24:25.579   09 Jun 2027 10:24:26.532             0.953           472.875
       238   09 Jun 2027 10:24:48.409   09 Jun 2027 10:24:49.537             1.128           485.063
       239   09 Jun 2027 11:53:48.951   09 Jun 2027 11:54:04.220            15.269          7086.094
       240   09 Jun 2027 11:55:54.911   09 Jun 2027 11:55:59.030             4.119          1346.250
       241   09 Jun 2027 11:56:30.165   09 Jun 2027 11:56:36.433             6.268           697.437
       242   09 Jun 2027 11:57:33.128   09 Jun 2027 11:57:37.188             4.060          1119.406
       243   09 Jun 2027 11:57:56.598   09 Jun 2027 11:57:58.223             1.625           217.313
       244   09 Jun 2027 11:58:22.789   09 Jun 2027 11:58:27.180             4.391           548.937
       245   09 Jun 2027 11:59:16.360   09 Jun 2027 11:59:24.314             7.954          1062.469
       246   09 Jun 2027 11:59:48.488   09 Jun 2027 11:59:53.690             5.202           358.000
       247   10 Jun 2027 04:16:38.695   10 Jun 2027 04:16:45.828             7.133          3566.500
       248   10 Jun 2027 04:16:54.548   10 Jun 2027 04:18:52.554           118.006         59003.000
       249   10 Jun 2027 04:20:21.510   10 Jun 2027 04:20:23.034             1.524           762.000
       250   10 Jun 2027 04:20:48.637   10 Jun 2027 04:21:05.738            17.101          8550.500
       251   10 Jun 2027 04:22:17.085   10 Jun 2027 04:22:26.856             9.771          4885.500
       252   10 Jun 2027 05:54:42.113   10 Jun 2027 05:55:06.452            24.339         12169.500
       253   10 Jun 2027 05:56:20.194   10 Jun 2027 05:57:24.815            64.621         32310.500
       254   10 Jun 2027 05:57:40.111   10 Jun 2027 05:58:59.509            79.398         39699.000
       255   10 Jun 2027 05:59:18.962   10 Jun 2027 05:59:23.298             4.336          2168.000
       256   10 Jun 2027 07:18:20.394   10 Jun 2027 07:18:41.289            20.895          9764.687
       257   10 Jun 2027 07:19:44.847   10 Jun 2027 07:19:44.847             0.000             0.000
       258   10 Jun 2027 07:20:20.007   10 Jun 2027 07:20:28.199             8.192          3049.281
       259   10 Jun 2027 08:54:48.338   10 Jun 2027 08:54:56.724             8.386          4193.000
       260   10 Jun 2027 08:55:30.433   10 Jun 2027 08:55:36.101             5.668          1912.500
       261   10 Jun 2027 08:56:08.774   10 Jun 2027 08:56:10.826             2.052          1021.031
       262   10 Jun 2027 08:57:33.180   10 Jun 2027 08:57:38.665             5.485          2308.313
       263   10 Jun 2027 10:28:56.538   10 Jun 2027 10:29:02.814             6.276          2806.750
       264   10 Jun 2027 10:30:43.297   10 Jun 2027 10:30:49.939             6.642          2685.062
       265   10 Jun 2027 10:30:55.190   10 Jun 2027 10:30:57.250             2.060           164.094
       266   10 Jun 2027 10:33:05.874   10 Jun 2027 10:33:05.874             0.000             0.000
       267   10 Jun 2027 10:33:56.007   10 Jun 2027 10:34:03.678             7.671          2974.031
       268   10 Jun 2027 10:34:40.389   10 Jun 2027 10:34:48.768             8.379          1082.156
       269   10 Jun 2027 10:34:59.115   10 Jun 2027 10:35:00.889             1.774           250.625
       270   10 Jun 2027 10:35:42.788   10 Jun 2027 10:35:43.095             0.307           153.500
       271   10 Jun 2027 10:36:06.938   10 Jun 2027 10:36:09.549             2.611          1217.219
       272   10 Jun 2027 10:36:24.693   10 Jun 2027 10:36:28.727             4.034            56.062
       273   10 Jun 2027 10:36:36.794   10 Jun 2027 10:36:37.943             1.149           252.094
       274   11 Jun 2027 04:28:47.172   11 Jun 2027 04:29:46.835            59.663         29831.500
       275   11 Jun 2027 04:29:56.409   11 Jun 2027 04:31:30.193            93.784         46892.000
       276   11 Jun 2027 04:32:41.302   11 Jun 2027 04:32:59.468            18.166          9083.000
       277   11 Jun 2027 04:33:05.231   11 Jun 2027 04:33:16.773            11.542          5771.000
       278   11 Jun 2027 06:07:06.314   11 Jun 2027 06:07:34.849            28.535         14267.500
       279   11 Jun 2027 06:07:54.861   11 Jun 2027 06:09:51.397           116.536         57267.031
       280   11 Jun 2027 06:10:49.860   11 Jun 2027 06:10:57.305             7.445          1792.625
       281   11 Jun 2027 07:30:29.151   11 Jun 2027 07:30:37.826             8.675          4141.906
       282   11 Jun 2027 07:31:21.539   11 Jun 2027 07:31:23.855             2.316           802.000
       283   11 Jun 2027 07:31:25.951   11 Jun 2027 07:31:32.357             6.406            65.500
       284   11 Jun 2027 07:32:50.686   11 Jun 2027 07:32:54.847             4.161          2026.031
       285   11 Jun 2027 07:33:14.154   11 Jun 2027 07:33:16.838             2.684           239.656
       286   11 Jun 2027 09:07:16.759   11 Jun 2027 09:07:28.166            11.407          5305.063
       287   11 Jun 2027 09:09:32.629   11 Jun 2027 09:09:40.514             7.885          2833.750
       288   11 Jun 2027 10:42:33.563   11 Jun 2027 10:42:43.267             9.704          4688.906
       289   11 Jun 2027 10:43:31.959   11 Jun 2027 10:43:31.959             0.000             0.000
       290   11 Jun 2027 10:45:03.434   11 Jun 2027 10:45:11.743             8.309          3299.031
       291   11 Jun 2027 10:48:18.025   11 Jun 2027 10:48:28.436            10.411          5108.094
       292   11 Jun 2027 10:48:46.347   11 Jun 2027 10:48:46.631             0.284           142.000
       293   12 Jun 2027 03:02:35.745   12 Jun 2027 03:02:49.914            14.169          7084.500
       294   12 Jun 2027 03:03:15.660   12 Jun 2027 03:03:50.175            34.515         17257.500
       295   12 Jun 2027 03:07:33.836   12 Jun 2027 03:07:43.834             9.998          4999.000
       296   12 Jun 2027 03:07:48.444   12 Jun 2027 03:08:05.736            17.292          8646.000
       297   12 Jun 2027 03:09:13.015   12 Jun 2027 03:09:21.473             8.458          4229.000
       298   12 Jun 2027 04:40:52.221   12 Jun 2027 04:41:03.976            11.755          5877.500
       299   12 Jun 2027 04:41:54.229   12 Jun 2027 04:44:41.989           167.760         83880.000
       300   12 Jun 2027 04:45:07.835   12 Jun 2027 04:45:35.167            27.332         13666.000
       301   12 Jun 2027 04:46:14.550   12 Jun 2027 04:46:24.164             9.614          4807.000
       302   12 Jun 2027 04:49:01.165   12 Jun 2027 04:49:25.420            24.255         12127.500
       303   12 Jun 2027 06:19:02.934   12 Jun 2027 06:19:33.077            30.143         12432.156
       304   12 Jun 2027 06:21:59.594   12 Jun 2027 06:22:00.692             1.098           372.500
       305   12 Jun 2027 06:22:32.109   12 Jun 2027 06:22:33.688             1.579           726.438
       306   12 Jun 2027 07:43:09.579   12 Jun 2027 07:43:23.837            14.258          3619.750
       307   12 Jun 2027 07:43:44.617   12 Jun 2027 07:43:46.543             1.926           500.687
       308   12 Jun 2027 07:45:05.201   12 Jun 2027 07:45:12.988             7.787          2458.063
       309   12 Jun 2027 09:18:55.069   12 Jun 2027 09:19:06.174            11.105          1614.250
       310   12 Jun 2027 09:20:28.370   12 Jun 2027 09:20:38.435            10.065          2454.531
       311   12 Jun 2027 09:21:01.241   12 Jun 2027 09:21:03.080             1.839           494.125
       312   12 Jun 2027 09:22:06.979   12 Jun 2027 09:22:10.129             3.150          1377.594
       313   12 Jun 2027 10:53:52.225   12 Jun 2027 10:53:57.928             5.703          2106.844
       314   12 Jun 2027 10:55:44.401   12 Jun 2027 10:55:49.776             5.375          2629.687
       315   12 Jun 2027 11:00:30.404   12 Jun 2027 11:00:49.666            19.262          7772.688
       316   13 Jun 2027 03:15:11.985   13 Jun 2027 03:16:54.144           102.159         51079.500
       317   13 Jun 2027 03:17:24.037   13 Jun 2027 03:17:43.444            19.407          9703.500
       318   13 Jun 2027 03:20:17.604   13 Jun 2027 03:20:17.809             0.205           102.500
       319   13 Jun 2027 03:21:12.894   13 Jun 2027 03:21:44.936            32.042         16021.000
       320   13 Jun 2027 04:53:57.576   13 Jun 2027 04:56:20.235           142.659         71128.250
       321   13 Jun 2027 04:58:16.639   13 Jun 2027 04:58:26.985            10.346          3215.562
       322   13 Jun 2027 05:00:31.661   13 Jun 2027 05:00:40.687             9.026          3896.125
       323   13 Jun 2027 06:19:57.955   13 Jun 2027 06:20:08.413            10.458          4672.281
       324   13 Jun 2027 06:30:59.345   13 Jun 2027 06:31:05.816             6.471          2546.719
       325   13 Jun 2027 06:32:01.027   13 Jun 2027 06:32:05.090             4.063          1624.437
       326   13 Jun 2027 07:53:59.087   13 Jun 2027 07:54:08.278             9.191          3804.469
       327   13 Jun 2027 07:55:46.852   13 Jun 2027 07:55:52.575             5.723          2075.187
       328   13 Jun 2027 07:57:07.107   13 Jun 2027 07:57:14.179             7.072          2172.781
       329   13 Jun 2027 09:29:31.129   13 Jun 2027 09:29:38.100             6.971          2585.500
       330   13 Jun 2027 09:31:20.890   13 Jun 2027 09:31:26.720             5.830          2265.688
       331   13 Jun 2027 09:33:24.293   13 Jun 2027 09:33:29.012             4.719          2162.781
       332   13 Jun 2027 09:34:18.453   13 Jun 2027 09:34:26.323             7.870          1545.031
       333   13 Jun 2027 11:05:49.165   13 Jun 2027 11:05:56.876             7.711          3708.688
       334   13 Jun 2027 11:06:12.335   13 Jun 2027 11:06:14.412             2.077           338.187
       335   13 Jun 2027 11:07:01.562   13 Jun 2027 11:07:11.811            10.249          1473.438
       336   13 Jun 2027 11:08:15.235   13 Jun 2027 11:08:17.562             2.327          1115.031
       337   13 Jun 2027 11:08:54.755   13 Jun 2027 11:08:54.755             0.000             0.000
       338   13 Jun 2027 11:12:19.452   13 Jun 2027 11:12:36.472            17.020          6640.281
       339   13 Jun 2027 11:12:55.634   13 Jun 2027 11:12:59.988             4.354           595.406
