uniorb/output/strategy_4/Camera/Camera_KinoSat_110608.txt

KinoSat_110608
-------------------------
    Access    *     Start Time (UTCG)     *     Stop Time (UTCG)  *   Duration (s) *   Data (Mbytes)
         1   01 Jun 2027 03:15:12.391   01 Jun 2027 03:16:14.608            62.217         31108.500
         2   01 Jun 2027 03:16:26.047   01 Jun 2027 03:16:33.932             7.885          3942.500
         3   01 Jun 2027 03:17:18.269   01 Jun 2027 03:17:18.269             0.000             0.000
         4   01 Jun 2027 03:18:23.118   01 Jun 2027 03:18:30.523             7.405          3702.500
         5   01 Jun 2027 04:48:44.848   01 Jun 2027 04:50:29.232           104.384         52192.000
         6   01 Jun 2027 04:50:35.350   01 Jun 2027 04:50:44.825             9.475          4737.500
         7   01 Jun 2027 04:51:16.091   01 Jun 2027 04:51:16.091             0.000             0.000
         8   01 Jun 2027 04:52:21.077   01 Jun 2027 04:52:29.845             8.768          4384.000
         9   01 Jun 2027 04:54:30.482   01 Jun 2027 04:54:35.835             5.353          2676.500
        10   01 Jun 2027 04:55:29.141   01 Jun 2027 04:55:38.655             9.514          4757.000
        11   01 Jun 2027 04:56:14.753   01 Jun 2027 04:56:14.753             0.000             0.000
        12   01 Jun 2027 04:56:18.718   01 Jun 2027 04:56:23.844             5.126          2563.000
        13   01 Jun 2027 04:56:31.341   01 Jun 2027 04:56:43.168            11.827          5913.500
        14   01 Jun 2027 04:56:57.512   01 Jun 2027 04:56:57.872             0.360           180.000
        15   01 Jun 2027 04:57:18.073   01 Jun 2027 04:57:19.109             1.036           518.000
        16   01 Jun 2027 06:26:10.878   01 Jun 2027 06:28:04.534           113.656         56828.000
        17   01 Jun 2027 06:30:08.554   01 Jun 2027 06:30:16.562             8.008          4004.000
        18   01 Jun 2027 06:30:34.197   01 Jun 2027 06:30:43.963             9.766          4883.000
        19   01 Jun 2027 06:31:51.133   01 Jun 2027 06:31:55.895             4.762          2381.000
        20   01 Jun 2027 08:03:13.479   01 Jun 2027 08:05:33.596           140.117         70058.500
        21   01 Jun 2027 08:05:41.810   01 Jun 2027 08:06:05.041            23.231         11615.500
        22   01 Jun 2027 08:06:32.849   01 Jun 2027 08:06:38.852             6.003          3001.500
        23   01 Jun 2027 08:08:23.542   01 Jun 2027 08:08:28.407             4.865          2432.500
        24   01 Jun 2027 09:40:01.252   01 Jun 2027 09:42:13.370           132.118         66059.000
        25   01 Jun 2027 09:42:24.061   01 Jun 2027 09:43:10.631            46.570         23285.000
        26   01 Jun 2027 09:44:24.328   01 Jun 2027 09:44:24.328             0.000             0.000
        27   01 Jun 2027 11:15:16.511   01 Jun 2027 11:15:19.874             3.363          1681.500
        28   01 Jun 2027 11:16:59.648   01 Jun 2027 11:18:59.165           119.517         59758.500
        29   01 Jun 2027 11:19:02.985   01 Jun 2027 11:19:19.824            16.839          8419.500
        30   02 Jun 2027 03:27:18.434   02 Jun 2027 03:27:23.435             5.001          2500.500
        31   02 Jun 2027 03:27:46.589   02 Jun 2027 03:28:04.478            17.889          8944.500
        32   02 Jun 2027 03:28:31.396   02 Jun 2027 03:28:35.712             4.316          2158.000
        33   02 Jun 2027 04:59:27.904   02 Jun 2027 04:59:37.959            10.055          5027.500
        34   02 Jun 2027 05:01:23.230   02 Jun 2027 05:04:06.127           162.897         81448.500
        35   02 Jun 2027 05:04:46.465   02 Jun 2027 05:04:50.970             4.505          2252.500
        36   02 Jun 2027 05:05:43.825   02 Jun 2027 05:05:49.743             5.918          2959.000
        37   02 Jun 2027 05:06:43.762   02 Jun 2027 05:06:43.762             0.000             0.000
        38   02 Jun 2027 05:07:18.836   02 Jun 2027 05:07:27.787             8.951          4475.500
        39   02 Jun 2027 05:07:37.378   02 Jun 2027 05:07:38.395             1.017           508.500
        40   02 Jun 2027 05:08:02.206   02 Jun 2027 05:08:02.206             0.000             0.000
        41   02 Jun 2027 05:08:05.258   02 Jun 2027 05:08:06.952             1.694           847.000
        42   02 Jun 2027 05:08:17.158   02 Jun 2027 05:08:52.417            35.259         17629.500
        43   02 Jun 2027 05:09:13.662   02 Jun 2027 05:09:13.869             0.207           103.500
        44   02 Jun 2027 06:38:21.995   02 Jun 2027 06:42:02.068           220.073        110036.500
        45   02 Jun 2027 06:42:37.290   02 Jun 2027 06:43:01.674            24.384         12192.000
        46   02 Jun 2027 08:15:26.243   02 Jun 2027 08:18:19.506           173.263         86631.500
        47   02 Jun 2027 08:19:23.037   02 Jun 2027 08:19:30.108             7.071          2205.031
        48   02 Jun 2027 08:20:15.756   02 Jun 2027 08:20:17.271             1.515           639.281
        49   02 Jun 2027 09:52:04.822   02 Jun 2027 09:52:18.614            13.792          6875.906
        50   02 Jun 2027 09:53:40.928   02 Jun 2027 09:53:41.884             0.956            12.469
        51   02 Jun 2027 09:54:20.876   02 Jun 2027 09:54:24.201             3.325          1128.937
        52   02 Jun 2027 09:55:11.516   02 Jun 2027 09:55:13.774             2.258           827.938
        53   02 Jun 2027 11:30:24.251   02 Jun 2027 11:30:26.948             2.697          1044.125
        54   03 Jun 2027 03:39:25.976   03 Jun 2027 03:39:28.892             2.916          1458.000
        55   03 Jun 2027 03:40:08.112   03 Jun 2027 03:40:15.005             6.893          3446.500
        56   03 Jun 2027 03:41:25.557   03 Jun 2027 03:41:25.557             0.000             0.000
        57   03 Jun 2027 03:42:55.607   03 Jun 2027 03:43:00.544             4.937          2468.500
        58   03 Jun 2027 05:14:33.640   03 Jun 2027 05:16:32.532           118.892         59446.000
        59   03 Jun 2027 05:17:30.281   03 Jun 2027 05:18:20.783            50.502         25251.000
        60   03 Jun 2027 05:18:42.677   03 Jun 2027 05:19:14.841            32.164         16082.000
        61   03 Jun 2027 05:20:16.120   03 Jun 2027 05:20:19.380             3.260          1630.000
        62   03 Jun 2027 05:20:23.629   03 Jun 2027 05:20:26.194             2.565          1282.500
        63   03 Jun 2027 05:21:07.729   03 Jun 2027 05:21:17.267             9.538          4769.000
        64   03 Jun 2027 06:50:55.254   03 Jun 2027 06:52:17.720            82.466         40456.188
        65   03 Jun 2027 06:56:11.699   03 Jun 2027 06:56:17.169             5.470           883.094
        66   03 Jun 2027 08:28:20.909   03 Jun 2027 08:28:24.601             3.692          1424.563
        67   03 Jun 2027 08:30:07.100   03 Jun 2027 08:30:10.161             3.061           600.219
        68   03 Jun 2027 08:30:33.119   03 Jun 2027 08:30:34.107             0.988           452.531
        69   03 Jun 2027 08:30:55.270   03 Jun 2027 08:30:57.881             2.611           494.063
        70   03 Jun 2027 08:32:02.980   03 Jun 2027 08:32:09.692             6.712           111.906
        71   03 Jun 2027 10:04:31.825   03 Jun 2027 10:04:45.378            13.553          5632.281
        72   03 Jun 2027 10:05:28.055   03 Jun 2027 10:05:31.965             3.910           726.656
        73   03 Jun 2027 10:06:36.789   03 Jun 2027 10:06:38.562             1.773           475.188
        74   04 Jun 2027 03:51:28.825   04 Jun 2027 03:51:56.434            27.609         13804.500
        75   04 Jun 2027 03:52:09.410   04 Jun 2027 03:52:09.410             0.000             0.000
        76   04 Jun 2027 05:26:40.492   04 Jun 2027 05:30:26.548           226.056        113028.000
        77   04 Jun 2027 05:32:57.261   04 Jun 2027 05:33:19.338            22.077         11038.500
        78   04 Jun 2027 07:02:36.476   04 Jun 2027 07:03:27.528            51.052         23115.750
        79   04 Jun 2027 07:03:57.556   04 Jun 2027 07:03:59.523             1.967           938.375
        80   04 Jun 2027 07:05:06.766   04 Jun 2027 07:05:11.257             4.491          2079.375
        81   04 Jun 2027 07:05:39.904   04 Jun 2027 07:05:41.875             1.971            14.406
        82   04 Jun 2027 07:06:19.751   04 Jun 2027 07:06:27.274             7.523          1060.438
        83   04 Jun 2027 07:07:40.835   04 Jun 2027 07:07:43.931             3.096           477.500
        84   04 Jun 2027 08:40:28.257   04 Jun 2027 08:40:38.787            10.530          4783.062
        85   04 Jun 2027 08:42:07.491   04 Jun 2027 08:42:11.064             3.573             8.719
        86   04 Jun 2027 08:42:37.700   04 Jun 2027 08:42:40.822             3.122           542.438
        87   04 Jun 2027 08:43:36.150   04 Jun 2027 08:43:40.125             3.975          1669.156
        88   04 Jun 2027 08:43:51.368   04 Jun 2027 08:43:55.305             3.937            13.312
        89   04 Jun 2027 08:43:58.967   04 Jun 2027 08:44:01.699             2.732            20.937
        90   04 Jun 2027 10:16:26.254   04 Jun 2027 10:16:39.575            13.321          6601.000
        91   04 Jun 2027 10:19:05.784   04 Jun 2027 10:19:08.614             2.830          1352.563
        92   05 Jun 2027 04:03:12.806   05 Jun 2027 04:03:44.941            32.135         16067.500
        93   05 Jun 2027 05:37:55.998   05 Jun 2027 05:41:20.962           204.964        102482.000
        94   05 Jun 2027 05:45:22.853   05 Jun 2027 05:45:27.490             4.637          2318.500
        95   05 Jun 2027 07:14:42.012   05 Jun 2027 07:16:03.863            81.851         40411.969
        96   05 Jun 2027 07:18:31.151   05 Jun 2027 07:18:36.139             4.988          1361.750
        97   05 Jun 2027 07:19:10.952   05 Jun 2027 07:19:13.018             2.066           331.750
        98   05 Jun 2027 07:19:45.675   05 Jun 2027 07:19:48.511             2.836           249.563
        99   05 Jun 2027 08:52:57.783   05 Jun 2027 08:53:11.679            13.896          5886.500
       100   05 Jun 2027 08:53:55.782   05 Jun 2027 08:53:59.697             3.915           211.438
       101   05 Jun 2027 08:54:07.735   05 Jun 2027 08:54:07.952             0.217            25.187
       102   05 Jun 2027 08:54:35.802   05 Jun 2027 08:54:43.868             8.066           655.281
       103   05 Jun 2027 08:55:38.076   05 Jun 2027 08:55:41.321             3.245          1326.094
       104   05 Jun 2027 10:26:16.797   05 Jun 2027 10:26:28.173            11.376          5620.750
       105   06 Jun 2027 04:13:13.705   06 Jun 2027 04:13:56.353            42.648         21324.000
       106   06 Jun 2027 04:14:10.967   06 Jun 2027 04:14:10.967             0.000             0.000
       107   06 Jun 2027 04:14:27.099   06 Jun 2027 04:14:27.831             0.732           366.000
       108   06 Jun 2027 04:14:56.194   06 Jun 2027 04:15:05.313             9.119          4559.500
       109   06 Jun 2027 04:17:31.631   06 Jun 2027 04:17:55.020            23.389         11694.500
       110   06 Jun 2027 05:50:01.384   06 Jun 2027 05:52:43.372           161.988         80994.000
       111   06 Jun 2027 05:55:19.986   06 Jun 2027 05:55:20.615             0.629           314.500
       112   06 Jun 2027 05:56:09.691   06 Jun 2027 05:56:23.501            13.810          6905.000
       113   06 Jun 2027 05:56:35.167   06 Jun 2027 05:56:48.800            13.633          6816.500
       114   06 Jun 2027 05:57:27.085   06 Jun 2027 05:57:27.308             0.223           111.500
       115   06 Jun 2027 07:27:02.397   06 Jun 2027 07:28:20.978            78.581         37922.000
       116   06 Jun 2027 07:31:02.040   06 Jun 2027 07:31:04.089             2.049           817.562
       117   06 Jun 2027 07:32:04.312   06 Jun 2027 07:32:08.980             4.668          1294.750
       118   06 Jun 2027 07:33:03.390   06 Jun 2027 07:33:04.347             0.957           285.938
       119   06 Jun 2027 09:04:55.787   06 Jun 2027 09:05:07.906            12.119          5962.156
       120   06 Jun 2027 09:07:06.400   06 Jun 2027 09:07:13.989             7.589           983.281
       121   06 Jun 2027 09:08:46.086   06 Jun 2027 09:08:47.201             1.115            53.094
       122   06 Jun 2027 10:38:12.809   06 Jun 2027 10:38:23.307            10.498          5183.438
       123   07 Jun 2027 04:24:33.646   07 Jun 2027 04:26:17.994           104.348         52174.000
       124   07 Jun 2027 04:26:46.020   07 Jun 2027 04:26:51.687             5.667          2833.500
       125   07 Jun 2027 04:29:26.830   07 Jun 2027 04:29:33.768             6.938          3469.000
       126   07 Jun 2027 04:31:34.145   07 Jun 2027 04:32:06.795            32.650         16325.000
       127   07 Jun 2027 04:32:36.629   07 Jun 2027 04:32:43.419             6.790          3395.000
       128   07 Jun 2027 04:32:52.876   07 Jun 2027 04:32:57.871             4.995          2497.500
       129   07 Jun 2027 06:02:08.338   07 Jun 2027 06:05:03.606           175.268         87634.000
       130   07 Jun 2027 06:08:47.089   07 Jun 2027 06:09:00.970            13.881          6940.500
       131   07 Jun 2027 07:38:51.605   07 Jun 2027 07:39:09.797            18.192          7884.094
       132   07 Jun 2027 07:42:37.494   07 Jun 2027 07:42:40.662             3.168          1505.812
       133   07 Jun 2027 07:43:06.531   07 Jun 2027 07:43:10.532             4.001           617.031
       134   07 Jun 2027 07:44:23.215   07 Jun 2027 07:44:25.837             2.622           939.000
       135   07 Jun 2027 09:16:55.143   07 Jun 2027 09:17:05.900            10.757          5102.719
       136   07 Jun 2027 09:17:34.555   07 Jun 2027 09:17:37.850             3.295            55.281
       137   07 Jun 2027 09:19:15.668   07 Jun 2027 09:19:16.637             0.969           318.812
       138   07 Jun 2027 09:20:56.771   07 Jun 2027 09:20:59.387             2.616           234.625
       139   07 Jun 2027 10:50:38.790   07 Jun 2027 10:50:39.745             0.955            38.562
       140   08 Jun 2027 03:01:09.010   08 Jun 2027 03:01:17.334             8.324          4162.000
       141   08 Jun 2027 03:03:12.023   08 Jun 2027 03:03:30.336            18.313          9156.500
       142   08 Jun 2027 04:36:03.552   08 Jun 2027 04:38:25.126           141.574         70787.000
       143   08 Jun 2027 04:39:18.554   08 Jun 2027 04:39:41.972            23.418         11709.000
       144   08 Jun 2027 04:40:01.562   08 Jun 2027 04:40:09.775             8.213          4106.500
       145   08 Jun 2027 04:44:39.947   08 Jun 2027 04:45:34.019            54.072         27036.000
       146   08 Jun 2027 06:14:03.711   08 Jun 2027 06:15:12.235            68.524         33060.500
       147   08 Jun 2027 06:16:26.535   08 Jun 2027 06:16:30.852             4.317          1424.312
       148   08 Jun 2027 06:17:14.109   08 Jun 2027 06:17:19.325             5.216          1154.531
       149   08 Jun 2027 06:18:34.501   08 Jun 2027 06:18:38.990             4.489          1852.281
       150   08 Jun 2027 06:19:09.636   08 Jun 2027 06:19:12.026             2.390           936.781
       151   08 Jun 2027 06:19:45.315   08 Jun 2027 06:19:47.758             2.443           620.406
       152   08 Jun 2027 07:50:58.644   08 Jun 2027 07:51:03.641             4.997          1336.594
       153   08 Jun 2027 07:51:25.468   08 Jun 2027 07:51:26.553             1.085           236.281
       154   08 Jun 2027 07:54:03.050   08 Jun 2027 07:54:06.789             3.739           474.594
       155   08 Jun 2027 07:54:31.134   08 Jun 2027 07:54:32.376             1.242           479.625
       156   08 Jun 2027 07:55:26.925   08 Jun 2027 07:55:28.586             1.661           762.438
       157   08 Jun 2027 07:57:05.750   08 Jun 2027 07:57:10.485             4.735          2042.594
       158   08 Jun 2027 09:28:32.618   08 Jun 2027 09:28:39.269             6.651          3157.500
       159   08 Jun 2027 11:02:55.684   08 Jun 2027 11:02:56.963             1.279           611.375
       160   09 Jun 2027 03:15:26.785   09 Jun 2027 03:15:29.642             2.857          1428.500
       161   09 Jun 2027 03:16:35.710   09 Jun 2027 03:16:37.656             1.946           973.000
       162   09 Jun 2027 03:16:40.922   09 Jun 2027 03:16:40.922             0.000             0.000
       163   09 Jun 2027 03:16:58.153   09 Jun 2027 03:17:05.227             7.074          3537.000
       164   09 Jun 2027 04:48:59.700   09 Jun 2027 04:51:42.006           162.306         81153.000
       165   09 Jun 2027 04:52:02.919   09 Jun 2027 04:52:25.258            22.339         11169.500
       166   09 Jun 2027 04:56:13.076   09 Jun 2027 04:56:30.269            17.193          8596.500
       167   09 Jun 2027 04:56:33.174   09 Jun 2027 04:57:12.975            39.801         19900.500
       168   09 Jun 2027 04:57:32.662   09 Jun 2027 04:57:33.702             1.040           520.000
       169   09 Jun 2027 06:26:25.696   09 Jun 2027 06:27:15.348            49.652         23977.844
       170   09 Jun 2027 06:28:38.515   09 Jun 2027 06:28:41.011             2.496           465.531
       171   09 Jun 2027 06:28:53.057   09 Jun 2027 06:28:53.354             0.297           128.594
       172   09 Jun 2027 06:30:24.067   09 Jun 2027 06:30:27.980             3.913          1918.219
       173   09 Jun 2027 06:30:40.275   09 Jun 2027 06:30:42.768             2.493           275.000
       174   09 Jun 2027 06:30:47.598   09 Jun 2027 06:30:48.794             1.196           150.937
       175   09 Jun 2027 08:03:27.881   09 Jun 2027 08:03:31.063             3.182          1294.750
       176   09 Jun 2027 08:06:30.217   09 Jun 2027 08:06:32.988             2.771           205.625
       177   09 Jun 2027 08:07:27.651   09 Jun 2027 08:07:32.400             4.749          1506.375
       178   09 Jun 2027 08:08:57.395   09 Jun 2027 08:09:01.493             4.098          1604.844
       179   09 Jun 2027 08:09:17.441   09 Jun 2027 08:09:18.474             1.033           107.531
       180   09 Jun 2027 09:40:16.365   09 Jun 2027 09:40:21.647             5.282          2558.156
       181   09 Jun 2027 11:15:31.953   09 Jun 2027 11:15:32.464             0.511            93.719
       182   10 Jun 2027 03:27:33.122   10 Jun 2027 03:27:38.430             5.308          2654.000
       183   10 Jun 2027 03:28:51.508   10 Jun 2027 03:28:51.508             0.000             0.000
       184   10 Jun 2027 03:29:38.613   10 Jun 2027 03:29:44.305             5.692          2846.000
       185   10 Jun 2027 03:29:50.456   10 Jun 2027 03:29:50.456             0.000             0.000
       186   10 Jun 2027 04:59:42.756   10 Jun 2027 04:59:51.637             8.881          4440.500
       187   10 Jun 2027 05:01:38.377   10 Jun 2027 05:01:42.414             4.037          2018.500
       188   10 Jun 2027 05:01:58.245   10 Jun 2027 05:03:24.646            86.401         43200.500
       189   10 Jun 2027 05:03:54.975   10 Jun 2027 05:04:37.924            42.949         21474.500
       190   10 Jun 2027 05:06:11.868   10 Jun 2027 05:07:35.091            83.223         41611.500
       191   10 Jun 2027 05:07:51.078   10 Jun 2027 05:07:53.422             2.344          1172.000
       192   10 Jun 2027 05:09:07.445   10 Jun 2027 05:09:10.433             2.988          1494.000
       193   10 Jun 2027 05:09:28.231   10 Jun 2027 05:09:28.389             0.158            79.000
       194   10 Jun 2027 06:38:36.590   10 Jun 2027 06:39:43.083            66.493         32407.531
       195   10 Jun 2027 08:15:42.736   10 Jun 2027 08:15:47.010             4.274          1967.500
       196   10 Jun 2027 08:19:01.571   10 Jun 2027 08:19:04.103             2.532           163.500
       197   10 Jun 2027 08:20:30.895   10 Jun 2027 08:20:33.121             2.226           625.188
       198   10 Jun 2027 09:52:19.549   10 Jun 2027 09:52:29.096             9.547          3763.687
       199   10 Jun 2027 09:54:00.032   10 Jun 2027 09:54:00.637             0.605            53.375
       200   10 Jun 2027 09:55:01.340   10 Jun 2027 09:55:03.517             2.177           806.594
       201   10 Jun 2027 09:56:20.431   10 Jun 2027 09:56:23.433             3.002           579.375
       202   10 Jun 2027 09:57:23.030   10 Jun 2027 09:57:24.792             1.762            93.531
       203   10 Jun 2027 11:30:38.751   10 Jun 2027 11:30:41.415             2.664           779.344
       204   11 Jun 2027 03:39:40.647   11 Jun 2027 03:39:43.489             2.842          1421.000
       205   11 Jun 2027 03:40:22.834   11 Jun 2027 03:40:29.523             6.689          3344.500
       206   11 Jun 2027 03:43:11.949   11 Jun 2027 03:43:15.559             3.610          1805.000
       207   11 Jun 2027 05:14:48.535   11 Jun 2027 05:16:25.425            96.890         48445.000
       208   11 Jun 2027 05:16:48.357   11 Jun 2027 05:16:48.586             0.229           114.500
       209   11 Jun 2027 05:17:44.913   11 Jun 2027 05:18:36.014            51.101         25550.500
       210   11 Jun 2027 05:19:09.365   11 Jun 2027 05:20:05.568            56.203         28101.500
       211   11 Jun 2027 05:20:40.749   11 Jun 2027 05:20:51.270            10.521          5260.500
       212   11 Jun 2027 05:21:22.276   11 Jun 2027 05:21:31.671             9.395          4697.500
       213   11 Jun 2027 06:51:10.193   11 Jun 2027 06:52:21.723            71.530         35178.531
       214   11 Jun 2027 06:56:26.183   11 Jun 2027 06:56:32.468             6.285           810.750
       215   11 Jun 2027 08:28:35.396   11 Jun 2027 08:28:53.080            17.684          5368.062
       216   11 Jun 2027 08:30:24.803   11 Jun 2027 08:30:26.484             1.681           695.875
       217   11 Jun 2027 08:30:48.741   11 Jun 2027 08:30:54.083             5.342           429.219
       218   11 Jun 2027 08:31:10.396   11 Jun 2027 08:31:12.576             2.180           509.781
       219   11 Jun 2027 10:04:46.335   11 Jun 2027 10:04:58.085            11.750          5689.781
       220   11 Jun 2027 10:06:36.238   11 Jun 2027 10:06:41.943             5.705          1233.250
       221   12 Jun 2027 03:51:43.285   12 Jun 2027 03:52:11.202            27.917         13958.500
       222   12 Jun 2027 03:52:24.730   12 Jun 2027 03:52:24.730             0.000             0.000
       223   12 Jun 2027 05:26:55.435   12 Jun 2027 05:30:13.032           197.597         98798.500
       224   12 Jun 2027 05:30:53.425   12 Jun 2027 05:31:12.063            18.638          9319.000
       225   12 Jun 2027 05:33:32.563   12 Jun 2027 05:33:34.182             1.619           809.500
       226   12 Jun 2027 07:02:50.798   12 Jun 2027 07:04:11.418            80.620         40083.781
       227   12 Jun 2027 07:05:21.507   12 Jun 2027 07:05:26.222             4.715          2165.656
       228   12 Jun 2027 07:06:31.106   12 Jun 2027 07:06:34.168             3.062            29.344
       229   12 Jun 2027 07:08:14.585   12 Jun 2027 07:08:19.633             5.048          1072.656
       230   12 Jun 2027 08:40:43.233   12 Jun 2027 08:40:51.240             8.007          3422.594
       231   12 Jun 2027 08:42:35.971   12 Jun 2027 08:42:42.140             6.169           379.906
       232   12 Jun 2027 08:42:52.329   12 Jun 2027 08:42:57.777             5.448           318.406
       233   12 Jun 2027 08:43:52.145   12 Jun 2027 08:43:55.656             3.511          1634.750
       234   12 Jun 2027 08:44:06.021   12 Jun 2027 08:44:08.201             2.180            48.875
       235   12 Jun 2027 08:44:13.690   12 Jun 2027 08:44:16.229             2.539            17.906
       236   12 Jun 2027 10:16:40.740   12 Jun 2027 10:16:59.741            19.001          7159.750
       237   12 Jun 2027 10:19:22.375   12 Jun 2027 10:19:32.030             9.655          1413.000
       238   13 Jun 2027 04:03:27.062   13 Jun 2027 04:04:00.923            33.861         16930.500
       239   13 Jun 2027 05:38:10.365   13 Jun 2027 05:41:19.469           189.104         94552.000
       240   13 Jun 2027 05:45:03.824   13 Jun 2027 05:45:04.079             0.255           127.500
       241   13 Jun 2027 05:45:37.558   13 Jun 2027 05:45:42.204             4.646          2323.000
       242   13 Jun 2027 07:14:56.739   13 Jun 2027 07:16:34.894            98.155         48608.749
       243   13 Jun 2027 07:18:36.000   13 Jun 2027 07:18:39.873             3.873           447.500
       244   13 Jun 2027 07:19:27.786   13 Jun 2027 07:19:31.131             3.345          1286.844
       245   13 Jun 2027 07:20:00.104   13 Jun 2027 07:20:03.106             3.002           208.000
       246   13 Jun 2027 08:53:12.313   13 Jun 2027 08:53:24.117            11.804          5742.281
       247   13 Jun 2027 08:53:55.090   13 Jun 2027 08:53:58.660             3.570           524.562
       248   13 Jun 2027 08:54:12.067   13 Jun 2027 08:54:12.799             0.732           262.563
       249   13 Jun 2027 08:54:24.557   13 Jun 2027 08:54:25.717             1.160            36.906
       250   13 Jun 2027 08:54:50.971   13 Jun 2027 08:54:53.700             2.729           672.875
       251   13 Jun 2027 08:55:53.286   13 Jun 2027 08:55:58.262             4.976          1271.844
       252   13 Jun 2027 08:56:09.174   13 Jun 2027 08:56:10.379             1.205           304.500
       253   13 Jun 2027 10:26:31.052   13 Jun 2027 10:26:44.931            13.879          6176.063
