uniorb/output/strategy_4/Camera/Camera_KinoSat_111707.txt

KinoSat_111707
-------------------------
    Access    *     Start Time (UTCG)     *     Stop Time (UTCG)  *   Duration (s) *   Data (Mbytes)
         1   01 Jun 2027 04:28:32.452   01 Jun 2027 04:30:44.718           132.266         66133.000
         2   01 Jun 2027 04:31:48.406   01 Jun 2027 04:32:07.166            18.760          9380.000
         3   01 Jun 2027 04:34:08.218   01 Jun 2027 04:34:10.522             2.304          1152.000
         4   01 Jun 2027 04:35:10.012   01 Jun 2027 04:35:20.959            10.947          5473.500
         5   01 Jun 2027 04:35:29.865   01 Jun 2027 04:36:06.208            36.343         18171.500
         6   01 Jun 2027 05:54:36.955   01 Jun 2027 05:55:08.079            31.124         15562.000
         7   01 Jun 2027 06:05:34.822   01 Jun 2027 06:06:52.389            77.567         38783.500
         8   01 Jun 2027 06:07:42.508   01 Jun 2027 06:07:53.337            10.829          5414.500
         9   01 Jun 2027 07:28:54.170   01 Jun 2027 07:31:17.286           143.116         71558.000
        10   01 Jun 2027 07:31:38.252   01 Jun 2027 07:31:41.469             3.217          1608.500
        11   01 Jun 2027 09:05:16.457   01 Jun 2027 09:07:35.025           138.568         69284.000
        12   01 Jun 2027 09:08:32.210   01 Jun 2027 09:08:52.420            20.210         10105.000
        13   01 Jun 2027 10:40:02.184   01 Jun 2027 10:42:33.157           150.973         75486.500
        14   01 Jun 2027 10:43:20.527   01 Jun 2027 10:43:27.860             7.333          3666.500
        15   01 Jun 2027 10:43:33.436   01 Jun 2027 10:43:46.827            13.391          6695.500
        16   01 Jun 2027 10:46:55.714   01 Jun 2027 10:47:09.417            13.703          6851.500
        17   02 Jun 2027 03:01:54.786   02 Jun 2027 03:02:24.910            30.124         15062.000
        18   02 Jun 2027 03:03:11.076   02 Jun 2027 03:03:12.605             1.529           764.500
        19   02 Jun 2027 03:03:23.089   02 Jun 2027 03:03:28.688             5.599          2799.500
        20   02 Jun 2027 03:04:17.108   02 Jun 2027 03:04:21.539             4.431          2215.500
        21   02 Jun 2027 03:04:51.186   02 Jun 2027 03:04:54.148             2.962          1481.000
        22   02 Jun 2027 03:05:41.652   02 Jun 2027 03:06:16.259            34.607         17303.500
        23   02 Jun 2027 03:06:51.704   02 Jun 2027 03:06:57.881             6.177          3088.500
        24   02 Jun 2027 03:07:29.567   02 Jun 2027 03:07:36.341             6.774          3387.000
        25   02 Jun 2027 03:08:11.003   02 Jun 2027 03:08:14.529             3.526          1763.000
        26   02 Jun 2027 04:40:56.388   02 Jun 2027 04:42:43.620           107.232         53616.000
        27   02 Jun 2027 04:43:27.059   02 Jun 2027 04:43:56.828            29.769         14884.500
        28   02 Jun 2027 04:45:52.096   02 Jun 2027 04:48:10.863           138.767         69383.500
        29   02 Jun 2027 06:05:56.120   02 Jun 2027 06:06:10.679            14.559          7279.500
        30   02 Jun 2027 06:07:02.586   02 Jun 2027 06:07:23.103            20.517         10258.500
        31   02 Jun 2027 06:17:36.719   02 Jun 2027 06:18:56.754            80.035         40017.500
        32   02 Jun 2027 07:39:52.065   02 Jun 2027 07:40:52.823            60.758         30379.000
        33   02 Jun 2027 07:42:20.066   02 Jun 2027 07:42:54.733            34.667         17333.500
        34   02 Jun 2027 07:43:26.913   02 Jun 2027 07:43:26.913             0.000             0.000
        35   02 Jun 2027 07:44:26.299   02 Jun 2027 07:44:56.366            30.067         15033.500
        36   02 Jun 2027 09:15:04.267   02 Jun 2027 09:16:29.246            84.979         42489.500
        37   02 Jun 2027 09:17:00.694   02 Jun 2027 09:17:52.822            52.128         25499.031
        38   02 Jun 2027 09:18:36.183   02 Jun 2027 09:18:36.405             0.222           111.000
        39   02 Jun 2027 09:20:21.986   02 Jun 2027 09:20:33.309            11.323          4543.437
        40   02 Jun 2027 09:21:06.528   02 Jun 2027 09:21:07.896             1.368           544.562
        41   02 Jun 2027 09:21:52.365   02 Jun 2027 09:21:55.840             3.475          1299.875
        42   02 Jun 2027 10:55:23.427   02 Jun 2027 10:55:44.883            21.456          9328.875
        43   02 Jun 2027 10:56:56.215   02 Jun 2027 10:56:58.054             1.839           592.375
        44   02 Jun 2027 10:57:25.622   02 Jun 2027 10:57:29.996             4.374           861.500
        45   02 Jun 2027 10:58:15.104   02 Jun 2027 10:58:21.059             5.955          1293.906
        46   02 Jun 2027 10:58:46.423   02 Jun 2027 10:58:47.855             1.432           480.469
        47   03 Jun 2027 03:14:12.715   03 Jun 2027 03:16:44.478           151.763         75881.500
        48   03 Jun 2027 03:17:02.636   03 Jun 2027 03:17:26.968            24.332         12166.000
        49   03 Jun 2027 04:53:15.076   03 Jun 2027 04:53:20.073             4.997          2498.500
        50   03 Jun 2027 04:53:56.109   03 Jun 2027 04:55:36.819           100.710         50355.000
        51   03 Jun 2027 04:56:54.810   03 Jun 2027 04:57:26.304            31.494         13903.062
        52   03 Jun 2027 04:57:59.743   03 Jun 2027 04:58:00.390             0.647           251.219
        53   03 Jun 2027 04:59:23.096   03 Jun 2027 04:59:25.503             2.407           757.937
        54   03 Jun 2027 04:59:33.633   03 Jun 2027 04:59:35.388             1.755           193.781
        55   03 Jun 2027 06:17:19.887   03 Jun 2027 06:17:34.124            14.237          5692.531
        56   03 Jun 2027 06:18:30.986   03 Jun 2027 06:18:37.541             6.555          1650.188
        57   03 Jun 2027 06:19:01.221   03 Jun 2027 06:19:01.618             0.397           152.750
        58   03 Jun 2027 06:19:11.549   03 Jun 2027 06:19:11.549             0.000             0.000
        59   03 Jun 2027 06:29:33.712   03 Jun 2027 06:29:39.424             5.712          1988.375
        60   03 Jun 2027 07:51:35.185   03 Jun 2027 07:51:47.070            11.885          5791.781
        61   03 Jun 2027 07:52:12.457   03 Jun 2027 07:52:15.626             3.169           400.875
        62   03 Jun 2027 07:52:49.290   03 Jun 2027 07:52:54.417             5.127           379.781
        63   03 Jun 2027 07:53:39.864   03 Jun 2027 07:53:41.462             1.598           507.344
        64   03 Jun 2027 07:54:58.384   03 Jun 2027 07:55:07.449             9.065          2403.813
        65   03 Jun 2027 07:56:27.386   03 Jun 2027 07:56:32.346             4.960          2220.094
        66   03 Jun 2027 07:56:43.274   03 Jun 2027 07:56:44.947             1.673            25.250
        67   03 Jun 2027 09:26:30.918   03 Jun 2027 09:26:42.462            11.544          2523.844
        68   03 Jun 2027 09:28:05.128   03 Jun 2027 09:28:05.790             0.662           148.813
        69   03 Jun 2027 09:29:03.446   03 Jun 2027 09:29:08.021             4.575          1532.156
        70   03 Jun 2027 09:30:16.363   03 Jun 2027 09:30:18.854             2.491           816.906
        71   03 Jun 2027 09:32:03.582   03 Jun 2027 09:32:22.799            19.217          2760.313
        72   03 Jun 2027 09:33:19.869   03 Jun 2027 09:33:23.548             3.679           804.531
        73   03 Jun 2027 09:33:51.988   03 Jun 2027 09:33:54.563             2.575           881.938
        74   03 Jun 2027 09:34:44.172   03 Jun 2027 09:34:50.761             6.589          1271.000
        75   03 Jun 2027 11:04:11.519   03 Jun 2027 11:04:25.233            13.714          5083.406
        76   03 Jun 2027 11:06:21.702   03 Jun 2027 11:06:25.713             4.011           969.437
        77   03 Jun 2027 11:07:13.281   03 Jun 2027 11:07:15.931             2.650           363.312
        78   03 Jun 2027 11:09:38.345   03 Jun 2027 11:09:48.224             9.879          4433.969
        79   03 Jun 2027 11:10:28.788   03 Jun 2027 11:10:32.031             3.243           964.687
        80   03 Jun 2027 11:10:47.713   03 Jun 2027 11:10:52.445             4.732           457.969
        81   03 Jun 2027 11:11:28.891   03 Jun 2027 11:11:38.514             9.623           568.969
        82   04 Jun 2027 03:26:58.686   04 Jun 2027 03:27:23.960            25.274         12637.000
        83   04 Jun 2027 03:27:26.289   04 Jun 2027 03:30:09.865           163.576         81788.000
        84   04 Jun 2027 03:31:37.983   04 Jun 2027 03:31:49.335            11.352          5676.000
        85   04 Jun 2027 05:05:20.928   04 Jun 2027 05:07:07.597           106.669         52946.812
        86   04 Jun 2027 05:07:33.464   04 Jun 2027 05:07:37.169             3.705           803.969
        87   04 Jun 2027 05:09:00.237   04 Jun 2027 05:09:09.759             9.522          2595.875
        88   04 Jun 2027 06:29:25.927   04 Jun 2027 06:29:41.046            15.119          6973.813
        89   04 Jun 2027 06:30:17.939   04 Jun 2027 06:30:21.365             3.426           841.906
        90   04 Jun 2027 08:03:13.337   04 Jun 2027 08:03:26.122            12.785          6226.937
        91   04 Jun 2027 08:05:04.620   04 Jun 2027 08:05:08.057             3.437          1532.125
        92   04 Jun 2027 08:05:32.797   04 Jun 2027 08:05:34.414             1.617           662.281
        93   04 Jun 2027 08:06:17.926   04 Jun 2027 08:06:22.556             4.630           661.406
        94   04 Jun 2027 08:07:37.665   04 Jun 2027 08:07:41.714             4.049          1599.250
        95   04 Jun 2027 08:08:09.835   04 Jun 2027 08:08:11.316             1.481           733.313
        96   04 Jun 2027 08:08:40.789   04 Jun 2027 08:08:57.103            16.314           489.844
        97   04 Jun 2027 09:38:05.209   04 Jun 2027 09:38:10.297             5.088          2512.500
        98   04 Jun 2027 09:40:15.618   04 Jun 2027 09:40:20.439             4.821          2352.344
        99   04 Jun 2027 09:40:48.078   04 Jun 2027 09:40:50.931             2.853           517.625
       100   04 Jun 2027 09:41:51.197   04 Jun 2027 09:41:56.382             5.185          1585.844
       101   04 Jun 2027 09:44:03.480   04 Jun 2027 09:44:13.927            10.447          2709.344
       102   04 Jun 2027 09:45:31.457   04 Jun 2027 09:45:33.417             1.960           608.875
       103   04 Jun 2027 09:45:56.469   04 Jun 2027 09:46:00.341             3.872           378.219
       104   04 Jun 2027 09:46:41.715   04 Jun 2027 09:46:43.436             1.721           598.875
       105   04 Jun 2027 09:47:20.517   04 Jun 2027 09:47:25.530             5.013          1158.781
       106   04 Jun 2027 11:16:14.559   04 Jun 2027 11:16:44.248            29.689          4041.187
       107   04 Jun 2027 11:20:10.593   04 Jun 2027 11:20:23.974            13.381          6206.281
       108   04 Jun 2027 11:21:17.701   04 Jun 2027 11:21:20.978             3.277          1604.375
       109   04 Jun 2027 11:22:35.009   04 Jun 2027 11:22:41.314             6.305          2129.281
       110   04 Jun 2027 11:23:05.893   04 Jun 2027 11:23:13.215             7.322           759.062
       111   04 Jun 2027 11:23:20.556   04 Jun 2027 11:23:27.247             6.691           222.562
       112   05 Jun 2027 03:39:31.332   05 Jun 2027 03:40:23.427            52.095         26047.500
       113   05 Jun 2027 03:40:33.402   05 Jun 2027 03:41:15.342            41.940         20970.000
       114   05 Jun 2027 03:41:15.891   05 Jun 2027 03:43:35.734           139.843         69921.500
       115   05 Jun 2027 05:17:55.590   05 Jun 2027 05:19:00.199            64.609         32304.500
       116   05 Jun 2027 05:19:16.957   05 Jun 2027 05:19:39.005            22.048          9518.812
       117   05 Jun 2027 05:20:49.935   05 Jun 2027 05:20:55.070             5.135          2100.406
       118   05 Jun 2027 05:21:51.975   05 Jun 2027 05:21:56.897             4.922           345.781
       119   05 Jun 2027 05:22:24.898   05 Jun 2027 05:22:27.560             2.662           401.500
       120   05 Jun 2027 06:41:21.142   05 Jun 2027 06:41:38.389            17.247          5899.469
       121   05 Jun 2027 06:42:33.956   05 Jun 2027 06:42:33.956             0.000             0.000
       122   05 Jun 2027 06:42:41.789   05 Jun 2027 06:42:46.731             4.942          1768.906
       123   05 Jun 2027 06:43:36.343   05 Jun 2027 06:43:43.138             6.795          1399.969
       124   05 Jun 2027 08:17:36.463   05 Jun 2027 08:17:47.343            10.880          4772.500
       125   05 Jun 2027 08:18:11.198   05 Jun 2027 08:18:12.416             1.218           428.687
       126   05 Jun 2027 08:18:37.420   05 Jun 2027 08:18:43.621             6.201           712.344
       127   05 Jun 2027 08:19:32.163   05 Jun 2027 08:19:34.606             2.443          1086.344
       128   05 Jun 2027 08:19:58.256   05 Jun 2027 08:20:01.540             3.284           739.062
       129   05 Jun 2027 09:51:08.979   05 Jun 2027 09:51:15.756             6.777          3149.844
       130   05 Jun 2027 09:52:44.254   05 Jun 2027 09:52:50.677             6.423           871.344
       131   05 Jun 2027 09:53:32.409   05 Jun 2027 09:53:34.663             2.254           944.469
       132   05 Jun 2027 09:53:46.012   05 Jun 2027 09:53:46.012             0.000             0.000
       133   05 Jun 2027 09:54:40.851   05 Jun 2027 09:54:44.676             3.825          1863.375
       134   05 Jun 2027 09:55:38.848   05 Jun 2027 09:55:39.302             0.454            59.187
       135   05 Jun 2027 09:55:42.669   05 Jun 2027 09:55:43.184             0.515           105.219
       136   05 Jun 2027 09:58:03.197   05 Jun 2027 09:58:14.154            10.957          4375.406
       137   05 Jun 2027 09:58:54.436   05 Jun 2027 09:59:01.072             6.636          1228.625
       138   05 Jun 2027 09:59:26.703   05 Jun 2027 09:59:29.355             2.652           800.969
       139   05 Jun 2027 09:59:38.355   05 Jun 2027 09:59:41.154             2.799            34.563
       140   05 Jun 2027 11:28:41.460   05 Jun 2027 11:28:49.566             8.106          3858.219
       141   05 Jun 2027 11:32:32.282   05 Jun 2027 11:32:40.213             7.931          3305.969
       142   05 Jun 2027 11:33:31.974   05 Jun 2027 11:33:37.284             5.310           197.219
       143   05 Jun 2027 11:33:41.405   05 Jun 2027 11:33:45.524             4.119           128.781
       144   05 Jun 2027 11:34:26.267   05 Jun 2027 11:34:29.859             3.592          1054.812
       145   05 Jun 2027 11:34:59.673   05 Jun 2027 11:35:02.053             2.380           757.250
       146   05 Jun 2027 11:35:17.664   05 Jun 2027 11:35:18.595             0.931           329.094
       147   06 Jun 2027 03:51:31.255   06 Jun 2027 03:51:39.245             7.990          3995.000
       148   06 Jun 2027 03:51:46.202   06 Jun 2027 03:54:42.317           176.115         88057.500
       149   06 Jun 2027 03:55:16.634   06 Jun 2027 03:55:50.629            33.995         16997.500
       150   06 Jun 2027 05:29:34.456   06 Jun 2027 05:31:21.321           106.865         52007.093
       151   06 Jun 2027 05:31:53.395   06 Jun 2027 05:31:56.525             3.130           951.125
       152   06 Jun 2027 05:32:22.322   06 Jun 2027 05:32:24.130             1.808           806.156
       153   06 Jun 2027 06:53:13.131   06 Jun 2027 06:53:22.727             9.596          4426.469
       154   06 Jun 2027 06:55:08.767   06 Jun 2027 06:55:15.360             6.593          2862.594
       155   06 Jun 2027 06:55:35.801   06 Jun 2027 06:55:35.801             0.000             0.000
       156   06 Jun 2027 06:55:52.381   06 Jun 2027 06:55:53.161             0.780           390.000
       157   06 Jun 2027 08:29:40.678   06 Jun 2027 08:29:48.747             8.069          3919.563
       158   06 Jun 2027 08:31:03.468   06 Jun 2027 08:31:08.290             4.822          2265.500
       159   06 Jun 2027 08:31:11.115   06 Jun 2027 08:31:12.140             1.025            88.281
       160   06 Jun 2027 08:32:14.638   06 Jun 2027 08:32:19.800             5.162          1705.250
       161   06 Jun 2027 10:03:48.687   06 Jun 2027 10:03:58.962            10.275          3555.563
       162   06 Jun 2027 10:05:51.696   06 Jun 2027 10:06:01.058             9.362           549.250
       163   06 Jun 2027 10:07:02.178   06 Jun 2027 10:07:03.672             1.494           456.937
       164   06 Jun 2027 10:09:47.201   06 Jun 2027 10:09:55.947             8.746          3895.031
       165   06 Jun 2027 10:10:38.542   06 Jun 2027 10:10:43.204             4.662          1179.187
       166   06 Jun 2027 10:11:00.877   06 Jun 2027 10:11:02.201             1.324           380.500
       167   06 Jun 2027 10:11:18.465   06 Jun 2027 10:11:21.258             2.793           353.750
       168   06 Jun 2027 10:11:29.261   06 Jun 2027 10:11:30.303             1.042           250.094
       169   06 Jun 2027 10:11:36.468   06 Jun 2027 10:11:36.803             0.335            92.625
       170   06 Jun 2027 11:40:47.312   06 Jun 2027 11:41:02.304            14.992          5884.250
       171   06 Jun 2027 11:42:36.561   06 Jun 2027 11:42:44.307             7.746          1359.563
       172   06 Jun 2027 11:42:59.448   06 Jun 2027 11:43:02.296             2.848           368.375
       173   06 Jun 2027 11:43:31.477   06 Jun 2027 11:43:32.846             1.369           477.406
       174   06 Jun 2027 11:44:47.968   06 Jun 2027 11:44:54.458             6.490          1846.938
       175   06 Jun 2027 11:44:54.529   06 Jun 2027 11:44:55.671             1.142             2.219
       176   06 Jun 2027 11:45:38.540   06 Jun 2027 11:45:41.834             3.294          1044.938
       177   06 Jun 2027 11:46:40.968   06 Jun 2027 11:46:45.784             4.816          1733.000
       178   06 Jun 2027 11:46:52.753   06 Jun 2027 11:46:53.771             1.018            97.031
       179   07 Jun 2027 04:03:39.588   07 Jun 2027 04:04:39.718            60.130         30065.000
       180   07 Jun 2027 04:04:48.664   07 Jun 2027 04:06:29.909           101.245         50622.500
       181   07 Jun 2027 04:08:14.791   07 Jun 2027 04:08:19.982             5.191          2595.500
       182   07 Jun 2027 04:08:30.017   07 Jun 2027 04:08:56.378            26.361         13180.500
       183   07 Jun 2027 04:09:14.823   07 Jun 2027 04:09:18.601             3.778          1889.000
       184   07 Jun 2027 04:09:30.950   07 Jun 2027 04:09:30.950             0.000             0.000
       185   07 Jun 2027 05:41:59.518   07 Jun 2027 05:42:26.457            26.939         13469.500
       186   07 Jun 2027 05:42:47.741   07 Jun 2027 05:44:25.021            97.280         47748.031
       187   07 Jun 2027 07:05:21.651   07 Jun 2027 07:05:40.873            19.222          7655.344
       188   07 Jun 2027 07:06:16.269   07 Jun 2027 07:06:18.446             2.177           780.969
       189   07 Jun 2027 07:06:48.073   07 Jun 2027 07:06:52.973             4.900           925.844
       190   07 Jun 2027 07:07:56.857   07 Jun 2027 07:07:59.634             2.777          1388.500
       191   07 Jun 2027 08:41:51.552   07 Jun 2027 08:42:01.198             9.646          2936.750
       192   07 Jun 2027 08:42:56.493   07 Jun 2027 08:42:58.628             2.135          1067.500
       193   07 Jun 2027 08:43:34.352   07 Jun 2027 08:43:42.049             7.697          1427.656
       194   07 Jun 2027 08:44:16.657   07 Jun 2027 08:44:20.891             4.234           108.781
       195   07 Jun 2027 10:17:01.988   07 Jun 2027 10:17:16.252            14.264          6374.781
       196   07 Jun 2027 10:18:14.507   07 Jun 2027 10:18:19.300             4.793          1561.937
       197   07 Jun 2027 10:19:58.594   07 Jun 2027 10:20:05.066             6.472          3102.938
       198   07 Jun 2027 10:21:59.850   07 Jun 2027 10:21:59.850             0.000             0.000
       199   07 Jun 2027 10:23:09.733   07 Jun 2027 10:23:21.390            11.657          5118.437
       200   07 Jun 2027 10:23:30.888   07 Jun 2027 10:23:32.723             1.835           168.906
       201   07 Jun 2027 11:53:23.302   07 Jun 2027 11:53:35.446            12.144          4444.219
       202   07 Jun 2027 11:54:32.726   07 Jun 2027 11:54:38.768             6.042          1277.656
       203   07 Jun 2027 11:55:08.326   07 Jun 2027 11:55:14.028             5.702           594.656
       204   07 Jun 2027 11:55:59.007   07 Jun 2027 11:56:02.484             3.477          1198.344
       205   07 Jun 2027 11:57:24.589   07 Jun 2027 11:57:27.773             3.184          1579.719
       206   07 Jun 2027 11:58:03.418   07 Jun 2027 11:58:06.669             3.251           828.219
       207   07 Jun 2027 11:58:31.576   07 Jun 2027 11:58:33.136             1.560           226.719
       208   07 Jun 2027 11:58:45.615   07 Jun 2027 11:58:46.741             1.126           389.969
       209   07 Jun 2027 11:59:30.792   07 Jun 2027 11:59:34.055             3.263          1126.719
       210   08 Jun 2027 04:15:44.388   08 Jun 2027 04:15:58.273            13.885          6942.500
       211   08 Jun 2027 04:16:46.767   08 Jun 2027 04:19:01.011           134.244         67122.000
       212   08 Jun 2027 04:21:14.262   08 Jun 2027 04:21:21.551             7.289          3644.500
       213   08 Jun 2027 04:23:57.254   08 Jun 2027 04:24:36.148            38.894         19447.000
       214   08 Jun 2027 05:53:55.507   08 Jun 2027 05:54:33.451            37.944         18972.000
       215   08 Jun 2027 05:55:03.029   08 Jun 2027 05:56:21.821            78.792         39069.594
       216   08 Jun 2027 05:57:19.280   08 Jun 2027 05:57:23.204             3.924          1373.719
       217   08 Jun 2027 07:18:04.651   08 Jun 2027 07:18:18.870            14.219          5746.969
       218   08 Jun 2027 07:19:11.137   08 Jun 2027 07:19:11.137             0.000             0.000
       219   08 Jun 2027 07:19:55.664   08 Jun 2027 07:19:57.399             1.735           867.500
       220   08 Jun 2027 07:20:15.776   08 Jun 2027 07:20:24.789             9.013          2171.219
       221   08 Jun 2027 08:53:47.700   08 Jun 2027 08:53:55.099             7.399          2384.969
       222   08 Jun 2027 08:55:25.161   08 Jun 2027 08:55:33.339             8.178          2646.406
       223   08 Jun 2027 08:55:48.528   08 Jun 2027 08:55:49.130             0.602           301.000
       224   08 Jun 2027 08:57:11.616   08 Jun 2027 08:57:17.186             5.570          2751.344
       225   08 Jun 2027 10:28:45.212   08 Jun 2027 10:28:53.658             8.446          2994.062
       226   08 Jun 2027 10:30:41.193   08 Jun 2027 10:30:48.416             7.223          2804.719
       227   08 Jun 2027 10:31:53.605   08 Jun 2027 10:31:54.874             1.269           634.500
       228   08 Jun 2027 10:33:59.985   08 Jun 2027 10:34:09.696             9.711          4689.375
       229   08 Jun 2027 10:34:19.421   08 Jun 2027 10:34:26.078             6.657           130.656
       230   08 Jun 2027 10:35:25.458   08 Jun 2027 10:35:26.420             0.962           311.812
       231   09 Jun 2027 04:28:49.843   09 Jun 2027 04:31:18.374           148.531         74265.500
       232   09 Jun 2027 04:31:22.475   09 Jun 2027 04:31:25.175             2.700          1350.000
       233   09 Jun 2027 04:31:26.550   09 Jun 2027 04:31:48.225            21.675         10837.500
       234   09 Jun 2027 04:33:01.086   09 Jun 2027 04:33:01.086             0.000             0.000
       235   09 Jun 2027 04:33:08.823   09 Jun 2027 04:33:54.556            45.733         22866.500
       236   09 Jun 2027 05:54:50.914   09 Jun 2027 05:55:12.724            21.810         10905.000
       237   09 Jun 2027 06:05:51.763   09 Jun 2027 06:07:28.563            96.800         46554.125
       238   09 Jun 2027 06:08:32.264   09 Jun 2027 06:08:32.941             0.677           338.500
       239   09 Jun 2027 06:08:47.460   09 Jun 2027 06:08:56.546             9.086          1785.750
       240   09 Jun 2027 07:28:52.016   09 Jun 2027 07:29:03.154            11.138          4580.156
       241   09 Jun 2027 07:29:45.707   09 Jun 2027 07:29:49.276             3.569          1195.719
       242   09 Jun 2027 07:30:03.839   09 Jun 2027 07:30:07.673             3.834           455.094
       243   09 Jun 2027 07:30:46.732   09 Jun 2027 07:30:53.558             6.826           795.625
       244   09 Jun 2027 07:32:42.514   09 Jun 2027 07:32:48.323             5.809          2857.938
       245   09 Jun 2027 09:04:23.713   09 Jun 2027 09:04:29.735             6.022          3011.000
       246   09 Jun 2027 09:06:11.245   09 Jun 2027 09:06:16.838             5.593          2250.875
       247   09 Jun 2027 09:07:05.997   09 Jun 2027 09:07:06.571             0.574           281.062
       248   09 Jun 2027 09:08:06.449   09 Jun 2027 09:08:09.530             3.081           355.812
       249   09 Jun 2027 09:08:16.421   09 Jun 2027 09:08:17.754             1.333           123.875
       250   09 Jun 2027 09:09:10.549   09 Jun 2027 09:09:22.223            11.674          1589.344
       251   09 Jun 2027 10:40:43.023   09 Jun 2027 10:40:49.889             6.866          3278.812
       252   09 Jun 2027 10:41:35.495   09 Jun 2027 10:41:38.167             2.672          1324.781
       253   09 Jun 2027 10:43:24.659   09 Jun 2027 10:43:28.091             3.432          1291.437
       254   09 Jun 2027 10:44:21.222   09 Jun 2027 10:44:31.663            10.441           989.406
       255   09 Jun 2027 10:45:04.419   09 Jun 2027 10:45:05.901             1.482           308.031
       256   09 Jun 2027 10:46:44.511   09 Jun 2027 10:46:49.746             5.235          2512.562
       257   09 Jun 2027 10:47:25.958   09 Jun 2027 10:47:33.624             7.666           738.406
       258   10 Jun 2027 03:02:12.921   10 Jun 2027 03:02:40.001            27.080         13540.000
       259   10 Jun 2027 03:02:53.273   10 Jun 2027 03:03:08.703            15.430          7715.000
       260   10 Jun 2027 03:06:36.729   10 Jun 2027 03:06:55.148            18.419          9209.500
       261   10 Jun 2027 03:07:28.134   10 Jun 2027 03:07:41.701            13.567          6783.500
       262   10 Jun 2027 03:08:26.878   10 Jun 2027 03:08:26.878             0.000             0.000
       263   10 Jun 2027 03:08:36.542   10 Jun 2027 03:08:37.763             1.221           610.500
       264   10 Jun 2027 04:41:16.064   10 Jun 2027 04:44:11.295           175.231         87615.500
       265   10 Jun 2027 04:45:08.236   10 Jun 2027 04:46:04.429            56.193         28096.500
       266   10 Jun 2027 04:46:33.079   10 Jun 2027 04:46:36.305             3.226          1370.750
       267   10 Jun 2027 06:06:12.332   10 Jun 2027 06:06:40.952            28.620         12942.375
       268   10 Jun 2027 06:17:54.377   10 Jun 2027 06:18:08.485            14.108          5850.562
       269   10 Jun 2027 07:40:08.147   10 Jun 2027 07:40:19.278            11.131          5565.500
       270   10 Jun 2027 07:40:44.450   10 Jun 2027 07:40:47.446             2.996          1256.500
       271   10 Jun 2027 07:42:07.496   10 Jun 2027 07:42:11.819             4.323          1677.312
       272   10 Jun 2027 07:42:49.762   10 Jun 2027 07:42:52.841             3.079           822.656
       273   10 Jun 2027 07:43:42.440   10 Jun 2027 07:43:45.276             2.836           923.156
       274   10 Jun 2027 07:44:21.915   10 Jun 2027 07:44:21.915             0.000             0.000
       275   10 Jun 2027 07:44:37.013   10 Jun 2027 07:44:42.546             5.533          1254.312
       276   10 Jun 2027 09:15:15.534   10 Jun 2027 09:15:22.244             6.710          3018.000
       277   10 Jun 2027 09:16:00.890   10 Jun 2027 09:16:02.843             1.953           709.656
       278   10 Jun 2027 09:18:09.536   10 Jun 2027 09:18:19.986            10.450          1811.781
       279   10 Jun 2027 09:19:55.009   10 Jun 2027 09:20:00.094             5.085          2023.063
       280   10 Jun 2027 09:20:40.385   10 Jun 2027 09:20:43.675             3.290           618.156
       281   10 Jun 2027 09:21:24.312   10 Jun 2027 09:21:26.086             1.774           519.750
       282   10 Jun 2027 09:22:10.495   10 Jun 2027 09:22:13.427             2.932           891.719
       283   10 Jun 2027 10:52:27.212   10 Jun 2027 10:52:35.487             8.275          4137.500
       284   10 Jun 2027 10:55:42.578   10 Jun 2027 10:55:54.564            11.986          5892.406
       285   10 Jun 2027 10:56:53.789   10 Jun 2027 10:56:58.896             5.107          1802.438
       286   10 Jun 2027 10:57:23.033   10 Jun 2027 10:57:25.875             2.842           533.156
       287   10 Jun 2027 10:57:50.328   10 Jun 2027 10:57:50.834             0.506           245.625
       288   10 Jun 2027 10:58:56.829   10 Jun 2027 10:59:03.218             6.389          2062.344
       289   10 Jun 2027 10:59:04.637   10 Jun 2027 10:59:13.755             9.118            44.344
       290   10 Jun 2027 10:59:48.858   10 Jun 2027 10:59:52.018             3.160           714.844
       291   11 Jun 2027 03:14:30.465   11 Jun 2027 03:15:03.472            33.007         16503.500
       292   11 Jun 2027 03:15:03.692   11 Jun 2027 03:16:09.457            65.765         32882.500
       293   11 Jun 2027 03:17:12.376   11 Jun 2027 03:17:41.946            29.570         14785.000
       294   11 Jun 2027 03:19:01.642   11 Jun 2027 03:19:53.461            51.819         25909.500
       295   11 Jun 2027 03:19:55.270   11 Jun 2027 03:20:00.864             5.594          2797.000
       296   11 Jun 2027 04:53:29.964   11 Jun 2027 04:53:34.943             4.979          2489.500
       297   11 Jun 2027 04:54:13.835   11 Jun 2027 04:55:52.020            98.185         49092.500
       298   11 Jun 2027 04:57:13.188   11 Jun 2027 04:57:42.175            28.987         13311.593
       299   11 Jun 2027 04:58:14.117   11 Jun 2027 04:58:15.628             1.511           166.812
       300   11 Jun 2027 04:59:41.206   11 Jun 2027 04:59:47.022             5.816           849.250
       301   11 Jun 2027 06:17:38.491   11 Jun 2027 06:17:52.611            14.120          5468.969
       302   11 Jun 2027 06:19:22.512   11 Jun 2027 06:19:28.744             6.232          2744.719
       303   11 Jun 2027 06:29:51.666   11 Jun 2027 06:29:59.560             7.894          3445.875
       304   11 Jun 2027 07:51:53.079   11 Jun 2027 07:52:05.487            12.408          5694.437
       305   11 Jun 2027 07:53:56.536   11 Jun 2027 07:53:59.189             2.653          1303.813
       306   11 Jun 2027 07:54:36.130   11 Jun 2027 07:54:40.051             3.921          1127.031
       307   11 Jun 2027 07:55:20.031   11 Jun 2027 07:55:23.626             3.595           770.906
       308   11 Jun 2027 07:56:44.885   11 Jun 2027 07:56:49.918             5.033          2287.375
       309   11 Jun 2027 07:56:59.417   11 Jun 2027 07:57:01.498             2.081            43.219
       310   11 Jun 2027 09:27:28.637   11 Jun 2027 09:27:38.438             9.801          4517.719
       311   11 Jun 2027 09:28:23.676   11 Jun 2027 09:28:27.853             4.177           146.406
       312   11 Jun 2027 09:29:21.835   11 Jun 2027 09:29:26.955             5.120          1550.344
       313   11 Jun 2027 09:30:31.171   11 Jun 2027 09:30:33.491             2.320           759.719
       314   11 Jun 2027 09:32:21.025   11 Jun 2027 09:32:38.434            17.409          2744.562
       315   11 Jun 2027 09:33:36.000   11 Jun 2027 09:33:37.533             1.533           724.531
       316   11 Jun 2027 09:34:11.313   11 Jun 2027 09:34:13.432             2.119           904.625
       317   11 Jun 2027 09:35:01.037   11 Jun 2027 09:35:06.432             5.395          1031.813
       318   11 Jun 2027 11:04:29.099   11 Jun 2027 11:04:38.622             9.523          4416.250
       319   11 Jun 2027 11:05:37.959   11 Jun 2027 11:05:42.883             4.924           420.688
       320   11 Jun 2027 11:07:15.453   11 Jun 2027 11:07:18.678             3.225          1148.094
       321   11 Jun 2027 11:08:01.798   11 Jun 2027 11:08:05.266             3.468          1024.719
       322   11 Jun 2027 11:08:30.147   11 Jun 2027 11:08:30.147             0.000             0.000
       323   11 Jun 2027 11:09:55.984   11 Jun 2027 11:10:05.822             9.838          3459.937
       324   11 Jun 2027 11:10:45.901   11 Jun 2027 11:10:48.545             2.644           965.469
       325   11 Jun 2027 11:11:04.687   11 Jun 2027 11:11:06.672             1.985           504.437
       326   11 Jun 2027 11:11:25.393   11 Jun 2027 11:11:26.520             1.127           202.969
       327   11 Jun 2027 11:11:43.427   11 Jun 2027 11:11:54.050            10.623           501.312
       328   12 Jun 2027 03:27:16.430   12 Jun 2027 03:27:40.890            24.460         12230.000
       329   12 Jun 2027 03:27:43.702   12 Jun 2027 03:29:01.181            77.479         38739.500
       330   12 Jun 2027 03:29:04.197   12 Jun 2027 03:30:43.286            99.089         49544.500
       331   12 Jun 2027 03:31:11.682   12 Jun 2027 03:31:20.221             8.539          4269.500
       332   12 Jun 2027 05:05:39.408   12 Jun 2027 05:07:22.674           103.266         50147.906
       333   12 Jun 2027 05:09:18.660   12 Jun 2027 05:09:25.410             6.750          2729.719
       334   12 Jun 2027 05:10:10.161   12 Jun 2027 05:10:12.429             2.268           936.219
       335   12 Jun 2027 06:29:42.849   12 Jun 2027 06:29:54.280            11.431          4045.875
       336   12 Jun 2027 06:30:29.281   12 Jun 2027 06:30:33.401             4.120           720.000
       337   12 Jun 2027 06:30:49.510   12 Jun 2027 06:30:54.825             5.315           454.906
       338   12 Jun 2027 06:31:27.377   12 Jun 2027 06:31:29.683             2.306           120.625
       339   12 Jun 2027 08:03:28.712   12 Jun 2027 08:03:43.778            15.066          6990.281
       340   12 Jun 2027 08:05:21.564   12 Jun 2027 08:05:26.265             4.701          1500.031
       341   12 Jun 2027 08:05:49.549   12 Jun 2027 08:05:51.093             1.544           713.937
       342   12 Jun 2027 08:06:26.922   12 Jun 2027 08:06:32.853             5.931          1119.656
       343   12 Jun 2027 08:07:22.637   12 Jun 2027 08:07:25.824             3.187          1499.719
       344   12 Jun 2027 08:08:02.851   12 Jun 2027 08:08:02.851             0.000             0.000
       345   12 Jun 2027 08:08:27.489   12 Jun 2027 08:08:29.750             2.261          1061.844
       346   12 Jun 2027 08:08:57.921   12 Jun 2027 08:09:12.122            14.201           569.594
       347   12 Jun 2027 09:39:29.651   12 Jun 2027 09:39:39.023             9.372          3332.406
       348   12 Jun 2027 09:40:50.338   12 Jun 2027 09:40:52.821             2.483           529.812
       349   12 Jun 2027 09:41:35.028   12 Jun 2027 09:41:38.817             3.789           870.938
       350   12 Jun 2027 09:42:02.999   12 Jun 2027 09:42:02.999             0.000             0.000
       351   12 Jun 2027 09:42:54.961   12 Jun 2027 09:42:59.870             4.909          1725.531
       352   12 Jun 2027 09:45:27.957   12 Jun 2027 09:45:32.352             4.395          2096.500
       353   12 Jun 2027 09:46:37.256   12 Jun 2027 09:46:41.364             4.108          1558.625
       354   12 Jun 2027 11:16:32.700   12 Jun 2027 11:16:46.610            13.910          4619.969
       355   12 Jun 2027 11:17:47.575   12 Jun 2027 11:17:49.603             2.028          1014.000
       356   12 Jun 2027 11:18:09.340   12 Jun 2027 11:18:10.892             1.552           669.969
       357   12 Jun 2027 11:18:47.768   12 Jun 2027 11:18:50.442             2.674           420.250
       358   12 Jun 2027 11:20:31.095   12 Jun 2027 11:20:36.624             5.529          2228.719
       359   12 Jun 2027 11:21:36.421   12 Jun 2027 11:21:40.331             3.910          1658.156
       360   12 Jun 2027 11:22:50.491   12 Jun 2027 11:22:56.090             5.599          2099.875
       361   12 Jun 2027 11:23:22.694   12 Jun 2027 11:23:30.220             7.526           813.969
       362   12 Jun 2027 11:23:35.038   12 Jun 2027 11:23:37.408             2.370           150.562
       363   13 Jun 2027 03:39:50.838   13 Jun 2027 03:40:39.788            48.950         24475.000
       364   13 Jun 2027 03:40:49.627   13 Jun 2027 03:41:32.368            42.741         21370.500
       365   13 Jun 2027 03:41:33.088   13 Jun 2027 03:43:26.052           112.964         56482.000
       366   13 Jun 2027 05:18:13.320   13 Jun 2027 05:19:56.645           103.325         51656.156
       367   13 Jun 2027 05:21:03.991   13 Jun 2027 05:21:09.377             5.386          1970.906
       368   13 Jun 2027 05:22:08.662   13 Jun 2027 05:22:11.607             2.945           427.656
       369   13 Jun 2027 05:22:41.680   13 Jun 2027 05:22:42.811             1.131           453.969
       370   13 Jun 2027 06:41:37.842   13 Jun 2027 06:41:53.179            15.337          5953.156
       371   13 Jun 2027 06:43:08.343   13 Jun 2027 06:43:08.343             0.000             0.000
       372   13 Jun 2027 06:43:39.572   13 Jun 2027 06:43:46.074             6.502          3100.344
       373   13 Jun 2027 08:17:57.415   13 Jun 2027 08:18:04.230             6.815          3407.500
       374   13 Jun 2027 08:18:26.395   13 Jun 2027 08:18:32.272             5.877          2331.156
       375   13 Jun 2027 08:19:30.678   13 Jun 2027 08:19:38.483             7.805          1825.188
       376   13 Jun 2027 08:20:12.499   13 Jun 2027 08:20:13.945             1.446           690.812
       377   13 Jun 2027 08:20:58.856   13 Jun 2027 08:21:01.702             2.846           902.000
       378   13 Jun 2027 09:51:27.944   13 Jun 2027 09:51:36.221             8.277          2532.906
       379   13 Jun 2027 09:52:54.892   13 Jun 2027 09:53:01.502             6.610           650.031
       380   13 Jun 2027 09:53:57.650   13 Jun 2027 09:53:57.650             0.000             0.000
       381   13 Jun 2027 09:54:05.788   13 Jun 2027 09:54:09.450             3.662          1389.531
       382   13 Jun 2027 09:55:59.643   13 Jun 2027 09:56:05.809             6.166          2839.781
       383   13 Jun 2027 09:57:17.091   13 Jun 2027 09:57:21.291             4.200          1783.031
       384   13 Jun 2027 09:58:18.108   13 Jun 2027 09:58:21.400             3.292          1056.500
       385   13 Jun 2027 09:58:34.597   13 Jun 2027 09:58:38.780             4.183           213.437
       386   13 Jun 2027 09:59:13.310   13 Jun 2027 09:59:17.933             4.623            61.063
       387   13 Jun 2027 09:59:42.144   13 Jun 2027 09:59:50.993             8.849           756.594
       388   13 Jun 2027 09:59:54.598   13 Jun 2027 09:59:58.016             3.418            72.875
       389   13 Jun 2027 11:28:58.751   13 Jun 2027 11:29:11.159            12.408          3875.469
       390   13 Jun 2027 11:31:14.325   13 Jun 2027 11:31:17.514             3.189           432.125
       391   13 Jun 2027 11:32:34.197   13 Jun 2027 11:32:39.673             5.476          2257.094
       392   13 Jun 2027 11:33:44.281   13 Jun 2027 11:33:48.398             4.117          1918.875
       393   13 Jun 2027 11:34:23.818   13 Jun 2027 11:34:39.880            16.062          1106.875
       394   13 Jun 2027 11:35:15.576   13 Jun 2027 11:35:21.514             5.938           785.750
       395   13 Jun 2027 11:35:34.545   13 Jun 2027 11:35:40.465             5.920           407.219
