uniorb/output/strategy_4/Camera/Camera_KinoSat_111910.txt

KinoSat_111910
-------------------------
    Access    *     Start Time (UTCG)     *     Stop Time (UTCG)  *   Duration (s) *   Data (Mbytes)
         1   01 Jun 2027 03:49:21.768   01 Jun 2027 03:51:51.240           149.472         74736.000
         2   01 Jun 2027 03:53:15.320   01 Jun 2027 03:53:21.835             6.515          3257.500
         3   01 Jun 2027 05:28:19.682   01 Jun 2027 05:30:18.874           119.192         59596.000
         4   01 Jun 2027 05:32:45.712   01 Jun 2027 05:32:51.675             5.963          2981.500
         5   01 Jun 2027 05:33:53.174   01 Jun 2027 05:34:02.039             8.865          4432.500
         6   01 Jun 2027 05:35:07.545   01 Jun 2027 05:35:43.927            36.382         18191.000
         7   01 Jun 2027 06:53:35.976   01 Jun 2027 06:54:38.629            62.653         31326.500
         8   01 Jun 2027 07:05:03.514   01 Jun 2027 07:05:42.894            39.380         19690.000
         9   01 Jun 2027 08:27:42.295   01 Jun 2027 08:28:41.332            59.037         29518.500
        10   01 Jun 2027 08:29:18.047   01 Jun 2027 08:29:54.116            36.069         18034.500
        11   01 Jun 2027 10:03:02.251   01 Jun 2027 10:03:45.249            42.998         21499.000
        12   01 Jun 2027 10:04:37.858   01 Jun 2027 10:05:27.155            49.297         24648.500
        13   01 Jun 2027 10:06:16.694   01 Jun 2027 10:06:16.694             0.000             0.000
        14   01 Jun 2027 10:07:24.172   01 Jun 2027 10:07:27.439             3.267          1633.500
        15   01 Jun 2027 11:39:32.489   01 Jun 2027 11:39:52.182            19.693          9846.500
        16   01 Jun 2027 11:46:13.743   01 Jun 2027 11:47:01.724            47.981         23990.500
        17   02 Jun 2027 04:01:30.652   02 Jun 2027 04:03:02.410            91.758         45879.000
        18   02 Jun 2027 04:03:05.022   02 Jun 2027 04:03:09.786             4.764          2382.000
        19   02 Jun 2027 04:03:50.069   02 Jun 2027 04:03:50.069             0.000             0.000
        20   02 Jun 2027 04:03:59.948   02 Jun 2027 04:04:08.779             8.831          4415.500
        21   02 Jun 2027 04:04:39.937   02 Jun 2027 04:04:54.412            14.475          7237.500
        22   02 Jun 2027 04:05:14.552   02 Jun 2027 04:05:36.843            22.291         11145.500
        23   02 Jun 2027 04:05:52.003   02 Jun 2027 04:05:55.020             3.017          1508.500
        24   02 Jun 2027 04:06:22.672   02 Jun 2027 04:06:24.404             1.732           866.000
        25   02 Jun 2027 04:07:26.600   02 Jun 2027 04:07:35.196             8.596          4298.000
        26   02 Jun 2027 05:40:35.596   02 Jun 2027 05:43:13.693           158.097         79048.500
        27   02 Jun 2027 05:43:53.981   02 Jun 2027 05:44:11.646            17.665          8832.500
        28   02 Jun 2027 05:45:45.530   02 Jun 2027 05:47:39.422           113.892         56946.000
        29   02 Jun 2027 07:04:50.283   02 Jun 2027 07:05:23.084            32.801         16400.500
        30   02 Jun 2027 07:06:13.464   02 Jun 2027 07:06:28.366            14.902          7451.000
        31   02 Jun 2027 07:17:02.653   02 Jun 2027 07:17:58.662            56.009         28004.500
        32   02 Jun 2027 08:39:18.436   02 Jun 2027 08:40:25.208            66.772         33386.000
        33   02 Jun 2027 08:41:14.197   02 Jun 2027 08:41:53.642            39.445         19722.500
        34   02 Jun 2027 10:14:11.728   02 Jun 2027 10:16:15.103           123.375         61687.500
        35   02 Jun 2027 10:17:24.876   02 Jun 2027 10:17:24.876             0.000             0.000
        36   02 Jun 2027 10:19:24.982   02 Jun 2027 10:19:26.689             1.707           853.500
        37   02 Jun 2027 10:20:15.369   02 Jun 2027 10:20:43.442            28.073         12652.813
        38   02 Jun 2027 10:21:21.075   02 Jun 2027 10:21:23.866             2.791          1088.688
        39   02 Jun 2027 10:22:16.684   02 Jun 2027 10:22:23.526             6.842          1181.969
        40   02 Jun 2027 11:55:08.953   02 Jun 2027 11:55:34.872            25.919         11122.656
        41   02 Jun 2027 11:57:11.335   02 Jun 2027 11:57:16.754             5.419          2207.594
        42   02 Jun 2027 11:58:05.812   02 Jun 2027 11:58:11.334             5.522          1233.781
        43   02 Jun 2027 11:58:38.487   02 Jun 2027 11:58:44.506             6.019           848.531
        44   03 Jun 2027 04:13:56.920   03 Jun 2027 04:14:10.302            13.382          6691.000
        45   03 Jun 2027 04:14:23.806   03 Jun 2027 04:16:38.901           135.095         67547.500
        46   03 Jun 2027 04:18:22.910   03 Jun 2027 04:18:23.822             0.912           456.000
        47   03 Jun 2027 04:18:41.591   03 Jun 2027 04:18:43.410             1.819           909.500
        48   03 Jun 2027 05:52:41.613   03 Jun 2027 05:55:58.537           196.924         98462.000
        49   03 Jun 2027 05:57:10.021   03 Jun 2027 05:57:15.113             5.092          2295.188
        50   03 Jun 2027 05:58:52.375   03 Jun 2027 05:59:06.697            14.322          2729.781
        51   03 Jun 2027 07:16:56.306   03 Jun 2027 07:17:23.120            26.814         11949.094
        52   03 Jun 2027 07:18:58.427   03 Jun 2027 07:19:01.015             2.588          1294.000
        53   03 Jun 2027 07:29:24.965   03 Jun 2027 07:29:29.957             4.992          2347.031
        54   03 Jun 2027 08:50:47.631   03 Jun 2027 08:51:06.493            18.862          9401.656
        55   03 Jun 2027 08:52:47.989   03 Jun 2027 08:52:50.860             2.871           485.906
        56   03 Jun 2027 08:53:09.463   03 Jun 2027 08:53:10.357             0.894           447.000
        57   03 Jun 2027 08:54:42.034   03 Jun 2027 08:54:48.739             6.705          2999.250
        58   03 Jun 2027 08:55:29.931   03 Jun 2027 08:55:34.305             4.374          1287.250
        59   03 Jun 2027 10:25:42.159   03 Jun 2027 10:25:47.098             4.939          2187.656
        60   03 Jun 2027 10:28:21.576   03 Jun 2027 10:28:25.870             4.294           683.969
        61   03 Jun 2027 10:29:21.478   03 Jun 2027 10:29:27.887             6.409          1573.563
        62   03 Jun 2027 10:31:25.266   03 Jun 2027 10:31:37.382            12.116          3634.531
        63   03 Jun 2027 10:32:27.259   03 Jun 2027 10:32:29.258             1.999           577.687
        64   03 Jun 2027 10:33:03.668   03 Jun 2027 10:33:05.810             2.142           403.625
        65   03 Jun 2027 10:34:44.546   03 Jun 2027 10:34:52.711             8.165          3085.500
        66   04 Jun 2027 04:26:34.308   04 Jun 2027 04:26:44.247             9.939          4969.500
        67   04 Jun 2027 04:26:56.340   04 Jun 2027 04:27:58.007            61.667         30833.500
        68   04 Jun 2027 04:28:03.231   04 Jun 2027 04:28:27.717            24.486         12243.000
        69   04 Jun 2027 04:28:41.843   04 Jun 2027 04:29:00.702            18.859          9429.500
        70   04 Jun 2027 04:30:08.301   04 Jun 2027 04:30:18.005             9.704          4852.000
        71   04 Jun 2027 04:32:05.790   04 Jun 2027 04:32:10.973             5.183          2591.500
        72   04 Jun 2027 06:05:07.540   04 Jun 2027 06:08:26.805           199.265         99535.750
        73   04 Jun 2027 06:08:30.972   04 Jun 2027 06:08:32.514             1.542            23.219
        74   04 Jun 2027 06:09:51.728   04 Jun 2027 06:09:57.029             5.301           795.156
        75   04 Jun 2027 07:28:52.413   04 Jun 2027 07:29:13.426            21.013          7370.000
        76   04 Jun 2027 07:30:07.696   04 Jun 2027 07:30:11.368             3.672          1553.500
        77   04 Jun 2027 09:04:51.999   04 Jun 2027 09:05:12.808            20.809         10082.156
        78   04 Jun 2027 09:05:27.013   04 Jun 2027 09:05:30.984             3.971           443.906
        79   04 Jun 2027 09:05:44.933   04 Jun 2027 09:05:46.555             1.622           391.844
        80   04 Jun 2027 09:07:50.209   04 Jun 2027 09:08:01.206            10.997          3864.188
        81   04 Jun 2027 10:38:36.149   04 Jun 2027 10:38:41.642             5.493          2529.188
        82   04 Jun 2027 10:40:29.568   04 Jun 2027 10:40:33.915             4.347          1812.281
        83   04 Jun 2027 10:40:45.679   04 Jun 2027 10:40:47.521             1.842           332.844
        84   04 Jun 2027 10:41:16.682   04 Jun 2027 10:41:16.682             0.000             0.000
        85   04 Jun 2027 10:41:18.398   04 Jun 2027 10:41:19.585             1.187           505.062
        86   04 Jun 2027 10:44:10.807   04 Jun 2027 10:44:16.369             5.562          2530.469
        87   04 Jun 2027 10:44:52.198   04 Jun 2027 10:45:00.281             8.083           756.750
        88   04 Jun 2027 10:45:37.757   04 Jun 2027 10:45:39.803             2.046           551.187
        89   04 Jun 2027 10:46:06.414   04 Jun 2027 10:46:11.183             4.769           831.594
        90   04 Jun 2027 10:46:20.875   04 Jun 2027 10:46:23.085             2.210           153.000
        91   04 Jun 2027 10:46:34.853   04 Jun 2027 10:46:35.933             1.080           352.937
        92   04 Jun 2027 10:46:46.160   04 Jun 2027 10:46:49.652             3.492           319.594
        93   05 Jun 2027 03:00:54.960   05 Jun 2027 03:01:06.052            11.092          5546.000
        94   05 Jun 2027 03:02:33.976   05 Jun 2027 03:02:46.107            12.131          6065.500
        95   05 Jun 2027 03:03:05.571   05 Jun 2027 03:03:34.681            29.110         14555.000
        96   05 Jun 2027 03:04:28.540   05 Jun 2027 03:04:47.062            18.522          9261.000
        97   05 Jun 2027 04:39:02.237   05 Jun 2027 04:39:30.695            28.458         14229.000
        98   05 Jun 2027 04:39:36.125   05 Jun 2027 04:41:27.829           111.704         55852.000
        99   05 Jun 2027 04:44:59.325   05 Jun 2027 04:45:14.267            14.942          7471.000
       100   05 Jun 2027 06:17:02.897   05 Jun 2027 06:19:17.598           134.701         65970.406
       101   05 Jun 2027 06:21:16.408   05 Jun 2027 06:21:18.405             1.997           501.063
       102   05 Jun 2027 07:40:44.008   05 Jun 2027 07:40:59.105            15.097          6169.687
       103   05 Jun 2027 07:42:09.063   05 Jun 2027 07:42:15.230             6.167          1819.094
       104   05 Jun 2027 07:42:40.499   05 Jun 2027 07:42:42.420             1.921           319.219
       105   05 Jun 2027 07:42:51.750   05 Jun 2027 07:42:54.569             2.819           259.344
       106   05 Jun 2027 09:17:06.716   05 Jun 2027 09:17:24.976            18.260          9120.125
       107   05 Jun 2027 09:17:59.450   05 Jun 2027 09:18:04.767             5.317           421.563
       108   05 Jun 2027 09:18:46.779   05 Jun 2027 09:18:48.544             1.765           788.562
       109   05 Jun 2027 09:19:09.190   05 Jun 2027 09:19:11.766             2.576           223.469
       110   05 Jun 2027 09:20:12.150   05 Jun 2027 09:20:14.558             2.408          1156.438
       111   05 Jun 2027 10:51:11.520   05 Jun 2027 10:51:17.843             6.323          2940.031
       112   05 Jun 2027 10:54:32.086   05 Jun 2027 10:54:39.370             7.284          2771.344
       113   05 Jun 2027 10:54:44.364   05 Jun 2027 10:54:48.639             4.275           156.062
       114   05 Jun 2027 10:55:23.861   05 Jun 2027 10:55:25.329             1.468           711.156
       115   05 Jun 2027 10:56:31.586   05 Jun 2027 10:56:39.580             7.994           501.469
       116   05 Jun 2027 10:57:56.404   05 Jun 2027 10:57:59.301             2.897          1233.094
       117   05 Jun 2027 10:58:08.683   05 Jun 2027 10:58:08.945             0.262           128.344
       118   05 Jun 2027 10:58:55.212   05 Jun 2027 10:58:56.818             1.606           575.969
       119   05 Jun 2027 10:59:07.401   05 Jun 2027 10:59:10.194             2.793           134.094
       120   06 Jun 2027 03:12:58.307   06 Jun 2027 03:13:39.784            41.477         20738.500
       121   06 Jun 2027 03:14:16.956   06 Jun 2027 03:16:20.728           123.772         61886.000
       122   06 Jun 2027 03:18:26.460   06 Jun 2027 03:18:35.247             8.787          4393.500
       123   06 Jun 2027 03:19:33.374   06 Jun 2027 03:19:46.678            13.304          6652.000
       124   06 Jun 2027 04:51:08.418   06 Jun 2027 04:52:12.061            63.643         31821.500
       125   06 Jun 2027 04:52:18.989   06 Jun 2027 04:52:43.139            24.150         12075.000
       126   06 Jun 2027 04:53:40.441   06 Jun 2027 04:54:34.529            54.088         25905.312
       127   06 Jun 2027 04:55:57.052   06 Jun 2027 04:55:58.045             0.993           496.500
       128   06 Jun 2027 06:30:16.696   06 Jun 2027 06:30:36.547            19.851          9573.719
       129   06 Jun 2027 06:31:08.245   06 Jun 2027 06:31:08.439             0.194            29.406
       130   06 Jun 2027 07:52:48.568   06 Jun 2027 07:52:59.740            11.172          4865.469
       131   06 Jun 2027 07:54:10.194   06 Jun 2027 07:54:16.741             6.547          2164.719
       132   06 Jun 2027 07:54:28.145   06 Jun 2027 07:54:29.391             1.246            71.625
       133   06 Jun 2027 09:29:17.567   06 Jun 2027 09:29:22.590             5.023          2344.188
       134   06 Jun 2027 09:29:46.514   06 Jun 2027 09:29:51.274             4.760           333.344
       135   06 Jun 2027 09:31:03.477   06 Jun 2027 09:31:05.807             2.330          1022.531
       136   06 Jun 2027 09:31:44.672   06 Jun 2027 09:31:49.135             4.463           949.281
       137   06 Jun 2027 09:31:54.172   06 Jun 2027 09:31:56.758             2.586           122.781
       138   06 Jun 2027 11:04:23.413   06 Jun 2027 11:04:30.363             6.950          2251.688
       139   06 Jun 2027 11:05:44.588   06 Jun 2027 11:05:48.555             3.967          1356.062
       140   06 Jun 2027 11:06:50.153   06 Jun 2027 11:06:53.985             3.832          1091.750
       141   06 Jun 2027 11:08:14.856   06 Jun 2027 11:08:20.241             5.385          2366.437
       142   06 Jun 2027 11:09:07.371   06 Jun 2027 11:09:11.981             4.610          1397.656
       143   06 Jun 2027 11:09:58.180   06 Jun 2027 11:10:03.646             5.466          1443.719
       144   06 Jun 2027 11:10:53.891   06 Jun 2027 11:10:55.709             1.818           829.437
       145   07 Jun 2027 03:24:56.675   07 Jun 2027 03:25:33.122            36.447         18223.500
       146   07 Jun 2027 03:25:46.104   07 Jun 2027 03:28:54.401           188.297         94148.500
       147   07 Jun 2027 03:30:27.810   07 Jun 2027 03:30:55.955            28.145         14072.500
       148   07 Jun 2027 03:31:20.878   07 Jun 2027 03:31:31.981            11.103          5551.500
       149   07 Jun 2027 05:03:12.166   07 Jun 2027 05:03:53.176            41.010         20505.000
       150   07 Jun 2027 05:04:16.507   07 Jun 2027 05:04:42.401            25.894         12947.000
       151   07 Jun 2027 05:05:14.986   07 Jun 2027 05:05:30.679            15.693          5933.532
       152   07 Jun 2027 05:06:30.470   07 Jun 2027 05:06:39.340             8.870           750.812
       153   07 Jun 2027 05:08:03.636   07 Jun 2027 05:08:09.533             5.897           864.437
       154   07 Jun 2027 06:41:24.408   07 Jun 2027 06:41:33.841             9.433          4025.437
       155   07 Jun 2027 08:04:53.288   07 Jun 2027 08:05:06.023            12.735          4277.063
       156   07 Jun 2027 08:05:32.035   07 Jun 2027 08:05:33.636             1.601           360.625
       157   07 Jun 2027 08:06:23.769   07 Jun 2027 08:06:30.153             6.384           981.156
       158   07 Jun 2027 08:07:35.589   07 Jun 2027 08:07:39.841             4.252          2044.875
       159   07 Jun 2027 09:41:22.207   07 Jun 2027 09:41:29.290             7.083          2161.375
       160   07 Jun 2027 09:42:56.151   07 Jun 2027 09:43:03.796             7.645          2176.187
       161   07 Jun 2027 09:43:23.485   07 Jun 2027 09:43:29.235             5.750           511.719
       162   07 Jun 2027 09:44:24.972   07 Jun 2027 09:44:28.178             3.206          1425.813
       163   07 Jun 2027 11:16:32.584   07 Jun 2027 11:16:42.289             9.705          4335.969
       164   07 Jun 2027 11:18:32.069   07 Jun 2027 11:18:39.859             7.790          3219.844
       165   07 Jun 2027 11:21:05.476   07 Jun 2027 11:21:05.476             0.000             0.000
       166   07 Jun 2027 11:22:37.539   07 Jun 2027 11:22:51.739            14.200          6207.469
       167   07 Jun 2027 11:23:05.749   07 Jun 2027 11:23:09.074             3.325           437.812
       168   08 Jun 2027 03:36:59.322   08 Jun 2027 03:40:17.967           198.645         99322.500
       169   08 Jun 2027 03:41:50.200   08 Jun 2027 03:41:52.807             2.607          1303.500
       170   08 Jun 2027 03:42:58.741   08 Jun 2027 03:42:59.757             1.016           508.000
       171   08 Jun 2027 05:16:16.950   08 Jun 2027 05:18:16.011           119.061         58016.968
       172   08 Jun 2027 05:22:56.950   08 Jun 2027 05:23:15.159            18.209          8031.750
       173   08 Jun 2027 06:42:33.528   08 Jun 2027 06:42:43.599            10.071          4091.688
       174   08 Jun 2027 06:53:21.585   08 Jun 2027 06:53:28.251             6.666          2188.625
       175   08 Jun 2027 06:55:05.737   08 Jun 2027 06:55:09.656             3.919          1288.344
       176   08 Jun 2027 06:56:46.037   08 Jun 2027 06:56:46.184             0.147            52.562
       177   08 Jun 2027 08:17:20.315   08 Jun 2027 08:17:43.790            23.475          9474.000
       178   08 Jun 2027 08:17:54.927   08 Jun 2027 08:17:54.927             0.000             0.000
       179   08 Jun 2027 08:18:24.101   08 Jun 2027 08:18:31.512             7.411          1178.813
       180   08 Jun 2027 08:20:03.708   08 Jun 2027 08:20:04.702             0.994           497.000
       181   08 Jun 2027 09:53:06.695   08 Jun 2027 09:53:13.564             6.869          2076.938
       182   08 Jun 2027 09:55:40.958   08 Jun 2027 09:55:45.728             4.770          1716.000
       183   08 Jun 2027 09:55:49.552   08 Jun 2027 09:55:50.463             0.911            76.719
       184   08 Jun 2027 11:27:50.173   08 Jun 2027 11:27:57.114             6.941          2193.844
       185   08 Jun 2027 11:31:29.529   08 Jun 2027 11:31:43.306            13.777          5545.500
       186   08 Jun 2027 11:32:46.779   08 Jun 2027 11:32:50.479             3.700           326.187
       187   08 Jun 2027 11:32:59.442   08 Jun 2027 11:33:00.553             1.111           226.906
       188   08 Jun 2027 11:34:14.608   08 Jun 2027 11:34:21.002             6.394           883.344
       189   08 Jun 2027 11:34:46.991   08 Jun 2027 11:34:49.871             2.880           660.531
       190   08 Jun 2027 11:35:03.614   08 Jun 2027 11:35:11.198             7.584           166.719
       191   09 Jun 2027 03:49:39.778   09 Jun 2027 03:52:33.969           174.191         87095.500
       192   09 Jun 2027 05:28:38.346   09 Jun 2027 05:30:43.712           125.366         62683.000
       193   09 Jun 2027 05:31:15.681   09 Jun 2027 05:31:31.514            15.833          7861.531
       194   09 Jun 2027 05:31:41.279   09 Jun 2027 05:31:43.694             2.415           115.437
       195   09 Jun 2027 05:34:32.850   09 Jun 2027 05:34:44.284            11.434          4973.000
       196   09 Jun 2027 06:53:49.155   09 Jun 2027 06:54:02.466            13.311          5537.906
       197   09 Jun 2027 06:54:31.743   09 Jun 2027 06:54:32.654             0.911           414.906
       198   09 Jun 2027 06:54:56.380   09 Jun 2027 06:54:57.825             1.445           702.844
       199   09 Jun 2027 07:05:22.495   09 Jun 2027 07:05:28.347             5.852          2467.469
       200   09 Jun 2027 07:06:25.683   09 Jun 2027 07:06:27.083             1.400           685.250
       201   09 Jun 2027 08:27:58.995   09 Jun 2027 08:28:12.527            13.532          6142.375
       202   09 Jun 2027 08:29:35.396   09 Jun 2027 08:29:38.474             3.078          1526.000
       203   09 Jun 2027 08:30:26.928   09 Jun 2027 08:30:34.156             7.228           927.344
       204   09 Jun 2027 10:03:07.319   09 Jun 2027 10:03:14.003             6.684          3330.937
       205   09 Jun 2027 10:03:31.211   09 Jun 2027 10:03:32.639             1.428           405.219
       206   09 Jun 2027 10:04:50.231   09 Jun 2027 10:04:52.465             2.234            16.594
       207   09 Jun 2027 10:06:32.257   09 Jun 2027 10:06:40.143             7.886          1494.719
       208   09 Jun 2027 10:08:14.661   09 Jun 2027 10:08:19.176             4.515          1015.281
       209   09 Jun 2027 10:08:48.961   09 Jun 2027 10:08:50.237             1.276           283.344
       210   09 Jun 2027 11:39:54.292   09 Jun 2027 11:40:07.057            12.765          4495.187
       211   09 Jun 2027 11:42:51.814   09 Jun 2027 11:43:07.239            15.425          5148.656
       212   09 Jun 2027 11:46:16.703   09 Jun 2027 11:46:29.365            12.662          5879.625
       213   09 Jun 2027 11:46:37.344   09 Jun 2027 11:46:38.123             0.779            76.562
       214   09 Jun 2027 11:47:19.774   09 Jun 2027 11:47:19.910             0.136            68.000
       215   10 Jun 2027 04:01:55.784   10 Jun 2027 04:04:18.750           142.966         71483.000
       216   10 Jun 2027 04:04:59.812   10 Jun 2027 04:05:12.152            12.340          6170.000
       217   10 Jun 2027 04:05:29.102   10 Jun 2027 04:05:51.824            22.722         11361.000
       218   10 Jun 2027 04:07:01.214   10 Jun 2027 04:07:01.651             0.437           218.500
       219   10 Jun 2027 04:07:07.053   10 Jun 2027 04:07:12.204             5.151          2575.500
       220   10 Jun 2027 04:07:45.864   10 Jun 2027 04:07:51.777             5.913          2956.500
       221   10 Jun 2027 05:40:55.020   10 Jun 2027 05:42:39.968           104.948         52474.000
       222   10 Jun 2027 05:46:00.267   10 Jun 2027 05:47:09.836            69.569         34768.188
       223   10 Jun 2027 07:05:06.828   10 Jun 2027 07:05:15.773             8.945          4472.500
       224   10 Jun 2027 07:05:42.597   10 Jun 2027 07:05:50.176             7.579          3122.813
       225   10 Jun 2027 07:07:05.320   10 Jun 2027 07:07:11.521             6.201          2348.250
       226   10 Jun 2027 07:17:19.978   10 Jun 2027 07:17:25.211             5.233          2382.594
       227   10 Jun 2027 08:39:34.612   10 Jun 2027 08:39:55.097            20.485          9250.719
       228   10 Jun 2027 08:40:32.766   10 Jun 2027 08:40:37.477             4.711          1177.156
       229   10 Jun 2027 08:41:30.833   10 Jun 2027 08:41:34.863             4.030          1183.250
       230   10 Jun 2027 08:41:59.313   10 Jun 2027 08:42:01.796             2.483           545.969
       231   10 Jun 2027 10:14:27.477   10 Jun 2027 10:14:41.067            13.590          6192.844
       232   10 Jun 2027 10:16:38.432   10 Jun 2027 10:16:41.454             3.022          1406.969
       233   10 Jun 2027 10:18:12.814   10 Jun 2027 10:18:15.540             2.726           961.031
       234   10 Jun 2027 10:19:42.934   10 Jun 2027 10:19:49.221             6.287           243.406
       235   10 Jun 2027 10:21:05.519   10 Jun 2027 10:21:06.742             1.223           589.000
       236   10 Jun 2027 10:21:41.912   10 Jun 2027 10:21:41.912             0.000             0.000
       237   10 Jun 2027 11:55:30.793   10 Jun 2027 11:56:00.658            29.865         12213.094
       238   10 Jun 2027 11:57:28.510   10 Jun 2027 11:57:33.447             4.937          2208.875
       239   10 Jun 2027 11:58:23.742   10 Jun 2027 11:58:26.897             3.155          1228.094
       240   10 Jun 2027 11:58:55.984   10 Jun 2027 11:59:01.066             5.082           908.969
       241   11 Jun 2027 04:14:15.097   11 Jun 2027 04:14:28.175            13.078          6539.000
       242   11 Jun 2027 04:14:42.487   11 Jun 2027 04:16:53.786           131.299         65649.500
       243   11 Jun 2027 04:18:31.354   11 Jun 2027 04:18:38.668             7.314          3657.000
       244   11 Jun 2027 04:18:56.222   11 Jun 2027 04:18:58.246             2.024          1012.000
       245   11 Jun 2027 05:53:01.856   11 Jun 2027 05:54:30.772            88.916         44458.000
       246   11 Jun 2027 05:55:01.808   11 Jun 2027 05:56:13.215            71.407         35703.500
       247   11 Jun 2027 05:57:24.470   11 Jun 2027 05:57:58.467            33.997         16333.344
       248   11 Jun 2027 07:17:12.959   11 Jun 2027 07:17:31.897            18.938          9356.031
       249   11 Jun 2027 07:17:49.261   11 Jun 2027 07:17:49.261             0.000             0.000
       250   11 Jun 2027 07:18:11.058   11 Jun 2027 07:18:13.738             2.680          1005.938
       251   11 Jun 2027 07:29:45.309   11 Jun 2027 07:29:46.557             1.248           624.000
       252   11 Jun 2027 08:51:03.332   11 Jun 2027 08:51:27.963            24.631         11230.719
       253   11 Jun 2027 08:53:06.540   11 Jun 2027 08:53:09.909             3.369          1616.375
       254   11 Jun 2027 08:54:01.071   11 Jun 2027 08:54:09.378             8.307          1054.219
       255   11 Jun 2027 08:54:57.476   11 Jun 2027 08:55:05.244             7.768          1490.812
       256   11 Jun 2027 08:55:32.455   11 Jun 2027 08:55:34.719             2.264           770.250
       257   11 Jun 2027 08:56:13.465   11 Jun 2027 08:56:16.446             2.981           792.344
       258   11 Jun 2027 10:25:57.611   11 Jun 2027 10:25:58.376             0.765           382.500
       259   11 Jun 2027 10:26:56.747   11 Jun 2027 10:27:07.312            10.565          3949.750
       260   11 Jun 2027 10:28:41.981   11 Jun 2027 10:28:43.987             2.006           705.094
       261   11 Jun 2027 10:29:38.556   11 Jun 2027 10:29:43.214             4.658          1508.937
       262   11 Jun 2027 10:31:43.163   11 Jun 2027 10:31:52.060             8.897          3748.406
       263   11 Jun 2027 10:33:23.840   11 Jun 2027 10:33:25.394             1.554           519.281
       264   11 Jun 2027 10:35:07.754   11 Jun 2027 10:35:15.681             7.927          3198.750
       265   12 Jun 2027 04:26:52.963   12 Jun 2027 04:26:59.970             7.007          3503.500
       266   12 Jun 2027 04:27:14.376   12 Jun 2027 04:28:15.552            61.176         30588.000
       267   12 Jun 2027 04:28:20.407   12 Jun 2027 04:29:15.041            54.634         27317.000
       268   12 Jun 2027 04:30:27.384   12 Jun 2027 04:30:28.813             1.429           714.500
       269   12 Jun 2027 04:30:41.754   12 Jun 2027 04:30:43.126             1.372           686.000
       270   12 Jun 2027 04:30:53.139   12 Jun 2027 04:31:04.658            11.519          5759.500
       271   12 Jun 2027 04:32:01.330   12 Jun 2027 04:32:07.174             5.844          2922.000
       272   12 Jun 2027 06:05:39.235   12 Jun 2027 06:08:55.811           196.576         97688.312
       273   12 Jun 2027 06:09:38.856   12 Jun 2027 06:09:43.538             4.682           714.500
       274   12 Jun 2027 06:10:07.154   12 Jun 2027 06:10:12.376             5.222           738.000
       275   12 Jun 2027 07:29:09.259   12 Jun 2027 07:29:28.271            19.012          6902.906
       276   12 Jun 2027 07:30:25.245   12 Jun 2027 07:30:29.445             4.200          1612.562
       277   12 Jun 2027 09:05:22.473   12 Jun 2027 09:05:45.433            22.960          9645.438
       278   12 Jun 2027 09:06:01.242   12 Jun 2027 09:06:02.466             1.224           456.906
       279   12 Jun 2027 09:06:51.273   12 Jun 2027 09:06:57.730             6.457          1525.219
       280   12 Jun 2027 09:07:50.801   12 Jun 2027 09:07:53.248             2.447           663.531
       281   12 Jun 2027 09:08:24.944   12 Jun 2027 09:08:27.448             2.504           524.781
       282   12 Jun 2027 10:38:54.350   12 Jun 2027 10:39:05.082            10.732          3851.906
       283   12 Jun 2027 10:41:05.114   12 Jun 2027 10:41:10.082             4.968           482.750
       284   12 Jun 2027 10:41:33.626   12 Jun 2027 10:41:33.626             0.000             0.000
       285   12 Jun 2027 10:41:39.652   12 Jun 2027 10:41:44.242             4.590           549.000
       286   12 Jun 2027 10:44:02.932   12 Jun 2027 10:44:04.922             1.990           966.656
       287   12 Jun 2027 10:45:48.843   12 Jun 2027 10:45:48.843             0.000             0.000
       288   12 Jun 2027 10:46:07.279   12 Jun 2027 10:46:14.289             7.010          2200.969
       289   12 Jun 2027 10:46:50.770   12 Jun 2027 10:46:55.821             5.051           884.031
       290   12 Jun 2027 10:47:28.654   12 Jun 2027 10:47:29.038             0.384           192.000
       291   13 Jun 2027 03:01:12.858   13 Jun 2027 03:01:29.366            16.508          8254.000
       292   13 Jun 2027 03:03:03.954   13 Jun 2027 03:03:24.838            20.884         10442.000
       293   13 Jun 2027 03:03:35.803   13 Jun 2027 03:03:45.587             9.784          4892.000
       294   13 Jun 2027 03:04:33.084   13 Jun 2027 03:04:43.160            10.076          5038.000
       295   13 Jun 2027 03:05:30.671   13 Jun 2027 03:05:51.651            20.980         10490.000
       296   13 Jun 2027 03:07:53.007   13 Jun 2027 03:07:56.617             3.610          1805.000
       297   13 Jun 2027 04:39:19.534   13 Jun 2027 04:39:46.989            27.455         13727.500
       298   13 Jun 2027 04:39:50.797   13 Jun 2027 04:40:53.742            62.945         31472.500
       299   13 Jun 2027 04:42:34.737   13 Jun 2027 04:42:50.634            15.897          7948.500
       300   13 Jun 2027 04:43:46.811   13 Jun 2027 04:43:54.355             7.544          3772.000
       301   13 Jun 2027 04:44:08.811   13 Jun 2027 04:44:40.686            31.875         15937.500
       302   13 Jun 2027 04:44:52.901   13 Jun 2027 04:45:03.905            11.004          5502.000
       303   13 Jun 2027 04:45:09.955   13 Jun 2027 04:45:13.513             3.558          1779.000
       304   13 Jun 2027 06:17:20.432   13 Jun 2027 06:19:05.582           105.150         51996.468
       305   13 Jun 2027 06:21:31.485   13 Jun 2027 06:21:32.734             1.249           538.500
       306   13 Jun 2027 06:21:54.835   13 Jun 2027 06:21:58.226             3.391           471.187
       307   13 Jun 2027 07:41:01.322   13 Jun 2027 07:41:14.858            13.536          6731.750
       308   13 Jun 2027 07:42:26.591   13 Jun 2027 07:42:33.202             6.611          1880.969
       309   13 Jun 2027 07:42:55.386   13 Jun 2027 07:42:57.147             1.761           261.063
       310   13 Jun 2027 07:43:09.843   13 Jun 2027 07:43:17.729             7.886           252.594
       311   13 Jun 2027 07:43:38.001   13 Jun 2027 07:43:38.043             0.042            21.000
       312   13 Jun 2027 09:17:27.938   13 Jun 2027 09:17:51.492            23.554          8850.813
       313   13 Jun 2027 09:18:40.026   13 Jun 2027 09:18:43.451             3.425           694.625
       314   13 Jun 2027 09:18:57.124   13 Jun 2027 09:19:03.508             6.384           244.375
       315   13 Jun 2027 09:19:15.855   13 Jun 2027 09:19:16.680             0.825           336.437
       316   13 Jun 2027 09:19:53.275   13 Jun 2027 09:19:55.090             1.815           869.531
       317   13 Jun 2027 10:49:39.159   13 Jun 2027 10:49:45.478             6.319          2669.031
       318   13 Jun 2027 10:51:33.389   13 Jun 2027 10:51:35.323             1.934           638.469
       319   13 Jun 2027 10:54:55.090   13 Jun 2027 10:55:01.134             6.044          2873.281
       320   13 Jun 2027 10:55:41.613   13 Jun 2027 10:55:44.927             3.314           743.031
       321   13 Jun 2027 10:56:45.933   13 Jun 2027 10:56:54.893             8.960           550.156
       322   13 Jun 2027 10:58:12.078   13 Jun 2027 10:58:14.615             2.537          1267.594
       323   13 Jun 2027 10:58:58.940   13 Jun 2027 10:58:58.940             0.000             0.000
       324   13 Jun 2027 10:59:16.448   13 Jun 2027 10:59:20.254             3.806          1881.625
