uniorb/output/strategy_4/Camera/Camera_KinoSat_111907.txt

KinoSat_111907
-------------------------
    Access    *     Start Time (UTCG)     *     Stop Time (UTCG)  *   Duration (s) *   Data (Mbytes)
         1   01 Jun 2027 04:19:10.645   01 Jun 2027 04:19:34.828            24.183         12091.500
         2   01 Jun 2027 04:19:37.778   01 Jun 2027 04:20:54.608            76.830         38415.000
         3   01 Jun 2027 04:20:58.772   01 Jun 2027 04:21:42.107            43.335         21667.500
         4   01 Jun 2027 05:57:33.640   01 Jun 2027 05:59:57.335           143.695         71847.500
         5   01 Jun 2027 06:01:00.087   01 Jun 2027 06:01:02.462             2.375          1187.500
         6   01 Jun 2027 06:02:23.899   01 Jun 2027 06:02:41.693            17.794          8897.000
         7   01 Jun 2027 07:21:37.122   01 Jun 2027 07:23:25.167           108.045         54022.500
         8   01 Jun 2027 07:23:37.553   01 Jun 2027 07:23:37.680             0.127            63.500
         9   01 Jun 2027 08:55:23.499   01 Jun 2027 08:56:08.188            44.689         22344.500
        10   01 Jun 2027 08:57:37.037   01 Jun 2027 08:59:17.875           100.838         50419.000
        11   01 Jun 2027 10:31:23.852   01 Jun 2027 10:32:53.153            89.301         44650.500
        12   01 Jun 2027 10:33:18.807   01 Jun 2027 10:33:24.245             5.438          2719.000
        13   01 Jun 2027 10:39:17.619   01 Jun 2027 10:39:53.567            35.948         17974.000
        14   02 Jun 2027 03:00:00.000   02 Jun 2027 03:00:39.145            39.145         19572.500
        15   02 Jun 2027 04:31:45.289   02 Jun 2027 04:32:33.750            48.461         24230.500
        16   02 Jun 2027 04:32:43.334   02 Jun 2027 04:33:26.385            43.051         21525.500
        17   02 Jun 2027 04:33:27.194   02 Jun 2027 04:34:00.748            33.554         16777.000
        18   02 Jun 2027 04:35:09.289   02 Jun 2027 04:35:12.168             2.879          1439.500
        19   02 Jun 2027 06:10:07.676   02 Jun 2027 06:14:48.009           280.333        140166.500
        20   02 Jun 2027 07:33:32.201   02 Jun 2027 07:34:07.015            34.814         17407.000
        21   02 Jun 2027 09:09:51.049   02 Jun 2027 09:12:08.605           137.556         68778.000
        22   02 Jun 2027 09:12:52.975   02 Jun 2027 09:13:19.758            26.783         13391.500
        23   02 Jun 2027 10:43:30.038   02 Jun 2027 10:44:23.419            53.381         26690.500
        24   02 Jun 2027 10:45:57.225   02 Jun 2027 10:46:16.421            19.196          7612.907
        25   02 Jun 2027 10:46:46.389   02 Jun 2027 10:46:52.841             6.452           618.219
        26   02 Jun 2027 10:48:34.441   02 Jun 2027 10:48:39.003             4.562          1959.000
        27   02 Jun 2027 10:50:21.237   02 Jun 2027 10:50:29.521             8.284          1952.313
        28   02 Jun 2027 10:50:50.363   02 Jun 2027 10:50:51.588             1.225           590.156
        29   02 Jun 2027 10:51:19.860   02 Jun 2027 10:51:23.012             3.152            73.562
        30   03 Jun 2027 03:05:40.606   03 Jun 2027 03:05:56.025            15.419          7709.500
        31   03 Jun 2027 03:07:19.616   03 Jun 2027 03:07:53.687            34.071         17035.500
        32   03 Jun 2027 03:09:33.361   03 Jun 2027 03:09:44.518            11.157          5578.500
        33   03 Jun 2027 03:10:27.613   03 Jun 2027 03:10:57.018            29.405         14702.500
        34   03 Jun 2027 03:11:34.504   03 Jun 2027 03:11:49.848            15.344          7672.000
        35   03 Jun 2027 03:12:19.470   03 Jun 2027 03:12:27.134             7.664          3832.000
        36   03 Jun 2027 04:43:42.456   03 Jun 2027 04:43:48.604             6.148          3074.000
        37   03 Jun 2027 04:43:59.380   03 Jun 2027 04:45:55.019           115.639         57819.500
        38   03 Jun 2027 04:47:04.163   03 Jun 2027 04:47:20.999            16.836          8418.000
        39   03 Jun 2027 04:47:21.978   03 Jun 2027 04:48:26.160            64.182         32091.000
        40   03 Jun 2027 06:21:46.334   03 Jun 2027 06:22:30.287            43.953         21712.094
        41   03 Jun 2027 06:25:49.643   03 Jun 2027 06:25:51.826             2.183           367.688
        42   03 Jun 2027 06:26:05.589   03 Jun 2027 06:26:09.197             3.608            67.125
        43   03 Jun 2027 07:45:24.124   03 Jun 2027 07:45:40.463            16.339          7674.562
        44   03 Jun 2027 07:47:37.551   03 Jun 2027 07:47:45.233             7.682          3341.344
        45   03 Jun 2027 09:21:52.795   03 Jun 2027 09:22:00.807             8.012          3817.375
        46   03 Jun 2027 09:22:36.798   03 Jun 2027 09:22:39.095             2.297           251.750
        47   03 Jun 2027 09:23:33.616   03 Jun 2027 09:23:38.102             4.486          1628.125
        48   03 Jun 2027 10:57:53.473   03 Jun 2027 10:58:13.969            20.496          9926.906
        49   03 Jun 2027 11:02:50.042   03 Jun 2027 11:03:02.418            12.376          5556.937
        50   03 Jun 2027 11:03:42.466   03 Jun 2027 11:03:43.848             1.382           684.281
        51   04 Jun 2027 03:17:42.328   04 Jun 2027 03:17:49.869             7.541          3770.500
        52   04 Jun 2027 03:18:47.903   04 Jun 2027 03:22:27.580           219.677        109838.500
        53   04 Jun 2027 04:55:51.242   04 Jun 2027 04:56:50.997            59.755         29877.500
        54   04 Jun 2027 04:57:00.442   04 Jun 2027 04:57:56.755            56.313         27844.218
        55   04 Jun 2027 04:58:03.480   04 Jun 2027 04:58:05.172             1.692           210.156
        56   04 Jun 2027 05:00:06.099   04 Jun 2027 05:00:15.092             8.993          1387.563
        57   04 Jun 2027 05:01:58.379   04 Jun 2027 05:02:05.634             7.255          2824.250
        58   04 Jun 2027 06:34:09.800   04 Jun 2027 06:34:17.534             7.734          3735.406
        59   04 Jun 2027 06:37:36.866   04 Jun 2027 06:37:37.786             0.920           103.313
        60   04 Jun 2027 07:57:33.016   04 Jun 2027 07:57:47.731            14.715          5972.313
        61   04 Jun 2027 07:58:04.970   04 Jun 2027 07:58:08.870             3.900           538.719
        62   04 Jun 2027 07:58:33.441   04 Jun 2027 07:58:34.351             0.910           268.375
        63   04 Jun 2027 08:00:09.043   04 Jun 2027 08:00:14.847             5.804          2366.469
        64   04 Jun 2027 08:00:18.234   04 Jun 2027 08:00:20.299             2.065            61.625
        65   04 Jun 2027 09:34:03.467   04 Jun 2027 09:34:09.218             5.751          2665.531
        66   04 Jun 2027 09:35:44.081   04 Jun 2027 09:35:46.144             2.063           533.063
        67   04 Jun 2027 09:36:20.780   04 Jun 2027 09:36:28.090             7.310           853.375
        68   04 Jun 2027 09:36:35.563   04 Jun 2027 09:36:44.322             8.759            91.594
        69   04 Jun 2027 11:09:13.632   04 Jun 2027 11:09:25.556            11.924          4804.969
        70   04 Jun 2027 11:10:15.930   04 Jun 2027 11:10:15.930             0.000             0.000
        71   04 Jun 2027 11:10:44.227   04 Jun 2027 11:10:50.193             5.966          2011.750
        72   04 Jun 2027 11:11:45.393   04 Jun 2027 11:11:47.243             1.850           467.531
        73   04 Jun 2027 11:12:30.863   04 Jun 2027 11:12:39.394             8.531           971.125
        74   04 Jun 2027 11:15:23.017   04 Jun 2027 11:15:36.994            13.977          5088.063
        75   04 Jun 2027 11:15:47.906   04 Jun 2027 11:15:49.313             1.407           341.000
        76   05 Jun 2027 03:29:40.347   05 Jun 2027 03:30:14.266            33.919         16959.500
        77   05 Jun 2027 03:30:17.725   05 Jun 2027 03:32:51.668           153.943         76971.500
        78   05 Jun 2027 03:33:23.992   05 Jun 2027 03:33:51.779            27.787         13893.500
        79   05 Jun 2027 03:35:15.378   05 Jun 2027 03:35:18.929             3.551          1775.500
        80   05 Jun 2027 03:35:41.099   05 Jun 2027 03:35:46.126             5.027          2513.500
        81   05 Jun 2027 03:36:18.704   05 Jun 2027 03:36:21.829             3.125          1562.500
        82   05 Jun 2027 05:07:56.571   05 Jun 2027 05:08:05.710             9.139          4569.500
        83   05 Jun 2027 05:08:58.098   05 Jun 2027 05:10:26.757            88.659         43958.094
        84   05 Jun 2027 05:11:47.790   05 Jun 2027 05:11:50.669             2.879           642.469
        85   05 Jun 2027 05:16:02.156   05 Jun 2027 05:16:13.352            11.196          4673.188
        86   05 Jun 2027 06:46:06.732   05 Jun 2027 06:46:16.759            10.027          4915.625
        87   05 Jun 2027 06:46:31.726   05 Jun 2027 06:46:34.827             3.101           403.969
        88   05 Jun 2027 06:46:41.498   05 Jun 2027 06:46:45.551             4.053           208.469
        89   05 Jun 2027 06:49:30.880   05 Jun 2027 06:49:31.478             0.598            31.000
        90   05 Jun 2027 08:10:13.238   05 Jun 2027 08:10:28.068            14.830          7049.437
        91   05 Jun 2027 08:10:46.072   05 Jun 2027 08:10:47.946             1.874           311.063
        92   05 Jun 2027 08:12:16.081   05 Jun 2027 08:12:21.296             5.215          2564.281
        93   05 Jun 2027 09:45:58.765   05 Jun 2027 09:46:06.540             7.775          3579.219
        94   05 Jun 2027 09:48:31.237   05 Jun 2027 09:48:40.233             8.996          4208.250
        95   05 Jun 2027 11:20:55.907   05 Jun 2027 11:21:01.145             5.238          2503.156
        96   05 Jun 2027 11:24:00.091   05 Jun 2027 11:24:03.137             3.046          1523.000
        97   05 Jun 2027 11:27:21.415   05 Jun 2027 11:27:41.940            20.525          9484.438
        98   06 Jun 2027 03:42:09.654   06 Jun 2027 03:45:34.914           205.260        102630.000
        99   06 Jun 2027 03:47:17.302   06 Jun 2027 03:47:19.653             2.351          1175.500
       100   06 Jun 2027 03:47:42.675   06 Jun 2027 03:47:43.666             0.991           495.500
       101   06 Jun 2027 05:21:01.917   06 Jun 2027 05:22:56.839           114.922         55701.906
       102   06 Jun 2027 05:24:03.709   06 Jun 2027 05:24:07.631             3.922          1486.500
       103   06 Jun 2027 05:27:16.417   06 Jun 2027 05:27:27.786            11.369          4960.594
       104   06 Jun 2027 06:47:01.089   06 Jun 2027 06:47:14.074            12.985          4621.562
       105   06 Jun 2027 06:47:34.767   06 Jun 2027 06:47:36.991             2.224           151.656
       106   06 Jun 2027 06:58:03.334   06 Jun 2027 06:58:12.599             9.265          3062.062
       107   06 Jun 2027 08:21:02.333   06 Jun 2027 08:21:13.637            11.304          4331.063
       108   06 Jun 2027 08:22:54.338   06 Jun 2027 08:23:03.726             9.388          2334.531
       109   06 Jun 2027 08:24:46.923   06 Jun 2027 08:24:50.805             3.882          1148.531
       110   06 Jun 2027 09:56:34.423   06 Jun 2027 09:56:44.271             9.848          2243.813
       111   06 Jun 2027 09:59:24.333   06 Jun 2027 09:59:28.525             4.192          1754.344
       112   06 Jun 2027 10:00:53.834   06 Jun 2027 10:00:58.862             5.028          1814.500
       113   06 Jun 2027 10:01:17.633   06 Jun 2027 10:01:19.205             1.572           568.875
       114   06 Jun 2027 10:02:06.087   06 Jun 2027 10:02:09.111             3.024          1350.500
       115   06 Jun 2027 11:33:06.692   06 Jun 2027 11:33:06.692             0.000             0.000
       116   06 Jun 2027 11:36:37.600   06 Jun 2027 11:37:07.980            30.380         15036.969
       117   06 Jun 2027 11:37:28.893   06 Jun 2027 11:37:30.660             1.767           372.906
       118   06 Jun 2027 11:38:01.624   06 Jun 2027 11:38:08.724             7.100           697.344
       119   06 Jun 2027 11:38:46.051   06 Jun 2027 11:38:48.531             2.480          1129.656
       120   06 Jun 2027 11:39:23.332   06 Jun 2027 11:39:27.812             4.480          1032.625
       121   06 Jun 2027 11:39:59.503   06 Jun 2027 11:40:04.052             4.549           990.344
       122   07 Jun 2027 03:54:25.206   07 Jun 2027 03:56:08.446           103.240         51620.000
       123   07 Jun 2027 03:56:22.443   07 Jun 2027 03:58:17.485           115.042         57521.000
       124   07 Jun 2027 03:59:04.989   07 Jun 2027 03:59:06.871             1.882           941.000
       125   07 Jun 2027 03:59:19.801   07 Jun 2027 03:59:20.463             0.662           331.000
       126   07 Jun 2027 03:59:41.245   07 Jun 2027 03:59:43.160             1.915           957.500
       127   07 Jun 2027 04:00:18.572   07 Jun 2027 04:00:18.572             0.000             0.000
       128   07 Jun 2027 05:33:31.836   07 Jun 2027 05:35:27.772           115.936         57968.000
       129   07 Jun 2027 05:35:56.185   07 Jun 2027 05:36:04.199             8.014          3298.969
       130   07 Jun 2027 05:39:03.720   07 Jun 2027 05:39:19.188            15.468          4473.781
       131   07 Jun 2027 05:39:31.790   07 Jun 2027 05:39:32.705             0.915           157.438
       132   07 Jun 2027 06:58:23.578   07 Jun 2027 06:58:35.712            12.134          6067.000
       133   07 Jun 2027 06:59:34.987   07 Jun 2027 06:59:34.987             0.000             0.000
       134   07 Jun 2027 07:10:06.667   07 Jun 2027 07:10:13.531             6.864          3139.469
       135   07 Jun 2027 08:32:18.731   07 Jun 2027 08:32:37.003            18.272          9136.000
       136   07 Jun 2027 08:32:51.622   07 Jun 2027 08:32:54.534             2.912           577.969
       137   07 Jun 2027 08:34:20.208   07 Jun 2027 08:34:22.678             2.470          1140.813
       138   07 Jun 2027 08:36:18.127   07 Jun 2027 08:36:25.958             7.831          3040.656
       139   07 Jun 2027 08:37:14.671   07 Jun 2027 08:37:18.024             3.353          1522.281
       140   07 Jun 2027 10:07:26.080   07 Jun 2027 10:07:32.751             6.671          3237.687
       141   07 Jun 2027 10:08:21.885   07 Jun 2027 10:08:26.112             4.227           323.375
       142   07 Jun 2027 10:09:47.884   07 Jun 2027 10:09:50.767             2.883          1024.719
       143   07 Jun 2027 10:12:26.037   07 Jun 2027 10:12:26.349             0.312           156.000
       144   07 Jun 2027 10:12:29.030   07 Jun 2027 10:12:46.477            17.447          4743.375
       145   07 Jun 2027 10:13:31.999   07 Jun 2027 10:13:35.364             3.365           717.656
       146   07 Jun 2027 10:13:44.879   07 Jun 2027 10:13:46.475             1.596           231.531
       147   07 Jun 2027 11:51:08.122   07 Jun 2027 11:51:46.745            38.623         18747.906
       148   08 Jun 2027 04:06:44.233   08 Jun 2027 04:09:34.804           170.571         85285.500
       149   08 Jun 2027 04:11:21.500   08 Jun 2027 04:11:57.295            35.795         17897.500
       150   08 Jun 2027 05:45:32.184   08 Jun 2027 05:47:25.741           113.557         55698.750
       151   08 Jun 2027 05:47:49.328   08 Jun 2027 05:47:54.140             4.812           633.750
       152   08 Jun 2027 05:50:29.971   08 Jun 2027 05:50:39.817             9.846          3626.125
       153   08 Jun 2027 05:51:11.175   08 Jun 2027 05:51:13.324             2.149           448.719
       154   08 Jun 2027 05:51:44.788   08 Jun 2027 05:51:48.899             4.111           835.281
       155   08 Jun 2027 07:09:51.061   08 Jun 2027 07:10:06.875            15.814          5574.781
       156   08 Jun 2027 07:11:05.448   08 Jun 2027 07:11:09.721             4.273          1687.719
       157   08 Jun 2027 07:11:58.373   08 Jun 2027 07:12:01.935             3.562          1259.312
       158   08 Jun 2027 07:22:07.546   08 Jun 2027 07:22:13.744             6.198          2449.281
       159   08 Jun 2027 08:44:04.442   08 Jun 2027 08:44:28.553            24.111         10999.062
       160   08 Jun 2027 08:46:07.773   08 Jun 2027 08:46:15.494             7.721          2625.625
       161   08 Jun 2027 08:46:54.420   08 Jun 2027 08:46:56.639             2.219           363.687
       162   08 Jun 2027 08:48:16.764   08 Jun 2027 08:48:20.678             3.914          1839.312
       163   08 Jun 2027 08:49:06.876   08 Jun 2027 08:49:09.602             2.726          1185.500
       164   08 Jun 2027 10:18:55.540   08 Jun 2027 10:19:01.097             5.557          2466.125
       165   08 Jun 2027 10:20:45.477   08 Jun 2027 10:20:49.136             3.659          1801.500
       166   08 Jun 2027 10:21:25.121   08 Jun 2027 10:21:28.763             3.642           958.906
       167   08 Jun 2027 10:25:06.462   08 Jun 2027 10:25:19.531            13.069          5411.937
       168   08 Jun 2027 10:25:55.122   08 Jun 2027 10:25:55.122             0.000             0.000
       169   08 Jun 2027 10:25:55.239   08 Jun 2027 10:25:58.020             2.781           385.656
       170   09 Jun 2027 04:19:28.934   09 Jun 2027 04:19:51.968            23.034         11517.000
       171   09 Jun 2027 04:19:55.487   09 Jun 2027 04:20:56.912            61.425         30712.500
       172   09 Jun 2027 04:21:30.085   09 Jun 2027 04:21:58.290            28.205         14102.500
       173   09 Jun 2027 04:22:22.029   09 Jun 2027 04:22:35.127            13.098          6549.000
       174   09 Jun 2027 04:23:22.729   09 Jun 2027 04:23:24.683             1.954           977.000
       175   09 Jun 2027 04:23:39.635   09 Jun 2027 04:23:44.437             4.802          2401.000
       176   09 Jun 2027 04:24:37.529   09 Jun 2027 04:24:47.344             9.815          4907.500
       177   09 Jun 2027 05:57:51.616   09 Jun 2027 06:00:30.153           158.537         79268.500
       178   09 Jun 2027 06:01:52.884   09 Jun 2027 06:02:10.409            17.525          8046.156
       179   09 Jun 2027 06:02:59.961   09 Jun 2027 06:03:01.658             1.697           848.500
       180   09 Jun 2027 07:21:54.535   09 Jun 2027 07:22:07.144            12.609          5819.156
       181   09 Jun 2027 07:22:46.507   09 Jun 2027 07:22:48.193             1.686           819.969
       182   09 Jun 2027 08:57:51.674   09 Jun 2027 08:58:14.118            22.444         11222.000
       183   09 Jun 2027 08:58:51.878   09 Jun 2027 08:58:56.174             4.296          1616.875
       184   09 Jun 2027 09:00:14.514   09 Jun 2027 09:00:20.111             5.597          1484.219
       185   09 Jun 2027 09:00:45.760   09 Jun 2027 09:00:46.977             1.217           437.437
       186   09 Jun 2027 09:01:09.710   09 Jun 2027 09:01:11.378             1.668           642.781
       187   09 Jun 2027 10:31:41.484   09 Jun 2027 10:31:53.036            11.552          5403.719
       188   09 Jun 2027 10:33:38.061   09 Jun 2027 10:33:40.620             2.559           782.531
       189   09 Jun 2027 10:34:09.935   09 Jun 2027 10:34:17.374             7.439           767.344
       190   09 Jun 2027 10:36:25.721   09 Jun 2027 10:36:36.650            10.929          3939.219
       191   09 Jun 2027 10:36:41.945   09 Jun 2027 10:36:45.066             3.121           146.062
       192   09 Jun 2027 10:37:41.777   09 Jun 2027 10:37:42.735             0.958            51.438
       193   09 Jun 2027 10:38:16.408   09 Jun 2027 10:38:18.805             2.397           933.344
       194   10 Jun 2027 03:00:00.000   10 Jun 2027 03:00:36.750            36.750         18375.000
       195   10 Jun 2027 04:32:06.545   10 Jun 2027 04:33:42.763            96.218         48109.000
       196   10 Jun 2027 04:33:44.598   10 Jun 2027 04:34:50.994            66.396         33198.000
       197   10 Jun 2027 04:36:40.394   10 Jun 2027 04:36:51.390            10.996          5498.000
       198   10 Jun 2027 06:10:26.470   10 Jun 2027 06:12:36.075           129.605         64622.250
       199   10 Jun 2027 06:14:42.575   10 Jun 2027 06:14:43.929             1.354           542.406
       200   10 Jun 2027 07:33:48.926   10 Jun 2027 07:34:04.370            15.444          6272.531
       201   10 Jun 2027 07:35:08.548   10 Jun 2027 07:35:12.230             3.682          1693.844
       202   10 Jun 2027 07:35:33.696   10 Jun 2027 07:35:35.502             1.806           475.656
       203   10 Jun 2027 07:35:51.951   10 Jun 2027 07:35:56.634             4.683           224.094
       204   10 Jun 2027 09:10:10.383   10 Jun 2027 09:10:32.169            21.786         10499.562
       205   10 Jun 2027 09:10:49.435   10 Jun 2027 09:10:51.188             1.753           413.656
       206   10 Jun 2027 09:11:38.986   10 Jun 2027 09:11:42.293             3.307          1476.000
       207   10 Jun 2027 09:12:22.990   10 Jun 2027 09:12:22.990             0.000             0.000
       208   10 Jun 2027 09:12:34.380   10 Jun 2027 09:12:37.152             2.772           724.656
       209   10 Jun 2027 10:43:39.858   10 Jun 2027 10:43:43.332             3.474          1737.000
       210   10 Jun 2027 10:45:45.002   10 Jun 2027 10:45:58.828            13.826          6016.031
       211   10 Jun 2027 10:47:03.864   10 Jun 2027 10:47:11.544             7.680          1554.781
       212   10 Jun 2027 10:47:30.245   10 Jun 2027 10:47:31.319             1.074           303.469
       213   10 Jun 2027 10:48:02.027   10 Jun 2027 10:48:04.562             2.535           493.531
       214   10 Jun 2027 10:48:49.044   10 Jun 2027 10:48:54.394             5.350          1337.031
       215   10 Jun 2027 10:49:28.214   10 Jun 2027 10:49:31.662             3.448           554.594
       216   10 Jun 2027 10:51:08.507   10 Jun 2027 10:51:15.119             6.612          2925.844
       217   10 Jun 2027 10:51:34.941   10 Jun 2027 10:51:38.721             3.780             7.656
       218   11 Jun 2027 03:05:59.098   11 Jun 2027 03:06:26.437            27.339         13669.500
       219   11 Jun 2027 03:07:34.569   11 Jun 2027 03:08:08.614            34.045         17022.500
       220   11 Jun 2027 03:09:06.897   11 Jun 2027 03:09:29.784            22.887         11443.500
       221   11 Jun 2027 03:10:21.546   11 Jun 2027 03:10:21.546             0.000             0.000
       222   11 Jun 2027 03:10:48.284   11 Jun 2027 03:10:53.643             5.359          2679.500
       223   11 Jun 2027 03:11:33.676   11 Jun 2027 03:11:38.810             5.134          2567.000
       224   11 Jun 2027 03:11:49.281   11 Jun 2027 03:12:04.447            15.166          7583.000
       225   11 Jun 2027 03:12:34.753   11 Jun 2027 03:12:42.212             7.459          3729.500
       226   11 Jun 2027 04:44:00.109   11 Jun 2027 04:44:05.325             5.216          2608.000
       227   11 Jun 2027 04:44:30.040   11 Jun 2027 04:46:08.785            98.745         49372.500
       228   11 Jun 2027 04:46:54.238   11 Jun 2027 04:47:18.891            24.653         12326.500
       229   11 Jun 2027 04:47:32.870   11 Jun 2027 04:48:39.419            66.549         33274.500
       230   11 Jun 2027 04:48:59.174   11 Jun 2027 04:49:13.651            14.477          7198.688
       231   11 Jun 2027 06:22:41.305   11 Jun 2027 06:23:08.966            27.661         13621.562
       232   11 Jun 2027 06:26:04.383   11 Jun 2027 06:26:08.514             4.131           372.687
       233   11 Jun 2027 07:45:40.173   11 Jun 2027 07:45:56.967            16.794          6898.625
       234   11 Jun 2027 07:47:09.812   11 Jun 2027 07:47:15.179             5.367          1990.281
       235   11 Jun 2027 07:47:34.395   11 Jun 2027 07:47:36.011             1.616           199.719
       236   11 Jun 2027 07:48:11.207   11 Jun 2027 07:48:13.954             2.747           476.937
       237   11 Jun 2027 09:22:12.496   11 Jun 2027 09:22:19.875             7.379          3484.031
       238   11 Jun 2027 09:23:49.486   11 Jun 2027 09:23:53.959             4.473          1990.500
       239   11 Jun 2027 09:24:06.530   11 Jun 2027 09:24:06.530             0.000             0.000
       240   11 Jun 2027 09:24:36.760   11 Jun 2027 09:24:41.297             4.537          1337.531
       241   11 Jun 2027 10:58:06.546   11 Jun 2027 10:58:28.764            22.218         10068.438
       242   11 Jun 2027 11:01:00.177   11 Jun 2027 11:01:04.503             4.326          1376.031
       243   11 Jun 2027 11:01:29.321   11 Jun 2027 11:01:33.944             4.623           525.844
       244   11 Jun 2027 11:02:18.276   11 Jun 2027 11:02:21.540             3.264           997.406
       245   11 Jun 2027 11:03:08.406   11 Jun 2027 11:03:09.273             0.867           182.063
       246   11 Jun 2027 11:03:14.255   11 Jun 2027 11:03:15.650             1.395           155.687
       247   11 Jun 2027 11:03:35.395   11 Jun 2027 11:03:35.735             0.340            14.313
       248   11 Jun 2027 11:04:04.975   11 Jun 2027 11:04:05.901             0.926           463.000
       249   12 Jun 2027 03:18:00.906   12 Jun 2027 03:18:47.894            46.988         23494.000
       250   12 Jun 2027 03:19:02.967   12 Jun 2027 03:21:25.338           142.371         71185.500
       251   12 Jun 2027 03:22:12.618   12 Jun 2027 03:22:25.182            12.564          6282.000
       252   12 Jun 2027 03:22:29.061   12 Jun 2027 03:22:33.165             4.104          2052.000
       253   12 Jun 2027 03:23:15.958   12 Jun 2027 03:23:25.607             9.649          4824.500
       254   12 Jun 2027 04:56:08.994   12 Jun 2027 04:57:11.111            62.117         31058.500
       255   12 Jun 2027 04:57:17.976   12 Jun 2027 04:58:05.839            47.863         23661.969
       256   12 Jun 2027 04:59:40.081   12 Jun 2027 04:59:49.609             9.528          2793.406
       257   12 Jun 2027 05:02:16.295   12 Jun 2027 05:02:23.671             7.376          2924.156
       258   12 Jun 2027 06:34:27.671   12 Jun 2027 06:34:39.589            11.918          4604.219
       259   12 Jun 2027 06:37:51.611   12 Jun 2027 06:37:53.493             1.882           108.188
       260   12 Jun 2027 07:57:50.644   12 Jun 2027 07:58:04.974            14.330          6622.344
       261   12 Jun 2027 07:58:20.852   12 Jun 2027 07:58:23.128             2.276           496.188
       262   12 Jun 2027 07:59:20.325   12 Jun 2027 07:59:22.822             2.497          1223.188
       263   12 Jun 2027 08:00:34.500   12 Jun 2027 08:00:39.755             5.255          2183.437
       264   12 Jun 2027 09:34:22.145   12 Jun 2027 09:34:31.269             9.124          3396.188
       265   12 Jun 2027 09:36:00.185   12 Jun 2027 09:36:01.239             1.054           450.188
       266   12 Jun 2027 09:36:38.874   12 Jun 2027 09:36:43.141             4.267           835.937
       267   12 Jun 2027 09:37:20.844   12 Jun 2027 09:37:23.550             2.706           892.281
       268   12 Jun 2027 09:37:54.177   12 Jun 2027 09:37:55.116             0.939           289.062
       269   12 Jun 2027 11:09:31.381   12 Jun 2027 11:09:46.071            14.690          5865.031
       270   12 Jun 2027 11:10:36.139   12 Jun 2027 11:10:36.139             0.000             0.000
       271   12 Jun 2027 11:15:43.885   12 Jun 2027 11:16:06.195            22.310         10862.563
       272   13 Jun 2027 03:29:58.592   13 Jun 2027 03:30:30.975            32.383         16191.500
       273   13 Jun 2027 03:30:32.979   13 Jun 2027 03:33:39.548           186.569         93284.500
       274   13 Jun 2027 03:33:50.684   13 Jun 2027 03:34:05.661            14.977          7488.500
       275   13 Jun 2027 03:34:15.658   13 Jun 2027 03:34:16.735             1.077           538.500
       276   13 Jun 2027 03:36:07.187   13 Jun 2027 03:36:17.804            10.617          5308.500
       277   13 Jun 2027 05:09:15.829   13 Jun 2027 05:10:44.936            89.107         44530.594
       278   13 Jun 2027 05:15:49.353   13 Jun 2027 05:16:00.622            11.269          5565.031
       279   13 Jun 2027 05:16:07.323   13 Jun 2027 05:16:08.111             0.788           175.344
       280   13 Jun 2027 06:46:24.653   13 Jun 2027 06:46:36.067            11.414          4928.719
       281   13 Jun 2027 06:49:48.751   13 Jun 2027 06:49:50.627             1.876           133.281
       282   13 Jun 2027 08:10:28.633   13 Jun 2027 08:10:42.675            14.042          6392.000
       283   13 Jun 2027 08:11:23.629   13 Jun 2027 08:11:25.588             1.959           719.687
       284   13 Jun 2027 09:46:15.634   13 Jun 2027 09:46:27.684            12.050          5355.062
       285   13 Jun 2027 09:48:24.913   13 Jun 2027 09:48:33.722             8.809          3489.031
       286   13 Jun 2027 09:48:40.674   13 Jun 2027 09:48:40.674             0.000             0.000
       287   13 Jun 2027 09:49:29.858   13 Jun 2027 09:49:33.864             4.006          1754.250
       288   13 Jun 2027 11:23:02.814   13 Jun 2027 11:23:26.184            23.370         11459.000
       289   13 Jun 2027 11:26:23.738   13 Jun 2027 11:26:23.738             0.000             0.000
       290   13 Jun 2027 11:27:30.626   13 Jun 2027 11:27:44.394            13.768          6673.750
       291   13 Jun 2027 11:27:50.013   13 Jun 2027 11:27:51.141             1.128            23.937
