uniorb/output/strategy_3/Camera/Camera_KinoSat_111305.txt

KinoSat_111305
-------------------------
    Access    *     Start Time (UTCG)     *     Stop Time (UTCG)  *   Duration (s) *   Data (Mbytes)
         1   01 Jun 2027 03:27:29.954   01 Jun 2027 03:33:31.381           361.427        180713.500
         2   01 Jun 2027 04:51:36.975   01 Jun 2027 04:53:38.013           121.038         60519.000
         3   01 Jun 2027 06:25:23.993   01 Jun 2027 06:31:26.638           362.645        181322.500
         4   01 Jun 2027 08:00:16.193   01 Jun 2027 08:02:54.077           157.884         77445.000
