uniorb/output/strategy_3/Camera/Camera_KinoSat_111404.txt

KinoSat_111404
-------------------------
    Access    *     Start Time (UTCG)     *     Stop Time (UTCG)  *   Duration (s) *   Data (Mbytes)
         1   01 Jun 2027 03:33:07.342   01 Jun 2027 03:40:15.499           428.157        214078.500
         2   01 Jun 2027 04:57:57.439   01 Jun 2027 04:59:31.918            94.479         47239.500
         3   01 Jun 2027 05:09:41.604   01 Jun 2027 05:10:40.316            58.712         29356.000
         4   01 Jun 2027 06:31:56.610   01 Jun 2027 06:33:02.547            65.937         32968.500
         5   01 Jun 2027 06:33:53.642   01 Jun 2027 06:37:08.329           194.687         97343.500
         6   01 Jun 2027 08:06:54.269   01 Jun 2027 08:08:49.154           114.885         57442.500
         7   01 Jun 2027 08:08:58.176   01 Jun 2027 08:09:42.106            43.930         21571.500
