uniorb/output/strategy_3/Camera/Camera_KinoSat_110901.txt

KinoSat_110901
-------------------------
    Access    *     Start Time (UTCG)     *     Stop Time (UTCG)  *   Duration (s) *   Data (Mbytes)
         1   01 Jun 2027 04:08:27.462   01 Jun 2027 04:13:09.624           282.162        141081.000
         2   01 Jun 2027 05:44:00.788   01 Jun 2027 05:44:50.124            49.336         24668.000
         3   01 Jun 2027 05:45:28.390   01 Jun 2027 05:50:06.205           277.815        138907.500
         4   01 Jun 2027 07:20:17.312   01 Jun 2027 07:26:49.242           391.930        195343.500
