uniorb/output/strategy_3/Camera/Camera_KinoSat_112007.txt

KinoSat_112007
-------------------------
    Access    *     Start Time (UTCG)     *     Stop Time (UTCG)  *   Duration (s) *   Data (Mbytes)
         1   01 Jun 2027 04:14:12.963   01 Jun 2027 04:20:36.212           383.249        191624.500
         2   01 Jun 2027 05:52:57.998   01 Jun 2027 06:00:32.165           454.167        227083.500
         3   01 Jun 2027 07:18:37.307   01 Jun 2027 07:19:37.814            60.507         30253.500
         4   01 Jun 2027 07:29:54.208   01 Jun 2027 07:31:33.490            99.282         49641.000
         5   01 Jun 2027 08:52:29.497   01 Jun 2027 08:52:32.787             3.290          1397.500
