uniorb/output/strategy_3/Camera/Camera_KinoSat_111406.txt

KinoSat_111406
-------------------------
    Access    *     Start Time (UTCG)     *     Stop Time (UTCG)  *   Duration (s) *   Data (Mbytes)
         1   01 Jun 2027 03:13:26.374   01 Jun 2027 03:18:48.579           322.205        161102.500
         2   01 Jun 2027 03:19:36.555   01 Jun 2027 03:21:13.625            97.070         48535.000
         3   01 Jun 2027 04:39:36.088   01 Jun 2027 04:40:02.485            26.397         13198.500
         4   01 Jun 2027 04:50:30.951   01 Jun 2027 04:53:59.422           208.471        104235.500
         5   01 Jun 2027 06:14:28.283   01 Jun 2027 06:17:23.128           174.845         87422.500
         6   01 Jun 2027 07:50:13.141   01 Jun 2027 07:53:05.277           172.136         85506.000
