uniorb/output/strategy_3/Camera/Camera_KinoSat_110710.txt

KinoSat_110710
-------------------------
    Access    *     Start Time (UTCG)     *     Stop Time (UTCG)  *   Duration (s) *   Data (Mbytes)
         1   01 Jun 2027 04:27:46.414   01 Jun 2027 04:31:22.432           216.018        108009.000
         2   01 Jun 2027 06:02:44.381   01 Jun 2027 06:09:45.331           420.950        210475.000
         3   01 Jun 2027 07:38:56.205   01 Jun 2027 07:45:06.277           370.072        181516.000
