uniorb/output/strategy_3/Camera/Camera_KinoSat_110201.txt

KinoSat_110201
-------------------------
    Access    *     Start Time (UTCG)     *     Stop Time (UTCG)  *   Duration (s) *   Data (Mbytes)
         1   01 Jun 2027 03:03:43.318   01 Jun 2027 03:10:57.521           434.203        217101.500
         2   01 Jun 2027 04:40:12.244   01 Jun 2027 04:46:36.159           383.915        191957.500
         3   01 Jun 2027 06:18:30.020   01 Jun 2027 06:22:24.368           234.348        117174.000
         4   01 Jun 2027 07:53:56.948   01 Jun 2027 07:57:58.118           241.170        120585.000
         5   01 Jun 2027 07:58:19.070   01 Jun 2027 07:59:18.244            59.174         29587.000
         6   02 Jun 2027 03:15:25.712   02 Jun 2027 03:22:58.355           452.643        226321.500
         7   02 Jun 2027 04:52:32.563   02 Jun 2027 04:55:47.346           194.783         97273.501
