uniorb/output/strategy_3/Camera/Camera_KinoSat_112010.txt

KinoSat_112010
-------------------------
    Access    *     Start Time (UTCG)     *     Stop Time (UTCG)  *   Duration (s) *   Data (Mbytes)
         1   01 Jun 2027 03:44:50.827   01 Jun 2027 03:52:11.497           440.670        220335.000
         2   01 Jun 2027 05:22:59.721   01 Jun 2027 05:23:59.456            59.735         29867.500
         3   01 Jun 2027 05:24:08.963   01 Jun 2027 05:29:20.743           311.780        155890.000
         4   01 Jun 2027 07:01:18.369   01 Jun 2027 07:01:48.205            29.836         14918.000
         5   01 Jun 2027 07:02:07.156   01 Jun 2027 07:04:45.229           158.073         78989.499
