uniorb/output/strategy_3/Camera/Camera_KinoSat_110701.txt

KinoSat_110701
-------------------------
    Access    *     Start Time (UTCG)     *     Stop Time (UTCG)  *   Duration (s) *   Data (Mbytes)
         1   01 Jun 2027 04:18:17.478   01 Jun 2027 04:21:49.516           212.038        106019.000
         2   01 Jun 2027 05:53:27.386   01 Jun 2027 06:00:04.064           396.678        198339.000
         3   01 Jun 2027 07:29:52.621   01 Jun 2027 07:36:00.653           368.032        184016.000
         4   01 Jun 2027 09:07:07.156   01 Jun 2027 09:07:30.589            23.433         11626.000
