uniorb/output/strategy_3/Camera/Camera_KinoSat_111001.txt

KinoSat_111001
-------------------------
    Access    *     Start Time (UTCG)     *     Stop Time (UTCG)  *   Duration (s) *   Data (Mbytes)
         1   01 Jun 2027 04:05:26.076   01 Jun 2027 04:08:28.085           182.009         91004.500
         2   01 Jun 2027 05:41:55.226   01 Jun 2027 05:45:25.744           210.518        105259.000
         3   01 Jun 2027 07:17:02.124   01 Jun 2027 07:23:47.187           405.063        202531.500
         4   01 Jun 2027 08:53:23.497   01 Jun 2027 08:56:47.265           203.768        101205.000
