uniorb/output/strategy_3/Camera/Camera_KinoSat_111307.txt

KinoSat_111307
-------------------------
    Access    *     Start Time (UTCG)     *     Stop Time (UTCG)  *   Duration (s) *   Data (Mbytes)
         1   01 Jun 2027 03:08:05.659   01 Jun 2027 03:15:14.164           428.505        214252.500
         2   01 Jun 2027 04:32:56.349   01 Jun 2027 04:34:30.714            94.365         47182.500
         3   01 Jun 2027 04:44:40.048   01 Jun 2027 04:45:39.778            59.730         29865.000
         4   01 Jun 2027 06:06:55.569   01 Jun 2027 06:08:01.593            66.024         33012.000
         5   01 Jun 2027 06:08:52.393   01 Jun 2027 06:12:06.977           194.584         97292.000
         6   01 Jun 2027 07:41:53.899   01 Jun 2027 07:43:47.720           113.821         56910.500
         7   01 Jun 2027 07:43:57.332   01 Jun 2027 07:44:41.006            43.674         21485.500
