uniorb/output/strategy_3/Camera/Camera_KinoSat_111610.txt

KinoSat_111610
-------------------------
    Access    *     Start Time (UTCG)     *     Stop Time (UTCG)  *   Duration (s) *   Data (Mbytes)
         1   01 Jun 2027 04:03:31.289   01 Jun 2027 04:09:09.516           338.227        169113.500
         2   01 Jun 2027 04:09:40.802   01 Jun 2027 04:11:17.287            96.485         48242.500
         3   01 Jun 2027 05:29:36.785   01 Jun 2027 05:30:07.253            30.468         15234.000
         4   01 Jun 2027 05:40:34.272   01 Jun 2027 05:42:18.380           104.108         52054.000
         5   01 Jun 2027 05:42:25.243   01 Jun 2027 05:44:00.496            95.253         47626.500
         6   01 Jun 2027 07:03:53.483   01 Jun 2027 07:07:28.851           215.368        107684.000
         7   01 Jun 2027 08:40:16.055   01 Jun 2027 08:42:16.602           120.547         60045.500
