uniorb/output/strategy_3/Camera/Camera_KinoSat_111402.txt

KinoSat_111402
-------------------------
    Access    *     Start Time (UTCG)     *     Stop Time (UTCG)  *   Duration (s) *   Data (Mbytes)
         1   01 Jun 2027 03:52:31.757   01 Jun 2027 03:58:33.110           361.353        180676.500
         2   01 Jun 2027 05:16:38.086   01 Jun 2027 05:18:39.576           121.490         60745.000
         3   01 Jun 2027 06:50:24.435   01 Jun 2027 06:56:27.928           363.493        181746.500
         4   01 Jun 2027 08:26:24.922   01 Jun 2027 08:28:59.366           154.444         76832.000
