uniorb/output/strategy_3/Camera/Camera_KinoSat_110903.txt

KinoSat_110903
-------------------------
    Access    *     Start Time (UTCG)     *     Stop Time (UTCG)  *   Duration (s) *   Data (Mbytes)
         1   01 Jun 2027 03:50:15.773   01 Jun 2027 03:53:24.809           189.036         94518.000
         2   01 Jun 2027 05:26:44.006   01 Jun 2027 05:30:09.089           205.083        102541.500
         3   01 Jun 2027 07:01:56.696   01 Jun 2027 07:08:35.993           399.297        199648.500
         4   01 Jun 2027 08:37:51.528   01 Jun 2027 08:41:18.392           206.864        103292.000
