uniorb/output/strategy_3/Camera/Camera_KinoSat_110307.txt

KinoSat_110307
-------------------------
    Access    *     Start Time (UTCG)     *     Stop Time (UTCG)  *   Duration (s) *   Data (Mbytes)
         1   01 Jun 2027 03:37:49.638   01 Jun 2027 03:44:31.693           402.055        201027.500
         2   01 Jun 2027 05:13:45.442   01 Jun 2027 05:20:05.349           379.907        189953.500
         3   01 Jun 2027 06:51:43.828   01 Jun 2027 06:56:08.648           264.820        132410.000
         4   01 Jun 2027 08:27:35.412   01 Jun 2027 08:31:49.079           253.667        126833.500
         5   01 Jun 2027 08:31:55.056   01 Jun 2027 08:32:47.143            52.087         26043.500
         6   02 Jun 2027 03:49:05.226   02 Jun 2027 03:56:38.273           453.047        226523.500
         7   02 Jun 2027 05:25:55.004   02 Jun 2027 05:29:16.073           201.069         97208.500
