uniorb/output/strategy_3/Camera/Camera_KinoSat_110603.txt

KinoSat_110603
-------------------------
    Access    *     Start Time (UTCG)     *     Stop Time (UTCG)  *   Duration (s) *   Data (Mbytes)
         1   01 Jun 2027 04:03:05.662   01 Jun 2027 04:07:20.737           255.075        127537.500
         2   01 Jun 2027 05:37:48.812   01 Jun 2027 05:45:20.135           451.323        225661.500
         3   01 Jun 2027 07:14:34.634   01 Jun 2027 07:19:29.806           295.172        146801.000
