uniorb/output/strategy_3/Camera/Camera_KinoSat_110303.txt

KinoSat_110303
-------------------------
    Access    *     Start Time (UTCG)     *     Stop Time (UTCG)  *   Duration (s) *   Data (Mbytes)
         1   01 Jun 2027 04:15:33.279   01 Jun 2027 04:22:58.977           445.698        222849.000
         2   01 Jun 2027 05:52:21.050   01 Jun 2027 05:58:14.431           353.381        176690.500
         3   01 Jun 2027 05:58:22.381   01 Jun 2027 05:59:03.529            41.148         20574.000
         4   01 Jun 2027 07:30:24.780   01 Jun 2027 07:34:32.367           247.587        123793.500
         5   01 Jun 2027 09:04:15.256   01 Jun 2027 09:10:55.972           400.716        200358.000
         6   02 Jun 2027 04:27:36.207   02 Jun 2027 04:34:56.323           440.116        220058.000
         7   02 Jun 2027 06:04:30.630   02 Jun 2027 06:05:42.860            72.230         35677.000
