uniorb/output/strategy_3/Camera/Camera_KinoSat_111104.txt

KinoSat_111104
-------------------------
    Access    *     Start Time (UTCG)     *     Stop Time (UTCG)  *   Duration (s) *   Data (Mbytes)
         1   01 Jun 2027 03:33:33.071   01 Jun 2027 03:34:54.081            81.010         40505.000
         2   01 Jun 2027 03:45:07.447   01 Jun 2027 03:46:35.716            88.269         44134.500
         3   01 Jun 2027 05:07:44.926   01 Jun 2027 05:08:43.256            58.330         29165.000
         4   01 Jun 2027 05:09:21.964   01 Jun 2027 05:12:26.875           184.911         92455.500
         5   01 Jun 2027 06:42:53.890   01 Jun 2027 06:44:07.564            73.674         36837.000
         6   01 Jun 2027 06:44:36.534   01 Jun 2027 06:49:26.967           290.433        145216.500
         7   01 Jun 2027 08:19:40.819   01 Jun 2027 08:23:25.573           224.754        111686.500
