uniorb/output/strategy_3/Camera/Camera_KinoSat_111204.txt

KinoSat_111204
-------------------------
    Access    *     Start Time (UTCG)     *     Stop Time (UTCG)  *   Duration (s) *   Data (Mbytes)
         1   01 Jun 2027 03:41:27.673   01 Jun 2027 03:41:58.024            30.351         15175.500
         2   01 Jun 2027 03:42:16.597   01 Jun 2027 03:45:19.787           183.190         91595.000
         3   01 Jun 2027 05:04:50.078   01 Jun 2027 05:07:57.637           187.559         93779.500
         4   01 Jun 2027 06:41:21.954   01 Jun 2027 06:44:54.415           212.461        106230.500
         5   01 Jun 2027 08:16:31.941   01 Jun 2027 08:22:59.064           387.123        193219.501
