uniorb/output/strategy_3/Camera/Camera_KinoSat_110408.txt

KinoSat_110408
-------------------------
    Access    *     Start Time (UTCG)     *     Stop Time (UTCG)  *   Duration (s) *   Data (Mbytes)
         1   01 Jun 2027 03:20:57.963   01 Jun 2027 03:29:01.854           483.891        241945.500
         2   01 Jun 2027 03:29:21.956   01 Jun 2027 03:30:20.217            58.261         29130.500
         3   01 Jun 2027 04:58:52.355   01 Jun 2027 05:06:17.722           445.367        222683.500
         4   01 Jun 2027 06:35:36.482   01 Jun 2027 06:42:19.810           403.328        201664.000
         5   01 Jun 2027 08:13:30.004   01 Jun 2027 08:17:52.145           262.141        131070.500
         6   01 Jun 2027 09:49:27.836   01 Jun 2027 09:53:47.822           259.986        129993.000
         7   02 Jun 2027 03:33:50.967   02 Jun 2027 03:35:20.412            89.445         43513.000
