uniorb/output/strategy_3/Camera/Camera_KinoSat_111303.txt

KinoSat_111303
-------------------------
    Access    *     Start Time (UTCG)     *     Stop Time (UTCG)  *   Duration (s) *   Data (Mbytes)
         1   01 Jun 2027 03:47:13.558   01 Jun 2027 03:51:47.776           274.218        137109.000
         2   01 Jun 2027 05:10:35.330   01 Jun 2027 05:13:10.385           155.055         77527.500
         3   01 Jun 2027 06:46:57.533   01 Jun 2027 06:50:30.683           213.150        106575.000
         4   01 Jun 2027 08:19:14.558   01 Jun 2027 08:19:33.816            19.258          9629.000
         5   01 Jun 2027 08:21:01.616   01 Jun 2027 08:26:40.023           338.407        169159.500
