uniorb/output/strategy_3/Camera/Camera_KinoSat_111604.txt

KinoSat_111604
-------------------------
    Access    *     Start Time (UTCG)     *     Stop Time (UTCG)  *   Duration (s) *   Data (Mbytes)
         1   01 Jun 2027 03:23:58.839   01 Jun 2027 03:24:27.239            28.400         14200.000
         2   01 Jun 2027 03:24:33.606   01 Jun 2027 03:30:10.388           336.782        168391.000
         3   01 Jun 2027 05:01:59.335   01 Jun 2027 05:06:52.403           293.068        146534.000
         4   01 Jun 2027 06:25:39.854   01 Jun 2027 06:28:16.529           156.675         78337.500
         5   01 Jun 2027 08:02:06.389   01 Jun 2027 08:05:14.135           187.746         92537.500
