uniorb/output/strategy_3/Camera/Camera_KinoSat_111509.txt

KinoSat_111509
-------------------------
    Access    *     Start Time (UTCG)     *     Stop Time (UTCG)  *   Duration (s) *   Data (Mbytes)
         1   01 Jun 2027 04:17:36.339   01 Jun 2027 04:23:33.618           357.279        178639.500
         2   01 Jun 2027 05:41:40.023   01 Jun 2027 05:43:42.791           122.768         61384.000
         3   01 Jun 2027 07:17:37.194   01 Jun 2027 07:21:30.472           233.278        116639.000
         4   01 Jun 2027 08:51:26.986   01 Jun 2027 08:56:20.886           293.900        143337.500
