uniorb/output/strategy_3/Camera/Camera_KinoSat_110208.txt

KinoSat_110208
-------------------------
    Access    *     Start Time (UTCG)     *     Stop Time (UTCG)  *   Duration (s) *   Data (Mbytes)
         1   01 Jun 2027 03:32:21.437   01 Jun 2027 03:39:46.730           445.293        222646.500
         2   01 Jun 2027 05:09:06.656   01 Jun 2027 05:15:09.863           363.207        181603.500
         3   01 Jun 2027 05:15:17.565   01 Jun 2027 05:15:47.972            30.407         15203.500
         4   01 Jun 2027 06:47:11.416   01 Jun 2027 06:51:20.472           249.056        124528.000
         5   01 Jun 2027 08:20:57.610   01 Jun 2027 08:27:46.537           408.927        204463.500
         6   02 Jun 2027 03:44:21.533   02 Jun 2027 03:51:48.278           446.745        223372.500
         7   02 Jun 2027 05:21:14.910   02 Jun 2027 05:22:14.409            59.499         28182.500
