uniorb/output/strategy_3/Camera/Camera_KinoSat_110501.txt

KinoSat_110501
-------------------------
    Access    *     Start Time (UTCG)     *     Stop Time (UTCG)  *   Duration (s) *   Data (Mbytes)
         1   01 Jun 2027 04:23:08.289   01 Jun 2027 04:23:26.810            18.521          9260.500
         2   01 Jun 2027 04:24:55.469   01 Jun 2027 04:31:50.337           414.868        207434.000
         3   01 Jun 2027 04:31:52.394   01 Jun 2027 04:32:53.511            61.117         30558.500
         4   01 Jun 2027 06:01:59.981   01 Jun 2027 06:08:42.704           402.723        201361.500
         5   01 Jun 2027 07:38:56.069   01 Jun 2027 07:43:20.207           264.138        132069.000
         6   01 Jun 2027 07:43:20.892   01 Jun 2027 07:43:56.000            35.108         17554.000
         7   01 Jun 2027 09:15:42.657   01 Jun 2027 09:20:24.466           281.809        140904.500
         8   01 Jun 2027 10:53:54.706   01 Jun 2027 10:54:52.789            58.083         29041.500
         9   02 Jun 2027 03:03:01.978   02 Jun 2027 03:06:31.689           209.711        104855.500
        10   02 Jun 2027 04:38:06.886   02 Jun 2027 04:42:23.380           256.494        126961.000
