uniorb/output/strategy_3/Camera/Camera_KinoSat_110902.txt

KinoSat_110902
-------------------------
    Access    *     Start Time (UTCG)     *     Stop Time (UTCG)  *   Duration (s) *   Data (Mbytes)
         1   01 Jun 2027 04:00:18.809   01 Jun 2027 04:03:02.241           163.432         81716.000
         2   01 Jun 2027 05:36:04.117   01 Jun 2027 05:40:17.838           253.721        126860.500
         3   01 Jun 2027 07:10:55.658   01 Jun 2027 07:18:17.148           441.490        220745.000
         4   01 Jun 2027 08:47:31.053   01 Jun 2027 08:49:56.245           145.192         70678.500
