uniorb/output/strategy_3/Camera/Camera_KinoSat_111101.txt

KinoSat_111101
-------------------------
    Access    *     Start Time (UTCG)     *     Stop Time (UTCG)  *   Duration (s) *   Data (Mbytes)
         1   01 Jun 2027 04:01:40.967   01 Jun 2027 04:03:45.417           124.450         62225.000
         2   01 Jun 2027 05:37:38.356   01 Jun 2027 05:41:32.565           234.209        117104.500
         3   01 Jun 2027 07:11:28.093   01 Jun 2027 07:18:47.771           439.678        219839.000
         4   01 Jun 2027 07:18:57.940   01 Jun 2027 07:19:57.770            59.830         29915.000
         5   01 Jun 2027 08:48:31.629   01 Jun 2027 08:50:54.889           143.260         70916.500
