uniorb/output/strategy_3/Camera/Camera_KinoSat_111310.txt

KinoSat_111310
-------------------------
    Access    *     Start Time (UTCG)     *     Stop Time (UTCG)  *   Duration (s) *   Data (Mbytes)
         1   01 Jun 2027 04:15:59.030   01 Jun 2027 04:16:35.769            36.739         18369.500
         2   01 Jun 2027 04:17:04.504   01 Jun 2027 04:19:31.175           146.671         73335.500
         3   01 Jun 2027 05:40:04.982   01 Jun 2027 05:42:35.854           150.872         75436.000
         4   01 Jun 2027 07:15:50.375   01 Jun 2027 07:19:23.279           212.904        106452.000
         5   01 Jun 2027 08:50:48.343   01 Jun 2027 08:57:48.176           419.833        209916.500
         6   01 Jun 2027 10:26:59.991   01 Jun 2027 10:27:35.537            35.546         16490.500
