uniorb/output/strategy_3/Camera/Camera_KinoSat_110407.txt

KinoSat_110407
-------------------------
    Access    *     Start Time (UTCG)     *     Stop Time (UTCG)  *   Duration (s) *   Data (Mbytes)
         1   01 Jun 2027 03:31:25.486   01 Jun 2027 03:38:43.421           437.935        218967.500
         2   01 Jun 2027 03:38:55.882   01 Jun 2027 03:39:56.130            60.248         30124.000
         3   01 Jun 2027 05:08:32.961   01 Jun 2027 05:15:52.422           439.461        219730.500
         4   01 Jun 2027 06:45:36.008   01 Jun 2027 06:50:24.568           288.560        144280.000
         5   01 Jun 2027 06:50:31.473   01 Jun 2027 06:51:42.379            70.906         35453.000
         6   01 Jun 2027 08:22:33.539   01 Jun 2027 08:27:25.538           291.999        145999.500
         7   01 Jun 2027 09:57:36.867   01 Jun 2027 09:58:01.682            24.815         12407.500
         8   01 Jun 2027 09:59:16.744   01 Jun 2027 10:02:28.429           191.685         95842.500
         9   02 Jun 2027 03:43:39.256   02 Jun 2027 03:46:55.158           195.902         97195.500
