uniorb/output/strategy_3/Camera/Camera_KinoSat_111401.txt

KinoSat_111401
-------------------------
    Access    *     Start Time (UTCG)     *     Stop Time (UTCG)  *   Duration (s) *   Data (Mbytes)
         1   01 Jun 2027 04:02:39.466   01 Jun 2027 04:07:20.742           281.276        140638.000
         2   01 Jun 2027 05:26:10.210   01 Jun 2027 05:28:27.473           137.263         68631.500
         3   01 Jun 2027 07:02:21.325   01 Jun 2027 07:05:51.068           209.743        104871.500
         4   01 Jun 2027 08:35:54.739   01 Jun 2027 08:42:06.497           371.758        185859.000
