uniorb/output/strategy_3/Camera/Camera_KinoSat_110704.txt

KinoSat_110704
-------------------------
    Access    *     Start Time (UTCG)     *     Stop Time (UTCG)  *   Duration (s) *   Data (Mbytes)
         1   01 Jun 2027 03:49:16.363   01 Jun 2027 03:52:48.004           211.641        105820.500
         2   01 Jun 2027 05:22:49.878   01 Jun 2027 05:30:20.949           451.071        225535.500
         3   01 Jun 2027 05:30:22.489   01 Jun 2027 05:31:23.507            61.018         30509.000
         4   01 Jun 2027 07:00:16.642   01 Jun 2027 07:04:52.981           276.339        138135.000
