uniorb/output/strategy_3/Camera/Camera_KinoSat_110508.txt

KinoSat_110508
-------------------------
    Access    *     Start Time (UTCG)     *     Stop Time (UTCG)  *   Duration (s) *   Data (Mbytes)
         1   01 Jun 2027 03:19:43.881   01 Jun 2027 03:23:20.309           216.428        108214.000
         2   01 Jun 2027 04:54:41.631   01 Jun 2027 05:01:43.059           421.428        210714.000
         3   01 Jun 2027 06:30:53.732   01 Jun 2027 06:37:20.119           386.387        193193.500
         4   01 Jun 2027 08:08:54.099   01 Jun 2027 08:13:05.796           251.697        125848.500
         5   01 Jun 2027 09:44:35.109   01 Jun 2027 09:48:58.475           263.366        131683.000
         6   01 Jun 2027 09:49:04.749   01 Jun 2027 09:50:01.108            56.359         28179.500
         7   02 Jun 2027 03:30:19.932   02 Jun 2027 03:30:25.872             5.940          2970.000
         8   02 Jun 2027 03:31:29.479   02 Jun 2027 03:35:56.169           266.690        133345.000
         9   02 Jun 2027 05:06:15.434   02 Jun 2027 05:08:28.529           133.095         65852.500
