uniorb/output/strategy_3/Camera/Camera_KinoSat_111003.txt

KinoSat_111003
-------------------------
    Access    *     Start Time (UTCG)     *     Stop Time (UTCG)  *   Duration (s) *   Data (Mbytes)
         1   01 Jun 2027 03:46:17.055   01 Jun 2027 03:48:42.095           145.040         72520.000
         2   01 Jun 2027 05:22:38.690   01 Jun 2027 05:26:06.180           207.490        103745.000
         3   01 Jun 2027 06:56:08.220   01 Jun 2027 07:04:38.995           510.775        255387.500
         4   01 Jun 2027 08:33:39.548   01 Jun 2027 08:35:56.487           136.939         68347.500
