uniorb/output/strategy_3/Camera/Camera_KinoSat_111903.txt

KinoSat_111903
-------------------------
    Access    *     Start Time (UTCG)     *     Stop Time (UTCG)  *   Duration (s) *   Data (Mbytes)
         1   01 Jun 2027 03:20:00.432   01 Jun 2027 03:27:13.987           433.555        216777.500
         2   01 Jun 2027 04:58:08.455   01 Jun 2027 04:59:10.388            61.933         30966.500
         3   01 Jun 2027 04:59:16.876   01 Jun 2027 05:04:22.694           305.818        152909.000
         4   01 Jun 2027 06:36:27.026   01 Jun 2027 06:36:59.241            32.215         16107.500
         5   01 Jun 2027 06:37:16.080   01 Jun 2027 06:40:05.370           169.290         83239.500
