uniorb/output/strategy_3/Camera/Camera_KinoSat_111806.txt

KinoSat_111806
-------------------------
    Access    *     Start Time (UTCG)     *     Stop Time (UTCG)  *   Duration (s) *   Data (Mbytes)
         1   01 Jun 2027 03:00:00.000   01 Jun 2027 03:02:15.836           135.836         67918.000
         2   01 Jun 2027 04:33:12.984   01 Jun 2027 04:34:14.264            61.280         30640.000
         3   01 Jun 2027 04:34:20.949   01 Jun 2027 04:39:25.186           304.237        152118.500
         4   01 Jun 2027 06:11:30.407   01 Jun 2027 06:15:19.339           228.932        114466.000
         5   01 Jun 2027 07:34:53.523   01 Jun 2027 07:38:01.853           188.330         94165.000
         6   01 Jun 2027 09:11:26.061   01 Jun 2027 09:12:48.783            82.722         40692.500
