uniorb/output/strategy_3/Camera/Camera_KinoSat_111407.txt

KinoSat_111407
-------------------------
    Access    *     Start Time (UTCG)     *     Stop Time (UTCG)  *   Duration (s) *   Data (Mbytes)
         1   01 Jun 2027 03:02:48.219   01 Jun 2027 03:03:05.541            17.322          8661.000
         2   01 Jun 2027 03:03:50.857   01 Jun 2027 03:08:53.692           302.835        151417.500
         3   01 Jun 2027 03:10:25.885   01 Jun 2027 03:10:31.622             5.737          2868.500
         4   01 Jun 2027 04:40:59.677   01 Jun 2027 04:41:37.064            37.387         18693.500
         5   01 Jun 2027 04:42:07.225   01 Jun 2027 04:44:33.542           146.317         73158.500
         6   01 Jun 2027 06:05:05.673   01 Jun 2027 06:07:37.107           151.434         75717.000
         7   01 Jun 2027 07:40:51.268   01 Jun 2027 07:44:24.395           213.127        106563.500
         8   01 Jun 2027 09:15:48.713   01 Jun 2027 09:17:57.314           128.601         62920.500
