uniorb/output/strategy_3/Camera/Camera_KinoSat_111107.txt

KinoSat_111107
-------------------------
    Access    *     Start Time (UTCG)     *     Stop Time (UTCG)  *   Duration (s) *   Data (Mbytes)
         1   01 Jun 2027 03:16:31.469   01 Jun 2027 03:17:02.638            31.169         15584.500
         2   01 Jun 2027 03:17:37.927   01 Jun 2027 03:20:22.827           164.900         82450.000
         3   01 Jun 2027 04:39:53.125   01 Jun 2027 04:43:01.981           188.856         94428.000
         4   01 Jun 2027 06:16:25.909   01 Jun 2027 06:19:56.590           210.681        105340.500
         5   01 Jun 2027 07:51:36.379   01 Jun 2027 07:58:12.243           395.864        197932.000
         6   01 Jun 2027 09:27:58.174   01 Jun 2027 09:28:08.806            10.632          4265.000
