uniorb/output/strategy_3/Camera/Camera_KinoSat_111710.txt

KinoSat_111710
-------------------------
    Access    *     Start Time (UTCG)     *     Stop Time (UTCG)  *   Duration (s) *   Data (Mbytes)
         1   01 Jun 2027 03:58:44.183   01 Jun 2027 03:59:45.480            61.297         30648.500
         2   01 Jun 2027 03:59:51.106   01 Jun 2027 04:04:54.608           303.502        151751.000
         3   01 Jun 2027 05:37:46.109   01 Jun 2027 05:41:15.764           209.655        104827.500
         4   01 Jun 2027 07:00:18.465   01 Jun 2027 07:02:56.804           158.339         79169.500
         5   01 Jun 2027 08:36:43.871   01 Jun 2027 08:40:16.300           212.429        106214.500
         6   01 Jun 2027 10:11:52.169   01 Jun 2027 10:12:48.051            55.882         27388.999
