uniorb/output/strategy_3/Camera/Camera_KinoSat_111002.txt

KinoSat_111002
-------------------------
    Access    *     Start Time (UTCG)     *     Stop Time (UTCG)  *   Duration (s) *   Data (Mbytes)
         1   01 Jun 2027 03:55:44.924   01 Jun 2027 03:58:24.145           159.221         79610.500
         2   01 Jun 2027 05:32:11.980   01 Jun 2027 05:35:47.748           215.768        107884.000
         3   01 Jun 2027 07:04:19.879   01 Jun 2027 07:04:30.955            11.076          5538.000
         4   01 Jun 2027 07:06:18.810   01 Jun 2027 07:13:06.939           408.129        204064.500
         5   01 Jun 2027 07:13:09.928   01 Jun 2027 07:14:07.993            58.065         29032.500
         6   01 Jun 2027 08:43:17.446   01 Jun 2027 08:45:48.534           151.088         73870.500
