uniorb/output/strategy_3/Camera/Camera_KinoSat_110804.txt

KinoSat_110804
-------------------------
    Access    *     Start Time (UTCG)     *     Stop Time (UTCG)  *   Duration (s) *   Data (Mbytes)
         1   01 Jun 2027 03:43:43.998   01 Jun 2027 03:44:44.677            60.679         30339.500
         2   01 Jun 2027 03:45:25.473   01 Jun 2027 03:48:31.463           185.990         92995.000
         3   01 Jun 2027 05:18:47.573   01 Jun 2027 05:20:05.896            78.323         39161.500
         4   01 Jun 2027 05:20:37.832   01 Jun 2027 05:25:30.991           293.159        146579.500
         5   01 Jun 2027 06:55:45.682   01 Jun 2027 07:02:08.773           383.091        190924.500
