uniorb/output/strategy_3/Camera/Camera_KinoSat_111601.txt

KinoSat_111601
-------------------------
    Access    *     Start Time (UTCG)     *     Stop Time (UTCG)  *   Duration (s) *   Data (Mbytes)
         1   01 Jun 2027 03:52:52.791   01 Jun 2027 03:53:02.871            10.080          5040.000
         2   01 Jun 2027 03:53:54.487   01 Jun 2027 03:59:02.109           307.622        153811.000
         3   01 Jun 2027 04:00:28.436   01 Jun 2027 04:00:42.269            13.833          6916.500
         4   01 Jun 2027 05:31:03.119   01 Jun 2027 05:31:41.905            38.786         19393.000
         5   01 Jun 2027 05:32:07.521   01 Jun 2027 05:34:39.960           152.439         76219.500
         6   01 Jun 2027 06:55:08.918   01 Jun 2027 06:57:41.430           152.512         76256.000
         7   01 Jun 2027 08:30:54.341   01 Jun 2027 08:34:34.684           220.343        110171.500
         8   01 Jun 2027 10:05:51.828   01 Jun 2027 10:07:37.505           105.677         52192.501
