uniorb/output/strategy_3/Camera/Camera_KinoSat_111210.txt

KinoSat_111210
-------------------------
    Access    *     Start Time (UTCG)     *     Stop Time (UTCG)  *   Duration (s) *   Data (Mbytes)
         1   01 Jun 2027 04:07:56.964   01 Jun 2027 04:09:31.403            94.439         47219.500
         2   01 Jun 2027 04:19:40.805   01 Jun 2027 04:20:40.578            59.773         29886.500
         3   01 Jun 2027 05:41:56.203   01 Jun 2027 05:43:02.104            65.901         32950.500
         4   01 Jun 2027 05:43:53.189   01 Jun 2027 05:47:08.091           194.902         97451.000
         5   01 Jun 2027 07:16:54.122   01 Jun 2027 07:18:48.652           114.530         57265.000
         6   01 Jun 2027 07:18:57.744   01 Jun 2027 07:24:14.447           316.703        158351.500
         7   01 Jun 2027 07:24:52.083   01 Jun 2027 07:25:15.461            23.378         11689.000
         8   01 Jun 2027 08:54:22.542   01 Jun 2027 08:56:33.261           130.719         65187.000
