uniorb/output/strategy_3/Camera/Camera_KinoSat_111607.txt

KinoSat_111607
-------------------------
    Access    *     Start Time (UTCG)     *     Stop Time (UTCG)  *   Duration (s) *   Data (Mbytes)
         1   01 Jun 2027 03:00:00.000   01 Jun 2027 03:00:00.511             0.511           255.500
         2   01 Jun 2027 04:32:47.092   01 Jun 2027 04:39:49.046           421.954        210977.000
         3   01 Jun 2027 05:57:08.449   01 Jun 2027 05:59:20.377           131.928         65964.000
         4   01 Jun 2027 06:09:21.590   01 Jun 2027 06:09:52.706            31.116         15558.000
         5   01 Jun 2027 07:31:15.336   01 Jun 2027 07:32:28.955            73.619         36809.500
         6   01 Jun 2027 07:33:18.623   01 Jun 2027 07:36:56.350           217.727        108863.500
         7   01 Jun 2027 09:06:03.413   01 Jun 2027 09:08:06.744           123.331         61572.500
