uniorb/output/strategy_3/Camera/Camera_KinoSat_110401.txt

KinoSat_110401
-------------------------
    Access    *     Start Time (UTCG)     *     Stop Time (UTCG)  *   Duration (s) *   Data (Mbytes)
         1   01 Jun 2027 04:29:57.825   01 Jun 2027 04:37:31.622           453.797        226898.500
         2   01 Jun 2027 06:06:58.699   01 Jun 2027 06:13:06.329           367.630        183815.000
         3   01 Jun 2027 07:44:59.170   01 Jun 2027 07:48:56.003           236.833        118416.500
         4   01 Jun 2027 09:18:13.069   01 Jun 2027 09:26:05.807           472.738        236369.000
         5   02 Jun 2027 03:04:54.319   02 Jun 2027 03:06:28.409            94.090         47045.000
         6   02 Jun 2027 03:06:55.866   02 Jun 2027 03:11:53.979           298.113        149056.500
         7   02 Jun 2027 03:12:50.123   02 Jun 2027 03:13:04.714            14.591          7295.500
         8   02 Jun 2027 04:42:06.711   02 Jun 2027 04:43:08.944            62.233         31104.000
