uniorb/output/strategy_3/Camera/Camera_KinoSat_110609.txt

KinoSat_110609
-------------------------
    Access    *     Start Time (UTCG)     *     Stop Time (UTCG)  *   Duration (s) *   Data (Mbytes)
         1   01 Jun 2027 03:03:17.403   01 Jun 2027 03:04:32.364            74.961         37480.500
         2   01 Jun 2027 03:05:25.031   01 Jun 2027 03:09:18.272           233.241        116620.500
         3   01 Jun 2027 04:38:09.981   01 Jun 2027 04:46:26.921           496.940        248470.000
         4   01 Jun 2027 04:46:44.140   01 Jun 2027 04:47:45.035            60.895         30447.500
         5   01 Jun 2027 06:16:16.646   01 Jun 2027 06:18:32.871           136.225         66981.500
