uniorb/output/strategy_3/Camera/Camera_KinoSat_111108.txt

KinoSat_111108
-------------------------
    Access    *     Start Time (UTCG)     *     Stop Time (UTCG)  *   Duration (s) *   Data (Mbytes)
         1   01 Jun 2027 03:06:36.658   01 Jun 2027 03:11:14.467           277.809        138904.500
         2   01 Jun 2027 04:30:16.339   01 Jun 2027 04:32:55.511           159.172         79586.000
         3   01 Jun 2027 06:06:41.926   01 Jun 2027 06:10:14.696           212.770        106385.000
         4   01 Jun 2027 07:41:50.108   01 Jun 2027 07:47:36.026           345.918        172959.000
         5   01 Jun 2027 07:47:36.195   01 Jun 2027 07:47:40.747             4.552          2165.500
