uniorb/output/strategy_3/Camera/Camera_KinoSat_111206.txt

KinoSat_111206
-------------------------
    Access    *     Start Time (UTCG)     *     Stop Time (UTCG)  *   Duration (s) *   Data (Mbytes)
         1   01 Jun 2027 03:22:14.340   01 Jun 2027 03:26:48.426           274.086        137043.000
         2   01 Jun 2027 04:45:36.273   01 Jun 2027 04:48:11.051           154.778         77389.000
         3   01 Jun 2027 06:21:58.312   01 Jun 2027 06:25:32.150           213.838        106919.000
         4   01 Jun 2027 07:56:02.314   01 Jun 2027 08:02:00.917           358.603        178649.000
