uniorb/output/strategy_3/Camera/Camera_KinoSat_110202.txt

KinoSat_110202
-------------------------
    Access    *     Start Time (UTCG)     *     Stop Time (UTCG)  *   Duration (s) *   Data (Mbytes)
         1   01 Jun 2027 03:00:00.000   01 Jun 2027 03:01:14.388            74.388         37194.000
         2   01 Jun 2027 04:30:52.365   01 Jun 2027 04:36:42.829           350.464        175232.000
         3   01 Jun 2027 04:36:51.529   01 Jun 2027 04:36:59.874             8.345          4172.500
         4   01 Jun 2027 06:08:25.908   01 Jun 2027 06:12:57.305           271.397        135698.500
         5   01 Jun 2027 07:44:27.213   01 Jun 2027 07:48:39.057           251.844        125922.000
         6   01 Jun 2027 07:48:43.178   01 Jun 2027 07:49:27.275            44.097         22048.500
         7   02 Jun 2027 03:06:02.329   02 Jun 2027 03:13:24.734           442.405        221202.500
         8   02 Jun 2027 04:42:38.183   02 Jun 2027 04:49:02.047           383.864        191932.000
         9   02 Jun 2027 06:20:55.869   02 Jun 2027 06:23:49.124           173.255         86598.000
