uniorb/output/strategy_3/Camera/Camera_KinoSat_110506.txt

KinoSat_110506
-------------------------
    Access    *     Start Time (UTCG)     *     Stop Time (UTCG)  *   Duration (s) *   Data (Mbytes)
         1   01 Jun 2027 03:36:56.272   01 Jun 2027 03:37:54.755            58.483         29241.500
         2   01 Jun 2027 03:38:27.927   01 Jun 2027 03:43:14.274           286.347        143173.500
         3   01 Jun 2027 05:13:25.959   01 Jun 2027 05:20:56.556           450.597        225298.500
         4   01 Jun 2027 06:50:30.873   01 Jun 2027 06:56:21.298           350.425        175212.500
         5   01 Jun 2027 06:56:23.155   01 Jun 2027 06:56:42.033            18.878          9439.000
         6   01 Jun 2027 08:28:25.065   01 Jun 2027 08:32:24.714           239.649        119824.500
         7   01 Jun 2027 10:01:33.361   01 Jun 2027 10:07:58.223           384.862        192431.000
         8   01 Jun 2027 10:08:18.179   01 Jun 2027 10:09:29.521            71.342         35671.000
         9   02 Jun 2027 03:48:05.792   02 Jun 2027 03:50:08.463           122.671         61335.500
        10   02 Jun 2027 03:50:14.918   02 Jun 2027 03:50:33.699            18.781          8373.000
