uniorb/output/strategy_3/Camera/Camera_KinoSat_111904.txt

KinoSat_111904
-------------------------
    Access    *     Start Time (UTCG)     *     Stop Time (UTCG)  *   Duration (s) *   Data (Mbytes)
         1   01 Jun 2027 03:10:25.965   01 Jun 2027 03:17:49.211           443.246        221623.000
         2   01 Jun 2027 04:48:39.313   01 Jun 2027 04:49:39.981            60.668         30334.000
         3   01 Jun 2027 04:49:45.776   01 Jun 2027 04:54:43.646           297.870        148935.000
         4   01 Jun 2027 06:27:40.242   01 Jun 2027 06:30:59.431           199.189         99108.000
