uniorb/output/strategy_3/Camera/Camera_KinoSat_110504.txt

KinoSat_110504
-------------------------
    Access    *     Start Time (UTCG)     *     Stop Time (UTCG)  *   Duration (s) *   Data (Mbytes)
         1   01 Jun 2027 03:54:54.330   01 Jun 2027 04:02:51.126           476.796        238398.000
         2   01 Jun 2027 04:03:13.266   01 Jun 2027 04:03:55.874            42.608         21304.000
         3   01 Jun 2027 05:32:42.934   01 Jun 2027 05:40:08.546           445.612        222806.000
         4   01 Jun 2027 07:09:27.391   01 Jun 2027 07:15:22.966           355.575        177787.500
         5   01 Jun 2027 07:15:28.256   01 Jun 2027 07:16:13.176            44.920         22460.000
         6   01 Jun 2027 08:47:34.835   01 Jun 2027 08:51:42.267           247.432        123716.000
         7   01 Jun 2027 10:21:25.906   01 Jun 2027 10:27:44.952           379.046        189523.000
         8   02 Jun 2027 04:07:42.726   02 Jun 2027 04:07:53.145            10.419          4005.500
