uniorb/output/strategy_3/Camera/Camera_KinoSat_110203.txt

KinoSat_110203
-------------------------
    Access    *     Start Time (UTCG)     *     Stop Time (UTCG)  *   Duration (s) *   Data (Mbytes)
         1   01 Jun 2027 04:21:19.579   01 Jun 2027 04:27:36.416           376.837        188418.500
         2   01 Jun 2027 05:58:42.997   01 Jun 2027 06:03:15.143           272.146        136073.000
         3   01 Jun 2027 07:34:54.284   01 Jun 2027 07:39:07.911           253.627        126813.500
         4   02 Jun 2027 03:00:00.000   02 Jun 2027 03:03:44.074           224.074        112037.000
         5   02 Jun 2027 04:32:58.492   02 Jun 2027 04:39:17.690           379.198        189599.000
         6   02 Jun 2027 06:10:57.695   02 Jun 2027 06:15:21.837           264.142        132071.000
         7   02 Jun 2027 07:46:49.147   02 Jun 2027 07:50:40.189           231.042        114988.000
