uniorb/output/strategy_3/Camera/Camera_KinoSat_110306.txt

KinoSat_110306
-------------------------
    Access    *     Start Time (UTCG)     *     Stop Time (UTCG)  *   Duration (s) *   Data (Mbytes)
         1   01 Jun 2027 03:46:48.356   01 Jun 2027 03:54:11.922           443.566        221783.000
         2   01 Jun 2027 05:23:25.366   01 Jun 2027 05:29:48.984           383.618        191809.000
         3   01 Jun 2027 07:01:43.253   01 Jun 2027 07:05:37.721           234.468        117234.000
         4   01 Jun 2027 08:35:02.715   01 Jun 2027 08:36:30.326            87.611         43805.500
         5   01 Jun 2027 08:37:02.607   01 Jun 2027 08:41:15.822           253.215        126607.500
         6   01 Jun 2027 08:41:35.623   01 Jun 2027 08:42:34.793            59.170         29585.000
         7   02 Jun 2027 03:58:43.448   02 Jun 2027 04:06:12.214           448.766        224383.000
         8   02 Jun 2027 05:35:46.368   02 Jun 2027 05:37:18.341            91.973         44793.000
