uniorb/output/strategy_3/Camera/Camera_KinoSat_111608.txt

KinoSat_111608
-------------------------
    Access    *     Start Time (UTCG)     *     Stop Time (UTCG)  *   Duration (s) *   Data (Mbytes)
         1   01 Jun 2027 04:23:12.039   01 Jun 2027 04:30:19.049           427.010        213505.000
         2   01 Jun 2027 05:48:01.693   01 Jun 2027 05:49:37.395            95.702         47851.000
         3   01 Jun 2027 05:59:41.574   01 Jun 2027 06:00:41.644            60.070         30035.000
         4   01 Jun 2027 07:21:59.387   01 Jun 2027 07:23:05.724            66.337         33168.500
         5   01 Jun 2027 07:23:53.309   01 Jun 2027 07:27:13.545           200.236        100118.000
         6   01 Jun 2027 08:56:53.815   01 Jun 2027 08:58:54.297           120.482         60241.000
         7   01 Jun 2027 08:59:01.380   01 Jun 2027 08:59:32.355            30.975         15081.500
