uniorb/output/strategy_3/Camera/Camera_KinoSat_110910.txt

KinoSat_110910
-------------------------
    Access    *     Start Time (UTCG)     *     Stop Time (UTCG)  *   Duration (s) *   Data (Mbytes)
         1   01 Jun 2027 04:17:42.882   01 Jun 2027 04:18:53.979            71.097         35548.500
         2   01 Jun 2027 04:19:43.659   01 Jun 2027 04:22:54.804           191.145         95572.500
         3   01 Jun 2027 05:52:47.587   01 Jun 2027 05:54:30.587           103.000         51500.000
         4   01 Jun 2027 05:54:50.394   01 Jun 2027 05:59:51.106           300.712        150356.000
         5   01 Jun 2027 06:00:42.180   01 Jun 2027 06:01:02.907            20.727         10363.500
         6   01 Jun 2027 07:30:07.526   01 Jun 2027 07:35:21.183           313.657        156659.500
