uniorb/output/strategy_3/Camera/Camera_KinoSat_111503.txt

KinoSat_111503
-------------------------
    Access    *     Start Time (UTCG)     *     Stop Time (UTCG)  *   Duration (s) *   Data (Mbytes)
         1   01 Jun 2027 03:38:28.787   01 Jun 2027 03:44:05.851           337.064        168532.000
         2   01 Jun 2027 03:44:38.320   01 Jun 2027 03:46:15.760            97.440         48720.000
         3   01 Jun 2027 05:04:36.496   01 Jun 2027 05:05:05.046            28.550         14275.000
         4   01 Jun 2027 05:15:32.658   01 Jun 2027 05:18:59.281           206.623        103311.500
         5   01 Jun 2027 06:39:29.647   01 Jun 2027 06:42:26.389           176.742         88371.000
         6   01 Jun 2027 08:15:15.289   01 Jun 2027 08:17:48.910           153.621         76790.500
