uniorb/output/strategy_3/Camera/Camera_KinoSat_111005.txt

KinoSat_111005
-------------------------
    Access    *     Start Time (UTCG)     *     Stop Time (UTCG)  *   Duration (s) *   Data (Mbytes)
         1   01 Jun 2027 03:27:16.157   01 Jun 2027 03:29:21.599           125.442         62721.000
         2   01 Jun 2027 03:39:32.066   01 Jun 2027 03:39:59.617            27.551         13775.500
         3   01 Jun 2027 05:01:12.965   01 Jun 2027 05:02:32.554            79.589         39794.500
         4   01 Jun 2027 05:03:20.746   01 Jun 2027 05:07:07.758           227.012        113506.000
         5   01 Jun 2027 06:36:06.414   01 Jun 2027 06:44:11.000           484.586        242293.000
         6   01 Jun 2027 06:44:31.098   01 Jun 2027 06:45:28.078            56.980         27910.000
