uniorb/output/strategy_3/Camera/Camera_KinoSat_110805.txt

KinoSat_110805
-------------------------
    Access    *     Start Time (UTCG)     *     Stop Time (UTCG)  *   Duration (s) *   Data (Mbytes)
         1   01 Jun 2027 03:34:35.397   01 Jun 2027 03:38:35.253           239.856        119928.000
         2   01 Jun 2027 05:10:07.597   01 Jun 2027 05:10:13.986             6.389          3194.500
         3   01 Jun 2027 05:11:17.298   01 Jun 2027 05:15:44.039           266.741        133370.500
         4   01 Jun 2027 06:46:02.851   01 Jun 2027 06:53:36.194           453.343        226671.500
         5   01 Jun 2027 08:23:02.729   01 Jun 2027 08:23:40.006            37.277         16835.500
