uniorb/output/strategy_3/Camera/Camera_KinoSat_110301.txt

KinoSat_110301
-------------------------
    Access    *     Start Time (UTCG)     *     Stop Time (UTCG)  *   Duration (s) *   Data (Mbytes)
         1   01 Jun 2027 03:00:00.000   01 Jun 2027 03:05:07.076           307.076        153538.000
         2   01 Jun 2027 03:05:11.165   01 Jun 2027 03:06:11.487            60.322         30161.000
         3   01 Jun 2027 04:35:02.477   01 Jun 2027 04:42:05.636           423.159        211579.500
         4   01 Jun 2027 06:12:06.028   01 Jun 2027 06:16:35.063           269.035        134517.500
         5   01 Jun 2027 06:16:42.442   01 Jun 2027 06:17:56.067            73.625         36812.500
         6   01 Jun 2027 07:48:51.352   01 Jun 2027 07:53:38.991           287.639        143819.500
         7   01 Jun 2027 09:24:07.532   01 Jun 2027 09:24:14.537             7.005          3502.500
         8   01 Jun 2027 09:25:49.098   01 Jun 2027 09:28:38.191           169.093         84546.500
         9   02 Jun 2027 03:10:12.076   02 Jun 2027 03:16:55.814           403.738        201523.000
