uniorb/output/strategy_3/Camera/Camera_KinoSat_112008.txt

KinoSat_112008
-------------------------
    Access    *     Start Time (UTCG)     *     Stop Time (UTCG)  *   Duration (s) *   Data (Mbytes)
         1   01 Jun 2027 04:03:58.695   01 Jun 2027 04:04:20.556            21.861         10930.500
         2   01 Jun 2027 04:04:23.784   01 Jun 2027 04:10:58.938           395.154        197577.000
         3   01 Jun 2027 05:43:16.364   01 Jun 2027 05:48:33.086           316.722        158361.000
         4   01 Jun 2027 05:49:30.340   01 Jun 2027 05:51:05.434            95.094         47547.000
         5   01 Jun 2027 07:09:36.438   01 Jun 2027 07:09:45.556             9.118          4559.000
         6   01 Jun 2027 07:20:21.473   01 Jun 2027 07:23:04.434           162.961         81025.500
