uniorb/output/strategy_3/Camera/Camera_KinoSat_111105.txt

KinoSat_111105
-------------------------
    Access    *     Start Time (UTCG)     *     Stop Time (UTCG)  *   Duration (s) *   Data (Mbytes)
         1   01 Jun 2027 03:24:34.793   01 Jun 2027 03:25:06.653            31.860         15930.000
         2   01 Jun 2027 03:35:34.213   01 Jun 2027 03:39:01.673           207.460        103730.000
         3   01 Jun 2027 04:58:52.652   01 Jun 2027 05:02:28.600           215.948        107974.000
         4   01 Jun 2027 06:35:15.281   01 Jun 2027 06:39:38.475           263.194        131597.000
         5   01 Jun 2027 08:10:00.552   01 Jun 2027 08:14:42.612           282.060        140769.000
