uniorb/output/strategy_3/Camera/Camera_KinoSat_111201.txt

KinoSat_111201
-------------------------
    Access    *     Start Time (UTCG)     *     Stop Time (UTCG)  *   Duration (s) *   Data (Mbytes)
         1   01 Jun 2027 03:58:34.346   01 Jun 2027 03:59:50.329            75.983         37991.500
         2   01 Jun 2027 04:10:03.584   01 Jun 2027 04:11:42.361            98.777         49388.500
         3   01 Jun 2027 05:32:42.883   01 Jun 2027 05:33:41.871            58.988         29494.000
         4   01 Jun 2027 05:34:18.598   01 Jun 2027 05:37:22.403           183.805         91902.500
         5   01 Jun 2027 07:08:02.981   01 Jun 2027 07:09:01.580            58.599         29299.500
         6   01 Jun 2027 07:09:34.813   01 Jun 2027 07:14:20.723           285.910        142955.000
         7   01 Jun 2027 08:44:32.932   01 Jun 2027 08:48:31.629           238.697        118969.000
