uniorb/output/strategy_3/Camera/Camera_KinoSat_110708.txt

KinoSat_110708
-------------------------
    Access    *     Start Time (UTCG)     *     Stop Time (UTCG)  *   Duration (s) *   Data (Mbytes)
         1   01 Jun 2027 03:09:38.426   01 Jun 2027 03:10:37.416            58.990         29495.000
         2   01 Jun 2027 03:11:14.127   01 Jun 2027 03:14:18.102           183.975         91987.500
         3   01 Jun 2027 04:44:59.319   01 Jun 2027 04:45:56.893            57.574         28787.000
         4   01 Jun 2027 04:46:30.400   01 Jun 2027 04:51:16.477           286.077        143038.500
         5   01 Jun 2027 06:21:27.982   01 Jun 2027 06:28:22.771           414.789        206692.000
