uniorb/output/strategy_3/Camera/Camera_KinoSat_110309.txt

KinoSat_110309
-------------------------
    Access    *     Start Time (UTCG)     *     Stop Time (UTCG)  *   Duration (s) *   Data (Mbytes)
         1   01 Jun 2027 03:18:23.544   01 Jun 2027 03:24:13.666           350.122        175061.000
         2   01 Jun 2027 03:24:17.166   01 Jun 2027 03:25:16.420            59.254         29627.000
         3   01 Jun 2027 04:54:31.693   01 Jun 2027 05:01:11.374           399.681        199840.500
         4   01 Jun 2027 06:32:15.941   01 Jun 2027 06:36:39.873           263.932        131966.000
         5   01 Jun 2027 08:08:21.397   01 Jun 2027 08:12:40.807           259.410        129705.000
         6   02 Jun 2027 03:30:40.994   02 Jun 2027 03:37:17.116           396.122        198061.000
         7   02 Jun 2027 05:07:04.071   02 Jun 2027 05:11:36.992           272.921        135739.500
