uniorb/output/strategy_3/Camera/Camera_KinoSat_111506.txt

KinoSat_111506
-------------------------
    Access    *     Start Time (UTCG)     *     Stop Time (UTCG)  *   Duration (s) *   Data (Mbytes)
         1   01 Jun 2027 03:08:47.024   01 Jun 2027 03:09:43.412            56.388         28194.000
         2   01 Jun 2027 03:09:49.132   01 Jun 2027 03:14:46.786           297.654        148827.000
         3   01 Jun 2027 04:47:15.235   01 Jun 2027 04:51:13.363           238.128        119064.000
         4   01 Jun 2027 06:10:13.832   01 Jun 2027 06:12:50.121           156.289         78144.500
         5   01 Jun 2027 07:46:40.596   01 Jun 2027 07:50:13.716           213.120        106560.000
         6   01 Jun 2027 09:21:49.191   01 Jun 2027 09:22:27.787            38.596         19210.500
