uniorb/output/strategy_3/Camera/Camera_KinoSat_111602.txt

KinoSat_111602
-------------------------
    Access    *     Start Time (UTCG)     *     Stop Time (UTCG)  *   Duration (s) *   Data (Mbytes)
         1   01 Jun 2027 03:43:13.705   01 Jun 2027 03:44:15.390            61.685         30842.500
         2   01 Jun 2027 03:44:22.091   01 Jun 2027 03:49:25.897           303.806        151903.000
         3   01 Jun 2027 05:21:31.599   01 Jun 2027 05:22:05.075            33.476         16738.000
         4   01 Jun 2027 05:22:20.142   01 Jun 2027 05:25:20.786           180.644         90322.000
         5   01 Jun 2027 06:44:53.998   01 Jun 2027 06:48:02.628           188.630         94315.000
         6   01 Jun 2027 08:21:26.752   01 Jun 2027 08:24:58.191           211.439        105719.500
         7   01 Jun 2027 09:56:37.240   01 Jun 2027 09:56:58.827            21.587         10160.000
