uniorb/output/strategy_3/Camera/Camera_KinoSat_111004.txt

KinoSat_111004
-------------------------
    Access    *     Start Time (UTCG)     *     Stop Time (UTCG)  *   Duration (s) *   Data (Mbytes)
         1   01 Jun 2027 03:36:47.365   01 Jun 2027 03:39:03.828           136.463         68231.500
         2   01 Jun 2027 05:12:44.500   01 Jun 2027 05:16:40.508           236.008        118004.000
         3   01 Jun 2027 06:46:33.434   01 Jun 2027 06:53:52.548           439.114        219557.000
         4   01 Jun 2027 06:54:05.018   01 Jun 2027 06:55:05.300            60.282         30141.000
         5   01 Jun 2027 08:23:42.628   01 Jun 2027 08:25:54.653           132.025         64066.500
