uniorb/output/strategy_3/Camera/Camera_KinoSat_112006.txt

KinoSat_112006
-------------------------
    Access    *     Start Time (UTCG)     *     Stop Time (UTCG)  *   Duration (s) *   Data (Mbytes)
         1   01 Jun 2027 04:23:52.702   01 Jun 2027 04:25:34.185           101.483         50741.500
         2   01 Jun 2027 04:25:34.335   01 Jun 2027 04:30:03.528           269.193        134596.500
         3   01 Jun 2027 06:02:56.996   01 Jun 2027 06:10:04.992           427.996        213998.000
         4   01 Jun 2027 07:27:49.257   01 Jun 2027 07:29:19.701            90.444         45222.000
         5   01 Jun 2027 07:39:31.418   01 Jun 2027 07:40:31.953            60.535         30267.500
         6   01 Jun 2027 09:01:44.961   01 Jun 2027 09:02:38.686            53.725         25174.500
