uniorb/output/strategy_3/Camera/Camera_KinoSat_111902.txt

KinoSat_111902
-------------------------
    Access    *     Start Time (UTCG)     *     Stop Time (UTCG)  *   Duration (s) *   Data (Mbytes)
         1   01 Jun 2027 03:29:31.061   01 Jun 2027 03:36:30.232           419.171        209585.500
         2   01 Jun 2027 05:07:47.395   01 Jun 2027 05:07:58.502            11.107          5553.500
         3   01 Jun 2027 05:08:49.287   01 Jun 2027 05:13:55.799           306.512        153256.000
         4   01 Jun 2027 05:15:56.432   01 Jun 2027 05:16:39.885            43.453         21726.500
         5   01 Jun 2027 06:45:57.991   01 Jun 2027 06:46:36.408            38.417         19208.500
         6   01 Jun 2027 06:47:04.878   01 Jun 2027 06:49:34.809           149.931         74965.500
         7   01 Jun 2027 08:10:07.353   01 Jun 2027 08:10:38.801            31.448         15704.500
