uniorb/output/strategy_3/Camera/Camera_KinoSat_111703.txt

KinoSat_111703
-------------------------
    Access    *     Start Time (UTCG)     *     Stop Time (UTCG)  *   Duration (s) *   Data (Mbytes)
         1   01 Jun 2027 03:29:17.118   01 Jun 2027 03:30:57.952           100.834         50417.000
         2   01 Jun 2027 03:31:18.342   01 Jun 2027 03:34:50.429           212.087        106043.500
         3   01 Jun 2027 05:07:39.840   01 Jun 2027 05:12:53.415           313.575        156787.500
         4   01 Jun 2027 06:31:42.547   01 Jun 2027 06:33:46.789           124.242         62121.000
         5   01 Jun 2027 08:07:40.157   01 Jun 2027 08:11:33.843           233.686        116843.000
         6   01 Jun 2027 09:41:29.389   01 Jun 2027 09:41:50.427            21.038          7788.000
