uniorb/output/strategy_3/Camera/Camera_KinoSat_110510.txt

KinoSat_110510
-------------------------
    Access    *     Start Time (UTCG)     *     Stop Time (UTCG)  *   Duration (s) *   Data (Mbytes)
         1   01 Jun 2027 03:00:31.132   01 Jun 2027 03:04:04.049           212.917        106458.500
         2   01 Jun 2027 04:35:39.972   01 Jun 2027 04:41:24.939           344.967        172483.500
         3   01 Jun 2027 04:41:25.927   01 Jun 2027 04:42:28.595            62.668         31334.000
         4   01 Jun 2027 06:11:59.893   01 Jun 2027 06:18:22.352           382.459        191229.500
         5   01 Jun 2027 07:49:34.576   01 Jun 2027 07:53:55.444           260.868        130434.000
         6   01 Jun 2027 09:25:37.258   01 Jun 2027 09:29:48.288           251.030        125515.000
         7   02 Jun 2027 03:12:41.557   02 Jun 2027 03:16:09.203           207.646        103823.000
         8   02 Jun 2027 04:47:51.565   02 Jun 2027 04:52:29.586           278.021        138722.500
