uniorb/output/strategy_3/Camera/Camera_KinoSat_111803.txt

KinoSat_111803
-------------------------
    Access    *     Start Time (UTCG)     *     Stop Time (UTCG)  *   Duration (s) *   Data (Mbytes)
         1   01 Jun 2027 03:24:26.552   01 Jun 2027 03:30:50.493           383.941        191970.500
         2   01 Jun 2027 05:03:25.045   01 Jun 2027 05:10:45.664           440.619        220309.500
         3   01 Jun 2027 06:28:35.116   01 Jun 2027 06:29:54.301            79.185         39592.500
         4   01 Jun 2027 06:40:09.281   01 Jun 2027 06:41:34.942            85.661         42830.500
         5   01 Jun 2027 08:02:45.189   01 Jun 2027 08:02:56.320            11.131          5297.000
