uniorb/output/strategy_3/Camera/Camera_KinoSat_110802.txt

KinoSat_110802
-------------------------
    Access    *     Start Time (UTCG)     *     Stop Time (UTCG)  *   Duration (s) *   Data (Mbytes)
         1   01 Jun 2027 04:02:09.879   01 Jun 2027 04:03:29.335            79.456         39728.000
         2   01 Jun 2027 04:04:17.954   01 Jun 2027 04:08:02.408           224.454        112227.000
         3   01 Jun 2027 05:37:02.910   01 Jun 2027 05:45:06.031           483.121        241560.500
         4   01 Jun 2027 05:45:26.280   01 Jun 2027 05:46:24.538            58.258         29129.000
         5   01 Jun 2027 07:14:56.535   01 Jun 2027 07:17:31.857           155.322         77355.500
