uniorb/output/strategy_3/Camera/Camera_KinoSat_110302.txt

KinoSat_110302
-------------------------
    Access    *     Start Time (UTCG)     *     Stop Time (UTCG)  *   Duration (s) *   Data (Mbytes)
         1   01 Jun 2027 04:25:08.293   01 Jun 2027 04:32:35.028           446.735        223367.500
         2   01 Jun 2027 06:02:02.746   01 Jun 2027 06:07:09.384           306.638        153319.000
         3   01 Jun 2027 06:07:20.797   01 Jun 2027 06:08:28.884            68.087         34043.500
         4   01 Jun 2027 07:39:11.530   01 Jun 2027 07:44:05.615           294.085        147042.500
         5   01 Jun 2027 09:14:01.845   01 Jun 2027 09:15:10.059            68.214         34107.000
         6   01 Jun 2027 09:15:53.468   01 Jun 2027 09:19:15.093           201.625        100812.500
         7   02 Jun 2027 03:00:03.047   02 Jun 2027 03:07:34.853           451.806        225903.000
         8   02 Jun 2027 03:07:35.198   02 Jun 2027 03:08:36.578            61.380         30690.000
         9   02 Jun 2027 04:37:34.282   02 Jun 2027 04:39:17.690           103.408         50715.000
