uniorb/output/strategy_3/Camera/Camera_KinoSat_112004.txt

KinoSat_112004
-------------------------
    Access    *     Start Time (UTCG)     *     Stop Time (UTCG)  *   Duration (s) *   Data (Mbytes)
         1   01 Jun 2027 03:06:25.068   01 Jun 2027 03:14:11.468           466.400        233200.000
         2   01 Jun 2027 04:43:39.164   01 Jun 2027 04:43:43.879             4.715          2357.500
         3   01 Jun 2027 04:44:00.277   01 Jun 2027 04:49:29.679           329.402        164701.000
         4   01 Jun 2027 06:22:21.282   01 Jun 2027 06:25:41.119           199.837         99741.500
