uniorb/output/strategy_3/Camera/Camera_KinoSat_111510.txt

KinoSat_111510
-------------------------
    Access    *     Start Time (UTCG)     *     Stop Time (UTCG)  *   Duration (s) *   Data (Mbytes)
         1   01 Jun 2027 04:07:44.354   01 Jun 2027 04:14:48.845           424.491        212245.500
         2   01 Jun 2027 05:32:05.992   01 Jun 2027 05:34:18.675           132.683         66341.500
         3   01 Jun 2027 05:44:19.281   01 Jun 2027 05:44:50.756            31.475         15737.500
         4   01 Jun 2027 07:06:14.283   01 Jun 2027 07:07:28.351            74.068         37034.000
         5   01 Jun 2027 07:08:17.400   01 Jun 2027 07:11:53.881           216.481        108240.500
         6   01 Jun 2027 08:41:02.441   01 Jun 2027 08:43:03.548           121.107         60401.000
