uniorb/output/strategy_3/Camera/Camera_KinoSat_112003.txt

KinoSat_112003
-------------------------
    Access    *     Start Time (UTCG)     *     Stop Time (UTCG)  *   Duration (s) *   Data (Mbytes)
         1   01 Jun 2027 03:15:59.213   01 Jun 2027 03:23:45.361           466.148        233074.000
         2   01 Jun 2027 04:53:42.717   01 Jun 2027 04:53:52.797            10.080          5040.000
         3   01 Jun 2027 04:54:04.819   01 Jun 2027 04:55:06.441            61.622         30811.000
         4   01 Jun 2027 04:55:11.740   01 Jun 2027 04:55:48.502            36.762         18381.000
         5   01 Jun 2027 04:55:50.252   01 Jun 2027 04:59:18.914           208.662        104331.000
         6   01 Jun 2027 06:32:15.969   01 Jun 2027 06:35:53.163           217.194        108363.000
