uniorb/output/strategy_3/Camera/Camera_KinoSat_110610.txt

KinoSat_110610
-------------------------
    Access    *     Start Time (UTCG)     *     Stop Time (UTCG)  *   Duration (s) *   Data (Mbytes)
         1   01 Jun 2027 04:28:54.882   01 Jun 2027 04:36:47.774           472.892        236446.000
         2   01 Jun 2027 04:37:11.641   01 Jun 2027 04:37:46.682            35.041         17520.500
         3   01 Jun 2027 06:06:41.190   01 Jun 2027 06:14:06.679           445.489        222744.500
         4   01 Jun 2027 07:43:26.594   01 Jun 2027 07:44:15.107            48.513         23289.000
