uniorb/output/strategy_3/Camera/Camera_KinoSat_110103.txt

KinoSat_110103
-------------------------
    Access    *     Start Time (UTCG)     *     Stop Time (UTCG)  *   Duration (s) *   Data (Mbytes)
         1   01 Jun 2027 04:26:01.110   01 Jun 2027 04:32:40.674           399.564        199782.000
         2   01 Jun 2027 06:04:04.639   01 Jun 2027 06:08:14.262           249.623        124811.500
         3   01 Jun 2027 07:37:48.352   01 Jun 2027 07:44:41.006           412.654        206327.000
         4   02 Jun 2027 03:01:13.259   02 Jun 2027 03:08:41.948           448.689        224344.500
         5   02 Jun 2027 04:38:08.120   02 Jun 2027 04:43:26.874           318.754        159377.000
         6   02 Jun 2027 04:43:44.731   02 Jun 2027 04:44:37.746            53.015         26507.500
         7   02 Jun 2027 06:15:42.137   02 Jun 2027 06:17:40.200           118.063         58850.500
