uniorb/output/strategy_3/Camera/Camera_KinoSat_110304.txt

KinoSat_110304
-------------------------
    Access    *     Start Time (UTCG)     *     Stop Time (UTCG)  *   Duration (s) *   Data (Mbytes)
         1   01 Jun 2027 04:06:04.457   01 Jun 2027 04:13:23.415           438.958        219479.000
         2   01 Jun 2027 05:42:52.317   01 Jun 2027 05:49:20.655           388.338        194169.000
         3   01 Jun 2027 07:20:49.375   01 Jun 2027 07:24:48.043           238.668        119334.000
         4   01 Jun 2027 08:54:25.072   01 Jun 2027 09:01:52.582           447.510        223755.000
         5   02 Jun 2027 04:17:58.399   02 Jun 2027 04:25:23.873           445.474        222737.000
         6   02 Jun 2027 05:54:42.825   02 Jun 2027 05:55:24.560            41.735         20526.000
