uniorb/output/strategy_3/Camera/Camera_KinoSat_111203.txt

KinoSat_111203
-------------------------
    Access    *     Start Time (UTCG)     *     Stop Time (UTCG)  *   Duration (s) *   Data (Mbytes)
         1   01 Jun 2027 03:50:59.828   01 Jun 2027 03:51:36.543            36.715         18357.500
         2   01 Jun 2027 03:52:05.285   01 Jun 2027 03:54:32.051           146.766         73383.000
         3   01 Jun 2027 05:15:05.176   01 Jun 2027 05:17:36.685           151.509         75754.500
         4   01 Jun 2027 06:50:50.826   01 Jun 2027 06:54:26.399           215.573        107786.500
         5   01 Jun 2027 08:25:48.436   01 Jun 2027 08:32:49.452           421.016        210508.000
         6   01 Jun 2027 10:02:00.555   01 Jun 2027 10:02:32.096            31.541         14210.501
