uniorb/output/strategy_3/Camera/Camera_KinoSat_111309.txt

KinoSat_111309
-------------------------
    Access    *     Start Time (UTCG)     *     Stop Time (UTCG)  *   Duration (s) *   Data (Mbytes)
         1   01 Jun 2027 04:14:35.621   01 Jun 2027 04:15:01.062            25.441         12720.500
         2   01 Jun 2027 04:25:30.032   01 Jun 2027 04:28:59.614           209.582        104791.000
         3   01 Jun 2027 05:49:27.424   01 Jun 2027 05:52:21.298           173.874         86937.000
         4   01 Jun 2027 07:25:12.219   01 Jun 2027 07:29:29.145           256.926        128463.000
         5   01 Jun 2027 08:59:55.874   01 Jun 2027 09:05:32.097           336.223        167088.500
