uniorb/output/strategy_3/Camera/Camera_KinoSat_110801.txt

KinoSat_110801
-------------------------
    Access    *     Start Time (UTCG)     *     Stop Time (UTCG)  *   Duration (s) *   Data (Mbytes)
         1   01 Jun 2027 04:13:39.434   01 Jun 2027 04:17:35.922           236.488        118244.000
         2   01 Jun 2027 05:47:30.399   01 Jun 2027 05:54:49.260           438.861        219430.500
         3   01 Jun 2027 05:55:00.341   01 Jun 2027 05:56:00.498            60.157         30078.500
         4   01 Jun 2027 07:24:37.175   01 Jun 2027 07:29:02.190           265.015        132247.000
