uniorb/output/strategy_3/Camera/Camera_KinoSat_111810.txt

KinoSat_111810
-------------------------
    Access    *     Start Time (UTCG)     *     Stop Time (UTCG)  *   Duration (s) *   Data (Mbytes)
         1   01 Jun 2027 03:54:15.685   01 Jun 2027 03:54:38.846            23.161         11580.500
         2   01 Jun 2027 03:54:42.305   01 Jun 2027 03:55:56.636            74.331         37165.500
         3   01 Jun 2027 03:56:16.827   01 Jun 2027 03:59:48.949           212.122        106061.000
         4   01 Jun 2027 05:32:38.365   01 Jun 2027 05:37:52.151           313.786        156893.000
         5   01 Jun 2027 06:56:41.256   01 Jun 2027 06:58:44.570           123.314         61657.000
         6   01 Jun 2027 08:32:38.498   01 Jun 2027 08:36:31.913           233.415        116707.500
         7   01 Jun 2027 10:06:28.180   01 Jun 2027 10:06:50.238            22.058          9935.500
