uniorb/output/strategy_3/Camera/Camera_KinoSat_112005.txt

KinoSat_112005
-------------------------
    Access    *     Start Time (UTCG)     *     Stop Time (UTCG)  *   Duration (s) *   Data (Mbytes)
         1   01 Jun 2027 03:00:00.000   01 Jun 2027 03:04:13.353           253.353        126676.500
         2   01 Jun 2027 04:33:43.470   01 Jun 2027 04:39:39.451           355.981        177990.500
         3   01 Jun 2027 06:12:40.501   01 Jun 2027 06:19:14.020           393.519        195333.000
