uniorb/output/strategy_3/Camera/Camera_KinoSat_110109.txt

KinoSat_110109
-------------------------
    Access    *     Start Time (UTCG)     *     Stop Time (UTCG)  *   Duration (s) *   Data (Mbytes)
         1   01 Jun 2027 03:28:05.142   01 Jun 2027 03:34:49.777           404.635        202317.500
         2   01 Jun 2027 05:05:36.239   01 Jun 2027 05:10:12.633           276.394        138197.000
         3   01 Jun 2027 06:41:54.590   01 Jun 2027 06:46:41.431           286.841        143420.500
         4   01 Jun 2027 08:20:08.886   01 Jun 2027 08:20:39.935            31.049         15524.500
         5   02 Jun 2027 03:40:39.707   02 Jun 2027 03:46:56.065           376.358        188179.000
         6   02 Jun 2027 05:18:02.567   02 Jun 2027 05:22:35.339           272.772        136386.000
         7   02 Jun 2027 06:54:11.957   02 Jun 2027 06:58:49.416           277.459        138729.500
         8   03 Jun 2027 03:52:16.757   03 Jun 2027 03:53:33.117            76.360         37246.000
