uniorb/output/strategy_1/Drop/Drop_KinoSat_111305.txt

KinoSat_111305
-------------------------
    Access    *     Start Time (UTCG)     *     Stop Time (UTCG)  *   Duration (s)        *       Station  *  Data (Mbytes)
         1   01 Jun 2027 03:29:41.953   01 Jun 2027 03:30:47.189            65.236              Murmansk1          2038.625
         2   01 Jun 2027 03:31:00.066   01 Jun 2027 03:33:57.976           177.910              Murmansk1          5559.688
         3   01 Jun 2027 03:33:57.976   01 Jun 2027 03:34:21.627            23.651              Murmansk2           739.094
         4   01 Jun 2027 04:52:21.077   01 Jun 2027 04:52:29.845             8.768               Magadan1           274.000
         5   01 Jun 2027 04:52:45.246   01 Jun 2027 04:56:44.653           239.407                Anadyr1          7481.469
         6   01 Jun 2027 04:57:18.073   01 Jun 2027 04:58:06.697            48.624               Magadan2          1519.500
         7   01 Jun 2027 06:26:58.713   01 Jun 2027 06:27:04.081             5.368                Anadyr2           167.750
         8   01 Jun 2027 06:27:07.214   01 Jun 2027 06:27:44.772            37.558               Magadan1          1173.688
         9   01 Jun 2027 06:27:50.718   01 Jun 2027 06:29:23.636            92.918                Anadyr2          2903.688
        10   01 Jun 2027 06:29:37.673   01 Jun 2027 06:32:07.888           150.215                Anadyr2          4694.219
        11   01 Jun 2027 06:32:07.888   01 Jun 2027 06:32:37.375            29.487                Anadyr1           921.469
        12   01 Jun 2027 08:02:12.513   01 Jun 2027 08:05:22.596           190.083                Irkutsk          5940.094
        13   01 Jun 2027 08:06:04.357   01 Jun 2027 08:09:15.236           190.879                Anadyr2          5964.969
        14   01 Jun 2027 08:09:16.662   01 Jun 2027 08:10:15.187            58.525                Novosib          1828.906
        15   01 Jun 2027 08:10:22.465   01 Jun 2027 08:11:45.184            82.719              Murmansk2          2584.969
        16   01 Jun 2027 08:11:45.184   01 Jun 2027 08:12:14.243            29.059              Murmansk1           908.094
        17   01 Jun 2027 08:45:01.435   01 Jun 2027 08:46:37.100            95.665            RioGallegos          2989.531
        18   01 Jun 2027 09:35:43.491   01 Jun 2027 09:35:59.853            16.362                Irkutsk           511.313
        19   01 Jun 2027 09:40:05.194   01 Jun 2027 09:42:03.022           117.828                Irkutsk          3682.125
        20   01 Jun 2027 09:42:13.370   01 Jun 2027 09:42:40.119            26.749                Novosib           835.906
        21   01 Jun 2027 09:42:53.739   01 Jun 2027 09:43:55.723            61.984               Magadan1          1937.000
        22   01 Jun 2027 09:43:58.761   01 Jun 2027 09:48:53.022           294.261                Norilsk          9195.656
        23   01 Jun 2027 10:20:54.024   01 Jun 2027 10:21:57.898            63.874            RioGallegos          1996.062
        24   01 Jun 2027 10:55:25.408   01 Jun 2027 10:56:38.521            73.113                Sumatra          2284.781
        25   01 Jun 2027 11:16:22.669   01 Jun 2027 11:16:52.086            29.417                Irkutsk           919.281
        26   01 Jun 2027 11:17:53.921   01 Jun 2027 11:18:05.906            11.985                Irkutsk           374.531
        27   01 Jun 2027 11:18:19.147   01 Jun 2027 11:21:23.422           184.275                Irkutsk          5758.594
        28   01 Jun 2027 11:23:51.290   01 Jun 2027 11:24:04.680            13.390              Murmansk1           418.437
        29   01 Jun 2027 11:24:04.680   01 Jun 2027 11:24:27.771            23.091              Murmansk2           721.594
        30   01 Jun 2027 12:02:16.421   01 Jun 2027 12:03:44.704            88.283            RioGallegos          2758.844
        31   01 Jun 2027 12:39:53.400   01 Jun 2027 12:40:08.320            14.920                  Delhi           466.250
        32   01 Jun 2027 12:42:35.200   01 Jun 2027 12:44:37.495           122.295                  Delhi          3821.719
        33   01 Jun 2027 12:47:54.057   01 Jun 2027 12:49:18.430            84.373                Novosib          2636.656
        34   01 Jun 2027 12:49:42.955   01 Jun 2027 12:51:39.537           116.582                Novosib          3643.188
        35   01 Jun 2027 12:51:53.710   01 Jun 2027 12:52:53.678            59.968              Murmansk2          1874.000
        36   01 Jun 2027 12:54:57.615   01 Jun 2027 12:55:16.557            18.942                Norilsk           591.938
        37   01 Jun 2027 12:55:51.318   01 Jun 2027 12:56:58.534            67.216                Norilsk          2100.500
        38   01 Jun 2027 14:23:59.375   01 Jun 2027 14:27:13.976           194.601                 Moscow          6081.281
        39   01 Jun 2027 14:27:28.694   01 Jun 2027 14:30:47.484           198.790              Murmansk2          6212.188
        40   01 Jun 2027 14:32:09.470   01 Jun 2027 14:33:19.248            69.778                Norilsk          2180.562
        41   01 Jun 2027 14:35:13.815   01 Jun 2027 14:35:44.707            30.892                Norilsk           965.375
        42   01 Jun 2027 15:38:14.692   01 Jun 2027 15:38:51.369            36.677               CapeTown          1146.156
        43   01 Jun 2027 15:39:27.573   01 Jun 2027 15:39:29.133             1.560               CapeTown            48.750
        44   01 Jun 2027 15:41:08.961   01 Jun 2027 15:41:29.679            20.718               CapeTown           647.438
        45   01 Jun 2027 16:01:48.654   01 Jun 2027 16:02:29.527            40.873                 Moscow          1277.281
        46   01 Jun 2027 16:03:05.816   01 Jun 2027 16:03:35.128            29.312                 Moscow           916.000
        47   01 Jun 2027 16:04:46.731   01 Jun 2027 16:05:46.455            59.724              Murmansk1          1866.375
        48   01 Jun 2027 16:06:19.291   01 Jun 2027 16:06:45.784            26.493              Murmansk2           827.906
        49   01 Jun 2027 16:07:05.054   01 Jun 2027 16:07:35.485            30.431              Murmansk1           950.969
        50   01 Jun 2027 16:08:32.681   01 Jun 2027 16:08:50.650            17.969              Murmansk1           561.531
        51   01 Jun 2027 16:18:24.644   01 Jun 2027 16:20:29.678           125.034                Anadyr1          3907.312
        52   01 Jun 2027 16:22:49.822   01 Jun 2027 16:23:24.498            34.676                Anadyr1          1083.625
        53   01 Jun 2027 17:13:35.409   01 Jun 2027 17:15:33.247           117.838               CapeTown          3682.437
        54   01 Jun 2027 17:44:27.496   01 Jun 2027 17:49:18.510           291.014              Murmansk2          9094.188
        55   01 Jun 2027 17:54:02.774   01 Jun 2027 17:54:26.909            24.135                Anadyr1           754.219
        56   01 Jun 2027 17:55:25.400   01 Jun 2027 17:55:33.466             8.066                Anadyr2           252.062
        57   01 Jun 2027 17:57:11.989   01 Jun 2027 17:59:25.619           133.630               Magadan1          4175.938
        58   01 Jun 2027 19:29:58.336   01 Jun 2027 19:31:50.856           112.520                Anadyr1          3516.250
        59   01 Jun 2027 19:32:03.530   01 Jun 2027 19:33:48.700           105.170                Anadyr2          3286.563
        60   01 Jun 2027 19:34:05.032   01 Jun 2027 19:34:35.786            30.754               Magadan2           961.062
        61   01 Jun 2027 19:34:56.254   01 Jun 2027 19:36:02.417            66.163               Magadan2          2067.594
        62   01 Jun 2027 19:36:02.417   01 Jun 2027 19:36:12.971            10.554               Magadan1           329.813
        63   01 Jun 2027 19:39:17.149   01 Jun 2027 19:39:39.379            22.230               Magadan2           694.688
        64   01 Jun 2027 19:41:21.769   01 Jun 2027 19:41:38.053            16.284               Magadan2           508.875
        65   01 Jun 2027 20:26:20.659   01 Jun 2027 20:28:44.351           143.692            RioGallegos          4490.375
        66   01 Jun 2027 20:31:30.851   01 Jun 2027 20:31:32.206             1.355            RioGallegos            42.344
        67   01 Jun 2027 21:05:47.807   01 Jun 2027 21:07:58.704           130.897                Anadyr2          4090.531
        68   01 Jun 2027 21:08:04.675   01 Jun 2027 21:09:10.089            65.414                Anadyr1          2044.187
        69   01 Jun 2027 21:09:25.344   01 Jun 2027 21:09:28.548             3.204                Anadyr1           100.125
        70   01 Jun 2027 21:09:42.788   01 Jun 2027 21:13:02.312           199.524               Magadan1          6235.125
        71   01 Jun 2027 21:13:12.960   01 Jun 2027 21:13:42.984            30.024                Irkutsk           938.250
        72   01 Jun 2027 21:15:19.531   01 Jun 2027 21:16:04.190            44.659                Irkutsk          1395.594
        73   01 Jun 2027 21:28:00.461   01 Jun 2027 21:30:09.724           129.263                Sumatra          4039.469
        74   01 Jun 2027 21:36:09.435   01 Jun 2027 21:36:13.824             4.389                Sumatra           137.156
        75   01 Jun 2027 22:41:05.384   01 Jun 2027 22:41:37.674            32.290                Anadyr1          1009.062
        76   01 Jun 2027 22:41:48.747   01 Jun 2027 22:42:15.867            27.120                Anadyr2           847.500
        77   01 Jun 2027 22:42:54.476   01 Jun 2027 22:43:36.379            41.903                Anadyr2          1309.469
        78   01 Jun 2027 22:43:42.331   01 Jun 2027 22:45:43.098           120.767                Norilsk          3773.969
        79   01 Jun 2027 22:45:54.952   01 Jun 2027 22:46:18.402            23.450               Magadan2           732.812
        80   01 Jun 2027 22:47:37.762   01 Jun 2027 22:48:50.650            72.888                Irkutsk          2277.750
        81   01 Jun 2027 22:49:04.336   01 Jun 2027 22:51:14.245           129.909                Novosib          4059.656
        82   01 Jun 2027 22:58:35.564   01 Jun 2027 22:59:43.644            68.080                  Delhi          2127.500
        83   01 Jun 2027 23:02:50.991   01 Jun 2027 23:03:00.934             9.943                  Delhi           310.719
        84   02 Jun 2027 00:15:14.518   02 Jun 2027 00:16:55.078           100.560                Anadyr2          3142.500
        85   02 Jun 2027 00:17:29.304   02 Jun 2027 00:17:40.970            11.666                Anadyr1           364.563
        86   02 Jun 2027 00:17:47.482   02 Jun 2027 00:18:05.895            18.413                Anadyr2           575.406
        87   02 Jun 2027 00:19:42.609   02 Jun 2027 00:19:59.336            16.727                Norilsk           522.719
        88   02 Jun 2027 00:20:17.796   02 Jun 2027 00:21:08.193            50.397               Magadan1          1574.906
        89   02 Jun 2027 00:21:32.575   02 Jun 2027 00:21:53.142            20.567               Magadan2           642.719
        90   02 Jun 2027 00:22:41.847   02 Jun 2027 00:26:03.531           201.684              Murmansk1          6302.625
        91   02 Jun 2027 00:27:13.447   02 Jun 2027 00:27:50.075            36.628              Murmansk2          1144.625
        92   02 Jun 2027 00:30:51.303   02 Jun 2027 00:30:52.447             1.144                  Delhi            35.750
        93   02 Jun 2027 00:34:19.897   02 Jun 2027 00:34:40.968            21.071                  Delhi           658.469
        94   02 Jun 2027 00:35:04.990   02 Jun 2027 00:35:57.961            52.971                  Delhi          1655.344
        95   02 Jun 2027 01:12:41.987   02 Jun 2027 01:13:46.148            64.161            RioGallegos          2005.031
        96   02 Jun 2027 01:48:32.269   02 Jun 2027 01:48:55.966            23.697                Anadyr1           740.531
        97   02 Jun 2027 01:49:22.562   02 Jun 2027 01:50:00.040            37.478                Anadyr1          1171.188
        98   02 Jun 2027 01:50:00.040   02 Jun 2027 01:50:23.437            23.397                Anadyr2           731.156
        99   02 Jun 2027 01:51:05.993   02 Jun 2027 01:51:14.170             8.177                Anadyr1           255.531
       100   02 Jun 2027 01:51:37.922   02 Jun 2027 01:52:07.147            29.225                Anadyr1           913.281
       101   02 Jun 2027 01:54:30.047   02 Jun 2027 01:54:43.762            13.715                Anadyr2           428.594
       102   02 Jun 2027 01:55:21.202   02 Jun 2027 01:55:22.112             0.910               Magadan1            28.437
       103   02 Jun 2027 01:55:38.292   02 Jun 2027 01:55:59.013            20.721                Norilsk           647.531
       104   02 Jun 2027 01:56:12.113   02 Jun 2027 01:56:45.903            33.790               Magadan2          1055.937
       105   02 Jun 2027 01:56:45.903   02 Jun 2027 01:56:46.821             0.918               Magadan1            28.688
       106   02 Jun 2027 01:57:04.092   02 Jun 2027 01:57:11.146             7.054               Magadan1           220.438
       107   02 Jun 2027 01:57:17.502   02 Jun 2027 01:57:29.169            11.667                Norilsk           364.594
       108   02 Jun 2027 01:57:53.160   02 Jun 2027 01:58:19.623            26.463              Murmansk1           826.969
       109   02 Jun 2027 01:58:39.980   02 Jun 2027 02:00:08.280            88.300              Murmansk1          2759.375
       110   02 Jun 2027 02:01:00.306   02 Jun 2027 02:01:38.179            37.873                Irkutsk          1183.531
       111   02 Jun 2027 02:02:44.102   02 Jun 2027 02:03:04.410            20.308                Novosib           634.625
       112   02 Jun 2027 02:04:41.365   02 Jun 2027 02:05:04.911            23.546                 Moscow           735.812
       113   02 Jun 2027 02:08:30.645   02 Jun 2027 02:09:08.357            37.712                  Delhi          1178.500
       114   02 Jun 2027 02:09:56.705   02 Jun 2027 02:10:57.023            60.318                  Delhi          1884.937
       115   02 Jun 2027 02:34:05.461   02 Jun 2027 02:35:30.083            84.622               CapeTown          2644.438
       116   02 Jun 2027 03:42:11.358   02 Jun 2027 03:43:03.394            52.036                Novosib          1626.125
       117   02 Jun 2027 03:43:09.938   02 Jun 2027 03:44:35.976            86.038              Murmansk2          2688.687
       118   02 Jun 2027 03:44:35.976   02 Jun 2027 03:46:23.439           107.463              Murmansk1          3358.219
       119   02 Jun 2027 03:46:37.166   02 Jun 2027 03:47:10.484            33.318                 Moscow          1041.187
       120   02 Jun 2027 04:00:54.735   02 Jun 2027 04:01:31.912            37.177               CapeTown          1161.781
       121   02 Jun 2027 05:04:17.342   02 Jun 2027 05:05:07.881            50.539               Magadan2          1579.344
       122   02 Jun 2027 05:05:09.671   02 Jun 2027 05:05:43.825            34.154                Anadyr2          1067.312
       123   02 Jun 2027 05:06:17.787   02 Jun 2027 05:07:38.395            80.608               Magadan1          2519.000
       124   02 Jun 2027 05:07:38.395   02 Jun 2027 05:08:02.206            23.811               Magadan2           744.094
       125   02 Jun 2027 05:08:32.356   02 Jun 2027 05:08:55.281            22.925                Anadyr1           716.406
       126   02 Jun 2027 05:10:33.843   02 Jun 2027 05:10:34.916             1.073                Anadyr1            33.531
       127   02 Jun 2027 06:41:18.214   02 Jun 2027 06:41:56.612            38.398               Magadan2          1199.938
       128   02 Jun 2027 06:42:12.384   02 Jun 2027 06:42:26.145            13.761               Magadan1           430.031
       129   02 Jun 2027 06:42:26.145   02 Jun 2027 06:42:27.990             1.845               Magadan2            57.656
       130   02 Jun 2027 06:42:41.554   02 Jun 2027 06:46:21.563           220.009                Anadyr1          6875.281
       131   02 Jun 2027 06:46:36.809   02 Jun 2027 06:46:57.518            20.709                Norilsk           647.156
       132   02 Jun 2027 06:50:53.071   02 Jun 2027 06:51:59.755            66.684                 Moscow          2083.875
       133   02 Jun 2027 07:24:22.158   02 Jun 2027 07:25:32.787            70.629            RioGallegos          2207.156
       134   02 Jun 2027 08:15:16.545   02 Jun 2027 08:18:35.997           199.452               Magadan2          6232.875
       135   02 Jun 2027 08:18:56.985   02 Jun 2027 08:20:49.190           112.205                Anadyr1          3506.406
       136   02 Jun 2027 08:21:05.657   02 Jun 2027 08:23:47.420           161.763              Murmansk2          5055.094
       137   02 Jun 2027 08:56:51.023   02 Jun 2027 08:57:32.783            41.760            RioGallegos          1305.000
       138   02 Jun 2027 08:57:54.415   02 Jun 2027 08:58:28.429            34.014            RioGallegos          1062.938
       139   02 Jun 2027 09:52:50.684   02 Jun 2027 09:57:02.435           251.751                Novosib          7867.219
       140   02 Jun 2027 09:57:07.306   02 Jun 2027 09:58:25.577            78.271              Murmansk2          2445.969
       141   02 Jun 2027 09:58:44.257   02 Jun 2027 09:58:57.888            13.631              Murmansk1           425.969
       142   02 Jun 2027 10:33:11.382   02 Jun 2027 10:33:40.322            28.940            RioGallegos           904.375
       143   02 Jun 2027 10:34:08.441   02 Jun 2027 10:34:37.266            28.825            RioGallegos           900.781
       144   02 Jun 2027 10:35:35.228   02 Jun 2027 10:35:39.571             4.343            RioGallegos           135.719
       145   02 Jun 2027 10:35:58.026   02 Jun 2027 10:36:55.665            57.639            RioGallegos          1801.219
       146   02 Jun 2027 11:08:00.590   02 Jun 2027 11:09:42.607           102.017                Sumatra          3188.031
       147   02 Jun 2027 11:29:32.358   02 Jun 2027 11:29:44.111            11.753                Novosib           367.281
       148   02 Jun 2027 11:29:46.411   02 Jun 2027 11:33:02.999           196.588                Irkutsk          6143.375
       149   02 Jun 2027 11:33:14.876   02 Jun 2027 11:33:17.229             2.353                 Moscow            73.531
       150   02 Jun 2027 11:33:29.706   02 Jun 2027 11:33:45.384            15.678              Murmansk2           489.937
       151   02 Jun 2027 11:33:58.005   02 Jun 2027 11:34:31.967            33.962                 Moscow          1061.313
       152   02 Jun 2027 11:34:42.066   02 Jun 2027 11:34:55.911            13.845              Murmansk2           432.656
       153   02 Jun 2027 12:52:12.942   02 Jun 2027 12:56:36.363           263.421                  Delhi          8231.906
       154   02 Jun 2027 13:00:24.890   02 Jun 2027 13:04:25.000           240.110                Novosib          7503.438
       155   02 Jun 2027 13:04:49.721   02 Jun 2027 13:06:12.902            83.181              Murmansk1          2599.406
       156   02 Jun 2027 13:07:18.696   02 Jun 2027 13:07:54.710            36.014                Norilsk          1125.437
       157   02 Jun 2027 13:08:58.895   02 Jun 2027 13:09:21.346            22.451                Norilsk           701.594
       158   02 Jun 2027 14:36:03.130   02 Jun 2027 14:38:16.098           132.968                 Moscow          4155.250
       159   02 Jun 2027 14:39:19.149   02 Jun 2027 14:40:08.764            49.615                 Moscow          1550.469
       160   02 Jun 2027 14:40:24.079   02 Jun 2027 14:42:49.332           145.253              Murmansk1          4539.156
       161   02 Jun 2027 14:45:00.588   02 Jun 2027 14:46:46.027           105.439                Norilsk          3294.969
       162   02 Jun 2027 14:47:16.178   02 Jun 2027 14:48:24.515            68.337                Norilsk          2135.531
       163   02 Jun 2027 15:49:59.515   02 Jun 2027 15:51:35.522            96.007               CapeTown          3000.219
       164   02 Jun 2027 16:14:24.007   02 Jun 2027 16:14:46.820            22.813                 Moscow           712.906
       165   02 Jun 2027 16:15:37.694   02 Jun 2027 16:16:10.235            32.541                 Moscow          1016.906
       166   02 Jun 2027 16:17:07.491   02 Jun 2027 16:18:10.001            62.510              Murmansk1          1953.438
       167   02 Jun 2027 16:20:29.750   02 Jun 2027 16:21:30.022            60.272              Murmansk2          1883.500
       168   02 Jun 2027 16:30:21.428   02 Jun 2027 16:32:05.652           104.224                Anadyr1          3257.000
       169   02 Jun 2027 16:35:13.589   02 Jun 2027 16:35:48.350            34.761                Anadyr1          1086.281
       170   02 Jun 2027 16:36:03.289   02 Jun 2027 16:36:10.079             6.790                Anadyr1           212.187
       171   02 Jun 2027 17:25:46.026   02 Jun 2027 17:27:32.808           106.782               CapeTown          3336.937
       172   02 Jun 2027 17:30:02.854   02 Jun 2027 17:30:11.526             8.672               CapeTown           271.000
       173   02 Jun 2027 17:57:12.147   02 Jun 2027 18:02:34.071           321.924              Murmansk1         10060.125
       174   02 Jun 2027 18:09:00.597   02 Jun 2027 18:10:23.779            83.182               Magadan1          2599.438
       175   02 Jun 2027 18:10:58.214   02 Jun 2027 18:11:45.165            46.951               Magadan1          1467.219
       176   02 Jun 2027 18:12:04.879   02 Jun 2027 18:12:10.307             5.428               Magadan1           169.625
       177   02 Jun 2027 19:41:59.763   02 Jun 2027 19:45:46.384           226.621                Anadyr1          7081.906
       178   02 Jun 2027 19:45:51.077   02 Jun 2027 19:49:02.751           191.674               Magadan2          5989.813
       179   02 Jun 2027 19:49:18.199   02 Jun 2027 19:49:54.007            35.808               Magadan2          1119.000
       180   02 Jun 2027 20:37:36.791   02 Jun 2027 20:40:26.822           170.031            RioGallegos          5313.469
       181   02 Jun 2027 20:43:09.534   02 Jun 2027 20:43:47.386            37.852            RioGallegos          1182.875
       182   02 Jun 2027 21:17:46.948   02 Jun 2027 21:19:22.924            95.976                Anadyr2          2999.250
       183   02 Jun 2027 21:19:55.168   02 Jun 2027 21:22:42.137           166.969                Norilsk          5217.781
       184   02 Jun 2027 21:23:03.859   02 Jun 2027 21:23:07.239             3.380               Magadan1           105.625
       185   02 Jun 2027 21:23:14.852   02 Jun 2027 21:23:27.779            12.927               Magadan1           403.969
       186   02 Jun 2027 21:24:37.996   02 Jun 2027 21:25:41.169            63.173                Irkutsk          1974.156
       187   02 Jun 2027 21:27:17.475   02 Jun 2027 21:27:44.429            26.954                Irkutsk           842.313
       188   02 Jun 2027 21:33:36.822   02 Jun 2027 21:33:44.745             7.923                Irkutsk           247.594
       189   02 Jun 2027 21:39:11.642   02 Jun 2027 21:41:47.866           156.224                Sumatra          4882.000
       190   02 Jun 2027 21:48:16.784   02 Jun 2027 21:49:05.991            49.207                Sumatra          1537.719
       191   02 Jun 2027 22:52:57.823   02 Jun 2027 22:53:21.822            23.999                Anadyr2           749.969
       192   02 Jun 2027 22:53:30.094   02 Jun 2027 22:53:59.615            29.521                Anadyr1           922.531
       193   02 Jun 2027 22:55:29.604   02 Jun 2027 22:55:32.900             3.296                Anadyr2           103.000
       194   02 Jun 2027 22:55:44.142   02 Jun 2027 22:57:45.039           120.897                Norilsk          3778.031
       195   02 Jun 2027 22:57:48.878   02 Jun 2027 22:58:18.696            29.818               Magadan1           931.813
       196   02 Jun 2027 22:59:37.523   02 Jun 2027 23:00:41.559            64.036                Irkutsk          2001.125
       197   02 Jun 2027 23:00:45.391   02 Jun 2027 23:03:09.367           143.976                Novosib          4499.250
       198   02 Jun 2027 23:09:21.973   02 Jun 2027 23:09:54.658            32.685                  Delhi          1021.406
       199   02 Jun 2027 23:12:29.563   02 Jun 2027 23:12:37.849             8.286                  Delhi           258.938
       200   02 Jun 2027 23:12:53.085   02 Jun 2027 23:12:54.971             1.886                  Delhi            58.937
       201   02 Jun 2027 23:13:02.419   02 Jun 2027 23:14:49.257           106.838                  Delhi          3338.687
       202   02 Jun 2027 23:58:51.269   02 Jun 2027 23:59:19.676            28.407            RioGallegos           887.719
       203   03 Jun 2027 00:26:57.454   03 Jun 2027 00:27:14.008            16.554                Anadyr2           517.312
       204   03 Jun 2027 00:27:26.900   03 Jun 2027 00:27:40.628            13.728                Anadyr2           429.000
       205   03 Jun 2027 00:28:17.193   03 Jun 2027 00:28:56.393            39.200                Anadyr1          1225.000
       206   03 Jun 2027 00:29:14.339   03 Jun 2027 00:29:28.520            14.181                Anadyr2           443.156
       207   03 Jun 2027 00:31:44.597   03 Jun 2027 00:32:00.977            16.380                Norilsk           511.875
       208   03 Jun 2027 00:32:16.877   03 Jun 2027 00:32:57.471            40.594               Magadan2          1268.563
       209   03 Jun 2027 00:32:57.471   03 Jun 2027 00:34:03.955            66.484               Magadan1          2077.625
       210   03 Jun 2027 00:34:19.828   03 Jun 2027 00:34:35.781            15.953               Magadan2           498.531
       211   03 Jun 2027 00:34:38.099   03 Jun 2027 00:35:56.647            78.548              Murmansk1          2454.625
       212   03 Jun 2027 00:35:57.018   03 Jun 2027 00:36:05.243             8.225              Murmansk2           257.031
       213   03 Jun 2027 00:36:29.856   03 Jun 2027 00:36:58.659            28.803              Murmansk2           900.094
       214   03 Jun 2027 00:37:14.937   03 Jun 2027 00:37:58.963            44.026              Murmansk2          1375.813
       215   03 Jun 2027 00:39:01.764   03 Jun 2027 00:39:53.958            52.194              Murmansk1          1631.062
       216   03 Jun 2027 00:46:20.198   03 Jun 2027 00:48:17.471           117.273                Novosib          3664.781
       217   03 Jun 2027 01:25:02.600   03 Jun 2027 01:25:45.699            43.099            RioGallegos          1346.844
       218   03 Jun 2027 01:28:58.017   03 Jun 2027 01:29:11.972            13.955            RioGallegos           436.094
       219   03 Jun 2027 01:30:06.852   03 Jun 2027 01:30:20.498            13.646            RioGallegos           426.437
       220   03 Jun 2027 01:30:25.414   03 Jun 2027 01:31:08.808            43.394            RioGallegos          1356.062
       221   03 Jun 2027 02:01:34.412   03 Jun 2027 02:02:14.004            39.592                Anadyr1          1237.250
       222   03 Jun 2027 02:03:57.256   03 Jun 2027 02:04:00.275             3.019                Anadyr2            94.344
       223   03 Jun 2027 02:04:06.298   03 Jun 2027 02:04:10.450             4.152                Anadyr2           129.750
       224   03 Jun 2027 02:04:49.817   03 Jun 2027 02:05:02.089            12.272                Anadyr2           383.500
       225   03 Jun 2027 02:05:02.089   03 Jun 2027 02:05:45.556            43.467                Anadyr1          1358.344
       226   03 Jun 2027 02:06:09.935   03 Jun 2027 02:06:27.731            17.796               Magadan1           556.125
       227   03 Jun 2027 02:06:27.731   03 Jun 2027 02:06:32.035             4.304               Magadan2           134.500
       228   03 Jun 2027 02:07:03.954   03 Jun 2027 02:07:05.391             1.437               Magadan1            44.906
       229   03 Jun 2027 02:07:38.775   03 Jun 2027 02:08:01.400            22.625                Norilsk           707.031
       230   03 Jun 2027 02:08:12.146   03 Jun 2027 02:08:14.302             2.156               Magadan1            67.375
       231   03 Jun 2027 02:09:04.172   03 Jun 2027 02:09:18.772            14.600                Norilsk           456.250
       232   03 Jun 2027 02:09:29.291   03 Jun 2027 02:09:47.006            17.715                Norilsk           553.594
       233   03 Jun 2027 02:09:53.745   03 Jun 2027 02:10:49.534            55.789              Murmansk1          1743.406
       234   03 Jun 2027 02:11:05.960   03 Jun 2027 02:11:22.095            16.135              Murmansk1           504.219
       235   03 Jun 2027 02:11:40.738   03 Jun 2027 02:12:16.783            36.045                Novosib          1126.406
       236   03 Jun 2027 02:13:32.259   03 Jun 2027 02:13:35.882             3.623                Novosib           113.219
       237   03 Jun 2027 02:14:06.432   03 Jun 2027 02:14:35.916            29.484                 Moscow           921.375
       238   03 Jun 2027 02:15:59.572   03 Jun 2027 02:16:57.886            58.314                Irkutsk          1822.312
       239   03 Jun 2027 02:22:58.002   03 Jun 2027 02:23:13.347            15.345                  Delhi           479.531
       240   03 Jun 2027 02:25:39.685   03 Jun 2027 02:26:09.981            30.296                  Delhi           946.750
       241   03 Jun 2027 02:43:04.475   03 Jun 2027 02:43:33.980            29.505               CapeTown           922.031
       242   03 Jun 2027 02:46:19.560   03 Jun 2027 02:47:47.212            87.652               CapeTown          2739.125
       243   03 Jun 2027 03:53:33.117   03 Jun 2027 03:54:19.396            46.279                Novosib          1446.219
       244   03 Jun 2027 03:54:21.532   03 Jun 2027 03:58:39.310           257.778              Murmansk1          8055.562
       245   03 Jun 2027 03:59:52.953   03 Jun 2027 04:00:47.204            54.251                 Moscow          1695.344
       246   03 Jun 2027 05:16:26.507   03 Jun 2027 05:18:07.266           100.759               Magadan2          3148.719
       247   03 Jun 2027 05:18:13.220   03 Jun 2027 05:19:09.463            56.243                Anadyr1          1757.594
       248   03 Jun 2027 05:19:31.065   03 Jun 2027 05:19:50.490            19.425               Magadan2           607.031
       249   03 Jun 2027 06:53:45.401   03 Jun 2027 06:53:53.927             8.526               Magadan1           266.437
       250   03 Jun 2027 06:53:53.927   03 Jun 2027 06:54:06.734            12.807               Magadan2           400.219
       251   03 Jun 2027 06:54:09.015   03 Jun 2027 06:55:40.388            91.373                Irkutsk          2855.406
       252   03 Jun 2027 06:55:53.189   03 Jun 2027 06:57:31.627            98.438                Anadyr1          3076.188
       253   03 Jun 2027 08:28:06.130   03 Jun 2027 08:31:00.179           174.049               Magadan2          5439.031
       254   03 Jun 2027 08:31:13.922   03 Jun 2027 08:32:29.378            75.456               Magadan2          2358.000
       255   03 Jun 2027 08:32:47.159   03 Jun 2027 08:34:41.861           114.702                Novosib          3584.437
       256   03 Jun 2027 09:08:43.809   03 Jun 2027 09:09:43.478            59.669            RioGallegos          1864.656
       257   03 Jun 2027 09:09:54.262   03 Jun 2027 09:10:53.959            59.697            RioGallegos          1865.531
       258   03 Jun 2027 09:44:52.797   03 Jun 2027 09:45:33.783            40.986                Sumatra          1280.812
       259   03 Jun 2027 10:04:32.475   03 Jun 2027 10:04:39.607             7.132                Norilsk           222.875
       260   03 Jun 2027 10:04:42.866   03 Jun 2027 10:05:53.907            71.041                Novosib          2220.031
       261   03 Jun 2027 10:05:55.847   03 Jun 2027 10:06:18.155            22.308                Norilsk           697.125
       262   03 Jun 2027 10:06:39.027   03 Jun 2027 10:08:00.116            81.089                Irkutsk          2534.031
       263   03 Jun 2027 10:08:04.841   03 Jun 2027 10:08:41.393            36.552                Norilsk          1142.250
       264   03 Jun 2027 10:08:50.658   03 Jun 2027 10:08:57.057             6.399                Norilsk           199.969
       265   03 Jun 2027 10:08:59.110   03 Jun 2027 10:09:56.007            56.897                Irkutsk          1778.031
       266   03 Jun 2027 10:10:21.603   03 Jun 2027 10:10:34.341            12.738              Murmansk1           398.062
       267   03 Jun 2027 10:10:53.575   03 Jun 2027 10:11:35.847            42.272              Murmansk1          1321.000
       268   03 Jun 2027 10:45:33.230   03 Jun 2027 10:46:02.717            29.487            RioGallegos           921.469
       269   03 Jun 2027 10:48:45.985   03 Jun 2027 10:48:49.128             3.143            RioGallegos            98.219
       270   03 Jun 2027 10:49:53.592   03 Jun 2027 10:50:31.806            38.214            RioGallegos          1194.188
       271   03 Jun 2027 11:19:49.971   03 Jun 2027 11:20:52.692            62.721                Sumatra          1960.031
       272   03 Jun 2027 11:28:14.097   03 Jun 2027 11:28:38.008            23.911                  Delhi           747.219
       273   03 Jun 2027 11:28:56.349   03 Jun 2027 11:30:08.895            72.546                  Delhi          2267.062
       274   03 Jun 2027 11:40:49.778   03 Jun 2027 11:41:44.138            54.360                Irkutsk          1698.750
       275   03 Jun 2027 11:42:09.287   03 Jun 2027 11:42:18.043             8.756              Murmansk2           273.625
       276   03 Jun 2027 11:42:39.113   03 Jun 2027 11:43:06.085            26.972                Novosib           842.875
       277   03 Jun 2027 11:43:12.985   03 Jun 2027 11:43:26.867            13.882                Novosib           433.812
       278   03 Jun 2027 11:43:30.388   03 Jun 2027 11:44:00.903            30.515                Norilsk           953.594
       279   03 Jun 2027 11:44:02.564   03 Jun 2027 11:45:09.329            66.765                Novosib          2086.406
       280   03 Jun 2027 11:46:48.081   03 Jun 2027 11:46:56.083             8.002                 Moscow           250.062
       281   03 Jun 2027 13:04:40.128   03 Jun 2027 13:08:47.093           246.965                  Delhi          7717.656
       282   03 Jun 2027 13:13:01.552   03 Jun 2027 13:13:20.333            18.781                Novosib           586.906
       283   03 Jun 2027 13:14:07.622   03 Jun 2027 13:14:40.997            33.375                Novosib          1042.969
       284   03 Jun 2027 13:15:39.093   03 Jun 2027 13:16:41.617            62.524                Novosib          1953.875
       285   03 Jun 2027 13:16:45.703   03 Jun 2027 13:17:14.536            28.833                Norilsk           901.031
       286   03 Jun 2027 13:17:55.092   03 Jun 2027 13:18:47.466            52.374                Novosib          1636.687
       287   03 Jun 2027 13:20:58.672   03 Jun 2027 13:21:23.707            25.035                Norilsk           782.344
       288   03 Jun 2027 13:25:11.038   03 Jun 2027 13:25:35.179            24.141                Norilsk           754.406
       289   03 Jun 2027 14:48:09.928   03 Jun 2027 14:50:11.649           121.721                 Moscow          3803.781
       290   03 Jun 2027 14:51:41.432   03 Jun 2027 14:54:51.227           189.795              Murmansk2          5931.094
       291   03 Jun 2027 14:58:00.322   03 Jun 2027 15:01:00.993           180.671                Norilsk          5645.969
       292   03 Jun 2027 15:09:16.063   03 Jun 2027 15:09:29.582            13.519                Anadyr2           422.469
       293   03 Jun 2027 15:10:06.551   03 Jun 2027 15:10:50.595            44.044                Anadyr2          1376.375
       294   03 Jun 2027 16:09:36.260   03 Jun 2027 16:10:47.940            71.680               CapeTown          2240.000
       295   03 Jun 2027 16:27:06.219   03 Jun 2027 16:27:39.695            33.476                 Moscow          1046.125
       296   03 Jun 2027 16:29:30.522   03 Jun 2027 16:30:48.096            77.574              Murmansk2          2424.188
       297   03 Jun 2027 16:34:32.566   03 Jun 2027 16:34:48.063            15.497              Murmansk1           484.281
       298   03 Jun 2027 16:38:16.004   03 Jun 2027 16:38:45.011            29.007              Murmansk1           906.469
       299   03 Jun 2027 16:42:19.251   03 Jun 2027 16:44:06.558           107.307                Anadyr2          3353.344
       300   03 Jun 2027 16:45:49.012   03 Jun 2027 16:46:01.078            12.066                Anadyr1           377.062
       301   03 Jun 2027 16:47:12.653   03 Jun 2027 16:47:55.289            42.636                Anadyr2          1332.375
       302   03 Jun 2027 16:51:30.743   03 Jun 2027 16:52:10.341            39.598                Anadyr2          1237.437
       303   03 Jun 2027 17:42:38.981   03 Jun 2027 17:42:45.717             6.736               CapeTown           210.500
       304   03 Jun 2027 17:43:32.289   03 Jun 2027 17:44:07.330            35.041               CapeTown          1095.031
       305   03 Jun 2027 17:47:49.034   03 Jun 2027 17:48:00.713            11.679               CapeTown           364.969
       306   03 Jun 2027 17:48:38.310   03 Jun 2027 17:48:55.420            17.110               CapeTown           534.688
       307   03 Jun 2027 18:10:02.391   03 Jun 2027 18:14:38.418           276.027              Murmansk1          8625.844
       308   03 Jun 2027 18:14:38.418   03 Jun 2027 18:14:38.885             0.467              Murmansk2            14.594
       309   03 Jun 2027 18:20:52.130   03 Jun 2027 18:22:11.707            79.577               Magadan1          2486.781
       310   03 Jun 2027 18:28:37.830   03 Jun 2027 18:29:20.642            42.812               Magadan2          1337.875
       311   03 Jun 2027 19:54:01.057   03 Jun 2027 19:56:06.913           125.856                Anadyr1          3933.000
       312   03 Jun 2027 19:56:17.355   03 Jun 2027 19:57:48.519            91.164                Anadyr2          2848.875
       313   03 Jun 2027 19:57:56.099   03 Jun 2027 20:00:33.845           157.746               Magadan2          4929.562
       314   03 Jun 2027 20:01:23.309   03 Jun 2027 20:01:32.386             9.077               Magadan2           283.656
       315   03 Jun 2027 20:01:51.220   03 Jun 2027 20:02:09.726            18.506               Magadan2           578.313
       316   03 Jun 2027 20:06:10.927   03 Jun 2027 20:06:27.073            16.146               Magadan2           504.562
       317   03 Jun 2027 20:06:27.073   03 Jun 2027 20:06:56.396            29.323               Magadan1           916.344
       318   03 Jun 2027 20:49:08.783   03 Jun 2027 20:51:16.292           127.509            RioGallegos          3984.656
       319   03 Jun 2027 20:51:27.847   03 Jun 2027 20:52:12.306            44.459            RioGallegos          1389.344
       320   03 Jun 2027 20:55:41.089   03 Jun 2027 20:55:50.069             8.980            RioGallegos           280.625
       321   03 Jun 2027 21:29:45.544   03 Jun 2027 21:32:08.256           142.712                Anadyr1          4459.750
       322   03 Jun 2027 21:32:16.927   03 Jun 2027 21:33:22.895            65.968               Magadan2          2061.500
       323   03 Jun 2027 21:33:39.278   03 Jun 2027 21:34:17.245            37.967                Norilsk          1186.469
       324   03 Jun 2027 21:36:24.454   03 Jun 2027 21:37:40.448            75.994                Irkutsk          2374.812
       325   03 Jun 2027 21:39:09.447   03 Jun 2027 21:39:48.365            38.918                Irkutsk          1216.188
       326   03 Jun 2027 21:50:36.783   03 Jun 2027 21:53:00.330           143.547                Sumatra          4485.844
       327   03 Jun 2027 23:05:04.276   03 Jun 2027 23:06:02.786            58.510                Anadyr1          1828.437
       328   03 Jun 2027 23:07:13.849   03 Jun 2027 23:07:28.520            14.671                Anadyr1           458.469
       329   03 Jun 2027 23:07:46.095   03 Jun 2027 23:09:25.480            99.385                Norilsk          3105.781
       330   03 Jun 2027 23:10:00.835   03 Jun 2027 23:10:18.413            17.578               Magadan1           549.313
       331   03 Jun 2027 23:11:36.041   03 Jun 2027 23:11:53.090            17.049               Magadan2           532.781
       332   03 Jun 2027 23:12:02.113   03 Jun 2027 23:13:20.168            78.055                Novosib          2439.219
       333   03 Jun 2027 23:15:58.226   03 Jun 2027 23:16:42.335            44.109                Novosib          1378.406
       334   03 Jun 2027 23:18:00.640   03 Jun 2027 23:18:07.507             6.867                Novosib           214.594
       335   03 Jun 2027 23:20:37.328   03 Jun 2027 23:22:59.400           142.072                  Delhi          4439.750
       336   03 Jun 2027 23:29:38.857   03 Jun 2027 23:29:48.055             9.198                  Delhi           287.438
       337   04 Jun 2027 00:09:29.309   04 Jun 2027 00:09:43.556            14.247            RioGallegos           445.219
       338   04 Jun 2027 00:38:39.623   04 Jun 2027 00:39:24.512            44.889                Anadyr2          1402.781
       339   04 Jun 2027 00:40:12.722   04 Jun 2027 00:40:57.734            45.012                Anadyr2          1406.625
       340   04 Jun 2027 00:41:09.701   04 Jun 2027 00:41:33.035            23.334                Anadyr2           729.187
       341   04 Jun 2027 00:43:46.484   04 Jun 2027 00:44:26.607            40.123                Norilsk          1253.844
       342   04 Jun 2027 00:44:44.050   04 Jun 2027 00:45:52.520            68.470                Norilsk          2139.688
       343   04 Jun 2027 00:46:21.523   04 Jun 2027 00:48:55.581           154.058              Murmansk1          4814.313
       344   04 Jun 2027 00:49:14.908   04 Jun 2027 00:49:55.997            41.089              Murmansk1          1284.031
       345   04 Jun 2027 00:51:41.022   04 Jun 2027 00:52:08.543            27.521              Murmansk2           860.031
       346   04 Jun 2027 00:53:05.801   04 Jun 2027 00:53:30.244            24.443              Murmansk2           763.844
       347   04 Jun 2027 00:59:19.113   04 Jun 2027 00:59:52.673            33.560                  Delhi          1048.750
       348   04 Jun 2027 01:03:38.532   04 Jun 2027 01:03:55.265            16.733                  Delhi           522.906
       349   04 Jun 2027 01:05:28.057   04 Jun 2027 01:06:40.795            72.738                  Delhi          2273.063
       350   04 Jun 2027 01:38:53.671   04 Jun 2027 01:39:35.238            41.567            RioGallegos          1298.969
       351   04 Jun 2027 02:11:57.284   04 Jun 2027 02:12:28.283            30.999                Anadyr2           968.719
       352   04 Jun 2027 02:13:19.114   04 Jun 2027 02:14:15.627            56.513                Anadyr1          1766.031
       353   04 Jun 2027 02:17:40.217   04 Jun 2027 02:18:48.735            68.518               Magadan2          2141.187
       354   04 Jun 2027 02:19:38.953   04 Jun 2027 02:20:01.438            22.485                Norilsk           702.656
       355   04 Jun 2027 02:21:25.259   04 Jun 2027 02:21:49.454            24.195                Norilsk           756.094
       356   04 Jun 2027 02:21:54.699   04 Jun 2027 02:22:22.638            27.939              Murmansk1           873.094
       357   04 Jun 2027 02:23:29.514   04 Jun 2027 02:23:36.571             7.057              Murmansk2           220.531
       358   04 Jun 2027 02:23:46.191   04 Jun 2027 02:25:02.218            76.027                Novosib          2375.844
       359   04 Jun 2027 02:25:24.436   04 Jun 2027 02:25:39.522            15.086                Novosib           471.437
       360   04 Jun 2027 02:29:58.607   04 Jun 2027 02:30:24.323            25.716                 Moscow           803.625
       361   04 Jun 2027 02:33:25.343   04 Jun 2027 02:33:28.503             3.160                Novosib            98.750
       362   04 Jun 2027 02:34:06.531   04 Jun 2027 02:34:29.243            22.712                Novosib           709.750
       363   04 Jun 2027 02:50:49.579   04 Jun 2027 02:50:59.631            10.052               CapeTown           314.125
       364   04 Jun 2027 02:51:50.651   04 Jun 2027 02:53:21.701            91.050               CapeTown          2845.312
       365   04 Jun 2027 04:06:07.315   04 Jun 2027 04:06:33.372            26.057                Norilsk           814.281
       366   04 Jun 2027 04:06:45.779   04 Jun 2027 04:10:01.204           195.425              Murmansk2          6107.031
       367   04 Jun 2027 05:28:29.039   04 Jun 2027 05:29:20.026            50.987               Magadan1          1593.344
       368   04 Jun 2027 05:29:41.899   04 Jun 2027 05:31:10.170            88.271                Anadyr2          2758.469
       369   04 Jun 2027 07:05:59.194   04 Jun 2027 07:06:05.366             6.172               Magadan1           192.875
       370   04 Jun 2027 07:06:10.522   04 Jun 2027 07:06:40.333            29.811                Anadyr1           931.594
       371   04 Jun 2027 07:06:40.333   04 Jun 2027 07:09:29.471           169.138                Anadyr2          5285.563
       372   04 Jun 2027 07:10:02.688   04 Jun 2027 07:10:16.631            13.943                Anadyr2           435.719
       373   04 Jun 2027 08:39:30.831   04 Jun 2027 08:39:35.322             4.491               Magadan2           140.344
       374   04 Jun 2027 08:40:06.593   04 Jun 2027 08:40:13.492             6.899                Norilsk           215.594
       375   04 Jun 2027 08:40:28.904   04 Jun 2027 08:40:33.772             4.868               Magadan2           152.125
       376   04 Jun 2027 08:40:33.772   04 Jun 2027 08:41:31.965            58.193               Magadan1          1818.531
       377   04 Jun 2027 08:41:47.854   04 Jun 2027 08:42:19.425            31.571                Irkutsk           986.594
       378   04 Jun 2027 08:42:35.070   04 Jun 2027 08:42:42.737             7.667                Novosib           239.594
       379   04 Jun 2027 08:43:05.036   04 Jun 2027 08:43:20.023            14.987                Norilsk           468.344
       380   04 Jun 2027 08:43:24.569   04 Jun 2027 08:43:43.621            19.052                Irkutsk           595.375
       381   04 Jun 2027 08:43:47.526   04 Jun 2027 08:43:51.221             3.695                Norilsk           115.469
       382   04 Jun 2027 08:43:58.297   04 Jun 2027 08:43:58.967             0.670                Novosib            20.937
       383   04 Jun 2027 08:44:02.738   04 Jun 2027 08:44:40.728            37.990                Irkutsk          1187.188
       384   04 Jun 2027 08:44:51.090   04 Jun 2027 08:45:33.239            42.149              Murmansk2          1317.156
       385   04 Jun 2027 08:45:47.228   04 Jun 2027 08:46:01.934            14.706                Norilsk           459.563
       386   04 Jun 2027 08:46:55.266   04 Jun 2027 08:47:05.955            10.689              Murmansk2           334.031
       387   04 Jun 2027 08:47:50.072   04 Jun 2027 08:47:56.623             6.551              Murmansk1           204.719
       388   04 Jun 2027 08:47:56.623   04 Jun 2027 08:48:03.470             6.847              Murmansk2           213.969
       389   04 Jun 2027 08:49:26.711   04 Jun 2027 08:49:34.311             7.600                Norilsk           237.500
       390   04 Jun 2027 08:50:47.395   04 Jun 2027 08:51:11.421            24.026              Murmansk2           750.812
       391   04 Jun 2027 09:20:39.797   04 Jun 2027 09:21:52.659            72.862            RioGallegos          2276.937
       392   04 Jun 2027 09:23:13.061   04 Jun 2027 09:23:24.801            11.740            RioGallegos           366.875
       393   04 Jun 2027 09:56:23.181   04 Jun 2027 09:57:46.963            83.782                Sumatra          2618.188
       394   04 Jun 2027 10:16:14.882   04 Jun 2027 10:16:58.317            43.435                Irkutsk          1357.344
       395   04 Jun 2027 10:17:16.413   04 Jun 2027 10:17:25.341             8.928                Novosib           279.000
       396   04 Jun 2027 10:17:31.759   04 Jun 2027 10:17:42.460            10.701                Irkutsk           334.406
       397   04 Jun 2027 10:17:47.812   04 Jun 2027 10:17:54.177             6.365                Norilsk           198.906
       398   04 Jun 2027 10:18:03.083   04 Jun 2027 10:18:14.413            11.330                Novosib           354.062
       399   04 Jun 2027 10:18:18.995   04 Jun 2027 10:18:42.442            23.447                Irkutsk           732.719
       400   04 Jun 2027 10:18:44.697   04 Jun 2027 10:19:41.163            56.466                Irkutsk          1764.563
       401   04 Jun 2027 10:19:45.292   04 Jun 2027 10:20:42.377            57.085                Novosib          1783.906
       402   04 Jun 2027 10:20:52.419   04 Jun 2027 10:21:52.000            59.581                Irkutsk          1861.906
       403   04 Jun 2027 10:58:00.124   04 Jun 2027 10:58:53.589            53.465            RioGallegos          1670.781
       404   04 Jun 2027 11:32:13.015   04 Jun 2027 11:32:45.152            32.137                Sumatra          1004.281
       405   04 Jun 2027 11:36:24.634   04 Jun 2027 11:36:43.368            18.734                Sumatra           585.438
       406   04 Jun 2027 11:39:59.729   04 Jun 2027 11:40:53.094            53.365                  Delhi          1667.656
       407   04 Jun 2027 11:53:12.033   04 Jun 2027 11:53:13.710             1.677              Murmansk2            52.406
       408   04 Jun 2027 11:53:18.690   04 Jun 2027 11:54:23.409            64.719                 Moscow          2022.469
       409   04 Jun 2027 11:54:40.096   04 Jun 2027 11:55:00.159            20.063                Norilsk           626.969
       410   04 Jun 2027 11:55:12.498   04 Jun 2027 11:55:25.010            12.512              Murmansk1           391.000
       411   04 Jun 2027 11:55:25.856   04 Jun 2027 11:55:36.887            11.031              Murmansk1           344.719
       412   04 Jun 2027 11:55:36.887   04 Jun 2027 11:56:12.997            36.110              Murmansk2          1128.438
       413   04 Jun 2027 11:56:23.699   04 Jun 2027 11:57:00.930            37.231                Novosib          1163.469
       414   04 Jun 2027 11:57:05.212   04 Jun 2027 11:57:36.581            31.369                Novosib           980.281
       415   04 Jun 2027 11:57:41.155   04 Jun 2027 11:58:13.198            32.043                 Moscow          1001.344
       416   04 Jun 2027 12:01:40.265   04 Jun 2027 12:02:09.530            29.265              Murmansk1           914.531
       417   04 Jun 2027 12:02:42.234   04 Jun 2027 12:03:15.337            33.103              Murmansk2          1034.469
       418   04 Jun 2027 12:03:55.542   04 Jun 2027 12:04:06.358            10.816              Murmansk2           338.000
       419   04 Jun 2027 13:17:16.930   04 Jun 2027 13:17:53.132            36.202                  Delhi          1131.313
       420   04 Jun 2027 13:18:40.266   04 Jun 2027 13:19:56.869            76.603                  Delhi          2393.844
       421   04 Jun 2027 13:20:52.555   04 Jun 2027 13:22:16.548            83.993                  Delhi          2624.781
       422   04 Jun 2027 13:23:36.614   04 Jun 2027 13:23:41.489             4.875                  Delhi           152.344
       423   04 Jun 2027 13:23:46.093   04 Jun 2027 13:23:47.620             1.527                  Delhi            47.719
       424   04 Jun 2027 13:25:45.435   04 Jun 2027 13:26:49.188            63.753                Novosib          1992.281
       425   04 Jun 2027 13:27:33.892   04 Jun 2027 13:27:53.701            19.809                Novosib           619.031
       426   04 Jun 2027 13:27:59.606   04 Jun 2027 13:28:58.052            58.446              Murmansk1          1826.437
       427   04 Jun 2027 13:29:15.237   04 Jun 2027 13:29:41.997            26.760                Norilsk           836.250
       428   04 Jun 2027 13:29:55.282   04 Jun 2027 13:30:32.841            37.559                Novosib          1173.719
       429   04 Jun 2027 13:32:57.694   04 Jun 2027 13:33:26.055            28.361                Norilsk           886.281
       430   04 Jun 2027 13:34:22.732   04 Jun 2027 13:35:06.739            44.007                Norilsk          1375.219
       431   04 Jun 2027 13:37:38.930   04 Jun 2027 13:38:49.686            70.756                Norilsk          2211.125
       432   04 Jun 2027 15:00:19.910   04 Jun 2027 15:02:10.006           110.096                 Moscow          3440.500
       433   04 Jun 2027 15:03:50.392   04 Jun 2027 15:04:56.365            65.973              Murmansk2          2061.656
       434   04 Jun 2027 15:04:56.365   04 Jun 2027 15:05:12.488            16.123              Murmansk1           503.844
       435   04 Jun 2027 15:06:53.143   04 Jun 2027 15:07:10.058            16.915              Murmansk1           528.594
       436   04 Jun 2027 15:07:15.644   04 Jun 2027 15:07:26.070            10.426              Murmansk2           325.813
       437   04 Jun 2027 15:08:03.250   04 Jun 2027 15:08:06.839             3.589              Murmansk2           112.156
       438   04 Jun 2027 15:08:50.050   04 Jun 2027 15:09:11.035            20.985              Murmansk2           655.781
       439   04 Jun 2027 15:10:08.871   04 Jun 2027 15:10:41.337            32.466              Murmansk2          1014.562
       440   04 Jun 2027 15:11:21.365   04 Jun 2027 15:13:03.942           102.577                Norilsk          3205.531
       441   04 Jun 2027 15:19:30.119   04 Jun 2027 15:20:47.829            77.710                Anadyr2          2428.437
       442   04 Jun 2027 16:16:36.716   04 Jun 2027 16:16:43.796             7.080               CapeTown           221.250
       443   04 Jun 2027 16:19:46.631   04 Jun 2027 16:20:23.977            37.346               CapeTown          1167.062
       444   04 Jun 2027 16:23:23.598   04 Jun 2027 16:24:06.794            43.196               CapeTown          1349.875
       445   04 Jun 2027 16:39:57.516   04 Jun 2027 16:40:26.232            28.716                 Moscow           897.375
       446   04 Jun 2027 16:41:55.946   04 Jun 2027 16:42:41.617            45.671              Murmansk2          1427.219
       447   04 Jun 2027 16:43:11.084   04 Jun 2027 16:44:07.529            56.445              Murmansk1          1763.906
       448   04 Jun 2027 16:50:46.995   04 Jun 2027 16:51:13.405            26.410              Murmansk2           825.312
       449   04 Jun 2027 16:54:17.895   04 Jun 2027 16:55:55.394            97.499                Anadyr1          3046.844
       450   04 Jun 2027 16:57:48.796   04 Jun 2027 16:57:53.413             4.617                Anadyr2           144.281
       451   04 Jun 2027 16:59:20.706   04 Jun 2027 16:59:29.805             9.099                Anadyr2           284.344
       452   04 Jun 2027 17:01:18.810   04 Jun 2027 17:01:46.402            27.592                Anadyr2           862.250
       453   04 Jun 2027 17:05:30.142   04 Jun 2027 17:05:47.621            17.479                Anadyr1           546.219
       454   04 Jun 2027 17:50:18.863   04 Jun 2027 17:51:04.796            45.933               CapeTown          1435.406
       455   04 Jun 2027 17:56:40.654   04 Jun 2027 17:56:45.552             4.898               CapeTown           153.063
       456   04 Jun 2027 17:57:04.132   04 Jun 2027 17:57:26.947            22.815               CapeTown           712.969
       457   04 Jun 2027 18:23:00.969   04 Jun 2027 18:27:16.360           255.391              Murmansk1          7980.969
       458   04 Jun 2027 18:30:45.602   04 Jun 2027 18:30:46.956             1.354                Anadyr1            42.312
       459   04 Jun 2027 18:31:18.487   04 Jun 2027 18:31:37.313            18.826                Anadyr1           588.312
       460   04 Jun 2027 18:32:45.825   04 Jun 2027 18:33:57.571            71.746               Magadan1          2242.063
       461   04 Jun 2027 18:37:17.765   04 Jun 2027 18:37:30.834            13.069               Magadan1           408.406
       462   04 Jun 2027 18:38:27.523   04 Jun 2027 18:38:41.853            14.330               Magadan1           447.812
       463   04 Jun 2027 18:39:30.869   04 Jun 2027 18:39:48.138            17.269               Magadan1           539.656
       464   04 Jun 2027 18:42:56.042   04 Jun 2027 18:43:09.600            13.558               Magadan2           423.687
       465   04 Jun 2027 18:43:19.378   04 Jun 2027 18:43:28.905             9.527               Magadan2           297.719
       466   04 Jun 2027 20:06:02.191   04 Jun 2027 20:08:08.587           126.396                Anadyr1          3949.875
       467   04 Jun 2027 20:08:17.328   04 Jun 2027 20:10:13.269           115.941                Anadyr2          3623.156
       468   04 Jun 2027 20:11:10.954   04 Jun 2027 20:12:06.028            55.074               Magadan1          1721.062
       469   04 Jun 2027 20:12:16.462   04 Jun 2027 20:13:03.455            46.993               Magadan2          1468.531
       470   04 Jun 2027 20:13:07.792   04 Jun 2027 20:13:49.982            42.190               Magadan2          1318.438
       471   04 Jun 2027 20:17:18.745   04 Jun 2027 20:18:29.794            71.049               Magadan1          2220.281
       472   04 Jun 2027 21:00:48.997   04 Jun 2027 21:03:23.506           154.509            RioGallegos          4828.406
       473   04 Jun 2027 21:05:29.950   04 Jun 2027 21:05:53.170            23.220            RioGallegos           725.625
       474   04 Jun 2027 21:41:43.521   04 Jun 2027 21:42:33.764            50.243                Anadyr2          1570.094
       475   04 Jun 2027 21:43:53.416   04 Jun 2027 21:44:15.971            22.555                Norilsk           704.844
       476   04 Jun 2027 21:44:19.701   04 Jun 2027 21:46:25.046           125.345               Magadan2          3917.031
       477   04 Jun 2027 21:48:14.329   04 Jun 2027 21:49:26.354            72.025                Irkutsk          2250.781
       478   04 Jun 2027 21:50:30.047   04 Jun 2027 21:51:00.770            30.723                Irkutsk           960.094
       479   04 Jun 2027 21:56:51.006   04 Jun 2027 21:57:14.083            23.077                Irkutsk           721.156
       480   04 Jun 2027 22:02:11.698   04 Jun 2027 22:02:43.613            31.915                Sumatra           997.344
       481   04 Jun 2027 22:03:56.113   04 Jun 2027 22:05:24.650            88.537                Sumatra          2766.781
       482   04 Jun 2027 22:13:36.046   04 Jun 2027 22:13:49.298            13.252                Sumatra           414.125
