uniorb/output/strategy_1/Drop/Drop_KinoSat_110606.txt

KinoSat_110606
-------------------------
    Access    *     Start Time (UTCG)     *     Stop Time (UTCG)  *   Duration (s)        *       Station  *  Data (Mbytes)
         1   01 Jun 2027 03:35:32.054   01 Jun 2027 03:35:49.668            17.614                Anadyr2           550.437
         2   01 Jun 2027 03:36:00.449   01 Jun 2027 03:36:31.453            31.004                Anadyr1           968.875
         3   01 Jun 2027 03:36:34.744   01 Jun 2027 03:36:44.515             9.771                Anadyr1           305.344
         4   01 Jun 2027 03:36:44.515   01 Jun 2027 03:38:03.974            79.459                Anadyr2          2483.094
         5   01 Jun 2027 03:38:30.580   01 Jun 2027 03:38:49.485            18.905               Magadan1           590.781
         6   01 Jun 2027 05:11:41.962   01 Jun 2027 05:11:52.678            10.716               Magadan1           334.875
         7   01 Jun 2027 05:12:04.905   01 Jun 2027 05:14:52.724           167.819               Magadan1          5244.344
         8   01 Jun 2027 05:14:52.724   01 Jun 2027 05:15:31.004            38.280               Magadan2          1196.250
         9   01 Jun 2027 05:15:45.480   01 Jun 2027 05:16:03.803            18.323               Magadan2           572.594
        10   01 Jun 2027 05:16:24.873   01 Jun 2027 05:16:48.634            23.761                Norilsk           742.531
        11   01 Jun 2027 05:17:41.177   01 Jun 2027 05:18:52.484            71.307                Norilsk          2228.344
        12   01 Jun 2027 05:22:45.824   01 Jun 2027 05:22:58.435            12.611              Murmansk2           394.094
        13   01 Jun 2027 05:23:42.592   01 Jun 2027 05:23:53.558            10.966              Murmansk2           342.687
        14   01 Jun 2027 05:24:37.148   01 Jun 2027 05:24:51.436            14.288              Murmansk1           446.500
        15   01 Jun 2027 05:51:17.239   01 Jun 2027 05:54:31.102           193.863            RioGallegos          6058.219
        16   01 Jun 2027 05:55:15.002   01 Jun 2027 05:56:57.853           102.851            RioGallegos          3214.094
        17   01 Jun 2027 06:27:18.657   01 Jun 2027 06:30:37.909           199.252                Sumatra          6226.625
        18   01 Jun 2027 06:31:04.239   01 Jun 2027 06:31:14.608            10.369                Sumatra           324.031
        19   01 Jun 2027 06:47:46.887   01 Jun 2027 06:48:42.291            55.404                Norilsk          1731.375
        20   01 Jun 2027 06:48:51.539   01 Jun 2027 06:50:06.559            75.020                Novosib          2344.375
        21   01 Jun 2027 06:50:17.831   01 Jun 2027 06:52:51.605           153.774                Novosib          4805.437
        22   01 Jun 2027 06:53:13.866   01 Jun 2027 06:53:38.357            24.491              Murmansk2           765.344
        23   01 Jun 2027 07:30:02.259   01 Jun 2027 07:30:09.985             7.726            RioGallegos           241.437
        24   01 Jun 2027 08:02:30.422   01 Jun 2027 08:03:22.131            51.709                Sumatra          1615.906
        25   01 Jun 2027 08:04:39.339   01 Jun 2027 08:06:07.677            88.338                Sumatra          2760.562
        26   01 Jun 2027 08:07:06.725   01 Jun 2027 08:07:21.470            14.745                Sumatra           460.781
        27   01 Jun 2027 08:10:44.356   01 Jun 2027 08:14:42.612           238.256                  Delhi          7445.500
        28   01 Jun 2027 08:25:47.125   01 Jun 2027 08:28:59.366           192.241              Murmansk2          6007.531
        29   01 Jun 2027 08:29:02.290   01 Jun 2027 08:30:40.655            98.365                 Moscow          3073.906
        30   01 Jun 2027 10:01:21.504   01 Jun 2027 10:03:04.082           102.578                 Moscow          3205.563
        31   01 Jun 2027 10:03:15.138   01 Jun 2027 10:04:49.256            94.118                Norilsk          2941.187
        32   01 Jun 2027 10:05:30.275   01 Jun 2027 10:06:00.293            30.018              Murmansk1           938.063
        33   01 Jun 2027 10:06:00.293   01 Jun 2027 10:06:06.559             6.266              Murmansk2           195.813
        34   01 Jun 2027 10:06:17.115   01 Jun 2027 10:06:27.390            10.275                 Moscow           321.094
        35   01 Jun 2027 10:06:56.211   01 Jun 2027 10:07:31.206            34.995                 Moscow          1093.594
        36   01 Jun 2027 11:50:28.335   01 Jun 2027 11:54:57.121           268.786                Anadyr1          8399.562
        37   01 Jun 2027 15:03:53.549   01 Jun 2027 15:06:55.619           182.070               Magadan2          5689.688
        38   01 Jun 2027 15:07:39.950   01 Jun 2027 15:09:41.233           121.283               Magadan2          3790.094
        39   01 Jun 2027 15:10:50.430   01 Jun 2027 15:12:55.700           125.270               Magadan2          3914.687
        40   01 Jun 2027 17:32:05.226   01 Jun 2027 17:38:21.508           376.282            RioGallegos         11758.812
        41   01 Jun 2027 18:17:26.560   01 Jun 2027 18:19:36.067           129.507                Norilsk          4047.094
        42   01 Jun 2027 18:23:13.558   01 Jun 2027 18:23:18.543             4.985                Irkutsk           155.781
        43   01 Jun 2027 18:37:34.370   01 Jun 2027 18:39:58.747           144.377                Sumatra          4511.781
        44   01 Jun 2027 19:56:02.587   01 Jun 2027 19:57:11.962            69.375                Novosib          2167.969
        45   01 Jun 2027 20:03:03.340   01 Jun 2027 20:10:36.874           453.534                  Delhi         14172.938
        46   01 Jun 2027 21:28:56.873   01 Jun 2027 21:34:41.856           344.983              Murmansk2         10780.719
        47   01 Jun 2027 21:34:41.921   01 Jun 2027 21:36:15.623            93.702              Murmansk1          2928.188
        48   01 Jun 2027 23:33:01.269   01 Jun 2027 23:34:11.305            70.036               CapeTown          2188.625
        49   01 Jun 2027 23:36:15.134   01 Jun 2027 23:39:53.581           218.447               CapeTown          6826.469
        50   02 Jun 2027 01:07:46.161   02 Jun 2027 01:09:02.535            76.374               CapeTown          2386.688
        51   02 Jun 2027 02:04:45.683   02 Jun 2027 02:06:20.513            94.830               Magadan2          2963.438
        52   02 Jun 2027 02:06:39.824   02 Jun 2027 02:07:29.699            49.875               Magadan1          1558.594
        53   02 Jun 2027 02:10:07.238   02 Jun 2027 02:10:23.547            16.309               Magadan1           509.656
        54   02 Jun 2027 02:12:29.687   02 Jun 2027 02:12:37.034             7.347               Magadan1           229.594
        55   02 Jun 2027 02:12:43.010   02 Jun 2027 02:13:20.997            37.987                Norilsk          1187.094
        56   02 Jun 2027 02:13:56.278   02 Jun 2027 02:14:10.672            14.394                Norilsk           449.813
        57   02 Jun 2027 02:16:22.492   02 Jun 2027 02:17:31.094            68.602              Murmansk1          2143.812
        58   02 Jun 2027 02:18:51.124   02 Jun 2027 02:19:01.005             9.881              Murmansk2           308.781
        59   02 Jun 2027 02:19:57.223   02 Jun 2027 02:20:39.160            41.937                 Moscow          1310.531
        60   02 Jun 2027 02:22:13.993   02 Jun 2027 02:23:33.027            79.034                 Moscow          2469.812
        61   02 Jun 2027 03:43:14.467   02 Jun 2027 03:43:39.571            25.104               Magadan2           784.500
        62   02 Jun 2027 03:47:01.448   02 Jun 2027 03:49:28.118           146.670               Magadan2          4583.438
        63   02 Jun 2027 03:49:38.376   02 Jun 2027 03:49:48.844            10.468               Magadan1           327.125
        64   02 Jun 2027 03:49:57.862   02 Jun 2027 03:50:56.964            59.102               Magadan1          1846.937
        65   02 Jun 2027 03:50:56.964   02 Jun 2027 03:51:24.382            27.418               Magadan2           856.813
        66   02 Jun 2027 03:51:24.382   02 Jun 2027 03:51:52.441            28.059               Magadan1           876.844
        67   02 Jun 2027 03:51:52.441   02 Jun 2027 03:52:49.389            56.948               Magadan2          1779.625
        68   02 Jun 2027 05:24:15.374   02 Jun 2027 05:26:53.033           157.659               Magadan1          4926.844
        69   02 Jun 2027 05:26:53.033   02 Jun 2027 05:27:20.187            27.154               Magadan2           848.562
        70   02 Jun 2027 05:27:21.127   02 Jun 2027 05:27:39.736            18.609                Irkutsk           581.531
        71   02 Jun 2027 05:27:57.824   02 Jun 2027 05:28:24.671            26.847                Irkutsk           838.969
        72   02 Jun 2027 06:03:14.038   02 Jun 2027 06:03:27.800            13.762            RioGallegos           430.062
        73   02 Jun 2027 06:03:30.390   02 Jun 2027 06:05:20.762           110.372            RioGallegos          3449.125
        74   02 Jun 2027 06:06:30.599   02 Jun 2027 06:06:38.008             7.409            RioGallegos           231.531
        75   02 Jun 2027 06:07:37.590   02 Jun 2027 06:07:47.139             9.549            RioGallegos           298.406
        76   02 Jun 2027 06:12:39.762   02 Jun 2027 06:12:48.345             8.583            RioGallegos           268.219
        77   02 Jun 2027 06:38:51.563   02 Jun 2027 06:42:33.024           221.461                Sumatra          6920.656
        78   02 Jun 2027 07:00:10.491   02 Jun 2027 07:00:32.835            22.344                Norilsk           698.250
        79   02 Jun 2027 07:00:36.305   02 Jun 2027 07:01:34.355            58.050                Novosib          1814.063
        80   02 Jun 2027 07:01:54.260   02 Jun 2027 07:05:12.539           198.279                Norilsk          6196.219
        81   02 Jun 2027 07:05:25.482   02 Jun 2027 07:06:01.155            35.673                Novosib          1114.781
        82   02 Jun 2027 07:06:10.334   02 Jun 2027 07:06:36.447            26.113              Murmansk2           816.031
        83   02 Jun 2027 07:06:36.447   02 Jun 2027 07:06:42.581             6.134              Murmansk1           191.687
        84   02 Jun 2027 07:09:57.496   02 Jun 2027 07:10:22.120            24.624              Murmansk2           769.500
        85   02 Jun 2027 07:10:52.000   02 Jun 2027 07:11:54.601            62.601              Murmansk2          1956.281
        86   02 Jun 2027 07:41:53.896   02 Jun 2027 07:42:00.420             6.524            RioGallegos           203.875
        87   02 Jun 2027 07:43:26.805   02 Jun 2027 07:44:59.926            93.121            RioGallegos          2910.031
        88   02 Jun 2027 08:14:55.557   02 Jun 2027 08:15:13.942            18.385                Sumatra           574.531
        89   02 Jun 2027 08:17:54.947   02 Jun 2027 08:18:30.829            35.882                Sumatra          1121.313
        90   02 Jun 2027 08:22:31.497   02 Jun 2027 08:24:23.917           112.420                  Delhi          3513.125
        91   02 Jun 2027 08:24:48.588   02 Jun 2027 08:26:10.170            81.582                  Delhi          2549.438
        92   02 Jun 2027 08:37:53.310   02 Jun 2027 08:38:24.012            30.702                 Moscow           959.438
        93   02 Jun 2027 08:38:40.386   02 Jun 2027 08:41:25.707           165.321              Murmansk2          5166.281
        94   02 Jun 2027 08:41:25.707   02 Jun 2027 08:42:58.219            92.512              Murmansk1          2891.000
        95   02 Jun 2027 08:44:03.130   02 Jun 2027 08:44:41.856            38.726              Murmansk2          1210.187
        96   02 Jun 2027 10:00:04.354   02 Jun 2027 10:02:33.621           149.267                  Delhi          4664.594
        97   02 Jun 2027 10:03:09.729   02 Jun 2027 10:03:39.519            29.790                  Delhi           930.938
        98   02 Jun 2027 10:13:50.811   02 Jun 2027 10:15:08.935            78.124                 Moscow          2441.375
        99   02 Jun 2027 10:15:10.829   02 Jun 2027 10:18:17.564           186.735                Norilsk          5835.469
       100   02 Jun 2027 10:20:18.664   02 Jun 2027 10:20:24.683             6.019              Murmansk2           188.094
       101   02 Jun 2027 12:02:01.831   02 Jun 2027 12:08:02.704           360.873                Anadyr1         11277.281
       102   02 Jun 2027 15:15:20.074   02 Jun 2027 15:18:56.905           216.831               Magadan1          6775.969
       103   02 Jun 2027 15:20:25.030   02 Jun 2027 15:21:14.059            49.029               Magadan1          1532.156
       104   02 Jun 2027 15:24:03.125   02 Jun 2027 15:24:50.865            47.740               Magadan1          1491.875
       105   02 Jun 2027 17:03:38.452   02 Jun 2027 17:03:48.984            10.532               Magadan1           329.125
       106   02 Jun 2027 17:43:20.457   02 Jun 2027 17:44:28.938            68.481            RioGallegos          2140.031
       107   02 Jun 2027 17:46:06.787   02 Jun 2027 17:49:35.956           209.169            RioGallegos          6536.531
       108   02 Jun 2027 17:51:15.709   02 Jun 2027 17:52:43.698            87.989            RioGallegos          2749.656
       109   02 Jun 2027 18:30:47.561   02 Jun 2027 18:31:58.682            71.121                Irkutsk          2222.531
       110   02 Jun 2027 18:32:56.077   02 Jun 2027 18:34:20.241            84.164                Irkutsk          2630.125
       111   02 Jun 2027 18:34:25.931   02 Jun 2027 18:35:39.599            73.668                Novosib          2302.125
       112   02 Jun 2027 18:39:21.316   02 Jun 2027 18:40:16.152            54.836                Irkutsk          1713.625
       113   02 Jun 2027 18:46:16.308   02 Jun 2027 18:48:32.680           136.372                Sumatra          4261.625
       114   02 Jun 2027 18:50:27.712   02 Jun 2027 18:51:09.384            41.672                Sumatra          1302.250
       115   02 Jun 2027 18:53:37.594   02 Jun 2027 18:55:36.718           119.124                Sumatra          3722.625
       116   02 Jun 2027 20:06:30.436   02 Jun 2027 20:07:49.540            79.104                Novosib          2472.000
       117   02 Jun 2027 20:08:52.773   02 Jun 2027 20:10:14.973            82.200                Novosib          2568.750
       118   02 Jun 2027 20:14:34.928   02 Jun 2027 20:16:06.312            91.384                  Delhi          2855.750
       119   02 Jun 2027 20:17:58.633   02 Jun 2027 20:21:21.138           202.505                  Delhi          6328.281
       120   02 Jun 2027 21:40:51.715   02 Jun 2027 21:48:56.489           484.774              Murmansk2         15149.188
       121   02 Jun 2027 21:50:42.745   02 Jun 2027 21:51:00.451            17.706                 Moscow           553.312
       122   02 Jun 2027 23:16:31.742   02 Jun 2027 23:17:28.945            57.203              Murmansk2          1787.594
       123   02 Jun 2027 23:19:42.532   02 Jun 2027 23:20:30.640            48.108              Murmansk2          1503.375
       124   02 Jun 2027 23:20:56.686   02 Jun 2027 23:21:50.122            53.436              Murmansk2          1669.875
       125   02 Jun 2027 23:22:15.546   02 Jun 2027 23:23:47.562            92.016                 Moscow          2875.500
       126   02 Jun 2027 23:27:21.024   02 Jun 2027 23:28:41.752            80.728                 Moscow          2522.750
       127   02 Jun 2027 23:31:58.612   02 Jun 2027 23:32:04.609             5.997                 Moscow           187.406
       128   02 Jun 2027 23:44:34.807   02 Jun 2027 23:46:09.983            95.176               CapeTown          2974.250
       129   02 Jun 2027 23:48:08.255   02 Jun 2027 23:50:06.196           117.941               CapeTown          3685.656
       130   03 Jun 2027 00:50:49.537   03 Jun 2027 00:52:08.958            79.421               Magadan2          2481.906
       131   03 Jun 2027 00:55:31.162   03 Jun 2027 00:55:48.180            17.018              Murmansk1           531.813
       132   03 Jun 2027 00:55:52.175   03 Jun 2027 00:56:45.925            53.750                 Moscow          1679.688
       133   03 Jun 2027 00:59:45.974   03 Jun 2027 01:00:04.165            18.191                 Moscow           568.469
       134   03 Jun 2027 01:00:54.261   03 Jun 2027 01:00:59.632             5.371              Murmansk2           167.844
       135   03 Jun 2027 01:01:04.420   03 Jun 2027 01:01:21.301            16.881              Murmansk2           527.531
       136   03 Jun 2027 01:02:05.236   03 Jun 2027 01:03:10.316            65.080              Murmansk2          2033.750
       137   03 Jun 2027 01:23:50.616   03 Jun 2027 01:24:11.971            21.355               CapeTown           667.344
       138   03 Jun 2027 01:24:54.398   03 Jun 2027 01:25:53.049            58.651               CapeTown          1832.844
       139   03 Jun 2027 01:28:56.966   03 Jun 2027 01:29:54.584            57.618               CapeTown          1800.562
       140   03 Jun 2027 02:16:33.817   03 Jun 2027 02:17:23.039            49.222               Magadan2          1538.187
       141   03 Jun 2027 02:17:47.224   03 Jun 2027 02:18:16.606            29.382               Magadan1           918.188
       142   03 Jun 2027 02:19:53.418   03 Jun 2027 02:19:55.015             1.597               Magadan1            49.906
       143   03 Jun 2027 02:20:17.146   03 Jun 2027 02:20:30.355            13.209               Magadan2           412.781
       144   03 Jun 2027 02:21:36.347   03 Jun 2027 02:22:25.466            49.119               Magadan2          1534.969
       145   03 Jun 2027 02:24:24.775   03 Jun 2027 02:24:47.558            22.783                Norilsk           711.969
       146   03 Jun 2027 02:25:46.580   03 Jun 2027 02:26:14.102            27.522                Norilsk           860.063
       147   03 Jun 2027 02:27:56.440   03 Jun 2027 02:28:10.397            13.957                Norilsk           436.156
       148   03 Jun 2027 02:28:16.303   03 Jun 2027 02:28:31.234            14.931               Magadan1           466.594
       149   03 Jun 2027 02:28:50.029   03 Jun 2027 02:29:04.200            14.171              Murmansk1           442.844
       150   03 Jun 2027 02:29:41.045   03 Jun 2027 02:29:55.540            14.495              Murmansk1           452.969
       151   03 Jun 2027 02:31:02.771   03 Jun 2027 02:31:11.911             9.140              Murmansk2           285.625
       152   03 Jun 2027 02:31:51.099   03 Jun 2027 02:31:56.559             5.460              Murmansk1           170.625
       153   03 Jun 2027 02:32:20.008   03 Jun 2027 02:32:23.318             3.310                 Moscow           103.438
       154   03 Jun 2027 02:32:29.184   03 Jun 2027 02:32:50.162            20.978                 Moscow           655.562
       155   03 Jun 2027 02:33:51.308   03 Jun 2027 02:33:53.176             1.868                Norilsk            58.375
       156   03 Jun 2027 02:34:12.600   03 Jun 2027 02:34:54.802            42.202              Murmansk1          1318.812
       157   03 Jun 2027 02:36:26.477   03 Jun 2027 02:36:43.157            16.680              Murmansk2           521.250
       158   03 Jun 2027 02:39:02.335   03 Jun 2027 02:39:32.544            30.209                 Moscow           944.031
       159   03 Jun 2027 03:11:30.067   03 Jun 2027 03:13:11.264           101.197            RioGallegos          3162.406
       160   03 Jun 2027 03:59:08.094   03 Jun 2027 04:00:32.644            84.550                Anadyr2          2642.188
       161   03 Jun 2027 04:00:34.208   03 Jun 2027 04:03:47.261           193.053               Magadan1          6032.906
       162   03 Jun 2027 04:03:54.064   03 Jun 2027 04:04:14.839            20.775                Anadyr2           649.219
       163   03 Jun 2027 05:35:25.640   03 Jun 2027 05:36:22.519            56.879                Irkutsk          1777.469
       164   03 Jun 2027 05:36:40.996   03 Jun 2027 05:38:02.778            81.782                Novosib          2555.688
       165   03 Jun 2027 05:38:26.390   03 Jun 2027 05:40:25.502           119.112                Norilsk          3722.250
       166   03 Jun 2027 05:40:28.655   03 Jun 2027 05:41:19.281            50.626              Murmansk1          1582.063
       167   03 Jun 2027 05:41:19.463   03 Jun 2027 05:41:38.884            19.421                Novosib           606.906
       168   03 Jun 2027 05:42:13.390   03 Jun 2027 05:42:20.795             7.405              Murmansk1           231.406
       169   03 Jun 2027 05:42:40.588   03 Jun 2027 05:43:06.213            25.625              Murmansk1           800.781
       170   03 Jun 2027 05:43:31.980   03 Jun 2027 05:43:45.650            13.670                Norilsk           427.187
       171   03 Jun 2027 05:44:31.416   03 Jun 2027 05:44:39.426             8.010              Murmansk2           250.312
       172   03 Jun 2027 05:44:46.670   03 Jun 2027 05:45:39.125            52.455                Norilsk          1639.219
       173   03 Jun 2027 06:15:14.079   03 Jun 2027 06:15:41.579            27.500            RioGallegos           859.375
       174   03 Jun 2027 06:15:55.022   03 Jun 2027 06:16:47.896            52.874            RioGallegos          1652.312
       175   03 Jun 2027 06:17:03.928   03 Jun 2027 06:17:30.192            26.264            RioGallegos           820.750
       176   03 Jun 2027 06:20:26.440   03 Jun 2027 06:20:30.839             4.399            RioGallegos           137.469
       177   03 Jun 2027 06:22:28.367   03 Jun 2027 06:22:49.987            21.620            RioGallegos           675.625
       178   03 Jun 2027 06:23:14.795   03 Jun 2027 06:23:48.264            33.469            RioGallegos          1045.906
       179   03 Jun 2027 06:50:32.443   03 Jun 2027 06:52:58.146           145.703                Sumatra          4553.219
       180   03 Jun 2027 06:54:31.966   03 Jun 2027 06:54:33.730             1.764                Sumatra            55.125
       181   03 Jun 2027 07:03:06.771   03 Jun 2027 07:07:36.371           269.600                  Delhi          8425.000
       182   03 Jun 2027 07:12:19.375   03 Jun 2027 07:13:10.214            50.839                Novosib          1588.719
       183   03 Jun 2027 07:13:25.866   03 Jun 2027 07:15:15.667           109.801              Murmansk2          3431.281
       184   03 Jun 2027 07:15:32.487   03 Jun 2027 07:17:38.125           125.638                Novosib          3926.187
       185   03 Jun 2027 07:17:40.513   03 Jun 2027 07:18:54.285            73.772              Murmansk1          2305.375
       186   03 Jun 2027 07:53:18.353   03 Jun 2027 07:54:37.225            78.872            RioGallegos          2464.750
       187   03 Jun 2027 07:55:30.152   03 Jun 2027 07:56:39.863            69.711            RioGallegos          2178.469
       188   03 Jun 2027 08:27:31.310   03 Jun 2027 08:27:45.253            13.943                Sumatra           435.719
       189   03 Jun 2027 08:28:16.711   03 Jun 2027 08:29:55.566            98.855                Sumatra          3089.219
       190   03 Jun 2027 08:34:24.076   03 Jun 2027 08:34:49.916            25.840                  Delhi           807.500
       191   03 Jun 2027 08:36:07.174   03 Jun 2027 08:36:16.738             9.564                  Delhi           298.875
       192   03 Jun 2027 08:38:18.124   03 Jun 2027 08:38:57.679            39.555                  Delhi          1236.094
       193   03 Jun 2027 08:42:33.760   03 Jun 2027 08:43:50.881            77.121                  Delhi          2410.031
       194   03 Jun 2027 08:50:35.444   03 Jun 2027 08:53:20.529           165.085                 Moscow          5158.906
       195   03 Jun 2027 08:53:24.166   03 Jun 2027 08:53:54.771            30.605                Novosib           956.406
       196   03 Jun 2027 10:12:59.400   03 Jun 2027 10:15:53.142           173.742                  Delhi          5429.437
       197   03 Jun 2027 10:24:30.949   03 Jun 2027 10:24:50.554            19.605                Novosib           612.656
       198   03 Jun 2027 10:24:53.825   03 Jun 2027 10:26:37.318           103.493              Murmansk2          3234.156
       199   03 Jun 2027 10:26:43.100   03 Jun 2027 10:27:05.466            22.366              Murmansk2           698.938
       200   03 Jun 2027 10:27:05.466   03 Jun 2027 10:27:39.375            33.909              Murmansk1          1059.656
       201   03 Jun 2027 10:27:57.122   03 Jun 2027 10:28:48.383            51.261                 Moscow          1601.906
       202   03 Jun 2027 10:29:22.828   03 Jun 2027 10:29:46.746            23.918              Murmansk2           747.438
       203   03 Jun 2027 10:30:36.422   03 Jun 2027 10:30:51.042            14.620              Murmansk2           456.875
       204   03 Jun 2027 10:30:52.206   03 Jun 2027 10:30:55.369             3.163                 Moscow            98.844
       205   03 Jun 2027 10:33:08.482   03 Jun 2027 10:33:18.406             9.924              Murmansk2           310.125
       206   03 Jun 2027 11:35:20.649   03 Jun 2027 11:37:33.673           133.024               CapeTown          4157.000
       207   03 Jun 2027 11:38:24.699   03 Jun 2027 11:41:14.715           170.016               CapeTown          5313.000
       208   03 Jun 2027 12:13:45.086   03 Jun 2027 12:20:01.609           376.523                Anadyr1         11766.344
       209   03 Jun 2027 12:20:12.354   03 Jun 2027 12:20:56.014            43.660                Anadyr2          1364.375
       210   03 Jun 2027 13:46:06.730   03 Jun 2027 13:46:07.071             0.341              Murmansk1            10.656
       211   03 Jun 2027 13:48:52.379   03 Jun 2027 13:50:19.632            87.253                Anadyr2          2726.656
       212   03 Jun 2027 13:50:57.237   03 Jun 2027 13:52:45.538           108.301                Anadyr1          3384.406
       213   03 Jun 2027 13:54:09.611   03 Jun 2027 13:56:33.769           144.158               Magadan1          4504.938
       214   03 Jun 2027 15:24:43.197   03 Jun 2027 15:25:51.521            68.324                Anadyr1          2135.125
       215   03 Jun 2027 15:26:12.589   03 Jun 2027 15:26:55.265            42.676                Anadyr2          1333.625
       216   03 Jun 2027 15:27:15.526   03 Jun 2027 15:27:21.090             5.564               Magadan1           173.875
       217   03 Jun 2027 15:28:51.996   03 Jun 2027 15:32:57.889           245.893               Magadan2          7684.156
       218   03 Jun 2027 15:35:46.634   03 Jun 2027 15:35:55.610             8.976               Magadan2           280.500
       219   03 Jun 2027 17:00:37.383   03 Jun 2027 17:02:08.618            91.235                Anadyr1          2851.094
       220   03 Jun 2027 17:02:54.919   03 Jun 2027 17:04:07.834            72.915               Magadan2          2278.594
       221   03 Jun 2027 17:04:23.530   03 Jun 2027 17:06:31.686           128.156                Norilsk          4004.875
       222   03 Jun 2027 17:07:00.309   03 Jun 2027 17:07:21.945            21.636                Norilsk           676.125
       223   03 Jun 2027 17:55:06.702   03 Jun 2027 17:58:25.084           198.382            RioGallegos          6199.438
       224   03 Jun 2027 17:59:17.084   03 Jun 2027 18:01:07.069           109.985            RioGallegos          3437.031
       225   03 Jun 2027 18:38:29.532   03 Jun 2027 18:40:07.954            98.422                Norilsk          3075.687
       226   03 Jun 2027 18:40:19.008   03 Jun 2027 18:40:58.168            39.160                Norilsk          1223.750
       227   03 Jun 2027 18:42:30.006   03 Jun 2027 18:42:45.178            15.172                Norilsk           474.125
       228   03 Jun 2027 18:43:41.470   03 Jun 2027 18:44:59.170            77.700                Irkutsk          2428.125
       229   03 Jun 2027 18:46:21.261   03 Jun 2027 18:49:48.079           206.818                Novosib          6463.062
       230   03 Jun 2027 18:57:57.903   03 Jun 2027 18:59:05.968            68.065                Sumatra          2127.031
       231   03 Jun 2027 19:07:04.953   03 Jun 2027 19:08:06.065            61.112                Sumatra          1909.750
       232   03 Jun 2027 20:20:24.611   03 Jun 2027 20:20:48.760            24.149                Novosib           754.656
       233   03 Jun 2027 20:22:13.550   03 Jun 2027 20:22:23.335             9.785                Irkutsk           305.781
       234   03 Jun 2027 20:22:36.365   03 Jun 2027 20:25:08.829           152.464                Novosib          4764.500
       235   03 Jun 2027 20:26:14.358   03 Jun 2027 20:30:02.700           228.342                  Delhi          7135.688
       236   03 Jun 2027 20:31:29.900   03 Jun 2027 20:32:35.552            65.652                  Delhi          2051.625
       237   03 Jun 2027 21:52:48.271   03 Jun 2027 21:58:19.827           331.556              Murmansk1         10361.125
       238   03 Jun 2027 21:58:31.906   03 Jun 2027 22:01:33.582           181.676              Murmansk2          5677.375
       239   03 Jun 2027 22:02:49.314   03 Jun 2027 22:04:17.194            87.880                 Moscow          2746.250
       240   03 Jun 2027 23:31:54.822   03 Jun 2027 23:32:48.653            53.831                 Moscow          1682.219
       241   03 Jun 2027 23:32:58.312   03 Jun 2027 23:34:27.660            89.348              Murmansk1          2792.125
       242   03 Jun 2027 23:56:14.425   03 Jun 2027 23:57:22.002            67.577               CapeTown          2111.781
       243   03 Jun 2027 23:58:05.720   03 Jun 2027 23:58:36.679            30.959               CapeTown           967.469
       244   04 Jun 2027 00:00:04.872   04 Jun 2027 00:00:42.998            38.126               CapeTown          1191.438
       245   04 Jun 2027 00:04:59.549   04 Jun 2027 00:05:36.641            37.092               CapeTown          1159.125
       246   04 Jun 2027 01:04:31.003   04 Jun 2027 01:05:36.135            65.132              Murmansk2          2035.375
       247   04 Jun 2027 01:06:56.654   04 Jun 2027 01:07:51.856            55.202              Murmansk2          1725.063
       248   04 Jun 2027 01:08:06.999   04 Jun 2027 01:08:23.462            16.463                 Moscow           514.469
       249   04 Jun 2027 01:11:55.282   04 Jun 2027 01:12:17.873            22.591                 Moscow           705.969
       250   04 Jun 2027 01:13:00.570   04 Jun 2027 01:13:16.831            16.261                 Moscow           508.156
       251   04 Jun 2027 01:16:33.867   04 Jun 2027 01:17:03.876            30.009                 Moscow           937.781
       252   04 Jun 2027 01:18:25.398   04 Jun 2027 01:19:43.657            78.259                 Moscow          2445.594
       253   04 Jun 2027 02:28:24.070   04 Jun 2027 02:30:50.804           146.734               Magadan1          4585.438
       254   04 Jun 2027 02:31:29.033   04 Jun 2027 02:31:45.126            16.093               Magadan2           502.906
       255   04 Jun 2027 02:32:36.483   04 Jun 2027 02:33:04.572            28.089               Magadan1           877.781
       256   04 Jun 2027 02:34:26.886   04 Jun 2027 02:34:29.391             2.505               Magadan1            78.281
       257   04 Jun 2027 02:35:14.963   04 Jun 2027 02:35:31.972            17.009               Magadan1           531.531
       258   04 Jun 2027 02:36:50.617   04 Jun 2027 02:37:08.005            17.388                Norilsk           543.375
       259   04 Jun 2027 02:38:54.276   04 Jun 2027 02:39:15.809            21.533                Norilsk           672.906
       260   04 Jun 2027 02:40:22.675   04 Jun 2027 02:41:05.579            42.904              Murmansk1          1340.750
       261   04 Jun 2027 02:41:29.288   04 Jun 2027 02:41:33.710             4.422              Murmansk2           138.188
       262   04 Jun 2027 02:43:11.107   04 Jun 2027 02:43:15.947             4.840              Murmansk2           151.250
       263   04 Jun 2027 02:44:10.720   04 Jun 2027 02:44:54.246            43.526                 Moscow          1360.187
       264   04 Jun 2027 02:45:17.667   04 Jun 2027 02:45:26.947             9.280              Murmansk2           290.000
       265   04 Jun 2027 02:45:43.414   04 Jun 2027 02:46:28.796            45.382                 Moscow          1418.188
       266   04 Jun 2027 02:52:14.677   04 Jun 2027 02:53:11.259            56.582                 Moscow          1768.187
       267   04 Jun 2027 03:21:55.822   04 Jun 2027 03:22:51.986            56.164            RioGallegos          1755.125
       268   04 Jun 2027 03:24:12.042   04 Jun 2027 03:24:47.809            35.767            RioGallegos          1117.719
       269   04 Jun 2027 03:26:06.372   04 Jun 2027 03:26:15.990             9.618            RioGallegos           300.563
       270   04 Jun 2027 04:09:27.339   04 Jun 2027 04:09:46.109            18.770               Magadan1           586.563
       271   04 Jun 2027 04:10:13.876   04 Jun 2027 04:10:23.571             9.695                Anadyr1           302.969
       272   04 Jun 2027 04:10:44.551   04 Jun 2027 04:14:36.716           232.165                Anadyr2          7255.156
       273   04 Jun 2027 04:14:39.380   04 Jun 2027 04:15:55.443            76.063                Anadyr1          2376.969
       274   04 Jun 2027 04:53:57.963   04 Jun 2027 04:54:18.297            20.334            RioGallegos           635.438
       275   04 Jun 2027 04:54:30.041   04 Jun 2027 04:55:03.220            33.179            RioGallegos          1036.844
       276   04 Jun 2027 05:46:55.472   04 Jun 2027 05:47:14.913            19.441               Magadan1           607.531
       277   04 Jun 2027 05:47:28.293   04 Jun 2027 05:48:21.382            53.089                Irkutsk          1659.031
       278   04 Jun 2027 05:48:39.660   04 Jun 2027 05:52:34.543           234.883                Irkutsk          7340.094
       279   04 Jun 2027 05:54:03.783   04 Jun 2027 05:54:17.517            13.734                Norilsk           429.188
       280   04 Jun 2027 06:32:01.083   04 Jun 2027 06:32:14.090            13.007            RioGallegos           406.469
       281   04 Jun 2027 07:02:20.004   04 Jun 2027 07:05:09.639           169.635                Sumatra          5301.094
       282   04 Jun 2027 07:13:50.637   04 Jun 2027 07:14:30.453            39.816                  Delhi          1244.250
       283   04 Jun 2027 07:17:25.912   04 Jun 2027 07:19:27.540           121.628                  Delhi          3800.875
       284   04 Jun 2027 07:24:17.413   04 Jun 2027 07:25:31.933            74.520                Irkutsk          2328.750
       285   04 Jun 2027 07:26:08.721   04 Jun 2027 07:28:45.318           156.597                Norilsk          4893.656
       286   04 Jun 2027 07:28:47.138   04 Jun 2027 07:29:41.843            54.705              Murmansk1          1709.531
       287   04 Jun 2027 07:29:41.843   04 Jun 2027 07:30:18.436            36.593              Murmansk2          1143.531
       288   04 Jun 2027 07:30:42.103   04 Jun 2027 07:30:42.429             0.326              Murmansk2            10.188
       289   04 Jun 2027 07:31:57.457   04 Jun 2027 07:32:03.032             5.575              Murmansk2           174.219
       290   04 Jun 2027 08:06:00.358   04 Jun 2027 08:06:46.369            46.011            RioGallegos          1437.844
       291   04 Jun 2027 08:07:42.068   04 Jun 2027 08:07:57.898            15.830            RioGallegos           494.688
       292   04 Jun 2027 08:40:23.682   04 Jun 2027 08:41:28.434            64.752                Sumatra          2023.500
       293   04 Jun 2027 08:46:21.953   04 Jun 2027 08:47:28.978            67.025                  Delhi          2094.531
       294   04 Jun 2027 08:53:39.429   04 Jun 2027 08:54:20.955            41.526                  Delhi          1297.687
       295   04 Jun 2027 09:00:38.554   04 Jun 2027 09:01:01.297            22.743                Norilsk           710.719
       296   04 Jun 2027 09:01:09.169   04 Jun 2027 09:01:16.414             7.245              Murmansk2           226.406
       297   04 Jun 2027 09:01:39.483   04 Jun 2027 09:01:44.903             5.420              Murmansk1           169.375
       298   04 Jun 2027 09:01:54.344   04 Jun 2027 09:02:07.856            13.512                 Moscow           422.250
       299   04 Jun 2027 09:02:10.925   04 Jun 2027 09:02:36.486            25.561                Novosib           798.781
       300   04 Jun 2027 09:02:37.423   04 Jun 2027 09:03:00.191            22.768              Murmansk1           711.500
       301   04 Jun 2027 09:03:04.759   04 Jun 2027 09:03:14.129             9.370                Novosib           292.812
       302   04 Jun 2027 09:03:17.106   04 Jun 2027 09:03:18.968             1.862                Norilsk            58.188
       303   04 Jun 2027 09:03:24.400   04 Jun 2027 09:03:47.221            22.821                 Moscow           713.156
       304   04 Jun 2027 09:03:48.088   04 Jun 2027 09:03:52.296             4.208                Novosib           131.500
       305   04 Jun 2027 09:04:04.569   04 Jun 2027 09:04:35.960            31.391                Novosib           980.969
       306   04 Jun 2027 09:08:32.029   04 Jun 2027 09:08:51.223            19.194              Murmansk2           599.812
       307   04 Jun 2027 09:10:21.800   04 Jun 2027 09:10:23.163             1.363              Murmansk2            42.594
       308   04 Jun 2027 09:10:33.872   04 Jun 2027 09:10:48.541            14.669              Murmansk2           458.406
       309   04 Jun 2027 10:26:23.960   04 Jun 2027 10:28:43.889           139.929                  Delhi          4372.781
       310   04 Jun 2027 10:34:12.162   04 Jun 2027 10:34:42.868            30.706              Murmansk2           959.563
       311   04 Jun 2027 10:34:57.075   04 Jun 2027 10:35:00.498             3.423                 Moscow           106.969
       312   04 Jun 2027 10:35:01.507   04 Jun 2027 10:35:22.967            21.460              Murmansk2           670.625
       313   04 Jun 2027 10:35:22.967   04 Jun 2027 10:35:32.592             9.625              Murmansk1           300.781
       314   04 Jun 2027 10:35:42.584   04 Jun 2027 10:36:38.909            56.325              Murmansk2          1760.156
       315   04 Jun 2027 10:36:43.797   04 Jun 2027 10:37:33.430            49.633              Murmansk1          1551.031
       316   04 Jun 2027 10:37:40.306   04 Jun 2027 10:37:52.754            12.448                Novosib           389.000
       317   04 Jun 2027 10:37:54.080   04 Jun 2027 10:38:18.340            24.260              Murmansk2           758.125
       318   04 Jun 2027 10:38:28.912   04 Jun 2027 10:39:17.163            48.251                 Moscow          1507.844
       319   04 Jun 2027 10:39:31.938   04 Jun 2027 10:40:10.354            38.416                 Moscow          1200.500
       320   04 Jun 2027 10:40:18.891   04 Jun 2027 10:41:28.683            69.792                 Moscow          2181.000
       321   04 Jun 2027 11:46:23.150   04 Jun 2027 11:49:16.029           172.879               CapeTown          5402.469
       322   04 Jun 2027 11:50:29.529   04 Jun 2027 11:54:28.291           238.762               CapeTown          7461.312
       323   04 Jun 2027 12:25:33.501   04 Jun 2027 12:31:29.681           356.180                Anadyr2         11130.625
       324   04 Jun 2027 12:31:40.346   04 Jun 2027 12:33:41.695           121.349                Anadyr1          3792.156
       325   04 Jun 2027 14:00:52.077   04 Jun 2027 14:02:18.553            86.476                Anadyr1          2702.375
       326   04 Jun 2027 14:05:06.059   04 Jun 2027 14:10:15.366           309.307               Magadan2          9665.844
       327   04 Jun 2027 15:39:12.211   04 Jun 2027 15:40:53.160           100.949               Magadan2          3154.656
       328   04 Jun 2027 15:41:39.553   04 Jun 2027 15:43:00.326            80.773               Magadan1          2524.156
       329   04 Jun 2027 15:44:39.770   04 Jun 2027 15:44:42.741             2.971               Magadan1            92.844
       330   04 Jun 2027 15:45:36.383   04 Jun 2027 15:46:11.369            34.986               Magadan2          1093.312
       331   04 Jun 2027 17:12:37.732   04 Jun 2027 17:13:02.716            24.984                Anadyr1           780.750
       332   04 Jun 2027 17:14:31.020   04 Jun 2027 17:14:46.607            15.587                Anadyr1           487.094
       333   04 Jun 2027 17:14:56.331   04 Jun 2027 17:16:40.953           104.622               Magadan1          3269.437
       334   04 Jun 2027 17:19:08.077   04 Jun 2027 17:19:48.639            40.562                Norilsk          1267.563
       335   04 Jun 2027 17:21:42.166   04 Jun 2027 17:25:10.613           208.447                Irkutsk          6513.969
       336   04 Jun 2027 18:09:03.567   04 Jun 2027 18:10:11.978            68.411            RioGallegos          2137.844
       337   04 Jun 2027 18:17:21.965   04 Jun 2027 18:18:12.854            50.889            RioGallegos          1590.281
       338   04 Jun 2027 18:53:18.169   04 Jun 2027 18:54:31.894            73.725                Norilsk          2303.906
       339   04 Jun 2027 18:54:35.030   04 Jun 2027 18:54:51.233            16.203                Irkutsk           506.344
       340   04 Jun 2027 18:55:19.659   04 Jun 2027 18:55:50.490            30.831                Norilsk           963.469
       341   04 Jun 2027 18:56:03.596   04 Jun 2027 19:02:59.404           415.808                Novosib         12994.000
       342   04 Jun 2027 19:11:16.774   04 Jun 2027 19:11:49.480            32.706                Sumatra          1022.062
       343   04 Jun 2027 19:20:11.986   04 Jun 2027 19:20:43.784            31.798                Sumatra           993.688
       344   04 Jun 2027 20:31:59.140   04 Jun 2027 20:32:10.381            11.241                Novosib           351.281
       345   04 Jun 2027 20:32:52.279   04 Jun 2027 20:33:05.797            13.518                Novosib           422.437
       346   04 Jun 2027 20:34:18.898   04 Jun 2027 20:34:41.255            22.357                Novosib           698.656
       347   04 Jun 2027 20:35:50.510   04 Jun 2027 20:35:52.957             2.447                Novosib            76.469
       348   04 Jun 2027 20:36:49.100   04 Jun 2027 20:36:57.388             8.288                Novosib           259.000
       349   04 Jun 2027 20:37:41.194   04 Jun 2027 20:38:17.710            36.516                Novosib          1141.125
       350   04 Jun 2027 20:39:52.800   04 Jun 2027 20:42:25.771           152.971                  Delhi          4780.344
       351   04 Jun 2027 20:47:19.631   04 Jun 2027 20:47:25.781             6.150                  Delhi           192.187
       352   04 Jun 2027 22:02:59.034   04 Jun 2027 22:03:02.765             3.731                Norilsk           116.594
       353   04 Jun 2027 22:04:46.053   04 Jun 2027 22:11:27.430           401.377              Murmansk2         12543.031
       354   04 Jun 2027 22:11:36.809   04 Jun 2027 22:14:07.387           150.578              Murmansk2          4705.562
       355   04 Jun 2027 22:14:38.755   04 Jun 2027 22:16:06.984            88.229                 Moscow          2757.156
       356   04 Jun 2027 22:39:13.680   04 Jun 2027 22:39:54.982            41.302               CapeTown          1290.688
       357   04 Jun 2027 23:41:26.859   04 Jun 2027 23:42:52.872            86.013              Murmansk2          2687.906
       358   04 Jun 2027 23:43:04.991   04 Jun 2027 23:43:15.382            10.391              Murmansk2           324.719
       359   04 Jun 2027 23:43:52.855   04 Jun 2027 23:44:27.304            34.449                 Moscow          1076.531
       360   04 Jun 2027 23:47:23.936   04 Jun 2027 23:48:12.617            48.681                 Moscow          1521.281
       361   05 Jun 2027 00:07:59.531   05 Jun 2027 00:10:14.399           134.868               CapeTown          4214.625
       362   05 Jun 2027 00:10:46.489   05 Jun 2027 00:11:44.666            58.177               CapeTown          1818.031
       363   05 Jun 2027 00:19:24.101   05 Jun 2027 00:19:41.988            17.887               CapeTown           558.969
       364   05 Jun 2027 01:16:32.437   05 Jun 2027 01:17:00.597            28.160              Murmansk2           880.000
       365   05 Jun 2027 01:17:28.367   05 Jun 2027 01:18:50.830            82.463              Murmansk1          2576.969
       366   05 Jun 2027 01:19:48.447   05 Jun 2027 01:20:27.145            38.698                 Moscow          1209.313
       367   05 Jun 2027 01:24:34.932   05 Jun 2027 01:24:42.222             7.290                 Moscow           227.813
       368   05 Jun 2027 01:26:06.457   05 Jun 2027 01:26:24.527            18.070                 Moscow           564.687
       369   05 Jun 2027 01:29:10.790   05 Jun 2027 01:29:25.899            15.109                 Moscow           472.156
       370   05 Jun 2027 01:44:55.825   05 Jun 2027 01:46:02.492            66.667               CapeTown          2083.344
       371   05 Jun 2027 01:48:59.886   05 Jun 2027 01:49:17.480            17.594               CapeTown           549.813
       372   05 Jun 2027 01:54:08.283   05 Jun 2027 01:54:20.870            12.587               CapeTown           393.344
       373   05 Jun 2027 02:40:16.497   05 Jun 2027 02:42:42.377           145.880               Magadan1          4558.750
       374   05 Jun 2027 02:43:06.986   05 Jun 2027 02:43:15.236             8.250               Magadan1           257.813
       375   05 Jun 2027 02:43:49.185   05 Jun 2027 02:44:22.605            33.420               Magadan1          1044.375
       376   05 Jun 2027 02:44:53.568   05 Jun 2027 02:45:00.375             6.807               Magadan1           212.719
       377   05 Jun 2027 02:45:47.479   05 Jun 2027 02:45:54.865             7.386               Magadan2           230.813
       378   05 Jun 2027 02:47:13.305   05 Jun 2027 02:47:34.737            21.432               Magadan1           669.750
       379   05 Jun 2027 02:48:52.230   05 Jun 2027 02:49:28.930            36.700                Norilsk          1146.875
       380   05 Jun 2027 02:52:22.274   05 Jun 2027 02:53:34.770            72.496              Murmansk1          2265.500
       381   05 Jun 2027 02:56:18.742   05 Jun 2027 02:56:58.805            40.063                 Moscow          1251.969
       382   05 Jun 2027 02:59:08.046   05 Jun 2027 02:59:12.814             4.768                 Moscow           149.000
       383   05 Jun 2027 03:32:53.814   05 Jun 2027 03:35:17.760           143.946            RioGallegos          4498.313
       384   05 Jun 2027 03:36:09.872   05 Jun 2027 03:37:42.992            93.120            RioGallegos          2910.000
       385   05 Jun 2027 04:21:23.900   05 Jun 2027 04:25:35.552           251.652               Magadan2          7864.125
       386   05 Jun 2027 04:25:38.363   05 Jun 2027 04:27:56.712           138.349                Anadyr2          4323.406
       387   05 Jun 2027 04:27:57.175   05 Jun 2027 04:27:57.229             0.054                Irkutsk             1.688
       388   05 Jun 2027 04:28:34.855   05 Jun 2027 04:29:05.745            30.890              Murmansk1           965.312
       389   05 Jun 2027 05:04:16.244   05 Jun 2027 05:05:58.940           102.696            RioGallegos          3209.250
       390   05 Jun 2027 05:06:25.083   05 Jun 2027 05:07:43.266            78.183            RioGallegos          2443.219
       391   05 Jun 2027 05:59:22.644   05 Jun 2027 05:59:46.467            23.823                Novosib           744.469
       392   05 Jun 2027 05:59:53.778   05 Jun 2027 06:00:51.379            57.601                Novosib          1800.031
       393   05 Jun 2027 06:00:53.443   05 Jun 2027 06:02:46.072           112.629                Irkutsk          3519.656
       394   05 Jun 2027 06:03:13.494   05 Jun 2027 06:06:17.568           184.074                Norilsk          5752.313
       395   05 Jun 2027 06:06:59.867   05 Jun 2027 06:07:14.430            14.563                Norilsk           455.094
       396   05 Jun 2027 06:39:24.277   05 Jun 2027 06:40:39.858            75.581            RioGallegos          2361.906
       397   05 Jun 2027 06:42:32.025   05 Jun 2027 06:43:35.064            63.039            RioGallegos          1969.969
       398   05 Jun 2027 06:44:33.827   05 Jun 2027 06:44:34.662             0.835            RioGallegos            26.094
       399   05 Jun 2027 07:14:13.524   05 Jun 2027 07:15:15.017            61.493                Sumatra          1921.656
       400   05 Jun 2027 07:16:20.818   05 Jun 2027 07:17:22.979            62.161                Sumatra          1942.531
       401   05 Jun 2027 07:24:56.339   05 Jun 2027 07:26:42.363           106.024                  Delhi          3313.250
       402   05 Jun 2027 07:29:27.424   05 Jun 2027 07:31:24.024           116.600                  Delhi          3643.750
       403   05 Jun 2027 07:35:53.450   05 Jun 2027 07:36:17.232            23.782                Irkutsk           743.187
       404   05 Jun 2027 07:36:38.719   05 Jun 2027 07:37:13.499            34.780              Murmansk2          1086.875
       405   05 Jun 2027 07:37:29.197   05 Jun 2027 07:38:52.888            83.691              Murmansk1          2615.344
       406   05 Jun 2027 07:38:52.888   05 Jun 2027 07:39:10.405            17.517              Murmansk2           547.406
       407   05 Jun 2027 07:39:10.405   05 Jun 2027 07:40:05.405            55.000              Murmansk1          1718.750
       408   05 Jun 2027 07:40:18.401   05 Jun 2027 07:41:43.311            84.910              Murmansk2          2653.438
       409   05 Jun 2027 07:41:43.311   05 Jun 2027 07:42:05.848            22.537              Murmansk1           704.281
       410   05 Jun 2027 07:42:05.848   05 Jun 2027 07:42:26.018            20.170              Murmansk2           630.313
       411   05 Jun 2027 07:45:03.847   05 Jun 2027 07:45:19.116            15.269              Murmansk1           477.156
       412   05 Jun 2027 08:18:52.661   05 Jun 2027 08:20:09.594            76.933            RioGallegos          2404.156
       413   05 Jun 2027 08:53:53.897   05 Jun 2027 08:55:34.803           100.906                Sumatra          3153.313
       414   05 Jun 2027 09:00:02.498   05 Jun 2027 09:00:22.827            20.329                  Delhi           635.281
       415   05 Jun 2027 09:02:12.358   05 Jun 2027 09:03:37.754            85.396                  Delhi          2668.625
       416   05 Jun 2027 09:12:41.116   05 Jun 2027 09:13:43.339            62.223                Novosib          1944.469
       417   05 Jun 2027 09:13:49.443   05 Jun 2027 09:14:09.266            19.823                 Moscow           619.469
       418   05 Jun 2027 09:14:19.372   05 Jun 2027 09:14:55.033            35.661              Murmansk1          1114.406
       419   05 Jun 2027 09:15:06.385   05 Jun 2027 09:15:13.471             7.086              Murmansk2           221.437
       420   05 Jun 2027 09:15:13.916   05 Jun 2027 09:15:38.220            24.304                Novosib           759.500
       421   05 Jun 2027 09:15:40.361   05 Jun 2027 09:15:44.911             4.550                Norilsk           142.188
       422   05 Jun 2027 09:15:55.857   05 Jun 2027 09:16:40.601            44.744                Novosib          1398.250
       423   05 Jun 2027 09:17:45.300   05 Jun 2027 09:18:07.691            22.391                 Moscow           699.719
       424   05 Jun 2027 10:46:13.319   05 Jun 2027 10:46:22.889             9.570              Murmansk1           299.063
       425   05 Jun 2027 10:46:22.889   05 Jun 2027 10:46:28.140             5.251              Murmansk2           164.094
       426   05 Jun 2027 10:46:42.246   05 Jun 2027 10:46:50.287             8.041              Murmansk2           251.281
       427   05 Jun 2027 10:47:16.790   05 Jun 2027 10:48:11.367            54.577                 Moscow          1705.531
       428   05 Jun 2027 10:48:22.242   05 Jun 2027 10:48:24.398             2.156                 Moscow            67.375
       429   05 Jun 2027 10:48:35.630   05 Jun 2027 10:49:21.164            45.534                 Moscow          1422.938
       430   05 Jun 2027 10:49:34.782   05 Jun 2027 10:50:08.577            33.795              Murmansk1          1056.094
       431   05 Jun 2027 10:50:08.577   05 Jun 2027 10:50:43.383            34.806              Murmansk2          1087.688
       432   05 Jun 2027 10:50:48.355   05 Jun 2027 10:51:33.809            45.454              Murmansk2          1420.437
       433   05 Jun 2027 10:51:35.540   05 Jun 2027 10:52:22.599            47.059              Murmansk2          1470.594
       434   05 Jun 2027 10:52:23.153   05 Jun 2027 10:53:21.116            57.963                 Moscow          1811.344
       435   05 Jun 2027 11:57:45.849   05 Jun 2027 12:05:08.673           442.824               CapeTown         13838.250
       436   05 Jun 2027 12:37:25.171   05 Jun 2027 12:46:21.688           536.517                Anadyr2         16766.156
       437   05 Jun 2027 14:16:34.703   05 Jun 2027 14:23:21.821           407.118               Magadan2         12722.438
       438   05 Jun 2027 15:51:09.901   05 Jun 2027 15:52:40.856            90.955               Magadan2          2842.344
       439   05 Jun 2027 15:55:02.381   05 Jun 2027 15:55:27.769            25.388               Magadan2           793.375
       440   05 Jun 2027 15:56:13.420   05 Jun 2027 15:56:37.747            24.327               Magadan2           760.219
       441   05 Jun 2027 17:24:37.768   05 Jun 2027 17:25:01.823            24.055                Anadyr1           751.719
       442   05 Jun 2027 17:26:41.411   05 Jun 2027 17:27:20.051            38.640                Anadyr1          1207.500
       443   05 Jun 2027 17:28:25.738   05 Jun 2027 17:29:25.818            60.080               Magadan2          1877.500
       444   05 Jun 2027 17:30:34.083   05 Jun 2027 17:32:11.157            97.074                Norilsk          3033.563
       445   05 Jun 2027 17:32:39.688   05 Jun 2027 17:38:45.403           365.715                Irkutsk         11428.594
       446   05 Jun 2027 17:49:36.074   05 Jun 2027 17:52:38.662           182.588                Sumatra          5705.875
       447   05 Jun 2027 19:07:38.667   05 Jun 2027 19:15:06.761           448.094                Novosib         14002.938
       448   05 Jun 2027 20:43:56.245   05 Jun 2027 20:44:28.967            32.722              Murmansk1          1022.562
       449   05 Jun 2027 20:49:49.553   05 Jun 2027 20:52:34.377           164.824                  Delhi          5150.750
       450   05 Jun 2027 22:16:44.771   05 Jun 2027 22:18:20.773            96.002              Murmansk1          3000.063
       451   05 Jun 2027 22:19:07.492   05 Jun 2027 22:22:10.098           182.606              Murmansk1          5706.438
       452   05 Jun 2027 22:22:15.873   05 Jun 2027 22:27:13.098           297.225                 Moscow          9288.281
       453   05 Jun 2027 22:48:37.808   05 Jun 2027 22:54:04.156           326.348               CapeTown         10198.375
       454   06 Jun 2027 00:21:46.964   06 Jun 2027 00:21:46.978             0.014               CapeTown             0.437
       455   06 Jun 2027 00:26:53.864   06 Jun 2027 00:27:12.539            18.675               CapeTown           583.594
       456   06 Jun 2027 00:29:20.126   06 Jun 2027 00:29:48.909            28.783               CapeTown           899.469
       457   06 Jun 2027 01:18:46.999   06 Jun 2027 01:18:58.741            11.742               Magadan1           366.937
       458   06 Jun 2027 01:22:46.360   06 Jun 2027 01:23:08.604            22.244               Magadan1           695.125
       459   06 Jun 2027 01:25:20.301   06 Jun 2027 01:25:49.846            29.545               Magadan2           923.281
       460   06 Jun 2027 01:28:33.744   06 Jun 2027 01:28:43.411             9.667              Murmansk1           302.094
       461   06 Jun 2027 01:28:43.411   06 Jun 2027 01:29:39.519            56.108              Murmansk2          1753.375
       462   06 Jun 2027 01:30:43.897   06 Jun 2027 01:31:48.206            64.309              Murmansk2          2009.656
       463   06 Jun 2027 01:31:55.297   06 Jun 2027 01:32:25.350            30.053                 Moscow           939.156
       464   06 Jun 2027 01:36:46.850   06 Jun 2027 01:37:05.251            18.401                 Moscow           575.031
       465   06 Jun 2027 01:41:18.558   06 Jun 2027 01:41:29.988            11.430                 Moscow           357.188
       466   06 Jun 2027 01:42:59.793   06 Jun 2027 01:43:46.592            46.799                 Moscow          1462.469
       467   06 Jun 2027 01:57:40.345   06 Jun 2027 01:58:51.466            71.121               CapeTown          2222.531
       468   06 Jun 2027 02:52:11.153   06 Jun 2027 02:54:17.827           126.674               Magadan1          3958.562
       469   06 Jun 2027 02:54:42.367   06 Jun 2027 02:54:46.528             4.161               Magadan2           130.031
       470   06 Jun 2027 02:55:23.823   06 Jun 2027 02:55:49.129            25.306               Magadan2           790.812
       471   06 Jun 2027 02:56:25.296   06 Jun 2027 02:57:13.991            48.695               Magadan1          1521.719
       472   06 Jun 2027 03:00:12.515   06 Jun 2027 03:00:26.549            14.034                Anadyr1           438.562
       473   06 Jun 2027 03:00:26.676   06 Jun 2027 03:01:43.062            76.386               Magadan1          2387.063
       474   06 Jun 2027 03:01:53.191   06 Jun 2027 03:03:47.218           114.027               Magadan1          3563.344
       475   06 Jun 2027 03:04:02.319   06 Jun 2027 03:04:35.154            32.835                Anadyr1          1026.094
       476   06 Jun 2027 04:32:49.751   06 Jun 2027 04:33:42.655            52.904                Irkutsk          1653.250
       477   06 Jun 2027 04:33:50.778   06 Jun 2027 04:35:22.636            91.858               Magadan2          2870.563
       478   06 Jun 2027 04:35:32.058   06 Jun 2027 04:35:55.659            23.601                Norilsk           737.531
       479   06 Jun 2027 04:36:07.957   06 Jun 2027 04:40:14.977           247.020                Anadyr1          7719.375
       480   06 Jun 2027 04:40:31.158   06 Jun 2027 04:41:04.284            33.126                Norilsk          1035.188
       481   06 Jun 2027 05:16:00.371   06 Jun 2027 05:19:50.900           230.529            RioGallegos          7204.031
       482   06 Jun 2027 05:54:24.135   06 Jun 2027 05:55:44.730            80.595                Sumatra          2518.594
