uniorb/output/strategy_1/Drop/Drop_KinoSat_110310.txt

KinoSat_110310
-------------------------
    Access    *     Start Time (UTCG)     *     Stop Time (UTCG)  *   Duration (s)        *       Station  *  Data (Mbytes)
         1   01 Jun 2027 03:08:17.626   01 Jun 2027 03:08:41.859            24.233                Irkutsk          3029.125
         2   01 Jun 2027 03:08:56.296   01 Jun 2027 03:11:07.687           131.391               Magadan1         16423.875
         3   01 Jun 2027 03:11:13.181   01 Jun 2027 03:11:17.700             4.519               Magadan1           564.875
         4   01 Jun 2027 03:11:34.269   01 Jun 2027 03:13:02.893            88.624                Anadyr1         11078.000
         5   01 Jun 2027 03:13:27.124   01 Jun 2027 03:13:52.608            25.484                Anadyr2          3185.500
         6   01 Jun 2027 03:14:13.261   01 Jun 2027 03:15:41.686            88.425               Magadan2         11053.125
         7   01 Jun 2027 04:27:07.496   01 Jun 2027 04:30:18.740           191.244                Sumatra         23905.500
         8   01 Jun 2027 04:47:05.873   01 Jun 2027 04:47:15.917            10.044                Irkutsk          1255.500
         9   01 Jun 2027 04:48:04.355   01 Jun 2027 04:48:54.442            50.087                Norilsk          6260.875
        10   01 Jun 2027 04:48:58.277   01 Jun 2027 04:50:13.539            75.262              Murmansk2          9407.750
        11   01 Jun 2027 04:50:17.395   01 Jun 2027 04:50:24.695             7.300              Murmansk2           912.500
        12   01 Jun 2027 04:50:40.111   01 Jun 2027 04:51:29.991            49.880              Murmansk2          6235.000
        13   01 Jun 2027 04:51:32.817   01 Jun 2027 04:51:48.191            15.374                Irkutsk          1921.750
        14   01 Jun 2027 04:53:24.236   01 Jun 2027 04:53:28.088             3.852                Norilsk           481.500
        15   01 Jun 2027 05:27:13.310   01 Jun 2027 05:28:52.569            99.259            RioGallegos         12407.375
        16   01 Jun 2027 06:12:23.107   01 Jun 2027 06:14:19.756           116.649                  Delhi         14581.125
        17   01 Jun 2027 06:24:23.580   01 Jun 2027 06:24:35.817            12.237                Irkutsk          1529.625
        18   01 Jun 2027 06:24:38.937   01 Jun 2027 06:24:40.637             1.700                 Moscow           212.500
        19   01 Jun 2027 06:24:48.567   01 Jun 2027 06:25:24.808            36.241                Norilsk          4530.125
        20   01 Jun 2027 06:25:28.257   01 Jun 2027 06:25:42.047            13.790              Murmansk2          1723.750
        21   01 Jun 2027 06:25:50.110   01 Jun 2027 06:26:34.297            44.187                 Moscow          5523.375
        22   01 Jun 2027 06:26:37.166   01 Jun 2027 06:26:58.133            20.967                Novosib          2620.875
        23   01 Jun 2027 06:28:38.708   01 Jun 2027 06:28:43.851             5.143                 Moscow           642.875
        24   01 Jun 2027 07:46:16.485   01 Jun 2027 07:47:51.076            94.591                  Delhi         11823.875
        25   01 Jun 2027 08:01:13.545   01 Jun 2027 08:02:37.367            83.822                Novosib         10477.750
        26   01 Jun 2027 08:02:48.234   01 Jun 2027 08:03:14.188            25.954              Murmansk1          3244.250
        27   01 Jun 2027 09:50:29.826   01 Jun 2027 09:52:29.949           120.123                Anadyr2         15015.375
        28   01 Jun 2027 10:46:02.133   01 Jun 2027 10:48:09.865           127.732               CapeTown         15966.500
        29   01 Jun 2027 10:49:26.494   01 Jun 2027 10:49:39.989            13.495               CapeTown          1686.875
        30   01 Jun 2027 11:24:14.059   01 Jun 2027 11:25:40.993            86.934                Anadyr1         10866.750
        31   01 Jun 2027 11:27:05.589   01 Jun 2027 11:29:26.727           141.138                Anadyr2         17642.250
        32   01 Jun 2027 11:33:38.028   01 Jun 2027 11:33:46.862             8.834                Anadyr1          1104.250
        33   01 Jun 2027 13:02:50.544   01 Jun 2027 13:08:30.890           340.346               Magadan1         42543.250
        34   01 Jun 2027 15:31:17.812   01 Jun 2027 15:34:54.933           217.121            RioGallegos         27140.125
        35   01 Jun 2027 16:20:36.250   01 Jun 2027 16:22:33.216           116.966                Irkutsk         14620.750
        36   01 Jun 2027 16:32:48.203   01 Jun 2027 16:34:24.040            95.837                Sumatra         11979.625
        37   01 Jun 2027 16:39:13.830   01 Jun 2027 16:40:48.173            94.343                Sumatra         11792.875
        38   01 Jun 2027 17:56:45.814   01 Jun 2027 17:57:58.997            73.183                Novosib          9147.875
        39   01 Jun 2027 18:01:02.202   01 Jun 2027 18:03:05.322           123.120                Novosib         15390.000
        40   01 Jun 2027 18:04:02.091   01 Jun 2027 18:05:58.583           116.492                  Delhi         14561.500
        41   01 Jun 2027 21:08:49.350   01 Jun 2027 21:10:08.278            78.928                 Moscow          9866.000
        42   01 Jun 2027 21:32:47.049   01 Jun 2027 21:33:04.276            17.227               CapeTown          2088.625
        43   02 Jun 2027 03:26:08.077   02 Jun 2027 03:26:15.942             7.865               Magadan1           983.125
        44   02 Jun 2027 03:26:32.537   02 Jun 2027 03:27:36.199            63.662               Magadan1          7957.750
        45   02 Jun 2027 04:41:13.384   02 Jun 2027 04:42:11.735            58.351                Sumatra          7293.875
        46   02 Jun 2027 05:00:05.260   02 Jun 2027 05:00:40.162            34.902                Norilsk          4362.750
        47   02 Jun 2027 05:00:55.274   02 Jun 2027 05:01:01.750             6.476                Norilsk           809.500
        48   02 Jun 2027 05:01:10.049   02 Jun 2027 05:01:38.094            28.045              Murmansk2          3505.625
        49   02 Jun 2027 05:01:38.094   02 Jun 2027 05:01:57.990            19.896              Murmansk1          2487.000
        50   02 Jun 2027 05:02:08.039   02 Jun 2027 05:02:38.459            30.420                Novosib          3802.500
        51   02 Jun 2027 05:02:41.700   02 Jun 2027 05:03:02.109            20.409                Novosib          2551.125
        52   02 Jun 2027 05:03:09.885   02 Jun 2027 05:03:48.700            38.815                Irkutsk          4851.875
        53   02 Jun 2027 05:04:07.552   02 Jun 2027 05:04:09.001             1.449                Norilsk           181.125
        54   02 Jun 2027 05:05:34.529   02 Jun 2027 05:05:42.586             8.057              Murmansk2          1007.125
        55   02 Jun 2027 05:06:46.602   02 Jun 2027 05:07:24.545            37.943                Norilsk          4742.875
        56   02 Jun 2027 05:39:37.076   02 Jun 2027 05:40:34.329            57.253            RioGallegos          7156.625
        57   02 Jun 2027 06:13:51.199   02 Jun 2027 06:14:10.992            19.793                Sumatra          2474.125
        58   02 Jun 2027 06:15:54.190   02 Jun 2027 06:16:32.785            38.595                Sumatra          4824.375
        59   02 Jun 2027 06:18:03.610   02 Jun 2027 06:18:17.371            13.761                Sumatra          1720.125
        60   02 Jun 2027 06:21:59.784   02 Jun 2027 06:22:19.861            20.077                  Delhi          2509.625
        61   02 Jun 2027 06:28:48.201   02 Jun 2027 06:29:32.036            43.835                  Delhi          5479.375
        62   02 Jun 2027 06:37:07.158   02 Jun 2027 06:37:41.760            34.602                Irkutsk          4325.250
        63   02 Jun 2027 06:37:48.691   02 Jun 2027 06:37:57.348             8.657                Novosib          1082.125
        64   02 Jun 2027 06:38:05.390   02 Jun 2027 06:38:15.530            10.140              Murmansk1          1267.500
        65   02 Jun 2027 06:38:17.616   02 Jun 2027 06:38:48.121            30.505                Irkutsk          3813.125
        66   02 Jun 2027 06:38:54.045   02 Jun 2027 06:39:50.164            56.119              Murmansk2          7014.875
        67   02 Jun 2027 07:58:47.256   02 Jun 2027 08:00:35.047           107.791                  Delhi         13473.875
        68   02 Jun 2027 08:12:57.180   02 Jun 2027 08:13:59.861            62.681                 Moscow          7835.125
        69   02 Jun 2027 08:14:51.125   02 Jun 2027 08:15:15.663            24.538                Novosib          3067.250
        70   02 Jun 2027 08:15:35.242   02 Jun 2027 08:16:02.177            26.935                 Moscow          3366.875
        71   02 Jun 2027 10:57:56.927   02 Jun 2027 10:59:06.425            69.498               CapeTown          8687.250
        72   02 Jun 2027 11:36:11.979   02 Jun 2027 11:37:23.434            71.455                Anadyr2          8931.875
        73   02 Jun 2027 11:37:33.389   02 Jun 2027 11:40:49.935           196.546                Anadyr1         24568.250
        74   02 Jun 2027 11:41:10.157   02 Jun 2027 11:41:21.240            11.083                Anadyr1          1385.375
        75   02 Jun 2027 13:14:42.768   02 Jun 2027 13:19:07.855           265.087               Magadan2         33135.875
        76   02 Jun 2027 13:19:50.300   02 Jun 2027 13:21:30.856           100.556               Magadan1         12569.500
        77   02 Jun 2027 15:42:53.441   02 Jun 2027 15:46:46.997           233.556            RioGallegos         29194.500
        78   02 Jun 2027 16:32:53.183   02 Jun 2027 16:34:29.397            96.214                Irkutsk         12026.750
        79   02 Jun 2027 16:45:44.986   02 Jun 2027 16:46:11.735            26.749                Sumatra          3343.625
        80   02 Jun 2027 16:48:10.364   02 Jun 2027 16:51:17.670           187.306                Sumatra         23413.250
        81   02 Jun 2027 18:14:16.200   02 Jun 2027 18:17:48.143           211.943                  Delhi         26492.875
        82   02 Jun 2027 19:47:43.265   02 Jun 2027 19:48:06.297            23.032                 Moscow          2879.000
        83   02 Jun 2027 21:18:27.052   02 Jun 2027 21:18:36.522             9.470              Murmansk1          1183.750
        84   02 Jun 2027 21:19:19.123   02 Jun 2027 21:21:14.873           115.750                 Moscow         14468.750
        85   02 Jun 2027 21:44:14.677   02 Jun 2027 21:45:26.383            71.706               CapeTown          8963.250
        86   02 Jun 2027 21:49:02.604   02 Jun 2027 21:50:50.581           107.977               CapeTown         13497.125
        87   03 Jun 2027 03:46:27.689   03 Jun 2027 03:47:15.591            47.902              Murmansk2          5987.750
        88   03 Jun 2027 04:50:05.963   03 Jun 2027 04:54:10.385           244.422                Sumatra         30552.750
        89   03 Jun 2027 05:04:34.295   03 Jun 2027 05:05:54.344            80.049                  Delhi         10006.125
        90   03 Jun 2027 05:12:37.033   03 Jun 2027 05:12:46.478             9.445                Norilsk          1180.625
        91   03 Jun 2027 05:12:48.572   03 Jun 2027 05:12:50.147             1.575                Norilsk           196.875
        92   03 Jun 2027 05:12:52.436   03 Jun 2027 05:13:02.550            10.114                Norilsk          1264.250
        93   03 Jun 2027 05:13:03.105   03 Jun 2027 05:13:13.377            10.272              Murmansk2          1284.000
        94   03 Jun 2027 05:13:23.509   03 Jun 2027 05:14:56.792            93.283                Irkutsk         11660.375
        95   03 Jun 2027 05:16:12.066   03 Jun 2027 05:17:00.175            48.109                Novosib          6013.625
        96   03 Jun 2027 05:52:06.176   03 Jun 2027 05:52:19.324            13.148            RioGallegos          1643.500
        97   03 Jun 2027 06:26:17.694   03 Jun 2027 06:27:30.436            72.742                Sumatra          9092.750
        98   03 Jun 2027 06:33:47.742   03 Jun 2027 06:34:49.564            61.822                  Delhi          7727.750
        99   03 Jun 2027 06:41:10.283   03 Jun 2027 06:41:28.314            18.031                  Delhi          2253.875
       100   03 Jun 2027 06:49:16.845   03 Jun 2027 06:49:51.572            34.727                 Moscow          4340.875
       101   03 Jun 2027 06:50:09.709   03 Jun 2027 06:50:41.156            31.447              Murmansk2          3930.875
       102   03 Jun 2027 06:50:43.534   03 Jun 2027 06:52:49.505           125.971                Novosib         15746.375
       103   03 Jun 2027 08:25:28.764   03 Jun 2027 08:26:12.657            43.893                 Moscow          5486.625
       104   03 Jun 2027 08:26:27.842   03 Jun 2027 08:26:52.411            24.569                Norilsk          3071.125
       105   03 Jun 2027 08:26:58.215   03 Jun 2027 08:27:21.680            23.465              Murmansk2          2933.125
       106   03 Jun 2027 08:27:35.728   03 Jun 2027 08:28:21.736            46.008              Murmansk2          5751.000
       107   03 Jun 2027 08:28:25.569   03 Jun 2027 08:29:47.503            81.934                 Moscow         10241.750
       108   03 Jun 2027 09:36:21.065   03 Jun 2027 09:37:19.297            58.232               CapeTown          7279.000
       109   03 Jun 2027 10:15:52.815   03 Jun 2027 10:19:01.618           188.803                Anadyr1         23600.375
       110   03 Jun 2027 11:48:10.652   03 Jun 2027 11:49:11.367            60.715                Anadyr2          7589.375
       111   03 Jun 2027 11:49:41.312   03 Jun 2027 11:51:21.111            99.799                Anadyr1         12474.875
       112   03 Jun 2027 11:52:50.387   03 Jun 2027 11:53:43.351            52.964                Anadyr1          6620.500
       113   03 Jun 2027 13:26:36.927   03 Jun 2027 13:31:06.338           269.411               Magadan1         33676.375
       114   03 Jun 2027 15:54:35.787   03 Jun 2027 16:00:46.370           370.583            RioGallegos         46322.875
       115   03 Jun 2027 16:43:30.878   03 Jun 2027 16:44:56.024            85.146                Irkutsk         10643.250
       116   03 Jun 2027 16:45:15.113   03 Jun 2027 16:46:22.601            67.488                Novosib          8436.000
       117   03 Jun 2027 16:58:09.180   03 Jun 2027 17:00:11.804           122.624                Sumatra         15328.000
       118   03 Jun 2027 18:25:49.125   03 Jun 2027 18:27:58.348           129.223                  Delhi         16152.875
       119   03 Jun 2027 18:28:27.365   03 Jun 2027 18:29:41.733            74.368                  Delhi          9296.000
       120   03 Jun 2027 18:34:35.762   03 Jun 2027 18:35:07.498            31.736                  Delhi          3967.000
       121   03 Jun 2027 19:58:15.180   03 Jun 2027 19:59:24.462            69.282              Murmansk2          8660.250
       122   03 Jun 2027 20:00:28.534   03 Jun 2027 20:00:39.920            11.386                 Moscow          1423.250
       123   03 Jun 2027 21:33:36.063   03 Jun 2027 21:34:20.135            44.072                 Moscow          5509.000
       124   03 Jun 2027 21:42:41.084   03 Jun 2027 21:43:24.683            43.599                 Moscow          5449.875
       125   03 Jun 2027 21:55:49.146   03 Jun 2027 21:57:43.210           114.064               CapeTown         14258.000
       126   04 Jun 2027 03:49:24.345   04 Jun 2027 03:49:48.667            24.322               Magadan2          3040.250
       127   04 Jun 2027 03:50:13.512   04 Jun 2027 03:50:34.991            21.479               Magadan1          2684.875
       128   04 Jun 2027 03:50:53.909   04 Jun 2027 03:51:28.863            34.954                Irkutsk          4369.250
       129   04 Jun 2027 04:27:54.975   04 Jun 2027 04:28:08.863            13.888            RioGallegos          1736.000
       130   04 Jun 2027 04:28:18.210   04 Jun 2027 04:29:49.841            91.631            RioGallegos         11453.875
       131   04 Jun 2027 05:01:47.889   04 Jun 2027 05:03:40.378           112.489                Sumatra         14061.125
       132   04 Jun 2027 05:04:18.261   04 Jun 2027 05:06:14.636           116.375                Sumatra         14546.875
       133   04 Jun 2027 05:24:15.677   04 Jun 2027 05:24:34.571            18.894                Novosib          2361.750
       134   04 Jun 2027 05:24:43.773   04 Jun 2027 05:25:57.272            73.499                Novosib          9187.375
       135   04 Jun 2027 05:26:19.146   04 Jun 2027 05:27:09.749            50.603              Murmansk2          6325.375
       136   04 Jun 2027 05:27:24.282   04 Jun 2027 05:28:11.969            47.687              Murmansk1          5960.875
       137   04 Jun 2027 05:29:16.653   04 Jun 2027 05:29:29.934            13.281                Norilsk          1660.125
       138   04 Jun 2027 05:30:03.533   04 Jun 2027 05:30:07.608             4.075              Murmansk2           509.375
       139   04 Jun 2027 05:30:17.020   04 Jun 2027 05:30:55.390            38.370              Murmansk1          4796.250
       140   04 Jun 2027 06:38:55.384   04 Jun 2027 06:40:56.010           120.626                Sumatra         15078.250
       141   04 Jun 2027 06:45:41.109   04 Jun 2027 06:47:29.750           108.641                  Delhi         13580.125
       142   04 Jun 2027 07:02:20.032   04 Jun 2027 07:02:40.062            20.030              Murmansk2          2503.750
       143   04 Jun 2027 07:02:46.649   04 Jun 2027 07:03:13.003            26.354                Norilsk          3294.250
       144   04 Jun 2027 08:24:26.928   04 Jun 2027 08:25:28.082            61.154                  Delhi          7644.250
       145   04 Jun 2027 08:30:19.855   04 Jun 2027 08:30:27.856             8.001                  Delhi          1000.125
       146   04 Jun 2027 08:35:39.347   04 Jun 2027 08:35:57.556            18.209                Novosib          2276.125
       147   04 Jun 2027 08:36:02.389   04 Jun 2027 08:38:06.249           123.860                 Moscow         15482.500
       148   04 Jun 2027 08:38:31.280   04 Jun 2027 08:38:38.303             7.023              Murmansk1           877.875
       149   04 Jun 2027 08:38:44.048   04 Jun 2027 08:39:10.979            26.931                Norilsk          3366.375
       150   04 Jun 2027 08:39:24.189   04 Jun 2027 08:40:10.996            46.807              Murmansk1          5850.875
       151   04 Jun 2027 09:46:27.749   04 Jun 2027 09:48:59.483           151.734               CapeTown         18966.750
       152   04 Jun 2027 10:25:00.670   04 Jun 2027 10:27:41.790           161.120                Anadyr2         20140.000
       153   04 Jun 2027 11:29:04.273   04 Jun 2027 11:29:09.953             5.680               CapeTown           710.000
       154   04 Jun 2027 12:00:09.932   04 Jun 2027 12:01:02.713            52.781                Anadyr2          6597.625
       155   04 Jun 2027 12:02:55.030   04 Jun 2027 12:04:51.106           116.076                Anadyr2         14509.500
       156   04 Jun 2027 12:05:12.437   04 Jun 2027 12:06:36.555            84.118               Magadan2         10514.750
       157   04 Jun 2027 13:38:32.588   04 Jun 2027 13:40:13.301           100.713               Magadan2         12589.125
       158   04 Jun 2027 13:40:13.301   04 Jun 2027 13:40:14.351             1.050               Magadan1           131.250
       159   04 Jun 2027 13:41:36.675   04 Jun 2027 13:43:48.495           131.820               Magadan2         16477.500
       160   04 Jun 2027 16:06:22.612   04 Jun 2027 16:12:13.233           350.621            RioGallegos         43827.625
       161   04 Jun 2027 16:53:57.074   04 Jun 2027 16:55:56.637           119.563                Irkutsk         14945.375
       162   04 Jun 2027 16:59:06.130   04 Jun 2027 17:01:17.898           131.768                Novosib         16471.000
       163   04 Jun 2027 17:07:41.359   04 Jun 2027 17:09:25.787           104.428                Sumatra         13053.500
       164   04 Jun 2027 18:29:43.521   04 Jun 2027 18:31:17.828            94.307                Novosib         11788.375
       165   04 Jun 2027 18:37:29.516   04 Jun 2027 18:39:48.480           138.964                  Delhi         17370.500
       166   04 Jun 2027 18:46:46.277   04 Jun 2027 18:46:52.485             6.208                  Delhi           776.000
       167   04 Jun 2027 20:08:56.339   04 Jun 2027 20:09:40.423            44.084                 Moscow          5510.500
       168   04 Jun 2027 20:13:06.235   04 Jun 2027 20:15:44.214           157.979                 Moscow         19747.375
       169   04 Jun 2027 21:51:07.966   04 Jun 2027 21:52:43.586            95.620                 Moscow         11952.500
       170   04 Jun 2027 22:09:54.288   04 Jun 2027 22:11:42.887           108.599               CapeTown         13574.875
       171   05 Jun 2027 04:01:34.440   05 Jun 2027 04:02:28.184            53.744                Irkutsk          6718.000
       172   05 Jun 2027 04:02:28.671   05 Jun 2027 04:02:36.369             7.698               Magadan1           962.250
       173   05 Jun 2027 04:02:36.369   05 Jun 2027 04:02:40.856             4.487               Magadan2           560.875
       174   05 Jun 2027 04:03:37.976   05 Jun 2027 04:04:24.409            46.433                Norilsk          5804.125
       175   05 Jun 2027 04:05:06.888   05 Jun 2027 04:05:28.276            21.388              Murmansk2          2673.500
       176   05 Jun 2027 04:07:27.693   05 Jun 2027 04:07:56.837            29.144              Murmansk1          3643.000
       177   05 Jun 2027 04:39:15.325   05 Jun 2027 04:39:38.728            23.403            RioGallegos          2925.375
       178   05 Jun 2027 04:40:43.485   05 Jun 2027 04:41:06.995            23.510            RioGallegos          2938.750
       179   05 Jun 2027 04:41:50.219   05 Jun 2027 04:42:54.594            64.375            RioGallegos          8046.875
       180   05 Jun 2027 04:50:30.023   05 Jun 2027 04:50:50.991            20.968            RioGallegos          2621.000
       181   05 Jun 2027 05:13:36.363   05 Jun 2027 05:14:56.855            80.492                Sumatra         10061.500
       182   05 Jun 2027 05:24:09.291   05 Jun 2027 05:25:11.803            62.512                Sumatra          7814.000
       183   05 Jun 2027 05:29:14.472   05 Jun 2027 05:31:20.778           126.306                  Delhi         15788.250
       184   05 Jun 2027 05:37:05.488   05 Jun 2027 05:39:24.266           138.778                Irkutsk         17347.250
       185   05 Jun 2027 06:51:51.213   05 Jun 2027 06:52:14.397            23.184                Sumatra          2898.000
       186   05 Jun 2027 06:57:39.763   05 Jun 2027 06:59:05.901            86.138                  Delhi         10767.250
       187   05 Jun 2027 07:07:17.042   05 Jun 2027 07:07:23.245             6.203                  Delhi           775.375
       188   05 Jun 2027 07:13:50.285   05 Jun 2027 07:14:15.723            25.438              Murmansk2          3179.750
       189   05 Jun 2027 07:14:29.029   05 Jun 2027 07:14:54.649            25.620                Novosib          3202.500
       190   05 Jun 2027 07:14:56.110   05 Jun 2027 07:15:53.776            57.666                 Moscow          7208.250
       191   05 Jun 2027 07:16:13.620   05 Jun 2027 07:17:01.409            47.789                Novosib          5973.625
       192   05 Jun 2027 08:45:15.384   05 Jun 2027 08:45:30.401            15.017                 Moscow          1877.125
       193   05 Jun 2027 08:45:47.596   05 Jun 2027 08:48:34.041           166.445                 Moscow         20805.625
       194   05 Jun 2027 08:48:51.289   05 Jun 2027 08:49:30.539            39.250              Murmansk1          4906.250
       195   05 Jun 2027 08:49:45.184   05 Jun 2027 08:51:03.433            78.249                Norilsk          9781.125
       196   05 Jun 2027 08:51:42.230   05 Jun 2027 08:52:50.536            68.306                 Moscow          8538.250
       197   05 Jun 2027 09:57:34.373   05 Jun 2027 10:00:45.111           190.738               CapeTown         23842.250
       198   05 Jun 2027 10:39:25.554   05 Jun 2027 10:41:09.486           103.932                Anadyr2         12991.500
       199   05 Jun 2027 12:12:09.708   05 Jun 2027 12:12:27.004            17.296                Anadyr2          2162.000
       200   05 Jun 2027 12:14:35.828   05 Jun 2027 12:15:39.334            63.506                Anadyr2          7938.250
       201   05 Jun 2027 12:15:52.361   05 Jun 2027 12:16:52.050            59.689                Anadyr1          7461.125
       202   05 Jun 2027 12:19:26.533   05 Jun 2027 12:19:47.436            20.903               Magadan1          2612.875
       203   05 Jun 2027 12:20:39.434   05 Jun 2027 12:21:44.150            64.716               Magadan1          8089.500
       204   05 Jun 2027 13:50:29.449   05 Jun 2027 13:51:52.919            83.470               Magadan2         10433.750
       205   05 Jun 2027 13:52:35.880   05 Jun 2027 13:55:05.313           149.433               Magadan1         18679.125
       206   05 Jun 2027 15:32:46.711   05 Jun 2027 15:36:46.295           239.584                Irkutsk         29948.000
       207   05 Jun 2027 16:19:38.413   05 Jun 2027 16:21:03.196            84.783            RioGallegos         10597.875
       208   05 Jun 2027 17:05:52.037   05 Jun 2027 17:07:45.043           113.006                Irkutsk         14125.750
       209   05 Jun 2027 17:10:56.613   05 Jun 2027 17:14:25.953           209.340                Novosib         26167.500
       210   05 Jun 2027 17:20:48.496   05 Jun 2027 17:21:20.632            32.136                Sumatra          4017.000
       211   05 Jun 2027 17:22:35.519   05 Jun 2027 17:23:24.120            48.601                Sumatra          6075.125
       212   05 Jun 2027 17:31:45.710   05 Jun 2027 17:32:02.739            17.029                Sumatra          2128.625
       213   05 Jun 2027 18:44:44.104   05 Jun 2027 18:46:19.309            95.205                Novosib         11900.625
       214   05 Jun 2027 18:49:15.530   05 Jun 2027 18:53:39.441           263.911                  Delhi         32988.875
       215   05 Jun 2027 20:21:58.174   05 Jun 2027 20:24:21.178           143.004                 Moscow         17875.500
       216   05 Jun 2027 22:19:15.474   05 Jun 2027 22:19:50.229            34.755               CapeTown          4344.375
       217   05 Jun 2027 22:21:42.730   05 Jun 2027 22:23:08.479            85.749               CapeTown         10718.625
       218   06 Jun 2027 04:13:56.353   06 Jun 2027 04:14:27.099            30.746               Magadan2          3843.250
       219   06 Jun 2027 04:14:38.283   06 Jun 2027 04:14:48.018             9.735               Magadan1          1216.875
       220   06 Jun 2027 04:15:02.608   06 Jun 2027 04:15:48.183            45.575                Novosib          5696.875
       221   06 Jun 2027 04:15:51.248   06 Jun 2027 04:15:56.480             5.232                Irkutsk           654.000
       222   06 Jun 2027 04:18:46.881   06 Jun 2027 04:18:54.526             7.645              Murmansk1           955.625
       223   06 Jun 2027 04:18:56.741   06 Jun 2027 04:19:29.426            32.685              Murmansk1          4085.625
       224   06 Jun 2027 04:19:57.980   06 Jun 2027 04:20:14.523            16.543              Murmansk2          2067.875
       225   06 Jun 2027 04:50:43.253   06 Jun 2027 04:50:51.697             8.444            RioGallegos          1055.500
       226   06 Jun 2027 04:51:25.680   06 Jun 2027 04:52:04.874            39.194            RioGallegos          4899.250
       227   06 Jun 2027 05:25:30.730   06 Jun 2027 05:27:49.972           139.242                Sumatra         17405.250
       228   06 Jun 2027 05:36:07.279   06 Jun 2027 05:36:59.011            51.732                  Delhi          6466.500
       229   06 Jun 2027 05:41:28.294   06 Jun 2027 05:43:23.077           114.783                  Delhi         14347.875
       230   06 Jun 2027 05:49:03.757   06 Jun 2027 05:49:38.362            34.605                Irkutsk          4325.625
       231   06 Jun 2027 05:49:49.331   06 Jun 2027 05:50:10.931            21.600                Novosib          2700.000
       232   06 Jun 2027 05:50:20.686   06 Jun 2027 05:50:55.313            34.627                Norilsk          4328.375
       233   06 Jun 2027 05:51:03.539   06 Jun 2027 05:51:40.046            36.507                Irkutsk          4563.375
       234   06 Jun 2027 05:51:44.868   06 Jun 2027 05:52:04.284            19.416                Norilsk          2427.000
       235   06 Jun 2027 05:52:31.393   06 Jun 2027 05:52:33.123             1.730                Novosib           216.250
       236   06 Jun 2027 06:31:45.919   06 Jun 2027 06:32:09.170            23.251            RioGallegos          2906.375
       237   06 Jun 2027 07:05:33.517   06 Jun 2027 07:07:07.634            94.117                Sumatra         11764.625
       238   06 Jun 2027 07:16:52.717   06 Jun 2027 07:17:46.939            54.222                  Delhi          6777.750
       239   06 Jun 2027 07:25:46.581   06 Jun 2027 07:26:03.400            16.819              Murmansk2          2102.375
       240   06 Jun 2027 07:26:05.867   06 Jun 2027 07:26:24.373            18.506                 Moscow          2313.250
       241   06 Jun 2027 07:26:30.047   06 Jun 2027 07:27:49.265            79.218                 Moscow          9902.250
       242   06 Jun 2027 08:57:23.556   06 Jun 2027 08:57:35.641            12.085                 Moscow          1510.625
       243   06 Jun 2027 08:57:42.675   06 Jun 2027 08:58:55.645            72.970                 Moscow          9121.250
       244   06 Jun 2027 08:59:06.151   06 Jun 2027 08:59:31.988            25.837              Murmansk2          3229.625
       245   06 Jun 2027 08:59:44.668   06 Jun 2027 09:00:30.088            45.420              Murmansk2          5677.500
       246   06 Jun 2027 09:00:44.655   06 Jun 2027 09:01:57.186            72.531                 Moscow          9066.375
       247   06 Jun 2027 09:02:06.696   06 Jun 2027 09:02:16.945            10.249                 Moscow          1281.125
       248   06 Jun 2027 09:02:23.070   06 Jun 2027 09:03:40.805            77.735                 Moscow          9716.875
       249   06 Jun 2027 09:04:01.064   06 Jun 2027 09:04:48.844            47.780                Norilsk          5972.500
       250   06 Jun 2027 10:08:59.035   06 Jun 2027 10:12:35.029           215.994               CapeTown         26999.250
       251   06 Jun 2027 10:48:41.742   06 Jun 2027 10:50:18.537            96.795                Anadyr1         12099.375
       252   06 Jun 2027 10:50:40.576   06 Jun 2027 10:50:59.403            18.827                Anadyr2          2353.375
       253   06 Jun 2027 10:50:59.403   06 Jun 2027 10:53:07.234           127.831                Anadyr1         15978.875
       254   06 Jun 2027 12:27:48.735   06 Jun 2027 12:31:39.174           230.439               Magadan2         28804.875
       255   06 Jun 2027 14:02:27.284   06 Jun 2027 14:03:37.772            70.488               Magadan1          8811.000
       256   06 Jun 2027 14:11:56.637   06 Jun 2027 14:12:30.570            33.933               Magadan2          4241.625
       257   06 Jun 2027 15:43:51.096   06 Jun 2027 15:47:10.535           199.439                Irkutsk         24929.875
       258   06 Jun 2027 16:00:27.601   06 Jun 2027 16:04:21.330           233.729                Sumatra         29216.125
       259   06 Jun 2027 17:17:48.535   06 Jun 2027 17:17:59.550            11.015                Irkutsk          1376.875
       260   06 Jun 2027 17:18:53.287   06 Jun 2027 17:20:30.642            97.355                Novosib         12169.375
       261   06 Jun 2027 17:24:13.039   06 Jun 2027 17:27:18.733           185.694                Novosib         23211.750
       262   06 Jun 2027 17:32:37.925   06 Jun 2027 17:34:16.868            98.943                Sumatra         12367.875
       263   06 Jun 2027 19:01:06.096   06 Jun 2027 19:04:46.199           220.103                  Delhi         27512.875
       264   06 Jun 2027 20:31:22.135   06 Jun 2027 20:31:50.444            28.309              Murmansk1          3538.625
       265   06 Jun 2027 20:32:10.266   06 Jun 2027 20:36:15.136           244.870                 Moscow         30608.750
       266   07 Jun 2027 04:05:26.683   07 Jun 2027 04:07:05.980            99.297                Sumatra         12412.125
       267   07 Jun 2027 04:08:47.435   07 Jun 2027 04:11:11.330           143.895                Sumatra         17986.875
       268   07 Jun 2027 04:27:15.432   07 Jun 2027 04:27:25.149             9.717                Norilsk          1214.625
       269   07 Jun 2027 04:27:38.028   07 Jun 2027 04:28:52.102            74.074                Norilsk          9259.250
       270   07 Jun 2027 04:29:31.112   07 Jun 2027 04:30:11.236            40.124              Murmansk2          5015.500
       271   07 Jun 2027 05:02:54.259   07 Jun 2027 05:03:15.797            21.538            RioGallegos          2692.250
       272   07 Jun 2027 05:04:32.077   07 Jun 2027 05:05:47.744            75.667            RioGallegos          9458.375
       273   07 Jun 2027 05:37:30.706   07 Jun 2027 05:39:52.045           141.339                Sumatra         17667.375
       274   07 Jun 2027 05:47:27.184   07 Jun 2027 05:47:57.321            30.137                  Delhi          3767.125
       275   07 Jun 2027 05:50:37.664   07 Jun 2027 05:50:44.933             7.269                  Delhi           908.625
       276   07 Jun 2027 05:53:38.088   07 Jun 2027 05:54:55.674            77.586                  Delhi          9698.250
       277   07 Jun 2027 06:00:29.126   07 Jun 2027 06:00:36.012             6.886                Irkutsk           860.750
       278   07 Jun 2027 06:00:46.838   07 Jun 2027 06:01:06.331            19.493                Novosib          2436.625
       279   07 Jun 2027 06:01:08.521   07 Jun 2027 06:01:30.201            21.680              Murmansk2          2710.000
       280   07 Jun 2027 06:01:32.291   07 Jun 2027 06:03:33.695           121.404                Novosib         15175.500
       281   07 Jun 2027 06:43:31.345   07 Jun 2027 06:44:15.748            44.403            RioGallegos          5550.375
       282   07 Jun 2027 07:21:53.346   07 Jun 2027 07:22:56.606            63.260                  Delhi          7907.500
       283   07 Jun 2027 07:24:46.671   07 Jun 2027 07:24:52.958             6.287                  Delhi           785.875
       284   07 Jun 2027 07:37:20.338   07 Jun 2027 07:37:53.396            33.058                 Moscow          4132.250
       285   07 Jun 2027 07:37:56.003   07 Jun 2027 07:38:09.652            13.649                 Moscow          1706.125
       286   07 Jun 2027 07:38:14.787   07 Jun 2027 07:38:33.926            19.139                 Moscow          2392.375
       287   07 Jun 2027 07:39:09.797   07 Jun 2027 07:41:17.707           127.910              Murmansk2         15988.750
       288   07 Jun 2027 07:41:44.293   07 Jun 2027 07:42:40.662            56.369                 Moscow          7046.125
       289   07 Jun 2027 09:11:33.473   07 Jun 2027 09:11:58.685            25.212              Murmansk1          3151.500
       290   07 Jun 2027 09:12:10.250   07 Jun 2027 09:12:57.207            46.957                 Moscow          5869.625
       291   07 Jun 2027 09:13:18.449   07 Jun 2027 09:14:40.003            81.554              Murmansk2         10194.250
       292   07 Jun 2027 09:14:50.392   07 Jun 2027 09:15:29.764            39.372                Norilsk          4921.500
       293   07 Jun 2027 09:15:42.228   07 Jun 2027 09:16:52.345            70.117                 Moscow          8764.625
       294   07 Jun 2027 10:20:33.817   07 Jun 2027 10:22:48.102           134.285               CapeTown         16785.625
       295   07 Jun 2027 10:23:08.902   07 Jun 2027 10:24:28.536            79.634               CapeTown          9954.250
       296   07 Jun 2027 11:00:35.952   07 Jun 2027 11:04:48.820           252.868                Anadyr1         31608.500
       297   07 Jun 2027 12:39:29.329   07 Jun 2027 12:40:59.660            90.331               Magadan2         11291.375
       298   07 Jun 2027 12:40:59.660   07 Jun 2027 12:43:32.968           153.308               Magadan1         19163.500
       299   07 Jun 2027 12:44:35.348   07 Jun 2027 12:45:58.576            83.228               Magadan2         10403.500
       300   07 Jun 2027 15:09:12.994   07 Jun 2027 15:11:34.161           141.167            RioGallegos         17645.875
       301   07 Jun 2027 15:55:18.616   07 Jun 2027 15:59:00.717           222.101                Irkutsk         27762.625
       302   07 Jun 2027 16:10:44.375   07 Jun 2027 16:12:55.229           130.854                Sumatra         16356.750
       303   07 Jun 2027 16:14:59.406   07 Jun 2027 16:17:12.547           133.141                Sumatra         16642.625
       304   07 Jun 2027 17:36:38.662   07 Jun 2027 17:36:45.176             6.514                Novosib           814.250
       305   07 Jun 2027 17:42:15.115   07 Jun 2027 17:43:24.839            69.724                  Delhi          8715.500
       306   07 Jun 2027 17:53:13.640   07 Jun 2027 17:53:26.129            12.489                Sumatra          1561.125
       307   07 Jun 2027 19:13:00.555   07 Jun 2027 19:15:40.038           159.483                  Delhi         19935.375
       308   07 Jun 2027 19:23:35.796   07 Jun 2027 19:23:47.304            11.508                  Delhi          1438.500
       309   07 Jun 2027 20:40:01.776   07 Jun 2027 20:40:31.524            29.748              Murmansk1          3718.500
       310   07 Jun 2027 20:43:56.968   07 Jun 2027 20:46:22.999           146.031                 Moscow         18253.875
       311   07 Jun 2027 21:11:07.982   07 Jun 2027 21:12:42.823            94.841               CapeTown         11855.125
       312   07 Jun 2027 22:43:02.441   07 Jun 2027 22:44:33.926            91.485               CapeTown         11435.625
       313   08 Jun 2027 03:41:40.482   08 Jun 2027 03:41:48.091             7.609            RioGallegos           951.125
       314   08 Jun 2027 03:43:19.041   08 Jun 2027 03:43:23.265             4.224            RioGallegos           528.000
       315   08 Jun 2027 04:16:11.316   08 Jun 2027 04:18:46.303           154.987                Sumatra         19373.375
       316   08 Jun 2027 04:34:56.346   08 Jun 2027 04:35:39.615            43.269               Magadan2          5408.625
       317   08 Jun 2027 04:35:53.517   08 Jun 2027 04:36:43.089            49.572               Magadan2          6196.500
       318   08 Jun 2027 04:37:00.358   08 Jun 2027 04:37:18.561            18.203               Magadan1          2275.375
       319   08 Jun 2027 04:37:34.845   08 Jun 2027 04:38:16.314            41.469              Murmansk1          5183.625
       320   08 Jun 2027 04:38:25.126   08 Jun 2027 04:39:18.554            53.428                Irkutsk          6678.500
       321   08 Jun 2027 04:39:37.174   08 Jun 2027 04:40:14.732            37.558                Novosib          4694.750
       322   08 Jun 2027 05:16:03.700   08 Jun 2027 05:17:28.508            84.808            RioGallegos         10601.000
       323   08 Jun 2027 05:49:36.306   08 Jun 2027 05:50:33.252            56.946                Sumatra          7118.250
       324   08 Jun 2027 05:54:13.486   08 Jun 2027 05:54:35.566            22.080                Sumatra          2760.000
       325   08 Jun 2027 06:05:44.318   08 Jun 2027 06:05:48.812             4.494                  Delhi           561.750
       326   08 Jun 2027 06:12:11.214   08 Jun 2027 06:12:17.759             6.545                 Moscow           818.125
       327   08 Jun 2027 06:12:34.702   08 Jun 2027 06:13:44.594            69.892                Novosib          8736.500
       328   08 Jun 2027 06:13:59.947   08 Jun 2027 06:14:58.765            58.818                 Moscow          7352.250
       329   08 Jun 2027 06:15:18.118   08 Jun 2027 06:15:26.593             8.475                Irkutsk          1059.375
       330   08 Jun 2027 06:15:27.477   08 Jun 2027 06:16:27.869            60.392              Murmansk1          7549.000
       331   08 Jun 2027 07:34:09.001   08 Jun 2027 07:36:38.299           149.298                  Delhi         18662.250
       332   08 Jun 2027 07:48:54.952   08 Jun 2027 07:49:43.286            48.334                Norilsk          6041.750
       333   08 Jun 2027 07:49:50.362   08 Jun 2027 07:50:36.244            45.882                 Moscow          5735.250
       334   08 Jun 2027 07:50:41.706   08 Jun 2027 07:51:24.981            43.275                Novosib          5409.375
       335   08 Jun 2027 07:52:17.644   08 Jun 2027 07:52:44.610            26.966                 Moscow          3370.750
       336   08 Jun 2027 09:22:08.888   08 Jun 2027 09:22:21.195            12.307              Murmansk2          1538.375
       337   08 Jun 2027 09:23:23.756   08 Jun 2027 09:25:11.377           107.621                 Moscow         13452.625
       338   08 Jun 2027 09:25:40.820   08 Jun 2027 09:26:04.304            23.484              Murmansk2          2935.500
       339   08 Jun 2027 09:26:18.326   08 Jun 2027 09:26:50.988            32.662              Murmansk2          4082.750
       340   08 Jun 2027 09:27:27.805   08 Jun 2027 09:27:46.594            18.789                 Moscow          2348.625
       341   08 Jun 2027 10:32:15.429   08 Jun 2027 10:36:25.184           249.755               CapeTown         31219.375
       342   08 Jun 2027 11:12:31.737   08 Jun 2027 11:14:23.467           111.730                Anadyr2         13966.250
       343   08 Jun 2027 11:15:09.755   08 Jun 2027 11:17:04.952           115.197                Anadyr1         14399.625
       344   08 Jun 2027 12:51:15.418   08 Jun 2027 12:55:28.349           252.931               Magadan1         31616.375
       345   08 Jun 2027 12:57:02.722   08 Jun 2027 12:57:11.994             9.272               Magadan2          1159.000
       346   08 Jun 2027 14:26:25.245   08 Jun 2027 14:27:41.318            76.073               Magadan2          9509.125
       347   08 Jun 2027 15:20:07.909   08 Jun 2027 15:23:20.134           192.225            RioGallegos         24028.125
       348   08 Jun 2027 16:06:56.271   08 Jun 2027 16:10:53.363           237.092                Irkutsk         29636.500
       349   08 Jun 2027 16:21:44.264   08 Jun 2027 16:22:45.295            61.031                Sumatra          7628.875
       350   08 Jun 2027 16:27:17.464   08 Jun 2027 16:29:19.251           121.787                Sumatra         15223.375
       351   08 Jun 2027 17:45:13.397   08 Jun 2027 17:46:39.194            85.797                Novosib         10724.625
       352   08 Jun 2027 17:52:05.832   08 Jun 2027 17:54:28.302           142.470                  Delhi         17808.750
       353   08 Jun 2027 19:24:58.534   08 Jun 2027 19:26:13.353            74.819                  Delhi          9352.375
       354   08 Jun 2027 20:56:34.094   08 Jun 2027 20:58:30.494           116.400                 Moscow         14550.000
       355   08 Jun 2027 21:22:08.584   08 Jun 2027 21:22:21.735            13.151               CapeTown          1643.875
       356   08 Jun 2027 22:55:03.354   08 Jun 2027 22:55:06.831             3.477               CapeTown           434.625
       357   09 Jun 2027 03:10:49.019   09 Jun 2027 03:10:55.375             6.356               Magadan1           794.500
       358   09 Jun 2027 03:10:59.534   09 Jun 2027 03:11:24.082            24.548               Magadan2          3068.500
       359   09 Jun 2027 03:11:28.732   09 Jun 2027 03:11:32.326             3.594               Magadan2           449.250
       360   09 Jun 2027 03:11:51.062   09 Jun 2027 03:13:12.971            81.909                Anadyr2         10238.625
       361   09 Jun 2027 03:13:28.921   09 Jun 2027 03:14:05.070            36.149               Magadan1          4518.625
       362   09 Jun 2027 03:14:27.890   09 Jun 2027 03:15:56.335            88.445               Magadan1         11055.625
       363   09 Jun 2027 04:27:21.606   09 Jun 2027 04:28:42.783            81.177                Sumatra         10147.125
       364   09 Jun 2027 04:47:15.767   09 Jun 2027 04:48:44.811            89.044                Irkutsk         11130.500
       365   09 Jun 2027 04:49:31.158   09 Jun 2027 04:50:20.325            49.167              Murmansk1          6145.875
       366   09 Jun 2027 04:50:34.163   09 Jun 2027 04:51:41.499            67.336                Irkutsk          8417.000
       367   09 Jun 2027 04:51:45.981   09 Jun 2027 04:51:58.151            12.170              Murmansk1          1521.250
       368   09 Jun 2027 05:27:28.319   09 Jun 2027 05:29:06.996            98.677            RioGallegos         12334.625
       369   09 Jun 2027 06:12:38.025   09 Jun 2027 06:14:34.582           116.557                  Delhi         14569.625
       370   09 Jun 2027 06:24:18.453   09 Jun 2027 06:24:21.311             2.858                 Moscow           357.250
       371   09 Jun 2027 06:24:32.648   09 Jun 2027 06:25:02.108            29.460                Novosib          3682.500
       372   09 Jun 2027 06:25:08.431   09 Jun 2027 06:25:23.732            15.301              Murmansk2          1912.625
       373   09 Jun 2027 06:25:31.658   09 Jun 2027 06:25:54.152            22.494                 Moscow          2811.750
       374   09 Jun 2027 06:25:54.858   09 Jun 2027 06:26:07.869            13.011                Novosib          1626.375
       375   09 Jun 2027 06:26:12.678   09 Jun 2027 06:26:15.617             2.939                Norilsk           367.375
       376   09 Jun 2027 06:26:19.990   09 Jun 2027 06:26:40.377            20.387                Irkutsk          2548.375
       377   09 Jun 2027 06:26:48.712   09 Jun 2027 06:27:58.845            70.133                 Moscow          8766.625
       378   09 Jun 2027 06:28:04.973   09 Jun 2027 06:28:16.764            11.791              Murmansk1          1473.875
       379   09 Jun 2027 06:28:18.602   09 Jun 2027 06:28:50.647            32.045                Novosib          4005.625
       380   09 Jun 2027 07:46:31.569   09 Jun 2027 07:48:06.597            95.028                  Delhi         11878.500
       381   09 Jun 2027 08:00:29.627   09 Jun 2027 08:01:16.924            47.297                Norilsk          5912.125
       382   09 Jun 2027 08:01:28.203   09 Jun 2027 08:02:28.929            60.726                Novosib          7590.750
       383   09 Jun 2027 08:02:37.603   09 Jun 2027 08:03:06.885            29.282                Norilsk          3660.250
       384   09 Jun 2027 08:03:11.528   09 Jun 2027 08:03:31.063            19.535              Murmansk1          2441.875
       385   09 Jun 2027 08:03:52.686   09 Jun 2027 08:04:20.526            27.840                 Moscow          3480.000
       386   09 Jun 2027 09:37:22.396   09 Jun 2027 09:38:06.262            43.866              Murmansk1          5483.250
       387   09 Jun 2027 09:41:38.265   09 Jun 2027 09:42:18.437            40.172                 Moscow          5021.500
       388   09 Jun 2027 09:50:43.314   09 Jun 2027 09:51:40.355            57.041                Anadyr2          7130.125
       389   09 Jun 2027 10:44:02.150   09 Jun 2027 10:48:24.705           262.555               CapeTown         32819.375
       390   09 Jun 2027 11:24:28.728   09 Jun 2027 11:27:20.783           172.055                Anadyr1         21506.875
       391   09 Jun 2027 13:03:05.115   09 Jun 2027 13:09:26.148           381.033               Magadan2         47629.125
       392   09 Jun 2027 15:31:32.099   09 Jun 2027 15:35:09.592           217.493            RioGallegos         27186.625
       393   09 Jun 2027 16:20:52.022   09 Jun 2027 16:21:02.167            10.145                Irkutsk          1268.125
       394   09 Jun 2027 16:22:47.959   09 Jun 2027 16:24:44.513           116.554                Irkutsk         14569.250
       395   09 Jun 2027 16:33:25.837   09 Jun 2027 16:36:29.220           183.383                Sumatra         22922.875
       396   09 Jun 2027 17:57:00.910   09 Jun 2027 17:58:36.325            95.415                Novosib         11926.875
       397   09 Jun 2027 18:03:08.343   09 Jun 2027 18:06:13.192           184.849                  Delhi         23106.125
       398   09 Jun 2027 21:09:04.459   09 Jun 2027 21:10:22.133            77.674                 Moscow          9709.250
       399   09 Jun 2027 21:33:01.246   09 Jun 2027 21:33:19.338            18.092               CapeTown          2261.500
       400   09 Jun 2027 21:34:22.969   09 Jun 2027 21:36:12.795           109.826               CapeTown         13728.250
       401   10 Jun 2027 03:24:43.397   10 Jun 2027 03:25:05.761            22.364               Magadan2          2795.500
       402   10 Jun 2027 03:25:37.581   10 Jun 2027 03:26:15.911            38.330               Magadan2          4791.250
       403   10 Jun 2027 03:26:47.833   10 Jun 2027 03:27:50.826            62.993               Magadan1          7874.125
       404   10 Jun 2027 04:39:44.471   10 Jun 2027 04:40:33.394            48.923                Sumatra          6115.375
       405   10 Jun 2027 04:41:30.312   10 Jun 2027 04:42:26.489            56.177                Sumatra          7022.125
       406   10 Jun 2027 04:59:39.378   10 Jun 2027 05:00:48.493            69.115                Irkutsk          8639.375
       407   10 Jun 2027 05:01:05.964   10 Jun 2027 05:01:09.871             3.907                Norilsk           488.375
       408   10 Jun 2027 05:01:16.491   10 Jun 2027 05:01:52.421            35.930                Norilsk          4491.250
       409   10 Jun 2027 05:01:58.245   10 Jun 2027 05:02:50.267            52.022                Irkutsk          6502.750
       410   10 Jun 2027 05:03:16.227   10 Jun 2027 05:04:24.726            68.499                Novosib          8562.375
       411   10 Jun 2027 05:39:52.160   10 Jun 2027 05:40:48.803            56.643            RioGallegos          7080.375
       412   10 Jun 2027 06:18:17.159   10 Jun 2027 06:18:32.063            14.904                Sumatra          1863.000
       413   10 Jun 2027 06:22:14.283   10 Jun 2027 06:22:35.375            21.092                  Delhi          2636.500
       414   10 Jun 2027 06:27:08.170   10 Jun 2027 06:28:21.218            73.048                  Delhi          9131.000
       415   10 Jun 2027 06:37:16.725   10 Jun 2027 06:38:00.638            43.913                 Moscow          5489.125
       416   10 Jun 2027 06:38:11.662   10 Jun 2027 06:39:21.298            69.636                 Moscow          8704.500
       417   10 Jun 2027 07:59:02.474   10 Jun 2027 08:00:07.556            65.082                  Delhi          8135.250
       418   10 Jun 2027 08:00:50.296   10 Jun 2027 08:01:01.793            11.497                  Delhi          1437.125
       419   10 Jun 2027 08:12:19.024   10 Jun 2027 08:12:36.944            17.920                Norilsk          2240.000
       420   10 Jun 2027 08:12:37.143   10 Jun 2027 08:13:12.721            35.578                 Moscow          4447.250
       421   10 Jun 2027 08:13:28.939   10 Jun 2027 08:14:32.524            63.585                Novosib          7948.125
       422   10 Jun 2027 08:14:53.478   10 Jun 2027 08:15:50.008            56.530              Murmansk1          7066.250
       423   10 Jun 2027 08:17:59.744   10 Jun 2027 08:18:50.869            51.125                 Moscow          6390.625
       424   10 Jun 2027 10:04:17.631   10 Jun 2027 10:05:31.248            73.617                Anadyr1          9202.125
       425   10 Jun 2027 10:55:52.962   10 Jun 2027 10:58:11.490           138.528               CapeTown         17316.000
       426   10 Jun 2027 10:58:35.993   10 Jun 2027 10:59:20.073            44.080               CapeTown          5510.000
       427   10 Jun 2027 11:36:26.659   10 Jun 2027 11:37:37.888            71.229                Anadyr2          8903.625
       428   10 Jun 2027 11:37:48.461   10 Jun 2027 11:39:29.570           101.109                Anadyr1         12638.625
       429   10 Jun 2027 11:43:43.077   10 Jun 2027 11:44:42.161            59.084                Anadyr1          7385.500
       430   10 Jun 2027 13:14:57.375   10 Jun 2027 13:18:14.660           197.285               Magadan2         24660.625
       431   10 Jun 2027 13:18:35.532   10 Jun 2027 13:19:22.640            47.108               Magadan1          5888.500
       432   10 Jun 2027 13:20:07.236   10 Jun 2027 13:21:45.994            98.758               Magadan2         12344.750
       433   10 Jun 2027 15:43:07.852   10 Jun 2027 15:47:01.698           233.846            RioGallegos         29230.750
       434   10 Jun 2027 16:31:14.837   10 Jun 2027 16:33:08.260           113.423                Irkutsk         14177.875
       435   10 Jun 2027 16:44:32.146   10 Jun 2027 16:46:00.101            87.955                Sumatra         10994.375
       436   10 Jun 2027 16:55:46.221   10 Jun 2027 16:55:54.532             8.311                Sumatra          1038.875
       437   10 Jun 2027 18:07:39.328   10 Jun 2027 18:08:39.133            59.805                Novosib          7475.625
       438   10 Jun 2027 18:13:30.323   10 Jun 2027 18:15:21.543           111.220                Novosib         13902.500
       439   10 Jun 2027 18:16:17.810   10 Jun 2027 18:18:02.823           105.013                  Delhi         13126.625
       440   10 Jun 2027 18:20:45.881   10 Jun 2027 18:22:32.339           106.458                  Delhi         13307.250
       441   10 Jun 2027 21:18:42.315   10 Jun 2027 21:19:15.496            33.181              Murmansk2          4147.625
       442   10 Jun 2027 21:19:33.759   10 Jun 2027 21:21:29.915           116.156                 Moscow         14519.500
       443   10 Jun 2027 21:44:28.975   10 Jun 2027 21:45:41.360            72.385               CapeTown          9048.125
       444   10 Jun 2027 21:51:05.495   10 Jun 2027 21:51:23.106            17.611               CapeTown          2201.375
       445   11 Jun 2027 03:37:24.767   11 Jun 2027 03:38:19.883            55.116               Magadan2          6889.500
       446   11 Jun 2027 03:38:50.638   11 Jun 2027 03:39:43.489            52.851               Magadan1          6606.375
       447   11 Jun 2027 04:18:30.258   11 Jun 2027 04:19:22.605            52.347            RioGallegos          6543.375
       448   11 Jun 2027 04:50:20.363   11 Jun 2027 04:52:13.219           112.856                Sumatra         14107.000
       449   11 Jun 2027 04:57:34.738   11 Jun 2027 04:59:39.984           125.246                Sumatra         15655.750
       450   11 Jun 2027 05:11:46.909   11 Jun 2027 05:12:03.256            16.347                Irkutsk          2043.375
       451   11 Jun 2027 05:12:55.538   11 Jun 2027 05:14:06.046            70.508                Irkutsk          8813.500
       452   11 Jun 2027 05:14:37.596   11 Jun 2027 05:15:31.198            53.602              Murmansk2          6700.250
       453   11 Jun 2027 05:16:09.820   11 Jun 2027 05:16:38.058            28.238              Murmansk1          3529.750
       454   11 Jun 2027 05:52:21.339   11 Jun 2027 05:53:24.745            63.406            RioGallegos          7925.750
       455   11 Jun 2027 06:26:32.848   11 Jun 2027 06:27:44.748            71.900                Sumatra          8987.500
       456   11 Jun 2027 06:34:02.320   11 Jun 2027 06:35:05.267            62.947                  Delhi          7868.375
       457   11 Jun 2027 06:49:51.638   11 Jun 2027 06:50:26.281            34.643              Murmansk2          4330.375
       458   11 Jun 2027 06:50:30.431   11 Jun 2027 06:50:35.922             5.491              Murmansk2           686.375
       459   11 Jun 2027 06:50:36.471   11 Jun 2027 06:52:33.473           117.002                Novosib         14625.250
       460   11 Jun 2027 08:23:55.258   11 Jun 2027 08:24:08.847            13.589                Norilsk          1698.625
       461   11 Jun 2027 08:24:21.043   11 Jun 2027 08:25:45.795            84.752                 Moscow         10594.000
       462   11 Jun 2027 08:26:09.181   11 Jun 2027 08:27:07.985            58.804                Norilsk          7350.500
       463   11 Jun 2027 08:27:14.928   11 Jun 2027 08:27:30.244            15.316              Murmansk2          1914.500
       464   11 Jun 2027 08:27:36.153   11 Jun 2027 08:28:16.728            40.575                Norilsk          5071.875
       465   11 Jun 2027 08:28:43.812   11 Jun 2027 08:29:26.934            43.122                 Moscow          5390.250
       466   11 Jun 2027 09:36:32.389   11 Jun 2027 09:37:33.720            61.331               CapeTown          7666.375
       467   11 Jun 2027 10:16:09.634   11 Jun 2027 10:19:16.841           187.207                Anadyr2         23400.875
       468   11 Jun 2027 11:48:25.342   11 Jun 2027 11:49:25.871            60.529                Anadyr1          7566.125
       469   11 Jun 2027 11:49:57.035   11 Jun 2027 11:50:12.060            15.025                Anadyr2          1878.125
       470   11 Jun 2027 11:51:36.213   11 Jun 2027 11:53:31.846           115.633                Anadyr2         14454.125
       471   11 Jun 2027 13:26:51.560   11 Jun 2027 13:29:01.757           130.197               Magadan2         16274.625
       472   11 Jun 2027 13:29:46.841   11 Jun 2027 13:31:21.139            94.298               Magadan1         11787.250
       473   11 Jun 2027 15:54:50.276   11 Jun 2027 16:01:00.496           370.220            RioGallegos         46277.500
       474   11 Jun 2027 16:42:18.571   11 Jun 2027 16:45:11.032           172.461                Irkutsk         21557.625
       475   11 Jun 2027 16:56:10.501   11 Jun 2027 16:58:07.260           116.759                Sumatra         14594.875
       476   11 Jun 2027 17:01:48.067   11 Jun 2027 17:02:35.780            47.713                Sumatra          5964.125
       477   11 Jun 2027 18:18:02.018   11 Jun 2027 18:19:58.138           116.120                Novosib         14515.000
       478   11 Jun 2027 18:26:03.505   11 Jun 2027 18:26:54.147            50.642                  Delhi          6330.250
       479   11 Jun 2027 18:28:13.179   11 Jun 2027 18:29:56.478           103.299                  Delhi         12912.375
       480   11 Jun 2027 19:58:28.840   11 Jun 2027 20:00:44.069           135.229                 Moscow         16903.625
       481   11 Jun 2027 21:40:55.900   11 Jun 2027 21:42:57.672           121.772                 Moscow         15221.500
       482   11 Jun 2027 22:01:57.017   11 Jun 2027 22:02:33.916            36.899               CapeTown          4612.375
