uniorb/output/strategy_1/Drop/Drop_KinoSat_111606.txt

KinoSat_111606
-------------------------
    Access    *     Start Time (UTCG)     *     Stop Time (UTCG)  *   Duration (s)        *       Station  *  Data (Mbytes)
         1   01 Jun 2027 03:05:17.472   01 Jun 2027 03:05:27.290             9.818                Norilsk           306.813
         2   01 Jun 2027 03:05:38.131   01 Jun 2027 03:05:50.583            12.452              Murmansk2           389.125
         3   01 Jun 2027 03:06:03.095   01 Jun 2027 03:07:33.994            90.899                Novosib          2840.594
         4   01 Jun 2027 03:07:46.605   01 Jun 2027 03:09:22.119            95.514                Novosib          2984.812
         5   01 Jun 2027 03:09:22.474   01 Jun 2027 03:09:35.336            12.862              Murmansk1           401.938
         6   01 Jun 2027 03:09:35.336   01 Jun 2027 03:10:07.893            32.557              Murmansk2          1017.406
         7   01 Jun 2027 03:10:18.679   01 Jun 2027 03:10:30.815            12.136                Norilsk           379.250
         8   01 Jun 2027 03:11:12.425   01 Jun 2027 03:11:59.575            47.150                  Delhi          1473.438
         9   01 Jun 2027 04:44:20.593   01 Jun 2027 04:46:27.377           126.784                Novosib          3962.000
        10   01 Jun 2027 04:46:53.942   01 Jun 2027 04:49:15.883           141.941              Murmansk1          4435.656
        11   01 Jun 2027 05:04:00.604   01 Jun 2027 05:07:00.265           179.661               CapeTown          5614.406
        12   01 Jun 2027 06:07:51.896   01 Jun 2027 06:08:51.840            59.944                Anadyr2          1873.250
        13   01 Jun 2027 06:13:20.622   01 Jun 2027 06:13:38.934            18.312                Anadyr2           572.250
        14   01 Jun 2027 07:45:06.277   01 Jun 2027 07:48:16.008           189.731               Magadan1          5929.094
        15   01 Jun 2027 07:48:16.008   01 Jun 2027 07:48:24.004             7.996               Magadan2           249.875
        16   01 Jun 2027 07:48:44.326   01 Jun 2027 07:49:28.354            44.028                Anadyr2          1375.875
        17   01 Jun 2027 09:18:25.550   01 Jun 2027 09:24:19.271           353.721                Anadyr2         11053.781
        18   01 Jun 2027 09:24:35.613   01 Jun 2027 09:25:20.941            45.328                Novosib          1416.500
        19   01 Jun 2027 10:03:24.199   01 Jun 2027 10:03:27.971             3.772            RioGallegos           117.875
        20   01 Jun 2027 10:04:33.085   01 Jun 2027 10:05:25.047            51.962            RioGallegos          1623.813
        21   01 Jun 2027 10:37:27.186   01 Jun 2027 10:39:16.511           109.325                Sumatra          3416.406
        22   01 Jun 2027 10:55:07.832   01 Jun 2027 10:56:23.892            76.060                Irkutsk          2376.875
        23   01 Jun 2027 10:57:08.180   01 Jun 2027 11:00:10.517           182.337                Irkutsk          5698.031
        24   01 Jun 2027 11:00:21.675   01 Jun 2027 11:00:53.188            31.513                Novosib           984.781
        25   01 Jun 2027 11:01:00.274   01 Jun 2027 11:01:48.688            48.414              Murmansk2          1512.938
        26   01 Jun 2027 11:01:48.688   01 Jun 2027 11:01:53.061             4.373              Murmansk1           136.656
        27   01 Jun 2027 11:02:11.152   01 Jun 2027 11:02:36.112            24.960                Norilsk           780.000
        28   01 Jun 2027 11:36:01.449   01 Jun 2027 11:36:59.596            58.147            RioGallegos          1817.094
        29   01 Jun 2027 11:37:35.762   01 Jun 2027 11:38:43.938            68.176            RioGallegos          2130.500
        30   01 Jun 2027 12:10:31.646   01 Jun 2027 12:11:51.891            80.245                Sumatra          2507.656
        31   01 Jun 2027 12:12:56.091   01 Jun 2027 12:13:34.735            38.644                Sumatra          1207.625
        32   01 Jun 2027 12:13:46.164   01 Jun 2027 12:14:46.592            60.428                Sumatra          1888.375
        33   01 Jun 2027 12:25:06.488   01 Jun 2027 12:25:29.085            22.597                Irkutsk           706.156
        34   01 Jun 2027 12:25:33.061   01 Jun 2027 12:26:41.244            68.183                Novosib          2130.719
        35   01 Jun 2027 12:26:59.108   01 Jun 2027 12:29:18.521           139.413                Irkutsk          4356.656
        36   01 Jun 2027 13:17:38.719   01 Jun 2027 13:20:27.582           168.863            RioGallegos          5276.969
        37   01 Jun 2027 14:03:03.272   01 Jun 2027 14:07:42.348           279.076                Novosib          8721.125
        38   01 Jun 2027 14:08:54.884   01 Jun 2027 14:09:26.926            32.042                Norilsk          1001.313
        39   01 Jun 2027 15:39:04.951   01 Jun 2027 15:41:54.852           169.901                 Moscow          5309.406
        40   01 Jun 2027 15:42:34.581   01 Jun 2027 15:45:02.731           148.150              Murmansk2          4629.687
        41   01 Jun 2027 15:47:20.383   01 Jun 2027 15:52:02.114           281.731                Norilsk          8804.094
        42   01 Jun 2027 17:16:58.466   01 Jun 2027 17:17:56.419            57.953                 Moscow          1811.031
        43   01 Jun 2027 17:19:54.617   01 Jun 2027 17:21:51.721           117.104              Murmansk1          3659.500
        44   01 Jun 2027 17:34:26.848   01 Jun 2027 17:34:58.723            31.875                Anadyr2           996.094
        45   01 Jun 2027 18:28:42.289   01 Jun 2027 18:30:34.353           112.064               CapeTown          3502.000
        46   01 Jun 2027 18:59:38.033   01 Jun 2027 19:01:10.012            91.979              Murmansk2          2874.344
        47   01 Jun 2027 19:01:38.372   01 Jun 2027 19:05:33.061           234.689              Murmansk1          7334.031
        48   01 Jun 2027 19:12:14.144   01 Jun 2027 19:12:31.965            17.821               Magadan2           556.906
        49   01 Jun 2027 19:12:49.126   01 Jun 2027 19:13:31.392            42.266               Magadan2          1320.812
        50   01 Jun 2027 19:15:26.273   01 Jun 2027 19:15:34.846             8.573               Magadan2           267.906
        51   01 Jun 2027 20:45:03.960   01 Jun 2027 20:48:48.468           224.508                Anadyr1          7015.875
        52   01 Jun 2027 20:49:25.864   01 Jun 2027 20:51:03.477            97.613               Magadan2          3050.406
        53   01 Jun 2027 20:52:46.511   01 Jun 2027 20:52:48.825             2.314               Magadan1            72.312
        54   01 Jun 2027 20:56:09.568   01 Jun 2027 20:56:38.642            29.074               Magadan2           908.562
        55   01 Jun 2027 21:41:15.523   01 Jun 2027 21:43:44.289           148.766            RioGallegos          4648.937
        56   01 Jun 2027 21:46:18.818   01 Jun 2027 21:46:52.152            33.334            RioGallegos          1041.687
        57   01 Jun 2027 22:20:53.506   01 Jun 2027 22:21:23.126            29.620                Anadyr1           925.625
        58   01 Jun 2027 22:21:23.126   01 Jun 2027 22:22:27.824            64.698                Anadyr2          2021.813
        59   01 Jun 2027 22:22:51.262   01 Jun 2027 22:23:00.452             9.190                Anadyr2           287.188
        60   01 Jun 2027 22:23:00.995   01 Jun 2027 22:24:57.784           116.789                Norilsk          3649.656
        61   01 Jun 2027 22:25:13.385   01 Jun 2027 22:27:02.261           108.876               Magadan1          3402.375
        62   01 Jun 2027 22:27:57.300   01 Jun 2027 22:28:31.587            34.287                Irkutsk          1071.469
        63   01 Jun 2027 22:29:44.657   01 Jun 2027 22:30:23.658            39.001                Irkutsk          1218.781
        64   01 Jun 2027 22:42:56.752   01 Jun 2027 22:44:50.420           113.668                Sumatra          3552.125
        65   01 Jun 2027 23:56:10.483   01 Jun 2027 23:57:44.025            93.542                Anadyr1          2923.188
        66   01 Jun 2027 23:58:41.047   01 Jun 2027 23:59:17.689            36.642                Anadyr1          1145.062
        67   01 Jun 2027 23:59:24.786   02 Jun 2027 00:02:20.647           175.861               Magadan1          5495.656
        68   02 Jun 2027 00:02:20.647   02 Jun 2027 00:02:26.373             5.726               Magadan2           178.937
        69   02 Jun 2027 00:02:42.743   02 Jun 2027 00:03:47.693            64.950                Irkutsk          2029.688
        70   02 Jun 2027 00:04:24.354   02 Jun 2027 00:05:00.198            35.844                Novosib          1120.125
        71   02 Jun 2027 00:06:33.223   02 Jun 2027 00:07:04.220            30.997                Novosib           968.656
        72   02 Jun 2027 00:13:24.687   02 Jun 2027 00:14:36.871            72.184                  Delhi          2255.750
        73   02 Jun 2027 00:14:50.763   02 Jun 2027 00:15:07.194            16.431                  Delhi           513.469
        74   02 Jun 2027 00:50:48.052   02 Jun 2027 00:51:59.201            71.149            RioGallegos          2223.406
        75   02 Jun 2027 01:30:18.163   02 Jun 2027 01:31:15.232            57.069                Anadyr1          1783.406
        76   02 Jun 2027 01:31:44.332   02 Jun 2027 01:31:56.495            12.163                Anadyr2           380.094
        77   02 Jun 2027 01:32:09.071   02 Jun 2027 01:32:28.592            19.521                Anadyr1           610.031
        78   02 Jun 2027 01:32:50.490   02 Jun 2027 01:33:04.800            14.310                Anadyr2           447.187
        79   02 Jun 2027 01:34:48.030   02 Jun 2027 01:36:46.677           118.647                Norilsk          3707.719
        80   02 Jun 2027 01:37:42.511   02 Jun 2027 01:40:04.886           142.375              Murmansk2          4449.219
        81   02 Jun 2027 01:42:34.199   02 Jun 2027 01:42:44.206            10.007                Novosib           312.719
        82   02 Jun 2027 01:42:58.684   02 Jun 2027 01:43:09.013            10.329                Novosib           322.781
        83   02 Jun 2027 01:43:50.495   02 Jun 2027 01:45:35.887           105.392                Irkutsk          3293.500
        84   02 Jun 2027 02:27:51.420   02 Jun 2027 02:30:12.624           141.204            RioGallegos          4412.625
        85   02 Jun 2027 02:30:33.573   02 Jun 2027 02:32:15.822           102.249            RioGallegos          3195.281
        86   02 Jun 2027 03:18:30.619   02 Jun 2027 03:18:36.884             6.265                Norilsk           195.781
        87   02 Jun 2027 03:18:49.245   02 Jun 2027 03:21:32.139           162.894              Murmansk2          5090.437
        88   02 Jun 2027 03:21:37.908   02 Jun 2027 03:22:10.738            32.830                 Moscow          1025.938
        89   02 Jun 2027 03:23:43.653   02 Jun 2027 03:26:33.487           169.834                  Delhi          5307.312
        90   02 Jun 2027 04:56:42.465   02 Jun 2027 04:57:02.650            20.185                Novosib           630.781
        91   02 Jun 2027 04:57:17.891   02 Jun 2027 04:57:59.003            41.112                Norilsk          1284.750
        92   02 Jun 2027 04:58:10.190   02 Jun 2027 05:01:10.049           179.859              Murmansk2          5620.594
        93   02 Jun 2027 05:01:10.049   02 Jun 2027 05:01:38.094            28.045              Murmansk1           876.406
        94   02 Jun 2027 05:01:42.651   02 Jun 2027 05:01:51.557             8.906                 Moscow           278.312
        95   02 Jun 2027 05:16:00.266   02 Jun 2027 05:18:39.145           158.879               CapeTown          4964.969
        96   02 Jun 2027 06:19:15.982   02 Jun 2027 06:19:33.198            17.216               Magadan2           538.000
        97   02 Jun 2027 06:19:49.332   02 Jun 2027 06:20:32.616            43.284                Anadyr1          1352.625
        98   02 Jun 2027 06:20:45.299   02 Jun 2027 06:24:23.582           218.283                Anadyr2          6821.344
        99   02 Jun 2027 06:25:01.793   02 Jun 2027 06:25:40.537            38.744                Anadyr2          1210.750
       100   02 Jun 2027 07:56:40.415   02 Jun 2027 07:59:00.046           139.631                Anadyr2          4363.469
       101   02 Jun 2027 07:59:08.303   02 Jun 2027 07:59:22.752            14.449               Magadan2           451.531
       102   02 Jun 2027 09:29:37.786   02 Jun 2027 09:30:21.443            43.657               Magadan2          1364.281
       103   02 Jun 2027 09:30:54.204   02 Jun 2027 09:35:23.629           269.425               Magadan2          8419.531
       104   02 Jun 2027 09:35:23.629   02 Jun 2027 09:35:28.733             5.104               Magadan1           159.500
       105   02 Jun 2027 09:36:01.460   02 Jun 2027 09:36:37.000            35.540                Novosib          1110.625
       106   02 Jun 2027 09:36:52.719   02 Jun 2027 09:37:09.919            17.200                Norilsk           537.500
       107   02 Jun 2027 09:37:48.436   02 Jun 2027 09:38:21.959            33.523              Murmansk1          1047.594
       108   02 Jun 2027 10:11:55.096   02 Jun 2027 10:13:02.911            67.815            RioGallegos          2119.219
       109   02 Jun 2027 10:50:18.702   02 Jun 2027 10:50:58.487            39.785                Sumatra          1243.281
       110   02 Jun 2027 11:07:08.480   02 Jun 2027 11:08:15.006            66.526                Irkutsk          2078.938
       111   02 Jun 2027 11:09:12.146   02 Jun 2027 11:10:46.868            94.722                Irkutsk          2960.062
       112   02 Jun 2027 11:10:53.503   02 Jun 2027 11:12:09.631            76.128                Irkutsk          2379.000
       113   02 Jun 2027 11:12:23.824   02 Jun 2027 11:13:24.375            60.551                Norilsk          1892.219
       114   02 Jun 2027 11:13:40.575   02 Jun 2027 11:14:04.208            23.633              Murmansk1           738.531
       115   02 Jun 2027 11:48:19.581   02 Jun 2027 11:49:38.973            79.392            RioGallegos          2481.000
       116   02 Jun 2027 11:52:55.028   02 Jun 2027 11:53:01.438             6.410            RioGallegos           200.313
       117   02 Jun 2027 12:22:41.856   02 Jun 2027 12:24:43.196           121.340                Sumatra          3791.875
       118   02 Jun 2027 12:31:28.861   02 Jun 2027 12:32:28.899            60.038                Sumatra          1876.188
       119   02 Jun 2027 12:37:34.043   02 Jun 2027 12:38:20.067            46.024                Irkutsk          1438.250
       120   02 Jun 2027 12:38:39.664   02 Jun 2027 12:40:29.410           109.746                Novosib          3429.563
       121   02 Jun 2027 12:41:20.639   02 Jun 2027 12:42:59.544            98.905                Norilsk          3090.781
       122   02 Jun 2027 12:44:20.394   02 Jun 2027 12:44:50.404            30.010                Norilsk           937.812
       123   02 Jun 2027 14:07:21.912   02 Jun 2027 14:08:15.244            53.332                  Delhi          1666.625
       124   02 Jun 2027 14:09:28.367   02 Jun 2027 14:11:56.757           148.390                  Delhi          4637.187
       125   02 Jun 2027 14:15:35.046   02 Jun 2027 14:18:43.341           188.295                Novosib          5884.219
       126   02 Jun 2027 14:19:27.414   02 Jun 2027 14:20:02.637            35.223                Norilsk          1100.719
       127   02 Jun 2027 14:24:02.452   02 Jun 2027 14:24:16.437            13.985                Norilsk           437.031
       128   02 Jun 2027 15:51:09.260   02 Jun 2027 15:54:21.663           192.403                 Moscow          6012.594
       129   02 Jun 2027 15:54:40.459   02 Jun 2027 15:57:36.019           175.560              Murmansk1          5486.250
       130   02 Jun 2027 16:00:12.315   02 Jun 2027 16:04:45.863           273.548                Norilsk          8548.375
       131   02 Jun 2027 17:29:34.877   02 Jun 2027 17:31:33.859           118.982                 Moscow          3718.188
       132   02 Jun 2027 17:32:15.834   02 Jun 2027 17:35:19.934           184.100              Murmansk1          5753.125
       133   02 Jun 2027 18:40:53.669   02 Jun 2027 18:43:05.810           132.141               CapeTown          4129.406
       134   02 Jun 2027 18:44:52.114   02 Jun 2027 18:45:16.856            24.742               CapeTown           773.188
       135   02 Jun 2027 19:12:23.411   02 Jun 2027 19:18:18.687           355.276              Murmansk1         11102.375
       136   02 Jun 2027 19:24:03.531   02 Jun 2027 19:25:08.939            65.408               Magadan2          2044.000
       137   02 Jun 2027 20:57:05.533   02 Jun 2027 20:58:39.279            93.746                Anadyr2          2929.563
       138   02 Jun 2027 20:58:50.110   02 Jun 2027 21:00:10.080            79.970                Anadyr1          2499.063
       139   02 Jun 2027 21:00:32.163   02 Jun 2027 21:02:29.023           116.860               Magadan1          3651.875
       140   02 Jun 2027 21:03:20.080   02 Jun 2027 21:03:35.718            15.638               Magadan1           488.687
       141   02 Jun 2027 21:03:51.651   02 Jun 2027 21:04:08.068            16.417               Magadan1           513.031
       142   02 Jun 2027 21:04:28.709   02 Jun 2027 21:04:40.477            11.768               Magadan1           367.750
       143   02 Jun 2027 21:52:35.655   02 Jun 2027 21:55:27.443           171.788            RioGallegos          5368.375
       144   02 Jun 2027 22:32:52.734   02 Jun 2027 22:34:50.964           118.230                Anadyr2          3694.688
       145   02 Jun 2027 22:34:59.041   02 Jun 2027 22:36:32.546            93.505                Norilsk          2922.031
       146   02 Jun 2027 22:36:44.050   02 Jun 2027 22:38:50.930           126.880               Magadan2          3965.000
       147   02 Jun 2027 22:39:40.098   02 Jun 2027 22:40:29.591            49.493                Irkutsk          1546.656
       148   02 Jun 2027 22:42:17.136   02 Jun 2027 22:42:56.586            39.450                Irkutsk          1232.812
       149   02 Jun 2027 22:54:10.539   02 Jun 2027 22:55:38.555            88.016                Sumatra          2750.500
       150   02 Jun 2027 23:28:19.826   02 Jun 2027 23:28:30.357            10.531            RioGallegos           329.094
       151   03 Jun 2027 00:08:02.860   03 Jun 2027 00:08:15.369            12.509                Anadyr2           390.906
       152   03 Jun 2027 00:08:23.298   03 Jun 2027 00:09:45.238            81.940                Anadyr1          2560.625
       153   03 Jun 2027 00:09:45.238   03 Jun 2027 00:10:29.942            44.704                Anadyr2          1397.000
       154   03 Jun 2027 00:10:49.312   03 Jun 2027 00:12:32.592           103.280                Norilsk          3227.500
       155   03 Jun 2027 00:13:01.486   03 Jun 2027 00:13:45.348            43.862               Magadan1          1370.687
       156   03 Jun 2027 00:13:45.348   03 Jun 2027 00:14:10.657            25.309               Magadan2           790.906
       157   03 Jun 2027 00:14:42.842   03 Jun 2027 00:16:56.784           133.942                Irkutsk          4185.687
       158   03 Jun 2027 00:17:05.824   03 Jun 2027 00:17:36.631            30.807                Novosib           962.719
       159   03 Jun 2027 00:18:11.359   03 Jun 2027 00:19:31.480            80.121                Novosib          2503.781
       160   03 Jun 2027 00:26:24.797   03 Jun 2027 00:26:40.972            16.175                  Delhi           505.469
       161   03 Jun 2027 01:02:53.559   03 Jun 2027 01:04:44.874           111.315            RioGallegos          3478.594
       162   03 Jun 2027 01:42:00.997   03 Jun 2027 01:42:43.754            42.757                Anadyr2          1336.156
       163   03 Jun 2027 01:43:14.144   03 Jun 2027 01:43:45.825            31.681                Anadyr2           990.031
       164   03 Jun 2027 01:44:11.207   03 Jun 2027 01:44:13.762             2.555                Anadyr1            79.844
       165   03 Jun 2027 01:44:13.762   03 Jun 2027 01:44:43.563            29.801                Anadyr2           931.281
       166   03 Jun 2027 01:46:50.168   03 Jun 2027 01:48:21.400            91.232                Norilsk          2851.000
       167   03 Jun 2027 01:49:31.552   03 Jun 2027 01:50:44.224            72.672              Murmansk2          2271.000
       168   03 Jun 2027 01:50:47.532   03 Jun 2027 01:51:09.623            22.091              Murmansk1           690.344
       169   03 Jun 2027 01:51:26.000   03 Jun 2027 01:53:55.436           149.436                Novosib          4669.875
       170   03 Jun 2027 01:58:12.639   03 Jun 2027 02:00:22.613           129.974                  Delhi          4061.688
       171   03 Jun 2027 02:40:13.527   03 Jun 2027 02:42:39.071           145.544            RioGallegos          4548.250
       172   03 Jun 2027 02:43:59.648   03 Jun 2027 02:44:10.264            10.616            RioGallegos           331.750
       173   03 Jun 2027 02:45:10.515   03 Jun 2027 02:45:34.041            23.526            RioGallegos           735.188
       174   03 Jun 2027 03:30:26.055   03 Jun 2027 03:30:54.534            28.479                Norilsk           889.969
       175   03 Jun 2027 03:30:56.425   03 Jun 2027 03:32:23.301            86.876                Irkutsk          2714.875
       176   03 Jun 2027 03:32:32.902   03 Jun 2027 03:32:35.078             2.176                Norilsk            68.000
       177   03 Jun 2027 03:32:53.487   03 Jun 2027 03:35:06.774           133.287              Murmansk2          4165.219
       178   03 Jun 2027 03:35:06.774   03 Jun 2027 03:35:32.919            26.145              Murmansk1           817.031
       179   03 Jun 2027 03:35:49.788   03 Jun 2027 03:36:08.666            18.878              Murmansk2           589.937
       180   03 Jun 2027 03:36:18.563   03 Jun 2027 03:36:26.280             7.717                Novosib           241.156
       181   03 Jun 2027 03:36:43.578   03 Jun 2027 03:38:13.009            89.431                  Delhi          2794.719
       182   03 Jun 2027 05:08:01.114   03 Jun 2027 05:09:42.738           101.624              Murmansk2          3175.750
       183   03 Jun 2027 05:09:42.738   03 Jun 2027 05:10:10.260            27.522              Murmansk1           860.062
       184   03 Jun 2027 05:10:13.216   03 Jun 2027 05:10:38.151            24.935                 Moscow           779.219
       185   03 Jun 2027 05:10:44.206   03 Jun 2027 05:10:59.378            15.172              Murmansk2           474.125
       186   03 Jun 2027 05:11:02.494   03 Jun 2027 05:12:47.515           105.021                 Moscow          3281.906
       187   03 Jun 2027 05:13:03.105   03 Jun 2027 05:13:13.377            10.272              Murmansk1           321.000
       188   03 Jun 2027 05:13:13.377   03 Jun 2027 05:13:45.882            32.505              Murmansk2          1015.781
       189   03 Jun 2027 05:28:05.034   03 Jun 2027 05:30:09.237           124.203               CapeTown          3881.344
       190   03 Jun 2027 06:31:29.164   03 Jun 2027 06:33:34.507           125.343               Magadan1          3916.969
       191   03 Jun 2027 06:34:02.115   03 Jun 2027 06:34:32.368            30.253                Anadyr1           945.406
       192   03 Jun 2027 08:08:55.710   03 Jun 2027 08:09:33.403            37.693               Magadan2          1177.906
       193   03 Jun 2027 08:09:38.086   03 Jun 2027 08:10:08.070            29.984                Irkutsk           937.000
       194   03 Jun 2027 08:10:51.949   03 Jun 2027 08:12:41.143           109.194                Anadyr1          3412.313
       195   03 Jun 2027 08:13:47.516   03 Jun 2027 08:13:57.789            10.273                Norilsk           321.031
       196   03 Jun 2027 08:14:56.727   03 Jun 2027 08:15:13.721            16.994              Murmansk2           531.063
       197   03 Jun 2027 08:17:27.229   03 Jun 2027 08:17:54.332            27.103                 Moscow           846.969
       198   03 Jun 2027 09:42:48.140   03 Jun 2027 09:44:32.825           104.685               Magadan2          3271.406
       199   03 Jun 2027 09:45:01.862   03 Jun 2027 09:46:21.583            79.721                Novosib          2491.281
       200   03 Jun 2027 09:46:29.167   03 Jun 2027 09:47:51.920            82.753                Irkutsk          2586.031
       201   03 Jun 2027 09:47:57.565   03 Jun 2027 09:48:52.216            54.651               Magadan2          1707.844
       202   03 Jun 2027 10:23:48.440   03 Jun 2027 10:25:38.837           110.397            RioGallegos          3449.906
       203   03 Jun 2027 10:59:52.660   03 Jun 2027 10:59:53.611             0.951                Sumatra            29.719
       204   03 Jun 2027 11:00:42.660   03 Jun 2027 11:02:41.054           118.394                Sumatra          3699.812
       205   03 Jun 2027 11:19:08.160   03 Jun 2027 11:20:16.876            68.716                Irkutsk          2147.375
       206   03 Jun 2027 11:20:23.199   03 Jun 2027 11:21:46.076            82.877                Norilsk          2589.906
       207   03 Jun 2027 11:22:03.410   03 Jun 2027 11:22:53.789            50.379              Murmansk2          1574.344
       208   03 Jun 2027 11:22:56.469   03 Jun 2027 11:23:10.358            13.889                Norilsk           434.031
       209   03 Jun 2027 11:23:42.517   03 Jun 2027 11:23:52.206             9.689                Novosib           302.781
       210   03 Jun 2027 11:23:58.609   03 Jun 2027 11:24:05.274             6.665                Novosib           208.281
       211   03 Jun 2027 11:24:08.203   03 Jun 2027 11:24:22.754            14.551                Norilsk           454.719
       212   03 Jun 2027 11:24:27.590   03 Jun 2027 11:24:55.496            27.906                Novosib           872.062
       213   03 Jun 2027 11:24:56.158   03 Jun 2027 11:25:01.600             5.442                Irkutsk           170.063
       214   03 Jun 2027 11:25:30.008   03 Jun 2027 11:25:47.801            17.793              Murmansk2           556.031
       215   03 Jun 2027 11:26:07.384   03 Jun 2027 11:26:26.486            19.102                Novosib           596.937
       216   03 Jun 2027 12:00:42.299   03 Jun 2027 12:00:55.750            13.451            RioGallegos           420.344
       217   03 Jun 2027 12:02:34.740   03 Jun 2027 12:03:36.742            62.002            RioGallegos          1937.562
       218   03 Jun 2027 12:34:58.648   03 Jun 2027 12:35:43.905            45.257                Sumatra          1414.281
       219   03 Jun 2027 12:43:16.901   03 Jun 2027 12:44:51.753            94.852                  Delhi          2964.125
       220   03 Jun 2027 12:49:39.965   03 Jun 2027 12:50:58.706            78.741                Novosib          2460.656
       221   03 Jun 2027 12:53:32.105   03 Jun 2027 12:55:09.824            97.719                Norilsk          3053.719
       222   03 Jun 2027 14:19:50.608   03 Jun 2027 14:25:01.721           311.113                  Delhi          9722.281
       223   03 Jun 2027 14:28:12.822   03 Jun 2027 14:30:40.762           147.940                Novosib          4623.125
       224   03 Jun 2027 14:32:20.895   03 Jun 2027 14:32:48.856            27.961                Norilsk           873.781
       225   03 Jun 2027 16:03:16.648   03 Jun 2027 16:06:24.985           188.337                 Moscow          5885.531
       226   03 Jun 2027 16:06:48.045   03 Jun 2027 16:08:05.892            77.847              Murmansk1          2432.719
       227   03 Jun 2027 16:13:13.296   03 Jun 2027 16:16:00.803           167.507                Norilsk          5234.594
       228   03 Jun 2027 17:16:52.690   03 Jun 2027 17:18:30.548            97.858               CapeTown          3058.062
       229   03 Jun 2027 17:19:29.524   03 Jun 2027 17:20:09.920            40.396               CapeTown          1262.375
       230   03 Jun 2027 17:43:01.066   03 Jun 2027 17:44:08.359            67.293                 Moscow          2102.906
       231   03 Jun 2027 17:44:39.349   03 Jun 2027 17:45:54.318            74.969              Murmansk2          2342.781
       232   03 Jun 2027 17:46:11.931   03 Jun 2027 17:47:06.022            54.091                 Moscow          1690.344
       233   03 Jun 2027 17:53:14.208   03 Jun 2027 17:53:40.243            26.035              Murmansk1           813.594
       234   03 Jun 2027 17:58:36.305   03 Jun 2027 17:58:54.407            18.102                Anadyr2           565.688
       235   03 Jun 2027 18:01:58.486   03 Jun 2027 18:02:15.222            16.736                Anadyr1           523.000
       236   03 Jun 2027 18:07:36.179   03 Jun 2027 18:07:45.781             9.602                Anadyr2           300.062
       237   03 Jun 2027 18:53:08.777   03 Jun 2027 18:54:37.046            88.269               CapeTown          2758.406
       238   03 Jun 2027 18:56:41.377   03 Jun 2027 18:57:06.517            25.140               CapeTown           785.625
       239   03 Jun 2027 18:57:45.432   03 Jun 2027 18:58:25.261            39.829               CapeTown          1244.656
       240   03 Jun 2027 19:25:14.556   03 Jun 2027 19:29:49.499           274.943              Murmansk1          8591.969
       241   03 Jun 2027 19:29:52.160   03 Jun 2027 19:30:46.193            54.033              Murmansk2          1688.531
       242   03 Jun 2027 19:35:55.675   03 Jun 2027 19:36:44.796            49.121               Magadan2          1535.031
       243   03 Jun 2027 19:44:56.674   03 Jun 2027 19:45:25.240            28.566               Magadan2           892.688
       244   03 Jun 2027 21:09:06.972   03 Jun 2027 21:12:50.367           223.395                Anadyr1          6981.094
       245   03 Jun 2027 21:12:56.972   03 Jun 2027 21:14:18.811            81.839                Anadyr2          2557.469
       246   03 Jun 2027 21:14:30.568   03 Jun 2027 21:15:43.408            72.840               Magadan1          2276.250
       247   03 Jun 2027 21:15:43.408   03 Jun 2027 21:15:56.041            12.633               Magadan2           394.781
       248   03 Jun 2027 21:16:16.815   03 Jun 2027 21:16:31.377            14.562               Magadan1           455.062
       249   03 Jun 2027 21:17:42.629   03 Jun 2027 21:17:53.480            10.851               Magadan1           339.094
       250   03 Jun 2027 21:18:37.330   03 Jun 2027 21:18:59.691            22.361               Magadan1           698.781
       251   03 Jun 2027 22:04:09.596   03 Jun 2027 22:06:31.741           142.145            RioGallegos          4442.031
       252   03 Jun 2027 22:09:23.153   03 Jun 2027 22:09:59.601            36.448            RioGallegos          1139.000
       253   03 Jun 2027 22:12:49.725   03 Jun 2027 22:12:55.557             5.832            RioGallegos           182.250
       254   03 Jun 2027 22:44:51.393   03 Jun 2027 22:46:32.132           100.739                Anadyr1          3148.094
       255   03 Jun 2027 22:46:49.624   03 Jun 2027 22:47:01.932            12.308                Anadyr1           384.625
       256   03 Jun 2027 22:47:02.273   03 Jun 2027 22:47:50.673            48.400                Norilsk          1512.500
       257   03 Jun 2027 22:48:13.447   03 Jun 2027 22:48:48.330            34.883               Magadan2          1090.094
       258   03 Jun 2027 22:48:48.330   03 Jun 2027 22:49:10.692            22.362               Magadan1           698.813
       259   03 Jun 2027 22:49:48.034   03 Jun 2027 22:50:43.115            55.081               Magadan1          1721.281
       260   03 Jun 2027 22:51:27.395   03 Jun 2027 22:52:28.741            61.346                Irkutsk          1917.063
       261   03 Jun 2027 22:59:32.216   03 Jun 2027 23:00:14.481            42.265                Irkutsk          1320.781
       262   03 Jun 2027 23:05:37.475   03 Jun 2027 23:06:49.223            71.748                Sumatra          2242.125
       263   03 Jun 2027 23:09:15.052   03 Jun 2027 23:10:56.873           101.821                Sumatra          3181.906
       264   04 Jun 2027 00:19:53.990   04 Jun 2027 00:21:09.779            75.789                Anadyr1          2368.406
       265   04 Jun 2027 00:21:46.524   04 Jun 2027 00:22:14.325            27.801                Anadyr1           868.781
       266   04 Jun 2027 00:22:37.568   04 Jun 2027 00:22:41.478             3.910                Anadyr2           122.188
       267   04 Jun 2027 00:22:51.456   04 Jun 2027 00:24:34.630           103.174                Norilsk          3224.188
       268   04 Jun 2027 00:25:39.448   04 Jun 2027 00:26:24.352            44.904               Magadan2          1403.250
       269   04 Jun 2027 00:26:43.884   04 Jun 2027 00:27:33.365            49.481                Irkutsk          1546.281
       270   04 Jun 2027 00:27:35.435   04 Jun 2027 00:27:56.063            20.628                Novosib           644.625
       271   04 Jun 2027 00:28:30.580   04 Jun 2027 00:28:48.164            17.584                Novosib           549.500
       272   04 Jun 2027 00:29:46.822   04 Jun 2027 00:31:31.083           104.261                Novosib          3258.156
       273   04 Jun 2027 00:40:08.764   04 Jun 2027 00:40:15.536             6.772                  Delhi           211.625
       274   04 Jun 2027 00:42:30.067   04 Jun 2027 00:42:42.178            12.111                  Delhi           378.469
       275   04 Jun 2027 00:44:35.254   04 Jun 2027 00:45:07.089            31.835                  Delhi           994.844
       276   04 Jun 2027 00:52:10.480   04 Jun 2027 00:52:17.456             6.976                Sumatra           218.000
       277   04 Jun 2027 01:15:00.011   04 Jun 2027 01:16:12.544            72.533            RioGallegos          2266.656
       278   04 Jun 2027 01:21:44.716   04 Jun 2027 01:22:24.794            40.078            RioGallegos          1252.438
       279   04 Jun 2027 01:53:43.083   04 Jun 2027 01:54:12.855            29.772                Anadyr2           930.375
       280   04 Jun 2027 01:54:24.584   04 Jun 2027 01:54:56.296            31.712                Anadyr2           991.000
       281   04 Jun 2027 01:55:57.287   04 Jun 2027 01:56:00.163             2.876                Anadyr1            89.875
       282   04 Jun 2027 01:56:37.755   04 Jun 2027 01:56:41.505             3.750                Anadyr2           117.188
       283   04 Jun 2027 01:58:35.718   04 Jun 2027 01:59:17.303            41.585                Anadyr1          1299.531
       284   04 Jun 2027 01:59:21.763   04 Jun 2027 02:00:12.795            51.032               Magadan1          1594.750
       285   04 Jun 2027 02:00:16.664   04 Jun 2027 02:00:31.923            15.259                Norilsk           476.844
       286   04 Jun 2027 02:01:24.478   04 Jun 2027 02:02:44.550            80.072              Murmansk1          2502.250
       287   04 Jun 2027 02:02:49.302   04 Jun 2027 02:03:24.172            34.870                Novosib          1089.687
       288   04 Jun 2027 02:04:05.039   04 Jun 2027 02:04:57.060            52.021                Irkutsk          1625.656
       289   04 Jun 2027 02:09:29.770   04 Jun 2027 02:10:14.561            44.791                Novosib          1399.719
       290   04 Jun 2027 02:14:22.760   04 Jun 2027 02:14:55.508            32.748                  Delhi          1023.375
       291   04 Jun 2027 02:19:41.231   04 Jun 2027 02:20:05.537            24.306                  Delhi           759.562
       292   04 Jun 2027 02:52:45.182   04 Jun 2027 02:54:45.514           120.332            RioGallegos          3760.375
       293   04 Jun 2027 02:55:28.591   04 Jun 2027 02:56:36.949            68.358            RioGallegos          2136.187
       294   04 Jun 2027 03:42:48.264   04 Jun 2027 03:42:56.190             7.926                 Moscow           247.688
       295   04 Jun 2027 03:42:56.244   04 Jun 2027 03:43:16.460            20.216                 Moscow           631.750
       296   04 Jun 2027 03:43:16.803   04 Jun 2027 03:43:26.218             9.415                Novosib           294.219
       297   04 Jun 2027 03:43:37.312   04 Jun 2027 03:46:35.252           177.940              Murmansk1          5560.625
       298   04 Jun 2027 03:46:35.252   04 Jun 2027 03:47:20.063            44.811              Murmansk2          1400.344
       299   04 Jun 2027 03:47:49.147   04 Jun 2027 03:48:21.943            32.796                Novosib          1024.875
       300   04 Jun 2027 03:49:18.935   04 Jun 2027 03:49:30.528            11.593                Novosib           362.281
       301   04 Jun 2027 03:50:56.529   04 Jun 2027 03:52:07.405            70.876                 Moscow          2214.875
       302   04 Jun 2027 05:21:02.888   04 Jun 2027 05:21:36.596            33.708                Norilsk          1053.375
       303   04 Jun 2027 05:21:37.073   04 Jun 2027 05:24:12.684           155.611              Murmansk1          4862.844
       304   04 Jun 2027 06:43:51.346   04 Jun 2027 06:44:37.306            45.960                Anadyr2          1436.250
       305   04 Jun 2027 06:45:02.736   04 Jun 2027 06:46:41.961            99.225                Anadyr1          3100.781
       306   04 Jun 2027 06:46:41.961   04 Jun 2027 06:47:32.735            50.774                Anadyr2          1586.687
       307   04 Jun 2027 06:48:28.490   04 Jun 2027 06:48:47.442            18.952                Norilsk           592.250
       308   04 Jun 2027 06:49:34.949   04 Jun 2027 06:49:46.568            11.619                Norilsk           363.094
       309   04 Jun 2027 06:50:03.125   04 Jun 2027 06:50:38.745            35.620                Norilsk          1113.125
       310   04 Jun 2027 08:19:54.681   04 Jun 2027 08:21:04.419            69.738                Anadyr2          2179.312
       311   04 Jun 2027 08:21:11.538   04 Jun 2027 08:21:33.275            21.737                Norilsk           679.281
       312   04 Jun 2027 08:21:35.313   04 Jun 2027 08:22:07.940            32.627               Magadan1          1019.594
       313   04 Jun 2027 08:22:07.940   04 Jun 2027 08:23:06.324            58.384               Magadan2          1824.500
       314   04 Jun 2027 08:25:12.889   04 Jun 2027 08:25:22.402             9.513                Anadyr2           297.281
       315   04 Jun 2027 08:30:22.785   04 Jun 2027 08:30:53.516            30.731                 Moscow           960.344
       316   04 Jun 2027 09:03:31.629   04 Jun 2027 09:03:49.531            17.902            RioGallegos           559.438
       317   04 Jun 2027 09:53:37.190   04 Jun 2027 09:54:38.129            60.939               Magadan2          1904.344
       318   04 Jun 2027 09:55:09.046   04 Jun 2027 09:55:50.534            41.488                Irkutsk          1296.500
       319   04 Jun 2027 09:56:21.227   04 Jun 2027 09:56:32.578            11.351                Norilsk           354.719
       320   04 Jun 2027 09:56:35.470   04 Jun 2027 09:56:59.408            23.938                Norilsk           748.063
       321   04 Jun 2027 09:57:16.163   04 Jun 2027 09:57:37.636            21.473               Magadan2           671.031
       322   04 Jun 2027 09:58:01.685   04 Jun 2027 09:58:15.800            14.115                Irkutsk           441.094
       323   04 Jun 2027 09:58:17.272   04 Jun 2027 09:58:46.573            29.301                Irkutsk           915.656
       324   04 Jun 2027 09:58:48.552   04 Jun 2027 09:59:16.370            27.818                Norilsk           869.313
       325   04 Jun 2027 09:59:25.035   04 Jun 2027 10:00:45.948            80.913               Magadan1          2528.531
       326   04 Jun 2027 10:00:59.074   04 Jun 2027 10:01:24.206            25.132                Norilsk           785.375
       327   04 Jun 2027 10:02:08.331   04 Jun 2027 10:02:52.822            44.491              Murmansk1          1390.344
       328   04 Jun 2027 10:35:45.015   04 Jun 2027 10:36:46.667            61.652            RioGallegos          1926.625
       329   04 Jun 2027 11:11:24.617   04 Jun 2027 11:12:31.198            66.581                Sumatra          2080.656
       330   04 Jun 2027 11:31:16.407   04 Jun 2027 11:32:10.956            54.549                Norilsk          1704.656
       331   04 Jun 2027 11:32:24.847   04 Jun 2027 11:32:44.971            20.124                Norilsk           628.875
       332   04 Jun 2027 11:32:48.712   04 Jun 2027 11:33:17.716            29.004                Irkutsk           906.375
       333   04 Jun 2027 11:33:37.759   04 Jun 2027 11:34:06.574            28.815                Norilsk           900.469
       334   04 Jun 2027 11:34:08.378   04 Jun 2027 11:34:22.023            13.645              Murmansk1           426.406
       335   04 Jun 2027 11:34:23.151   04 Jun 2027 11:34:37.771            14.620                Novosib           456.875
       336   04 Jun 2027 11:34:39.008   04 Jun 2027 11:35:53.715            74.707                Irkutsk          2334.594
       337   04 Jun 2027 11:36:05.716   04 Jun 2027 11:36:10.148             4.432                Norilsk           138.500
       338   04 Jun 2027 11:36:13.756   04 Jun 2027 11:36:24.477            10.721                Novosib           335.031
       339   04 Jun 2027 11:36:29.760   04 Jun 2027 11:37:00.499            30.739                Novosib           960.594
       340   04 Jun 2027 11:37:43.854   04 Jun 2027 11:37:47.879             4.025              Murmansk1           125.781
       341   04 Jun 2027 11:39:46.488   04 Jun 2027 11:40:13.489            27.001              Murmansk2           843.781
       342   04 Jun 2027 12:13:10.178   04 Jun 2027 12:13:56.034            45.856            RioGallegos          1433.000
       343   04 Jun 2027 12:17:38.334   04 Jun 2027 12:18:21.330            42.996            RioGallegos          1343.625
       344   04 Jun 2027 12:47:23.308   04 Jun 2027 12:48:35.444            72.136                Sumatra          2254.250
       345   04 Jun 2027 13:01:48.017   04 Jun 2027 13:02:33.052            45.035                Novosib          1407.344
       346   04 Jun 2027 13:02:47.750   04 Jun 2027 13:02:52.836             5.086                Irkutsk           158.938
       347   04 Jun 2027 13:03:57.366   04 Jun 2027 13:05:12.233            74.867                Irkutsk          2339.594
       348   04 Jun 2027 13:05:45.363   04 Jun 2027 13:07:11.151            85.788                Norilsk          2680.875
       349   04 Jun 2027 13:08:24.994   04 Jun 2027 13:08:49.784            24.790                Norilsk           774.688
       350   04 Jun 2027 14:32:29.396   04 Jun 2027 14:34:53.402           144.006                  Delhi          4500.188
       351   04 Jun 2027 14:35:53.958   04 Jun 2027 14:37:25.907            91.949                  Delhi          2873.406
       352   04 Jun 2027 14:40:58.104   04 Jun 2027 14:42:35.074            96.970                Novosib          3030.313
       353   04 Jun 2027 14:44:25.035   04 Jun 2027 14:44:35.396            10.361                Norilsk           323.781
       354   04 Jun 2027 14:44:41.480   04 Jun 2027 14:45:57.302            75.822                Novosib          2369.438
       355   04 Jun 2027 14:48:11.667   04 Jun 2027 14:49:26.385            74.718                Norilsk          2334.937
       356   04 Jun 2027 16:15:27.258   04 Jun 2027 16:17:11.653           104.395                 Moscow          3262.344
       357   04 Jun 2027 16:18:57.397   04 Jun 2027 16:20:02.814            65.417              Murmansk2          2044.281
       358   04 Jun 2027 16:20:07.540   04 Jun 2027 16:20:38.527            30.987              Murmansk1           968.344
       359   04 Jun 2027 16:21:35.107   04 Jun 2027 16:22:07.832            32.725              Murmansk1          1022.656
       360   04 Jun 2027 16:25:19.182   04 Jun 2027 16:25:44.710            25.528              Murmansk1           797.750
       361   04 Jun 2027 16:26:38.679   04 Jun 2027 16:28:19.504           100.825                Norilsk          3150.781
       362   04 Jun 2027 16:34:30.237   04 Jun 2027 16:35:10.181            39.944                Anadyr1          1248.250
       363   04 Jun 2027 16:38:39.890   04 Jun 2027 16:39:35.952            56.062                Anadyr2          1751.938
       364   04 Jun 2027 17:28:46.472   04 Jun 2027 17:29:25.062            38.590               CapeTown          1205.938
       365   04 Jun 2027 17:29:38.194   04 Jun 2027 17:30:24.548            46.354               CapeTown          1448.563
       366   04 Jun 2027 17:55:11.476   04 Jun 2027 17:59:25.844           254.368                 Moscow          7949.000
       367   04 Jun 2027 18:10:54.010   04 Jun 2027 18:11:05.106            11.096                Anadyr1           346.750
       368   04 Jun 2027 18:11:08.102   04 Jun 2027 18:11:16.033             7.931                Anadyr1           247.844
       369   04 Jun 2027 18:12:00.895   04 Jun 2027 18:12:17.587            16.692                Anadyr1           521.625
       370   04 Jun 2027 18:12:48.491   04 Jun 2027 18:12:52.283             3.792                Anadyr1           118.500
       371   04 Jun 2027 18:16:36.292   04 Jun 2027 18:16:46.249             9.957                Anadyr1           311.156
       372   04 Jun 2027 18:18:03.383   04 Jun 2027 18:18:16.860            13.477                Anadyr2           421.156
       373   04 Jun 2027 18:20:13.672   04 Jun 2027 18:20:28.392            14.720                Anadyr1           460.000
       374   04 Jun 2027 19:05:28.537   04 Jun 2027 19:06:42.590            74.053               CapeTown          2314.156
       375   04 Jun 2027 19:08:34.465   04 Jun 2027 19:09:40.815            66.350               CapeTown          2073.437
       376   04 Jun 2027 19:38:14.469   04 Jun 2027 19:42:29.096           254.627              Murmansk1          7957.094
       377   04 Jun 2027 19:47:49.874   04 Jun 2027 19:48:53.386            63.512               Magadan1          1984.750
       378   04 Jun 2027 19:54:43.647   04 Jun 2027 19:56:01.477            77.830               Magadan2          2432.187
       379   04 Jun 2027 21:21:08.240   04 Jun 2027 21:24:50.998           222.758                Anadyr1          6961.188
       380   04 Jun 2027 21:25:04.342   04 Jun 2027 21:27:11.847           127.505               Magadan2          3984.531
       381   04 Jun 2027 21:27:11.847   04 Jun 2027 21:27:37.366            25.519               Magadan1           797.469
       382   04 Jun 2027 21:27:51.715   04 Jun 2027 21:28:13.016            21.301               Magadan1           665.656
       383   04 Jun 2027 21:33:57.637   04 Jun 2027 21:34:07.692            10.055               Magadan2           314.219
       384   04 Jun 2027 21:35:20.097   04 Jun 2027 21:35:45.415            25.318               Magadan1           791.188
       385   04 Jun 2027 22:15:51.055   04 Jun 2027 22:18:16.209           145.154            RioGallegos          4536.062
       386   04 Jun 2027 22:20:35.752   04 Jun 2027 22:20:37.524             1.772            RioGallegos            55.375
       387   04 Jun 2027 22:24:12.758   04 Jun 2027 22:24:36.798            24.040            RioGallegos           751.250
       388   04 Jun 2027 22:56:49.420   04 Jun 2027 22:58:51.619           122.199                Anadyr1          3818.719
       389   04 Jun 2027 22:58:58.036   04 Jun 2027 23:00:36.126            98.090                Norilsk          3065.312
       390   04 Jun 2027 23:00:50.068   04 Jun 2027 23:01:05.929            15.861               Magadan2           495.656
       391   04 Jun 2027 23:02:12.510   04 Jun 2027 23:02:38.071            25.561               Magadan2           798.781
       392   04 Jun 2027 23:03:17.939   04 Jun 2027 23:04:28.901            70.962                Irkutsk          2217.563
       393   04 Jun 2027 23:06:57.325   04 Jun 2027 23:07:53.285            55.960                Novosib          1748.750
       394   04 Jun 2027 23:17:13.822   04 Jun 2027 23:17:40.903            27.081                Sumatra           846.281
       395   04 Jun 2027 23:18:39.470   04 Jun 2027 23:19:16.433            36.963                Sumatra          1155.094
       396   04 Jun 2027 23:21:02.260   04 Jun 2027 23:22:08.912            66.652                Sumatra          2082.875
       397   05 Jun 2027 00:00:51.599   05 Jun 2027 00:00:53.757             2.158            RioGallegos            67.438
       398   05 Jun 2027 00:01:15.033   05 Jun 2027 00:02:19.993            64.960            RioGallegos          2030.000
       399   05 Jun 2027 00:32:16.894   05 Jun 2027 00:32:44.139            27.245                Anadyr1           851.406
       400   05 Jun 2027 00:33:06.912   05 Jun 2027 00:33:21.204            14.292                Anadyr1           446.625
       401   05 Jun 2027 00:33:47.857   05 Jun 2027 00:34:25.224            37.367                Anadyr1          1167.719
       402   05 Jun 2027 00:34:53.687   05 Jun 2027 00:36:36.581           102.894                Norilsk          3215.438
       403   05 Jun 2027 00:37:09.084   05 Jun 2027 00:37:49.121            40.037               Magadan1          1251.156
       404   05 Jun 2027 00:38:45.784   05 Jun 2027 00:40:32.390           106.606                Irkutsk          3331.437
       405   05 Jun 2027 00:40:49.442   05 Jun 2027 00:41:19.556            30.114                Novosib           941.063
       406   05 Jun 2027 00:45:21.739   05 Jun 2027 00:45:44.935            23.196                Novosib           724.875
       407   05 Jun 2027 00:47:07.332   05 Jun 2027 00:47:41.802            34.470                  Delhi          1077.187
       408   05 Jun 2027 00:50:54.619   05 Jun 2027 00:51:27.604            32.985                  Delhi          1030.781
       409   05 Jun 2027 00:52:33.105   05 Jun 2027 00:53:35.244            62.139                  Delhi          1941.844
       410   05 Jun 2027 00:58:49.906   05 Jun 2027 00:59:34.752            44.846                Sumatra          1401.437
       411   05 Jun 2027 01:33:03.568   05 Jun 2027 01:33:47.222            43.654            RioGallegos          1364.187
       412   05 Jun 2027 02:05:24.615   05 Jun 2027 02:06:11.081            46.466                Anadyr2          1452.063
       413   05 Jun 2027 02:07:58.087   05 Jun 2027 02:08:21.427            23.340                Anadyr1           729.375
       414   05 Jun 2027 02:10:54.091   05 Jun 2027 02:12:20.410            86.319                Norilsk          2697.469
       415   05 Jun 2027 02:13:19.859   05 Jun 2027 02:14:04.265            44.406              Murmansk2          1387.688
       416   05 Jun 2027 02:14:20.803   05 Jun 2027 02:15:12.748            51.945              Murmansk2          1623.281
       417   05 Jun 2027 02:15:12.995   05 Jun 2027 02:15:56.253            43.258                Irkutsk          1351.813
       418   05 Jun 2027 02:18:56.065   05 Jun 2027 02:19:03.200             7.135                 Moscow           222.969
       419   05 Jun 2027 02:19:51.845   05 Jun 2027 02:20:29.786            37.941                Novosib          1185.656
       420   05 Jun 2027 02:22:37.117   05 Jun 2027 02:22:46.793             9.676                  Delhi           302.375
       421   05 Jun 2027 02:27:00.359   05 Jun 2027 02:27:08.560             8.201                  Delhi           256.281
       422   05 Jun 2027 02:27:17.380   05 Jun 2027 02:27:50.812            33.432                  Delhi          1044.750
       423   05 Jun 2027 02:32:30.194   05 Jun 2027 02:33:38.788            68.594                  Delhi          2143.562
       424   05 Jun 2027 03:06:40.321   05 Jun 2027 03:07:21.864            41.543            RioGallegos          1298.219
       425   05 Jun 2027 03:55:55.051   05 Jun 2027 03:59:03.515           188.464                Norilsk          5889.500
       426   05 Jun 2027 03:59:07.389   05 Jun 2027 04:00:49.416           102.027              Murmansk2          3188.344
       427   05 Jun 2027 04:03:02.559   05 Jun 2027 04:04:34.007            91.448                 Moscow          2857.750
       428   05 Jun 2027 05:33:02.608   05 Jun 2027 05:33:25.138            22.530                Norilsk           704.063
       429   05 Jun 2027 05:33:28.859   05 Jun 2027 05:35:14.796           105.937              Murmansk2          3310.531
       430   05 Jun 2027 05:35:14.796   05 Jun 2027 05:35:46.453            31.657              Murmansk1           989.281
       431   05 Jun 2027 05:36:35.696   05 Jun 2027 05:36:46.221            10.525              Murmansk1           328.906
       432   05 Jun 2027 05:37:10.065   05 Jun 2027 05:37:34.943            24.878              Murmansk2           777.438
       433   05 Jun 2027 05:37:34.943   05 Jun 2027 05:37:39.200             4.257              Murmansk1           133.031
       434   05 Jun 2027 05:37:56.302   05 Jun 2027 05:37:56.390             0.088              Murmansk1             2.750
       435   05 Jun 2027 05:39:00.172   05 Jun 2027 05:39:42.491            42.319                 Moscow          1322.469
       436   05 Jun 2027 06:56:58.179   05 Jun 2027 06:58:17.192            79.013                Norilsk          2469.156
       437   05 Jun 2027 06:58:30.222   05 Jun 2027 06:59:20.210            49.988               Magadan2          1562.125
       438   05 Jun 2027 06:59:55.493   05 Jun 2027 07:01:44.403           108.910                Anadyr1          3403.438
       439   05 Jun 2027 08:31:14.349   05 Jun 2027 08:32:48.831            94.482                Anadyr1          2952.562
       440   05 Jun 2027 08:33:06.291   05 Jun 2027 08:33:36.899            30.608               Magadan1           956.500
       441   05 Jun 2027 08:33:44.267   05 Jun 2027 08:35:49.735           125.468                Anadyr2          3920.875
       442   05 Jun 2027 10:03:04.293   05 Jun 2027 10:03:10.086             5.793               Magadan1           181.031
       443   05 Jun 2027 10:06:07.355   05 Jun 2027 10:06:35.821            28.466                Novosib           889.562
       444   05 Jun 2027 10:06:59.287   05 Jun 2027 10:07:32.725            33.438                Novosib          1044.938
       445   05 Jun 2027 10:07:33.173   05 Jun 2027 10:09:03.016            89.843               Magadan2          2807.594
       446   05 Jun 2027 10:09:12.135   05 Jun 2027 10:11:24.911           132.776               Magadan2          4149.250
       447   05 Jun 2027 10:11:32.132   05 Jun 2027 10:12:28.742            56.610                Irkutsk          1769.063
       448   05 Jun 2027 10:12:35.402   05 Jun 2027 10:12:59.556            24.154                Irkutsk           754.813
       449   05 Jun 2027 10:13:38.328   05 Jun 2027 10:13:46.937             8.609                Norilsk           269.031
       450   05 Jun 2027 10:15:12.657   05 Jun 2027 10:15:20.532             7.875              Murmansk2           246.094
       451   05 Jun 2027 10:15:33.725   05 Jun 2027 10:15:37.052             3.327              Murmansk1           103.969
       452   05 Jun 2027 10:15:40.709   05 Jun 2027 10:16:24.698            43.989              Murmansk2          1374.656
       453   05 Jun 2027 10:47:44.875   05 Jun 2027 10:48:20.256            35.381            RioGallegos          1105.656
       454   05 Jun 2027 10:49:16.802   05 Jun 2027 10:50:12.557            55.755            RioGallegos          1742.344
       455   05 Jun 2027 11:24:44.013   05 Jun 2027 11:24:49.588             5.575                Sumatra           174.219
       456   05 Jun 2027 11:29:33.312   05 Jun 2027 11:29:48.740            15.428                Sumatra           482.125
       457   05 Jun 2027 11:37:17.239   05 Jun 2027 11:38:22.188            64.949                  Delhi          2029.656
       458   05 Jun 2027 11:42:47.152   05 Jun 2027 11:43:25.412            38.260                Irkutsk          1195.625
       459   05 Jun 2027 11:43:37.864   05 Jun 2027 11:44:03.549            25.685                Novosib           802.656
       460   05 Jun 2027 11:44:08.753   05 Jun 2027 11:44:21.531            12.778                Novosib           399.312
       461   05 Jun 2027 11:44:23.480   05 Jun 2027 11:44:26.671             3.191                Norilsk            99.719
       462   05 Jun 2027 11:44:45.853   05 Jun 2027 11:45:12.588            26.735                Novosib           835.469
       463   05 Jun 2027 11:45:19.274   05 Jun 2027 11:45:46.318            27.044                Irkutsk           845.125
       464   05 Jun 2027 11:45:50.630   05 Jun 2027 11:46:30.798            40.168              Murmansk2          1255.250
       465   05 Jun 2027 11:46:41.296   05 Jun 2027 11:46:58.209            16.913              Murmansk1           528.531
       466   05 Jun 2027 11:47:09.643   05 Jun 2027 11:47:51.797            42.154              Murmansk1          1317.313
       467   05 Jun 2027 11:48:04.750   05 Jun 2027 11:49:09.570            64.820              Murmansk2          2025.625
       468   05 Jun 2027 12:25:44.091   05 Jun 2027 12:26:10.287            26.196            RioGallegos           818.625
       469   05 Jun 2027 12:29:17.442   05 Jun 2027 12:30:46.309            88.867            RioGallegos          2777.094
       470   05 Jun 2027 12:59:58.327   05 Jun 2027 13:00:40.147            41.820                Sumatra          1306.875
       471   05 Jun 2027 13:03:42.581   05 Jun 2027 13:05:00.964            78.383                Sumatra          2449.469
       472   05 Jun 2027 13:13:46.084   05 Jun 2027 13:14:53.434            67.350                  Delhi          2104.687
       473   05 Jun 2027 13:16:53.693   05 Jun 2027 13:17:47.391            53.698                Novosib          1678.062
       474   05 Jun 2027 13:18:00.463   05 Jun 2027 13:19:58.635           118.172                Norilsk          3692.875
       475   05 Jun 2027 14:45:22.672   05 Jun 2027 14:47:47.102           144.430                  Delhi          4513.438
       476   05 Jun 2027 14:49:47.787   05 Jun 2027 14:49:58.831            11.044                  Delhi           345.125
       477   05 Jun 2027 14:52:09.979   05 Jun 2027 14:52:17.780             7.801                 Moscow           243.781
       478   05 Jun 2027 14:52:27.620   05 Jun 2027 14:53:04.816            37.196                 Moscow          1162.375
       479   05 Jun 2027 14:53:53.726   05 Jun 2027 14:56:41.251           167.525                Novosib          5235.156
       480   05 Jun 2027 14:56:57.691   05 Jun 2027 14:57:21.262            23.571                Norilsk           736.594
       481   05 Jun 2027 14:58:26.796   05 Jun 2027 14:58:42.082            15.286                Norilsk           477.688
       482   05 Jun 2027 14:59:59.754   05 Jun 2027 15:02:06.092           126.338                Norilsk          3948.062
