uniorb/output/strategy_1/Drop/Drop_KinoSat_112007.txt

KinoSat_112007
-------------------------
    Access    *     Start Time (UTCG)     *     Stop Time (UTCG)  *   Duration (s)        *       Station  *  Data (Mbytes)
         1   01 Jun 2027 04:16:22.093   01 Jun 2027 04:17:58.971            96.878                Irkutsk          3027.437
         2   01 Jun 2027 04:18:11.052   01 Jun 2027 04:21:58.761           227.709                Irkutsk          7115.906
         3   01 Jun 2027 04:22:50.694   01 Jun 2027 04:23:13.469            22.775                Irkutsk           711.719
         4   01 Jun 2027 05:55:04.519   01 Jun 2027 05:55:44.534            40.015                Norilsk          1250.469
         5   01 Jun 2027 05:55:47.238   01 Jun 2027 05:58:32.519           165.281                Novosib          5165.031
         6   01 Jun 2027 05:58:43.930   01 Jun 2027 05:59:57.933            74.003              Murmansk2          2312.594
         7   01 Jun 2027 06:00:42.363   01 Jun 2027 06:03:40.053           177.690                 Moscow          5552.813
         8   01 Jun 2027 06:15:29.639   01 Jun 2027 06:22:06.283           396.644               CapeTown         12395.125
         9   01 Jun 2027 07:31:02.566   01 Jun 2027 07:31:17.286            14.720                Norilsk           460.000
        10   01 Jun 2027 07:31:38.252   01 Jun 2027 07:31:56.516            18.264                Norilsk           570.750
        11   01 Jun 2027 07:32:00.126   01 Jun 2027 07:32:46.441            46.315              Murmansk2          1447.344
        12   01 Jun 2027 07:32:46.441   01 Jun 2027 07:34:14.224            87.783              Murmansk1          2743.219
        13   01 Jun 2027 07:34:14.224   01 Jun 2027 07:34:34.844            20.620              Murmansk2           644.375
        14   01 Jun 2027 07:34:41.235   01 Jun 2027 07:34:49.424             8.189                 Moscow           255.906
        15   01 Jun 2027 07:35:47.305   01 Jun 2027 07:36:23.456            36.151              Murmansk1          1129.719
        16   01 Jun 2027 07:36:32.402   01 Jun 2027 07:38:06.758            94.356                 Moscow          2948.625
        17   01 Jun 2027 07:51:47.485   01 Jun 2027 07:57:25.660           338.175               CapeTown         10567.969
        18   01 Jun 2027 07:57:42.388   01 Jun 2027 08:01:46.814           244.426               CapeTown          7638.312
        19   01 Jun 2027 08:54:49.795   01 Jun 2027 08:57:37.037           167.242                Anadyr2          5226.312
        20   01 Jun 2027 08:57:37.037   01 Jun 2027 08:59:17.875           100.838                Anadyr1          3151.188
        21   01 Jun 2027 08:59:58.120   01 Jun 2027 09:00:13.589            15.469               Magadan2           483.406
        22   01 Jun 2027 10:27:18.956   01 Jun 2027 10:33:24.245           365.289                Anadyr2         11415.281
        23   01 Jun 2027 12:02:42.610   01 Jun 2027 12:11:10.160           507.550               Magadan2         15860.937
        24   01 Jun 2027 14:27:24.606   01 Jun 2027 14:32:20.640           296.034            RioGallegos          9251.063
        25   01 Jun 2027 14:59:55.178   01 Jun 2027 15:06:53.760           418.582                Sumatra         13080.687
        26   01 Jun 2027 15:15:47.277   01 Jun 2027 15:21:31.015           343.738                Irkutsk         10741.812
        27   01 Jun 2027 16:46:00.875   01 Jun 2027 16:50:32.786           271.911                  Delhi          8497.219
        28   01 Jun 2027 16:54:17.047   01 Jun 2027 16:58:41.565           264.518                Novosib          8266.188
        29   01 Jun 2027 20:09:43.281   01 Jun 2027 20:10:00.100            16.819              Murmansk1           525.594
        30   01 Jun 2027 20:10:03.471   01 Jun 2027 20:10:26.040            22.569                 Moscow           705.281
        31   01 Jun 2027 20:12:29.087   01 Jun 2027 20:14:28.341           119.254              Murmansk2          3726.687
        32   01 Jun 2027 20:16:00.233   01 Jun 2027 20:16:24.542            24.309              Murmansk1           759.656
        33   01 Jun 2027 21:17:31.511   01 Jun 2027 21:24:08.260           396.749               CapeTown         12398.406
        34   02 Jun 2027 02:57:59.098   02 Jun 2027 02:58:34.857            35.759                Irkutsk          1117.469
        35   02 Jun 2027 03:06:37.602   02 Jun 2027 03:12:08.520           330.918                Sumatra         10341.187
        36   02 Jun 2027 03:42:35.342   02 Jun 2027 03:42:46.028            10.686            RioGallegos           333.937
        37   02 Jun 2027 04:26:26.780   02 Jun 2027 04:26:33.567             6.787                Irkutsk           212.094
        38   02 Jun 2027 04:28:17.783   02 Jun 2027 04:28:56.839            39.056                Novosib          1220.500
        39   02 Jun 2027 04:29:25.467   02 Jun 2027 04:31:23.656           118.189              Murmansk1          3693.406
        40   02 Jun 2027 04:31:25.493   02 Jun 2027 04:33:18.424           112.931                Novosib          3529.094
        41   02 Jun 2027 04:33:28.119   02 Jun 2027 04:35:02.377            94.258                  Delhi          2945.562
        42   02 Jun 2027 04:36:21.347   02 Jun 2027 04:36:36.373            15.026                Novosib           469.563
        43   02 Jun 2027 04:37:11.494   02 Jun 2027 04:38:35.768            84.274                  Delhi          2633.562
        44   02 Jun 2027 06:07:14.898   02 Jun 2027 06:07:41.001            26.103              Murmansk1           815.719
        45   02 Jun 2027 06:07:50.108   02 Jun 2027 06:07:57.848             7.740                Norilsk           241.875
        46   02 Jun 2027 06:07:59.812   02 Jun 2027 06:09:00.406            60.594                 Moscow          1893.562
        47   02 Jun 2027 06:09:00.798   02 Jun 2027 06:10:33.275            92.477              Murmansk2          2889.906
        48   02 Jun 2027 06:10:41.055   02 Jun 2027 06:10:57.149            16.094              Murmansk2           502.937
        49   02 Jun 2027 06:10:57.819   02 Jun 2027 06:11:30.006            32.187              Murmansk2          1005.844
        50   02 Jun 2027 06:11:34.269   02 Jun 2027 06:12:12.627            38.358              Murmansk2          1198.688
        51   02 Jun 2027 06:12:20.812   02 Jun 2027 06:14:46.155           145.343                 Moscow          4541.969
        52   02 Jun 2027 06:27:51.652   02 Jun 2027 06:28:19.628            27.976               CapeTown           874.250
        53   02 Jun 2027 06:29:45.671   02 Jun 2027 06:30:45.470            59.799               CapeTown          1868.719
        54   02 Jun 2027 06:34:41.455   02 Jun 2027 06:34:54.640            13.185               CapeTown           412.031
        55   02 Jun 2027 07:34:51.004   02 Jun 2027 07:35:08.176            17.172                Anadyr1           536.625
        56   02 Jun 2027 07:42:20.738   02 Jun 2027 07:42:43.898            23.160                Norilsk           723.750
        57   02 Jun 2027 07:43:00.338   02 Jun 2027 07:43:45.221            44.883                Norilsk          1402.594
        58   02 Jun 2027 07:43:51.333   02 Jun 2027 07:45:01.902            70.569                 Moscow          2205.281
        59   02 Jun 2027 07:45:26.694   02 Jun 2027 07:46:07.770            41.076              Murmansk1          1283.625
        60   02 Jun 2027 07:46:39.963   02 Jun 2027 07:47:19.250            39.287              Murmansk2          1227.719
        61   02 Jun 2027 07:47:28.993   02 Jun 2027 07:49:48.289           139.296                 Moscow          4353.000
        62   02 Jun 2027 08:04:20.243   02 Jun 2027 08:10:39.507           379.264               CapeTown         11852.000
        63   02 Jun 2027 09:05:11.241   02 Jun 2027 09:07:58.124           166.883                Anadyr2          5215.094
        64   02 Jun 2027 09:09:04.409   02 Jun 2027 09:10:33.544            89.135               Magadan2          2785.469
        65   02 Jun 2027 09:10:49.299   02 Jun 2027 09:12:33.001           103.702                Anadyr1          3240.687
        66   02 Jun 2027 10:39:53.782   02 Jun 2027 10:40:27.280            33.498               Magadan2          1046.813
        67   02 Jun 2027 10:40:36.496   02 Jun 2027 10:45:24.748           288.252               Magadan2          9007.875
        68   02 Jun 2027 10:45:57.225   02 Jun 2027 10:46:46.389            49.164               Magadan2          1536.375
        69   02 Jun 2027 10:47:31.753   02 Jun 2027 10:47:49.399            17.646                Anadyr2           551.437
        70   02 Jun 2027 12:15:32.315   02 Jun 2027 12:22:53.074           440.759               Magadan2         13773.719
        71   02 Jun 2027 14:38:19.200   02 Jun 2027 14:45:38.224           439.024            RioGallegos         13719.500
        72   02 Jun 2027 15:13:43.738   02 Jun 2027 15:16:59.281           195.543                Sumatra          6110.719
        73   02 Jun 2027 15:29:36.678   02 Jun 2027 15:32:16.146           159.468                Irkutsk          4983.375
        74   02 Jun 2027 19:59:56.258   02 Jun 2027 20:00:20.739            24.481               CapeTown           765.031
        75   02 Jun 2027 20:21:35.235   02 Jun 2027 20:22:55.726            80.491              Murmansk1          2515.344
        76   02 Jun 2027 20:23:00.529   02 Jun 2027 20:27:13.300           252.771              Murmansk2          7899.094
        77   02 Jun 2027 20:27:46.808   02 Jun 2027 20:30:14.768           147.960              Murmansk1          4623.750
        78   02 Jun 2027 21:30:39.423   02 Jun 2027 21:34:36.217           236.794               CapeTown          7399.813
        79   02 Jun 2027 22:14:19.746   02 Jun 2027 22:14:21.623             1.877               Magadan1            58.656
        80   02 Jun 2027 22:18:18.952   02 Jun 2027 22:18:20.841             1.889               Magadan2            59.031
        81   02 Jun 2027 22:18:24.545   02 Jun 2027 22:18:26.528             1.983               Magadan2            61.969
        82   02 Jun 2027 22:19:11.796   02 Jun 2027 22:19:21.960            10.164               Magadan1           317.625
        83   02 Jun 2027 23:43:58.041   02 Jun 2027 23:48:36.273           278.232                Anadyr2          8694.750
        84   02 Jun 2027 23:49:05.966   02 Jun 2027 23:49:33.340            27.374                Norilsk           855.438
        85   02 Jun 2027 23:49:42.994   02 Jun 2027 23:50:12.422            29.428               Magadan2           919.625
        86   02 Jun 2027 23:50:51.118   02 Jun 2027 23:51:40.712            49.594               Magadan1          1549.813
        87   02 Jun 2027 23:51:44.635   02 Jun 2027 23:52:56.317            71.682                Irkutsk          2240.063
        88   02 Jun 2027 23:53:59.282   02 Jun 2027 23:54:16.013            16.731                Irkutsk           522.844
        89   02 Jun 2027 23:55:34.539   02 Jun 2027 23:56:40.803            66.264                Irkutsk          2070.750
        90   03 Jun 2027 00:08:21.240   03 Jun 2027 00:09:08.489            47.249                Sumatra          1476.531
        91   03 Jun 2027 00:10:50.430   03 Jun 2027 00:11:48.960            58.530                Sumatra          1829.062
        92   03 Jun 2027 00:38:04.343   03 Jun 2027 00:39:12.663            68.320            RioGallegos          2135.000
        93   03 Jun 2027 00:48:50.803   03 Jun 2027 00:49:07.520            16.717            RioGallegos           522.406
        94   03 Jun 2027 01:19:25.264   03 Jun 2027 01:19:58.027            32.763                Anadyr1          1023.844
        95   03 Jun 2027 01:20:17.013   03 Jun 2027 01:20:49.943            32.930                Anadyr1          1029.063
        96   03 Jun 2027 01:21:24.066   03 Jun 2027 01:22:05.340            41.274                Anadyr2          1289.812
        97   03 Jun 2027 01:22:24.053   03 Jun 2027 01:24:58.000           153.947               Magadan1          4810.844
        98   03 Jun 2027 01:25:48.348   03 Jun 2027 01:27:10.774            82.426                Irkutsk          2575.813
        99   03 Jun 2027 01:29:50.007   03 Jun 2027 01:30:02.122            12.115                Novosib           378.594
       100   03 Jun 2027 01:31:41.837   03 Jun 2027 01:32:53.286            71.449                Irkutsk          2232.781
       101   03 Jun 2027 01:39:30.939   03 Jun 2027 01:42:04.055           153.116                Sumatra          4784.875
       102   03 Jun 2027 02:19:43.899   03 Jun 2027 02:20:16.249            32.350            RioGallegos          1010.937
       103   03 Jun 2027 02:57:47.862   03 Jun 2027 02:59:49.792           121.930                Norilsk          3810.312
       104   03 Jun 2027 03:01:54.386   03 Jun 2027 03:02:07.167            12.781               Magadan2           399.406
       105   03 Jun 2027 03:02:07.167   03 Jun 2027 03:02:47.641            40.474               Magadan1          1264.813
       106   03 Jun 2027 03:02:58.425   03 Jun 2027 03:04:51.623           113.198               Magadan2          3537.438
       107   03 Jun 2027 03:05:12.404   03 Jun 2027 03:06:23.990            71.586                Novosib          2237.063
       108   03 Jun 2027 03:06:31.326   03 Jun 2027 03:06:42.221            10.895                Norilsk           340.469
       109   03 Jun 2027 03:06:49.283   03 Jun 2027 03:07:26.784            37.501                Irkutsk          1171.906
       110   03 Jun 2027 03:07:30.785   03 Jun 2027 03:07:36.939             6.154                Novosib           192.313
       111   03 Jun 2027 03:07:38.975   03 Jun 2027 03:09:44.518           125.543                Irkutsk          3923.219
       112   03 Jun 2027 03:10:09.053   03 Jun 2027 03:11:28.078            79.025                  Delhi          2469.531
       113   03 Jun 2027 03:53:17.334   03 Jun 2027 03:55:08.129           110.795            RioGallegos          3462.344
       114   03 Jun 2027 04:40:28.005   03 Jun 2027 04:40:55.457            27.452              Murmansk1           857.875
       115   03 Jun 2027 04:40:55.457   03 Jun 2027 04:41:26.219            30.762              Murmansk2           961.312
       116   03 Jun 2027 04:41:27.058   03 Jun 2027 04:41:51.092            24.034                Norilsk           751.063
       117   03 Jun 2027 04:42:01.228   03 Jun 2027 04:42:09.656             8.428                Irkutsk           263.375
       118   03 Jun 2027 04:42:10.355   03 Jun 2027 04:42:25.735            15.380                Norilsk           480.625
       119   03 Jun 2027 04:42:27.989   03 Jun 2027 04:42:58.937            30.948                Norilsk           967.125
       120   03 Jun 2027 04:43:17.732   03 Jun 2027 04:45:41.746           144.014                Novosib          4500.438
       121   03 Jun 2027 04:45:45.717   03 Jun 2027 04:45:50.309             4.592              Murmansk2           143.500
       122   03 Jun 2027 04:45:51.122   03 Jun 2027 04:54:29.558           518.436                  Delhi         16201.125
       123   03 Jun 2027 06:19:00.055   03 Jun 2027 06:20:26.577            86.522              Murmansk1          2703.813
       124   03 Jun 2027 06:20:42.154   03 Jun 2027 06:21:14.999            32.845                Norilsk          1026.406
       125   03 Jun 2027 06:21:16.392   03 Jun 2027 06:22:08.406            52.014                Novosib          1625.438
       126   03 Jun 2027 06:22:13.422   03 Jun 2027 06:24:17.441           124.019                 Moscow          3875.594
       127   03 Jun 2027 06:39:07.301   03 Jun 2027 06:42:15.810           188.509               CapeTown          5890.906
       128   03 Jun 2027 07:43:01.616   03 Jun 2027 07:43:56.821            55.205                Anadyr2          1725.156
       129   03 Jun 2027 08:17:03.718   03 Jun 2027 08:18:26.200            82.482               CapeTown          2577.563
       130   03 Jun 2027 08:23:08.755   03 Jun 2027 08:25:41.563           152.808               CapeTown          4775.250
       131   03 Jun 2027 08:25:55.985   03 Jun 2027 08:26:06.127            10.142               CapeTown           316.938
       132   03 Jun 2027 09:16:29.196   03 Jun 2027 09:17:36.719            67.523                Anadyr2          2110.094
       133   03 Jun 2027 09:18:48.400   03 Jun 2027 09:20:54.667           126.267                Anadyr1          3945.844
       134   03 Jun 2027 09:21:47.921   03 Jun 2027 09:24:33.091           165.170                Anadyr2          5161.563
       135   03 Jun 2027 10:48:03.995   03 Jun 2027 10:48:21.614            17.619               Magadan1           550.594
       136   03 Jun 2027 10:51:41.628   03 Jun 2027 10:52:52.632            71.004               Magadan2          2218.875
       137   03 Jun 2027 10:53:01.809   03 Jun 2027 10:59:36.736           394.927                Anadyr1         12341.469
       138   03 Jun 2027 12:27:36.693   03 Jun 2027 12:27:58.372            21.679                Novosib           677.469
       139   03 Jun 2027 12:28:29.438   03 Jun 2027 12:29:09.936            40.498                Norilsk          1265.563
       140   03 Jun 2027 12:30:02.517   03 Jun 2027 12:34:27.748           265.231               Magadan2          8288.469
       141   03 Jun 2027 13:47:30.581   03 Jun 2027 13:49:52.317           141.736                Sumatra          4429.250
       142   03 Jun 2027 13:59:54.943   03 Jun 2027 14:00:23.944            29.001                Irkutsk           906.281
       143   03 Jun 2027 14:02:04.325   03 Jun 2027 14:04:59.279           174.954                Irkutsk          5467.313
       144   03 Jun 2027 14:51:31.823   03 Jun 2027 14:56:56.647           324.824            RioGallegos         10150.750
       145   03 Jun 2027 15:41:50.350   03 Jun 2027 15:42:19.335            28.985                Norilsk           905.781
       146   03 Jun 2027 15:43:02.334   03 Jun 2027 15:46:07.168           184.834                Novosib          5776.062
       147   03 Jun 2027 15:47:22.235   03 Jun 2027 15:47:45.334            23.099                Novosib           721.844
       148   03 Jun 2027 17:19:15.025   03 Jun 2027 17:19:19.337             4.312              Murmansk2           134.750
       149   03 Jun 2027 17:21:52.138   03 Jun 2027 17:25:42.584           230.446                Norilsk          7201.438
       150   03 Jun 2027 17:26:15.741   03 Jun 2027 17:27:11.398            55.657                Norilsk          1739.281
       151   03 Jun 2027 18:51:41.513   03 Jun 2027 18:52:57.392            75.879                 Moscow          2371.219
       152   03 Jun 2027 18:54:45.558   03 Jun 2027 18:55:54.219            68.661              Murmansk2          2145.656
       153   03 Jun 2027 18:56:22.908   03 Jun 2027 18:57:09.215            46.307                 Moscow          1447.094
       154   03 Jun 2027 18:59:18.688   03 Jun 2027 19:00:49.939            91.251              Murmansk1          2851.594
       155   03 Jun 2027 20:03:40.733   03 Jun 2027 20:04:45.514            64.781               CapeTown          2024.406
       156   03 Jun 2027 20:06:33.716   03 Jun 2027 20:08:02.997            89.281               CapeTown          2790.031
       157   03 Jun 2027 20:34:13.780   03 Jun 2027 20:40:03.791           350.011              Murmansk1         10937.844
       158   03 Jun 2027 20:40:23.963   03 Jun 2027 20:42:11.792           107.829              Murmansk2          3369.656
       159   03 Jun 2027 22:20:06.915   03 Jun 2027 22:21:23.605            76.690                Anadyr2          2396.562
       160   03 Jun 2027 22:21:38.565   03 Jun 2027 22:22:03.108            24.543                Anadyr2           766.969
       161   03 Jun 2027 22:22:26.104   03 Jun 2027 22:25:13.437           167.333               Magadan2          5229.156
       162   03 Jun 2027 22:25:40.166   03 Jun 2027 22:26:15.270            35.104               Magadan1          1097.000
       163   03 Jun 2027 23:16:58.933   03 Jun 2027 23:19:05.448           126.515            RioGallegos          3953.594
       164   03 Jun 2027 23:55:58.220   03 Jun 2027 23:58:07.216           128.996                Anadyr1          4031.125
       165   03 Jun 2027 23:58:11.917   03 Jun 2027 23:59:26.443            74.526                Anadyr1          2328.937
       166   03 Jun 2027 23:59:35.346   03 Jun 2027 23:59:53.022            17.676                Norilsk           552.375
       167   04 Jun 2027 00:00:08.787   04 Jun 2027 00:01:25.068            76.281               Magadan2          2383.781
       168   04 Jun 2027 00:01:25.068   04 Jun 2027 00:01:38.059            12.991               Magadan1           405.969
       169   04 Jun 2027 00:02:56.133   04 Jun 2027 00:03:34.248            38.115               Magadan2          1191.094
       170   04 Jun 2027 00:04:17.610   04 Jun 2027 00:05:00.012            42.402                Irkutsk          1325.062
       171   04 Jun 2027 00:05:43.283   04 Jun 2027 00:06:22.737            39.454                Irkutsk          1232.937
       172   04 Jun 2027 00:08:37.013   04 Jun 2027 00:09:50.940            73.927                Irkutsk          2310.219
       173   04 Jun 2027 00:18:40.906   04 Jun 2027 00:20:28.903           107.997                Sumatra          3374.906
       174   04 Jun 2027 00:49:59.694   04 Jun 2027 00:50:32.511            32.817            RioGallegos          1025.531
       175   04 Jun 2027 00:52:03.111   04 Jun 2027 00:52:08.123             5.012            RioGallegos           156.625
       176   04 Jun 2027 00:53:45.662   04 Jun 2027 00:53:56.929            11.267            RioGallegos           352.094
       177   04 Jun 2027 00:54:58.463   04 Jun 2027 00:55:41.596            43.133            RioGallegos          1347.906
       178   04 Jun 2027 01:01:22.344   04 Jun 2027 01:01:26.526             4.182            RioGallegos           130.688
       179   04 Jun 2027 01:01:46.904   04 Jun 2027 01:02:16.514            29.610            RioGallegos           925.312
       180   04 Jun 2027 01:31:19.697   04 Jun 2027 01:31:21.088             1.391                Anadyr2            43.469
       181   04 Jun 2027 01:31:36.206   04 Jun 2027 01:31:58.209            22.003                Anadyr1           687.594
       182   04 Jun 2027 01:32:50.157   04 Jun 2027 01:33:24.285            34.128                Anadyr2          1066.500
       183   04 Jun 2027 01:33:49.303   04 Jun 2027 01:35:52.920           123.617                Norilsk          3863.031
       184   04 Jun 2027 01:36:10.984   04 Jun 2027 01:36:25.577            14.593               Magadan2           456.031
       185   04 Jun 2027 01:37:46.875   04 Jun 2027 01:40:49.388           182.513                Irkutsk          5703.531
       186   04 Jun 2027 01:49:51.518   04 Jun 2027 01:50:33.667            42.149                  Delhi          1317.156
       187   04 Jun 2027 01:51:34.598   04 Jun 2027 01:52:47.418            72.820                Sumatra          2275.625
       188   04 Jun 2027 01:54:39.355   04 Jun 2027 01:56:03.341            83.986                Sumatra          2624.562
       189   04 Jun 2027 02:00:26.522   04 Jun 2027 02:01:15.854            49.332                Sumatra          1541.625
       190   04 Jun 2027 02:35:27.346   04 Jun 2027 02:36:59.874            92.528            RioGallegos          2891.500
       191   04 Jun 2027 03:13:56.085   04 Jun 2027 03:14:05.434             9.349                Anadyr1           292.156
       192   04 Jun 2027 03:14:07.814   04 Jun 2027 03:15:00.640            52.826               Magadan2          1650.813
       193   04 Jun 2027 03:15:00.640   04 Jun 2027 03:15:58.504            57.864               Magadan1          1808.250
       194   04 Jun 2027 03:17:07.915   04 Jun 2027 03:17:59.290            51.375                Irkutsk          1605.469
       195   04 Jun 2027 03:18:13.005   04 Jun 2027 03:19:52.476            99.471                Irkutsk          3108.469
       196   04 Jun 2027 03:19:57.986   04 Jun 2027 03:22:09.552           131.566                Norilsk          4111.438
       197   04 Jun 2027 03:22:10.297   04 Jun 2027 03:23:10.594            60.297                Irkutsk          1884.281
       198   04 Jun 2027 03:24:54.750   04 Jun 2027 03:25:05.040            10.290                Irkutsk           321.563
       199   04 Jun 2027 04:02:45.195   04 Jun 2027 04:04:40.045           114.850            RioGallegos          3589.063
       200   04 Jun 2027 04:05:44.898   04 Jun 2027 04:07:39.576           114.678            RioGallegos          3583.687
       201   04 Jun 2027 04:53:16.096   04 Jun 2027 04:53:46.025            29.929              Murmansk1           935.281
       202   04 Jun 2027 04:53:46.025   04 Jun 2027 04:55:45.869           119.844              Murmansk2          3745.125
       203   04 Jun 2027 04:55:46.106   04 Jun 2027 04:58:03.480           137.374                Novosib          4292.938
       204   04 Jun 2027 04:58:22.244   04 Jun 2027 05:06:49.120           506.876                  Delhi         15839.875
       205   04 Jun 2027 06:32:08.975   04 Jun 2027 06:32:40.127            31.152                Norilsk           973.500
       206   04 Jun 2027 06:32:57.504   04 Jun 2027 06:36:36.230           218.726              Murmansk2          6835.188
       207   04 Jun 2027 06:37:05.768   04 Jun 2027 06:38:06.377            60.609                 Moscow          1894.031
       208   04 Jun 2027 06:38:39.271   04 Jun 2027 06:38:54.858            15.587                 Moscow           487.094
       209   04 Jun 2027 06:39:46.173   04 Jun 2027 06:40:04.079            17.906                 Moscow           559.563
       210   04 Jun 2027 06:51:03.832   04 Jun 2027 06:54:55.761           231.929               CapeTown          7247.781
       211   04 Jun 2027 07:55:03.233   04 Jun 2027 07:55:20.154            16.921                Anadyr2           528.781
       212   04 Jun 2027 07:55:20.154   04 Jun 2027 07:56:10.189            50.035                Anadyr1          1563.594
       213   04 Jun 2027 07:56:44.805   04 Jun 2027 07:57:25.196            40.391                Anadyr2          1262.219
       214   04 Jun 2027 07:58:53.316   04 Jun 2027 08:00:09.043            75.727                Anadyr1          2366.469
       215   04 Jun 2027 08:30:03.191   04 Jun 2027 08:37:22.685           439.494               CapeTown         13734.188
       216   04 Jun 2027 09:28:20.362   04 Jun 2027 09:30:05.465           105.103                Anadyr1          3284.469
       217   04 Jun 2027 09:30:46.548   04 Jun 2027 09:34:23.692           217.144                Anadyr1          6785.750
       218   04 Jun 2027 09:34:23.692   04 Jun 2027 09:35:19.984            56.292                Anadyr2          1759.125
       219   04 Jun 2027 11:00:23.668   04 Jun 2027 11:00:35.532            11.864               Magadan2           370.750
       220   04 Jun 2027 11:05:16.045   04 Jun 2027 11:05:18.352             2.307                Norilsk            72.094
       221   04 Jun 2027 11:05:22.129   04 Jun 2027 11:06:20.981            58.852               Magadan1          1839.125
       222   04 Jun 2027 11:06:20.981   04 Jun 2027 11:09:39.851           198.870               Magadan2          6214.687
       223   04 Jun 2027 11:09:39.851   04 Jun 2027 11:10:44.227            64.376               Magadan1          2011.750
       224   04 Jun 2027 11:11:18.052   04 Jun 2027 11:11:30.432            12.380                Norilsk           386.875
       225   04 Jun 2027 11:11:38.076   04 Jun 2027 11:11:47.243             9.167              Murmansk2           286.469
       226   04 Jun 2027 11:12:01.223   04 Jun 2027 11:12:02.446             1.223                Novosib            38.219
       227   04 Jun 2027 11:12:12.216   04 Jun 2027 11:12:15.447             3.231              Murmansk2           100.969
       228   04 Jun 2027 11:12:22.040   04 Jun 2027 11:12:39.394            17.354              Murmansk1           542.313
       229   04 Jun 2027 11:13:30.595   04 Jun 2027 11:13:46.317            15.722              Murmansk1           491.312
       230   04 Jun 2027 11:47:05.175   04 Jun 2027 11:48:06.399            61.224            RioGallegos          1913.250
       231   04 Jun 2027 11:52:36.929   04 Jun 2027 11:53:16.588            39.659            RioGallegos          1239.344
       232   04 Jun 2027 12:24:08.521   04 Jun 2027 12:26:03.972           115.451                Sumatra          3607.844
       233   04 Jun 2027 12:35:13.258   04 Jun 2027 12:36:35.355            82.097                Irkutsk          2565.531
       234   04 Jun 2027 12:37:28.210   04 Jun 2027 12:37:54.543            26.333                Irkutsk           822.906
       235   04 Jun 2027 12:40:08.468   04 Jun 2027 12:40:42.547            34.079                Norilsk          1064.969
       236   04 Jun 2027 12:41:55.361   04 Jun 2027 12:45:43.993           228.632               Magadan1          7144.750
       237   04 Jun 2027 13:57:38.614   04 Jun 2027 14:00:36.580           177.966                Sumatra          5561.437
       238   04 Jun 2027 14:12:19.354   04 Jun 2027 14:13:20.926            61.572                Irkutsk          1924.125
       239   04 Jun 2027 14:17:26.716   04 Jun 2027 14:17:39.128            12.412                Irkutsk           387.875
       240   04 Jun 2027 14:18:05.652   04 Jun 2027 14:20:18.865           133.213                Irkutsk          4162.906
       241   04 Jun 2027 15:05:43.886   04 Jun 2027 15:07:18.915            95.029            RioGallegos          2969.656
       242   04 Jun 2027 15:42:11.660   04 Jun 2027 15:43:14.014            62.354                  Delhi          1948.563
       243   04 Jun 2027 15:49:52.403   04 Jun 2027 15:52:03.909           131.506                  Delhi          4109.563
       244   04 Jun 2027 15:54:14.296   04 Jun 2027 15:55:08.875            54.579                Norilsk          1705.594
       245   04 Jun 2027 15:55:32.162   04 Jun 2027 15:55:48.924            16.762                Novosib           523.812
       246   04 Jun 2027 15:59:17.623   04 Jun 2027 15:59:46.020            28.397                Norilsk           887.406
       247   04 Jun 2027 17:26:10.086   04 Jun 2027 17:29:28.127           198.041                 Moscow          6188.781
       248   04 Jun 2027 17:31:10.939   04 Jun 2027 17:31:56.075            45.136              Murmansk1          1410.500
       249   04 Jun 2027 17:34:40.073   04 Jun 2027 17:38:14.235           214.162                Norilsk          6692.563
       250   04 Jun 2027 17:39:32.645   04 Jun 2027 17:39:48.312            15.667                Norilsk           489.594
       251   04 Jun 2027 19:04:14.219   04 Jun 2027 19:06:21.887           127.668                 Moscow          3989.625
       252   04 Jun 2027 19:07:05.488   04 Jun 2027 19:09:25.351           139.863              Murmansk1          4370.719
       253   04 Jun 2027 19:11:51.534   04 Jun 2027 19:12:08.757            17.223              Murmansk1           538.219
       254   04 Jun 2027 20:15:50.273   04 Jun 2027 20:18:20.861           150.588               CapeTown          4705.875
       255   04 Jun 2027 20:23:13.644   04 Jun 2027 20:23:59.872            46.228               CapeTown          1444.625
       256   04 Jun 2027 20:46:56.218   04 Jun 2027 20:54:07.037           430.819              Murmansk2         13463.094
       257   04 Jun 2027 22:32:08.746   04 Jun 2027 22:33:30.502            81.756                Anadyr1          2554.875
       258   04 Jun 2027 22:33:38.823   04 Jun 2027 22:34:03.267            24.444                Anadyr1           763.875
       259   04 Jun 2027 22:34:26.099   04 Jun 2027 22:36:21.337           115.238               Magadan2          3601.188
       260   04 Jun 2027 22:36:43.282   04 Jun 2027 22:37:17.670            34.388               Magadan2          1074.625
       261   04 Jun 2027 22:38:12.107   04 Jun 2027 22:38:21.499             9.392               Magadan2           293.500
       262   04 Jun 2027 22:38:24.925   04 Jun 2027 22:38:50.174            25.249               Magadan2           789.031
       263   04 Jun 2027 22:41:23.301   04 Jun 2027 22:41:37.693            14.392               Magadan1           449.750
       264   04 Jun 2027 22:42:09.608   04 Jun 2027 22:42:31.817            22.209               Magadan2           694.031
       265   04 Jun 2027 22:43:38.339   04 Jun 2027 22:43:53.514            15.175               Magadan2           474.219
       266   04 Jun 2027 23:28:01.031   04 Jun 2027 23:30:46.696           165.665            RioGallegos          5177.031
       267   04 Jun 2027 23:33:23.343   04 Jun 2027 23:34:06.177            42.834            RioGallegos          1338.562
       268   05 Jun 2027 00:07:57.954   05 Jun 2027 00:09:26.122            88.168                Anadyr2          2755.250
       269   05 Jun 2027 00:09:32.737   05 Jun 2027 00:09:44.171            11.434                Anadyr1           357.312
       270   05 Jun 2027 00:10:02.676   05 Jun 2027 00:11:54.715           112.039                Norilsk          3501.219
       271   05 Jun 2027 00:12:09.197   05 Jun 2027 00:13:16.623            67.426               Magadan2          2107.063
       272   05 Jun 2027 00:14:53.417   05 Jun 2027 00:15:30.189            36.772                Irkutsk          1149.125
       273   05 Jun 2027 00:17:00.432   05 Jun 2027 00:17:24.147            23.715                Irkutsk           741.094
       274   05 Jun 2027 00:19:30.508   05 Jun 2027 00:19:34.539             4.031                Irkutsk           125.969
       275   05 Jun 2027 00:20:09.796   05 Jun 2027 00:20:30.127            20.331                Irkutsk           635.344
       276   05 Jun 2027 00:20:55.296   05 Jun 2027 00:21:46.720            51.424                Irkutsk          1607.000
       277   05 Jun 2027 00:29:42.043   05 Jun 2027 00:31:33.819           111.776                Sumatra          3493.000
       278   05 Jun 2027 00:38:40.562   05 Jun 2027 00:38:42.877             2.315                Sumatra            72.344
       279   05 Jun 2027 01:01:56.678   05 Jun 2027 01:02:04.776             8.098            RioGallegos           253.063
       280   05 Jun 2027 01:03:53.117   05 Jun 2027 01:04:18.159            25.042            RioGallegos           782.562
       281   05 Jun 2027 01:07:41.484   05 Jun 2027 01:07:47.480             5.996            RioGallegos           187.375
       282   05 Jun 2027 01:08:47.724   05 Jun 2027 01:09:01.661            13.937            RioGallegos           435.531
       283   05 Jun 2027 01:10:10.135   05 Jun 2027 01:10:21.153            11.018            RioGallegos           344.312
       284   05 Jun 2027 01:12:51.115   05 Jun 2027 01:13:00.260             9.145            RioGallegos           285.781
       285   05 Jun 2027 01:13:31.081   05 Jun 2027 01:14:11.866            40.785            RioGallegos          1274.531
       286   05 Jun 2027 01:43:12.996   05 Jun 2027 01:43:31.321            18.325                Anadyr2           572.656
       287   05 Jun 2027 01:44:04.321   05 Jun 2027 01:44:43.600            39.279                Anadyr2          1227.469
       288   05 Jun 2027 01:45:24.119   05 Jun 2027 01:45:49.478            25.359                Anadyr2           792.469
       289   05 Jun 2027 01:45:51.423   05 Jun 2027 01:45:51.925             0.502                Norilsk            15.687
       290   05 Jun 2027 01:46:05.929   05 Jun 2027 01:46:21.828            15.899                Anadyr2           496.844
       291   05 Jun 2027 01:46:30.841   05 Jun 2027 01:47:53.215            82.374               Magadan1          2574.187
       292   05 Jun 2027 01:48:04.640   05 Jun 2027 01:48:11.444             6.804               Magadan1           212.625
       293   05 Jun 2027 01:49:46.526   05 Jun 2027 01:52:32.012           165.486                Irkutsk          5171.438
       294   05 Jun 2027 01:56:52.239   05 Jun 2027 01:56:57.721             5.482                Irkutsk           171.312
       295   05 Jun 2027 01:57:20.151   05 Jun 2027 01:57:25.506             5.355                Irkutsk           167.344
       296   05 Jun 2027 01:57:33.025   05 Jun 2027 01:58:38.342            65.317                Irkutsk          2041.156
       297   05 Jun 2027 02:03:44.156   05 Jun 2027 02:04:04.408            20.252                Sumatra           632.875
       298   05 Jun 2027 02:06:32.318   05 Jun 2027 02:08:32.220           119.902                Sumatra          3746.938
       299   05 Jun 2027 02:11:28.264   05 Jun 2027 02:13:30.477           122.213                Sumatra          3819.156
       300   05 Jun 2027 03:26:37.979   05 Jun 2027 03:27:46.349            68.370               Magadan1          2136.563
       301   05 Jun 2027 03:28:07.969   05 Jun 2027 03:28:59.816            51.847                Irkutsk          1620.219
       302   05 Jun 2027 03:29:28.449   05 Jun 2027 03:29:35.842             7.393                Novosib           231.031
       303   05 Jun 2027 03:29:42.508   05 Jun 2027 03:31:54.461           131.953                Irkutsk          4123.531
       304   05 Jun 2027 03:32:34.646   05 Jun 2027 03:34:47.945           133.299                Norilsk          4165.594
       305   05 Jun 2027 03:34:49.035   05 Jun 2027 03:37:01.600           132.565                Novosib          4142.656
       306   05 Jun 2027 03:39:52.823   05 Jun 2027 03:42:40.686           167.863                  Delhi          5245.719
       307   05 Jun 2027 04:15:04.332   05 Jun 2027 04:17:45.688           161.356            RioGallegos          5042.375
       308   05 Jun 2027 04:19:22.260   05 Jun 2027 04:20:42.998            80.738            RioGallegos          2523.063
       309   05 Jun 2027 05:05:25.560   05 Jun 2027 05:06:14.293            48.733                Norilsk          1522.906
       310   05 Jun 2027 05:06:20.372   05 Jun 2027 05:07:28.023            67.651              Murmansk1          2114.094
       311   05 Jun 2027 05:07:44.465   05 Jun 2027 05:08:40.662            56.197                Novosib          1756.156
       312   05 Jun 2027 05:08:47.658   05 Jun 2027 05:09:52.553            64.895                Norilsk          2027.969
       313   05 Jun 2027 05:09:54.923   05 Jun 2027 05:11:27.231            92.308                Novosib          2884.625
       314   05 Jun 2027 05:12:03.029   05 Jun 2027 05:17:45.561           342.532                  Delhi         10704.125
       315   05 Jun 2027 06:43:53.969   05 Jun 2027 06:44:27.991            34.022                 Moscow          1063.187
       316   05 Jun 2027 06:44:39.372   05 Jun 2027 06:44:58.646            19.274                Norilsk           602.312
       317   05 Jun 2027 06:45:05.776   05 Jun 2027 06:49:40.105           274.329                 Moscow          8572.781
       318   05 Jun 2027 06:51:41.155   05 Jun 2027 06:52:05.922            24.767                 Moscow           773.969
       319   05 Jun 2027 07:03:05.422   05 Jun 2027 07:04:28.143            82.721               CapeTown          2585.031
       320   05 Jun 2027 07:06:18.134   05 Jun 2027 07:07:24.864            66.730               CapeTown          2085.313
       321   05 Jun 2027 08:06:24.875   05 Jun 2027 08:07:35.174            70.299               Magadan2          2196.844
       322   05 Jun 2027 08:07:35.174   05 Jun 2027 08:08:04.197            29.023               Magadan1           906.969
       323   05 Jun 2027 08:08:26.013   05 Jun 2027 08:10:54.024           148.011                Anadyr1          4625.344
       324   05 Jun 2027 08:18:34.182   05 Jun 2027 08:19:30.282            56.100                 Moscow          1753.125
       325   05 Jun 2027 08:43:35.381   05 Jun 2027 08:48:08.976           273.595               CapeTown          8549.844
       326   05 Jun 2027 09:42:37.804   05 Jun 2027 09:48:31.237           353.433                Anadyr1         11044.781
       327   05 Jun 2027 11:12:46.896   05 Jun 2027 11:13:19.803            32.907               Magadan1          1028.344
       328   05 Jun 2027 11:16:31.368   05 Jun 2027 11:17:00.633            29.265                Irkutsk           914.531
       329   05 Jun 2027 11:17:52.515   05 Jun 2027 11:21:26.131           213.616               Magadan1          6675.500
       330   05 Jun 2027 11:21:30.252   05 Jun 2027 11:22:44.483            74.231                Anadyr2          2319.719
       331   05 Jun 2027 11:23:05.461   05 Jun 2027 11:23:39.452            33.991              Murmansk1          1062.219
       332   05 Jun 2027 11:23:39.452   05 Jun 2027 11:23:59.678            20.226              Murmansk2           632.063
       333   05 Jun 2027 11:24:12.245   05 Jun 2027 11:24:45.599            33.354              Murmansk2          1042.313
       334   05 Jun 2027 11:26:48.968   05 Jun 2027 11:27:00.554            11.586              Murmansk1           362.063
       335   05 Jun 2027 11:58:56.512   05 Jun 2027 12:00:12.500            75.988            RioGallegos          2374.625
       336   05 Jun 2027 12:35:19.913   05 Jun 2027 12:35:41.513            21.600                Sumatra           675.000
       337   05 Jun 2027 12:36:56.081   05 Jun 2027 12:38:01.257            65.176                Sumatra          2036.750
       338   05 Jun 2027 12:47:11.655   05 Jun 2027 12:50:17.477           185.822                Irkutsk          5806.937
       339   05 Jun 2027 12:52:07.013   05 Jun 2027 12:52:57.494            50.481                Norilsk          1577.531
       340   05 Jun 2027 13:35:31.055   05 Jun 2027 13:36:02.770            31.715            RioGallegos           991.094
       341   05 Jun 2027 13:37:30.398   05 Jun 2027 13:40:36.322           185.924            RioGallegos          5810.125
       342   05 Jun 2027 14:09:51.315   05 Jun 2027 14:10:42.364            51.049                Sumatra          1595.281
       343   05 Jun 2027 14:12:26.522   05 Jun 2027 14:14:50.909           144.387                Sumatra          4512.094
       344   05 Jun 2027 14:24:49.008   05 Jun 2027 14:26:37.798           108.790                Irkutsk          3399.687
       345   05 Jun 2027 14:33:41.055   05 Jun 2027 14:34:50.975            69.920                Irkutsk          2185.000
       346   05 Jun 2027 15:54:35.298   05 Jun 2027 15:57:15.715           160.417                  Delhi          5013.031
       347   05 Jun 2027 16:00:05.796   05 Jun 2027 16:00:13.266             7.470                  Delhi           233.438
       348   05 Jun 2027 16:02:51.448   05 Jun 2027 16:05:16.126           144.678                Novosib          4521.188
       349   05 Jun 2027 16:06:40.501   05 Jun 2027 16:08:05.769            85.268                Norilsk          2664.625
       350   05 Jun 2027 16:08:37.353   05 Jun 2027 16:08:43.611             6.258                Novosib           195.563
       351   05 Jun 2027 17:38:15.597   05 Jun 2027 17:39:27.101            71.504                 Moscow          2234.500
       352   05 Jun 2027 17:41:29.117   05 Jun 2027 17:42:09.995            40.878                 Moscow          1277.438
       353   05 Jun 2027 17:42:34.600   05 Jun 2027 17:43:13.012            38.412              Murmansk1          1200.375
       354   05 Jun 2027 17:43:25.641   05 Jun 2027 17:44:36.476            70.835              Murmansk2          2213.594
       355   05 Jun 2027 17:47:34.318   05 Jun 2027 17:51:51.835           257.517                Norilsk          8047.406
       356   05 Jun 2027 19:16:53.095   05 Jun 2027 19:23:07.993           374.898                 Moscow         11715.562
       357   05 Jun 2027 20:28:03.211   05 Jun 2027 20:28:09.691             6.480               CapeTown           202.500
       358   05 Jun 2027 20:29:46.568   05 Jun 2027 20:31:55.380           128.812               CapeTown          4025.375
       359   05 Jun 2027 20:36:16.411   05 Jun 2027 20:37:50.473            94.062               CapeTown          2939.437
       360   05 Jun 2027 20:59:43.397   05 Jun 2027 21:05:59.643           376.246              Murmansk2         11757.687
       361   05 Jun 2027 22:44:10.468   05 Jun 2027 22:44:55.718            45.250                Anadyr1          1414.062
       362   05 Jun 2027 22:45:12.963   05 Jun 2027 22:45:26.337            13.374                Anadyr1           417.937
       363   05 Jun 2027 22:45:39.359   05 Jun 2027 22:46:03.000            23.641                Anadyr1           738.781
       364   05 Jun 2027 22:46:26.659   05 Jun 2027 22:48:28.346           121.687               Magadan2          3802.719
       365   05 Jun 2027 22:49:44.572   05 Jun 2027 22:49:54.492             9.920               Magadan1           310.000
       366   05 Jun 2027 22:50:10.555   05 Jun 2027 22:50:14.515             3.960               Magadan1           123.750
       367   05 Jun 2027 22:50:20.599   05 Jun 2027 22:50:59.852            39.253               Magadan2          1226.656
       368   05 Jun 2027 22:52:51.579   05 Jun 2027 22:53:11.719            20.140               Magadan1           629.375
       369   05 Jun 2027 23:39:27.847   05 Jun 2027 23:42:32.945           185.098            RioGallegos          5784.312
       370   05 Jun 2027 23:45:28.338   05 Jun 2027 23:45:59.688            31.350            RioGallegos           979.687
       371   06 Jun 2027 00:19:57.173   06 Jun 2027 00:21:19.645            82.472                Anadyr2          2577.250
       372   06 Jun 2027 00:22:01.439   06 Jun 2027 00:24:13.565           132.126                Norilsk          4128.937
       373   06 Jun 2027 00:25:33.983   06 Jun 2027 00:25:50.764            16.781               Magadan1           524.406
       374   06 Jun 2027 00:26:05.017   06 Jun 2027 00:26:08.049             3.032               Magadan1            94.750
       375   06 Jun 2027 00:26:38.305   06 Jun 2027 00:27:52.033            73.728                Irkutsk          2304.000
       376   06 Jun 2027 00:28:46.493   06 Jun 2027 00:30:06.282            79.789                Irkutsk          2493.406
       377   06 Jun 2027 00:33:35.621   06 Jun 2027 00:33:43.996             8.375                Irkutsk           261.719
       378   06 Jun 2027 00:34:54.021   06 Jun 2027 00:35:12.280            18.259                Irkutsk           570.594
       379   06 Jun 2027 00:41:01.216   06 Jun 2027 00:43:53.851           172.635                Sumatra          5394.844
       380   06 Jun 2027 01:18:54.662   06 Jun 2027 01:19:54.349            59.687            RioGallegos          1865.219
       381   06 Jun 2027 01:26:39.670   06 Jun 2027 01:26:39.941             0.271            RioGallegos             8.469
       382   06 Jun 2027 01:55:05.075   06 Jun 2027 01:55:33.352            28.277                Anadyr2           883.656
       383   06 Jun 2027 01:56:34.585   06 Jun 2027 01:57:23.470            48.885                Anadyr2          1527.656
       384   06 Jun 2027 01:57:53.701   06 Jun 2027 01:59:30.625            96.924                Norilsk          3028.875
       385   06 Jun 2027 01:59:50.916   06 Jun 2027 01:59:57.506             6.590                Norilsk           205.937
       386   06 Jun 2027 02:00:33.076   06 Jun 2027 02:01:04.247            31.171               Magadan1           974.094
       387   06 Jun 2027 02:01:47.188   06 Jun 2027 02:03:37.395           110.207                Irkutsk          3443.969
       388   06 Jun 2027 02:04:05.615   06 Jun 2027 02:04:39.038            33.423                Novosib          1044.469
       389   06 Jun 2027 02:09:00.522   06 Jun 2027 02:09:56.532            56.010                Irkutsk          1750.313
       390   06 Jun 2027 02:16:00.215   06 Jun 2027 02:17:36.731            96.516                Sumatra          3016.125
       391   06 Jun 2027 02:21:00.074   06 Jun 2027 02:21:13.319            13.245                Sumatra           413.906
       392   06 Jun 2027 02:50:00.372   06 Jun 2027 02:52:16.706           136.334            RioGallegos          4260.438
       393   06 Jun 2027 02:57:25.512   06 Jun 2027 02:57:55.543            30.031            RioGallegos           938.469
       394   06 Jun 2027 03:39:04.473   06 Jun 2027 03:39:14.070             9.597               Magadan2           299.906
       395   06 Jun 2027 03:39:39.002   06 Jun 2027 03:41:14.702            95.700                Irkutsk          2990.625
       396   06 Jun 2027 03:41:23.278   06 Jun 2027 03:43:59.733           156.455                Irkutsk          4889.219
       397   06 Jun 2027 03:44:35.522   06 Jun 2027 03:47:11.722           156.200                Irkutsk          4881.250
       398   06 Jun 2027 03:50:02.989   06 Jun 2027 03:50:35.424            32.435                Novosib          1013.594
       399   06 Jun 2027 03:52:36.461   06 Jun 2027 03:54:23.498           107.037                  Delhi          3344.906
       400   06 Jun 2027 04:27:29.853   06 Jun 2027 04:32:38.972           309.119            RioGallegos          9659.969
       401   06 Jun 2027 05:17:55.663   06 Jun 2027 05:18:22.366            26.703                Novosib           834.469
       402   06 Jun 2027 05:18:29.469   06 Jun 2027 05:18:51.842            22.373                Irkutsk           699.156
       403   06 Jun 2027 05:18:57.652   06 Jun 2027 05:19:23.441            25.789                Norilsk           805.906
       404   06 Jun 2027 05:19:24.590   06 Jun 2027 05:19:29.115             4.525              Murmansk2           141.406
       405   06 Jun 2027 05:19:41.875   06 Jun 2027 05:20:28.661            46.786              Murmansk2          1462.063
       406   06 Jun 2027 05:20:38.026   06 Jun 2027 05:22:19.377           101.351                Norilsk          3167.219
       407   06 Jun 2027 05:22:42.489   06 Jun 2027 05:23:21.344            38.855              Murmansk1          1214.219
       408   06 Jun 2027 05:24:24.886   06 Jun 2027 05:28:05.517           220.631                  Delhi          6894.719
       409   06 Jun 2027 06:56:39.942   06 Jun 2027 06:56:47.526             7.584                Norilsk           237.000
       410   06 Jun 2027 06:56:48.968   06 Jun 2027 06:58:52.673           123.705              Murmansk2          3865.781
       411   06 Jun 2027 06:59:03.541   06 Jun 2027 06:59:55.472            51.931                 Moscow          1622.844
       412   06 Jun 2027 07:15:12.211   06 Jun 2027 07:17:57.178           164.967               CapeTown          5155.219
       413   06 Jun 2027 08:18:02.287   06 Jun 2027 08:19:05.871            63.584                Anadyr2          1987.000
       414   06 Jun 2027 08:19:23.530   06 Jun 2027 08:20:28.329            64.799               Magadan1          2024.969
       415   06 Jun 2027 08:22:54.338   06 Jun 2027 08:24:10.170            75.832                Anadyr1          2369.750
       416   06 Jun 2027 08:24:10.170   06 Jun 2027 08:24:46.923            36.753                Anadyr2          1148.531
       417   06 Jun 2027 09:49:57.900   06 Jun 2027 09:50:56.022            58.122                Anadyr2          1816.313
       418   06 Jun 2027 09:54:07.588   06 Jun 2027 09:54:39.438            31.850                Anadyr2           995.313
       419   06 Jun 2027 09:54:39.438   06 Jun 2027 09:55:14.189            34.751                Anadyr1          1085.969
       420   06 Jun 2027 09:55:34.808   06 Jun 2027 09:56:05.609            30.801               Magadan1           962.531
       421   06 Jun 2027 09:56:05.609   06 Jun 2027 09:56:25.327            19.718               Magadan2           616.188
       422   06 Jun 2027 09:56:35.646   06 Jun 2027 09:57:06.148            30.502                Norilsk           953.188
       423   06 Jun 2027 09:57:07.823   06 Jun 2027 09:59:24.333           136.510               Magadan1          4265.937
       424   06 Jun 2027 10:00:28.157   06 Jun 2027 10:00:29.461             1.304                Anadyr2            40.750
       425   06 Jun 2027 11:25:14.045   06 Jun 2027 11:26:37.328            83.283               Magadan1          2602.594
       426   06 Jun 2027 11:28:42.436   06 Jun 2027 11:30:36.166           113.730               Magadan2          3554.063
       427   06 Jun 2027 11:31:01.497   06 Jun 2027 11:31:07.696             6.199                Novosib           193.719
       428   06 Jun 2027 11:31:26.362   06 Jun 2027 11:31:39.693            13.331                Norilsk           416.594
       429   06 Jun 2027 11:32:18.938   06 Jun 2027 11:32:32.777            13.839                Irkutsk           432.469
       430   06 Jun 2027 11:33:06.692   06 Jun 2027 11:35:55.182           168.490               Magadan2          5265.313
       431   06 Jun 2027 12:13:01.672   06 Jun 2027 12:13:20.635            18.963            RioGallegos           592.594
       432   06 Jun 2027 12:46:45.369   06 Jun 2027 12:47:43.146            57.777                Sumatra          1805.531
       433   06 Jun 2027 12:50:35.322   06 Jun 2027 12:52:27.690           112.368                Sumatra          3511.500
       434   06 Jun 2027 12:59:13.285   06 Jun 2027 13:00:47.169            93.884                Irkutsk          2933.875
       435   06 Jun 2027 13:02:31.146   06 Jun 2027 13:03:23.843            52.697                Irkutsk          1646.781
       436   06 Jun 2027 13:07:27.039   06 Jun 2027 13:08:03.735            36.696                Norilsk          1146.750
       437   06 Jun 2027 13:47:55.696   06 Jun 2027 13:49:02.114            66.418            RioGallegos          2075.562
       438   06 Jun 2027 13:53:00.370   06 Jun 2027 13:53:17.126            16.756            RioGallegos           523.625
       439   06 Jun 2027 13:55:47.680   06 Jun 2027 13:57:53.207           125.527            RioGallegos          3922.719
       440   06 Jun 2027 14:22:11.024   06 Jun 2027 14:27:40.679           329.655                Sumatra         10301.719
       441   06 Jun 2027 14:37:24.840   06 Jun 2027 14:43:29.946           365.106                Irkutsk         11409.563
       442   06 Jun 2027 16:10:33.679   06 Jun 2027 16:13:30.436           176.757                  Delhi          5523.656
       443   06 Jun 2027 16:15:31.821   06 Jun 2027 16:21:54.595           382.774                Novosib         11961.688
       444   06 Jun 2027 18:00:39.476   06 Jun 2027 18:01:47.406            67.930                Norilsk          2122.813
       445   06 Jun 2027 18:03:02.670   06 Jun 2027 18:03:26.574            23.904                Norilsk           747.000
       446   06 Jun 2027 19:29:39.767   06 Jun 2027 19:36:48.467           428.700                 Moscow         13396.875
       447   06 Jun 2027 20:40:20.205   06 Jun 2027 20:41:38.136            77.931               CapeTown          2435.344
       448   06 Jun 2027 20:44:09.730   06 Jun 2027 20:45:23.998            74.268               CapeTown          2320.875
       449   06 Jun 2027 21:12:36.956   06 Jun 2027 21:17:47.972           311.016              Murmansk1          9719.250
       450   06 Jun 2027 22:56:12.044   06 Jun 2027 22:58:27.078           135.034                Anadyr1          4219.812
       451   06 Jun 2027 22:58:27.711   06 Jun 2027 22:59:16.620            48.909               Magadan1          1528.406
       452   06 Jun 2027 22:59:16.620   06 Jun 2027 22:59:50.151            33.531               Magadan2          1047.844
       453   06 Jun 2027 23:01:32.721   06 Jun 2027 23:01:47.062            14.341               Magadan1           448.156
       454   06 Jun 2027 23:01:57.068   06 Jun 2027 23:02:16.111            19.043               Magadan2           595.094
       455   06 Jun 2027 23:02:29.638   06 Jun 2027 23:03:05.631            35.993               Magadan1          1124.781
       456   06 Jun 2027 23:03:16.884   06 Jun 2027 23:03:35.824            18.940               Magadan2           591.875
       457   06 Jun 2027 23:09:30.882   06 Jun 2027 23:09:39.096             8.214               Magadan2           256.688
       458   06 Jun 2027 23:51:05.296   06 Jun 2027 23:54:22.763           197.467            RioGallegos          6170.844
       459   06 Jun 2027 23:57:34.241   06 Jun 2027 23:57:55.139            20.898            RioGallegos           653.063
       460   06 Jun 2027 23:58:22.989   06 Jun 2027 23:58:59.825            36.836            RioGallegos          1151.125
       461   07 Jun 2027 00:31:55.803   07 Jun 2027 00:33:04.692            68.889                Anadyr1          2152.781
       462   07 Jun 2027 00:34:01.130   07 Jun 2027 00:35:40.682            99.552                Norilsk          3111.000
       463   07 Jun 2027 00:36:37.393   07 Jun 2027 00:36:37.747             0.354               Magadan1            11.063
       464   07 Jun 2027 00:36:50.539   07 Jun 2027 00:37:00.191             9.652                Norilsk           301.625
       465   07 Jun 2027 00:37:11.508   07 Jun 2027 00:37:53.147            41.639               Magadan1          1301.219
       466   07 Jun 2027 00:38:27.137   07 Jun 2027 00:39:52.259            85.122                Irkutsk          2660.062
       467   07 Jun 2027 00:42:01.311   07 Jun 2027 00:43:04.090            62.779                Irkutsk          1961.844
       468   07 Jun 2027 00:45:02.982   07 Jun 2027 00:45:42.556            39.574                Irkutsk          1236.687
       469   07 Jun 2027 00:52:31.951   07 Jun 2027 00:54:04.302            92.351                Sumatra          2885.969
       470   07 Jun 2027 00:56:28.803   07 Jun 2027 00:58:41.969           133.166                Sumatra          4161.438
       471   07 Jun 2027 01:37:28.695   07 Jun 2027 01:37:42.916            14.221            RioGallegos           444.406
       472   07 Jun 2027 02:06:55.861   07 Jun 2027 02:07:24.279            28.418                Anadyr1           888.062
       473   07 Jun 2027 02:07:56.493   07 Jun 2027 02:07:58.389             1.896                Anadyr2            59.250
       474   07 Jun 2027 02:08:21.949   07 Jun 2027 02:08:56.845            34.896                Anadyr1          1090.500
       475   07 Jun 2027 02:09:18.624   07 Jun 2027 02:09:22.244             3.620                Anadyr1           113.125
       476   07 Jun 2027 02:09:53.116   07 Jun 2027 02:10:00.945             7.829                Anadyr1           244.656
       477   07 Jun 2027 02:10:37.338   07 Jun 2027 02:12:14.272            96.934               Magadan1          3029.188
       478   07 Jun 2027 02:13:48.766   07 Jun 2027 02:16:06.548           137.782                Irkutsk          4305.688
       479   07 Jun 2027 02:17:38.700   07 Jun 2027 02:17:47.350             8.650                Irkutsk           270.313
       480   07 Jun 2027 02:20:44.020   07 Jun 2027 02:22:14.089            90.069                Irkutsk          2814.656
       481   07 Jun 2027 02:28:23.973   07 Jun 2027 02:34:15.252           351.279                Sumatra         10977.469
       482   07 Jun 2027 03:51:57.391   07 Jun 2027 03:53:42.118           104.727                Novosib          3272.719
