uniorb/output/strategy_1/Drop/Drop_KinoSat_111601.txt

KinoSat_111601
-------------------------
    Access    *     Start Time (UTCG)     *     Stop Time (UTCG)  *   Duration (s)        *       Station  *  Data (Mbytes)
         1   01 Jun 2027 03:56:07.222   01 Jun 2027 03:57:26.322            79.100                Norilsk          2471.875
         2   01 Jun 2027 03:57:34.342   01 Jun 2027 03:59:52.612           138.270                Novosib          4320.937
         3   01 Jun 2027 04:00:10.216   01 Jun 2027 04:00:30.832            20.616              Murmansk2           644.250
         4   01 Jun 2027 04:01:32.259   01 Jun 2027 04:02:33.184            60.925                 Moscow          1903.906
         5   01 Jun 2027 04:24:02.418   01 Jun 2027 04:24:17.718            15.300               CapeTown           478.125
         6   01 Jun 2027 05:32:55.166   01 Jun 2027 05:33:17.075            21.909                Norilsk           684.656
         7   01 Jun 2027 05:33:21.591   01 Jun 2027 05:34:02.039            40.448              Murmansk2          1264.000
         8   01 Jun 2027 05:34:27.300   01 Jun 2027 05:35:38.367            71.067              Murmansk1          2220.844
         9   01 Jun 2027 05:35:38.367   01 Jun 2027 05:36:00.175            21.808              Murmansk2           681.500
        10   01 Jun 2027 05:38:50.795   01 Jun 2027 05:39:35.402            44.607                 Moscow          1393.969
        11   01 Jun 2027 06:56:27.167   01 Jun 2027 06:58:44.951           137.784                Anadyr1          4305.750
        12   01 Jun 2027 08:31:23.970   01 Jun 2027 08:32:16.766            52.796               Magadan1          1649.875
        13   01 Jun 2027 08:32:50.845   01 Jun 2027 08:32:57.555             6.710               Magadan1           209.687
        14   01 Jun 2027 08:33:28.263   01 Jun 2027 08:34:08.038            39.775               Magadan2          1242.969
        15   01 Jun 2027 08:34:16.345   01 Jun 2027 08:37:09.923           173.578                Anadyr2          5424.312
        16   01 Jun 2027 10:06:16.694   01 Jun 2027 10:07:24.172            67.478               Magadan2          2108.688
        17   01 Jun 2027 10:08:56.126   01 Jun 2027 10:12:29.390           213.264               Magadan1          6664.500
        18   01 Jun 2027 10:12:48.051   01 Jun 2027 10:13:19.678            31.627              Murmansk2           988.344
        19   01 Jun 2027 10:14:27.113   01 Jun 2027 10:14:51.083            23.970              Murmansk1           749.062
        20   01 Jun 2027 10:47:36.386   01 Jun 2027 10:50:04.299           147.913            RioGallegos          4622.281
        21   01 Jun 2027 11:22:57.000   01 Jun 2027 11:24:41.098           104.098                Sumatra          3253.062
        22   01 Jun 2027 11:44:08.667   01 Jun 2027 11:48:52.714           284.047                Irkutsk          8876.469
        23   01 Jun 2027 13:02:48.045   01 Jun 2027 13:03:34.074            46.029                Sumatra          1438.406
        24   01 Jun 2027 13:14:57.365   01 Jun 2027 13:16:45.297           107.932                Novosib          3372.875
        25   01 Jun 2027 13:16:58.716   01 Jun 2027 13:19:05.786           127.070                Irkutsk          3970.938
        26   01 Jun 2027 14:45:12.106   01 Jun 2027 14:49:48.828           276.722                  Delhi          8647.563
        27   01 Jun 2027 14:53:43.161   01 Jun 2027 14:56:32.327           169.166                Novosib          5286.438
        28   01 Jun 2027 14:56:48.088   01 Jun 2027 14:57:11.814            23.726                Norilsk           741.437
        29   01 Jun 2027 14:57:44.478   01 Jun 2027 14:58:13.892            29.414                Novosib           919.188
        30   01 Jun 2027 15:01:50.504   01 Jun 2027 15:02:10.831            20.327                Norilsk           635.219
        31   01 Jun 2027 16:07:51.204   01 Jun 2027 16:09:42.844           111.640               CapeTown          3488.750
        32   01 Jun 2027 16:10:04.496   01 Jun 2027 16:10:48.480            43.984               CapeTown          1374.500
        33   01 Jun 2027 16:12:37.198   01 Jun 2027 16:13:17.544            40.346               CapeTown          1260.812
        34   01 Jun 2027 16:13:17.681   01 Jun 2027 16:13:25.060             7.379               CapeTown           230.594
        35   01 Jun 2027 16:27:32.309   01 Jun 2027 16:27:55.188            22.879                 Moscow           714.969
        36   01 Jun 2027 16:30:14.733   01 Jun 2027 16:30:59.017            44.284                 Moscow          1383.875
        37   01 Jun 2027 16:30:59.714   01 Jun 2027 16:31:47.187            47.473              Murmansk2          1483.531
        38   01 Jun 2027 16:33:25.848   01 Jun 2027 16:34:23.253            57.405              Murmansk2          1793.906
        39   01 Jun 2027 16:37:40.480   01 Jun 2027 16:38:14.665            34.185              Murmansk1          1068.281
        40   01 Jun 2027 16:39:39.280   01 Jun 2027 16:40:03.167            23.887              Murmansk1           746.469
        41   01 Jun 2027 16:40:29.276   01 Jun 2027 16:40:44.181            14.905              Murmansk1           465.781
        42   01 Jun 2027 16:41:22.649   01 Jun 2027 16:41:36.177            13.528              Murmansk1           422.750
        43   01 Jun 2027 16:42:12.813   01 Jun 2027 16:42:58.310            45.497              Murmansk1          1421.781
        44   01 Jun 2027 16:46:05.849   01 Jun 2027 16:47:01.837            55.988                Anadyr2          1749.625
        45   01 Jun 2027 16:48:23.567   01 Jun 2027 16:48:29.619             6.052                Anadyr2           189.125
        46   01 Jun 2027 16:48:49.423   01 Jun 2027 16:49:25.846            36.423                Anadyr1          1138.219
        47   01 Jun 2027 16:49:47.991   01 Jun 2027 16:50:15.629            27.638                Anadyr2           863.688
        48   01 Jun 2027 16:51:59.506   01 Jun 2027 16:52:26.833            27.327                Anadyr1           853.969
        49   01 Jun 2027 16:52:49.428   01 Jun 2027 16:52:57.228             7.800                Anadyr2           243.750
        50   01 Jun 2027 16:52:59.977   01 Jun 2027 16:53:14.430            14.453                Anadyr1           451.656
        51   01 Jun 2027 17:44:39.755   01 Jun 2027 17:46:33.349           113.594               CapeTown          3549.812
        52   01 Jun 2027 18:08:08.523   01 Jun 2027 18:11:56.154           227.631                 Moscow          7113.469
        53   01 Jun 2027 18:14:33.240   01 Jun 2027 18:15:06.966            33.726              Murmansk1          1053.938
        54   01 Jun 2027 18:18:32.694   01 Jun 2027 18:19:21.267            48.573              Murmansk2          1517.906
        55   01 Jun 2027 18:26:36.903   01 Jun 2027 18:26:49.957            13.054               Magadan1           407.938
        56   01 Jun 2027 18:27:01.385   01 Jun 2027 18:27:03.797             2.412               Magadan1            75.375
        57   01 Jun 2027 18:28:20.646   01 Jun 2027 18:28:31.134            10.488               Magadan2           327.750
        58   01 Jun 2027 18:28:38.815   01 Jun 2027 18:28:44.797             5.982               Magadan2           186.938
        59   01 Jun 2027 18:30:00.858   01 Jun 2027 18:30:48.219            47.361                Anadyr2          1480.031
        60   01 Jun 2027 18:32:24.498   01 Jun 2027 18:32:45.955            21.457                Anadyr2           670.531
        61   01 Jun 2027 19:21:21.372   01 Jun 2027 19:23:00.151            98.779               CapeTown          3086.844
        62   01 Jun 2027 19:51:22.247   01 Jun 2027 19:53:47.767           145.520              Murmansk2          4547.500
        63   01 Jun 2027 19:59:37.324   01 Jun 2027 20:01:00.366            83.042               Magadan2          2595.063
        64   01 Jun 2027 20:02:09.667   01 Jun 2027 20:03:00.483            50.816               Magadan2          1588.000
        65   01 Jun 2027 20:04:16.359   01 Jun 2027 20:04:59.807            43.448               Magadan2          1357.750
        66   01 Jun 2027 20:06:34.094   01 Jun 2027 20:07:02.993            28.899               Magadan1           903.094
        67   01 Jun 2027 20:07:56.035   01 Jun 2027 20:08:07.661            11.626               Magadan2           363.312
        68   01 Jun 2027 20:08:56.554   01 Jun 2027 20:09:23.248            26.694               Magadan2           834.188
        69   01 Jun 2027 20:10:10.677   01 Jun 2027 20:11:05.451            54.774               Magadan1          1711.688
        70   01 Jun 2027 21:33:00.820   01 Jun 2027 21:36:51.587           230.767                Anadyr2          7211.469
        71   01 Jun 2027 21:37:02.242   01 Jun 2027 21:38:57.731           115.489                Norilsk          3609.031
        72   01 Jun 2027 21:39:06.914   01 Jun 2027 21:39:24.207            17.293               Magadan2           540.406
        73   01 Jun 2027 21:39:32.570   01 Jun 2027 21:39:54.231            21.661               Magadan1           676.906
        74   01 Jun 2027 21:40:35.275   01 Jun 2027 21:40:51.649            16.374               Magadan2           511.687
        75   01 Jun 2027 21:42:09.149   01 Jun 2027 21:42:15.757             6.608               Magadan2           206.500
        76   01 Jun 2027 21:42:40.839   01 Jun 2027 21:42:53.926            13.087               Magadan2           408.969
        77   01 Jun 2027 21:43:40.519   01 Jun 2027 21:44:23.534            43.015               Magadan1          1344.219
        78   01 Jun 2027 21:45:39.238   01 Jun 2027 21:46:37.834            58.596               Magadan1          1831.125
        79   01 Jun 2027 22:27:29.342   01 Jun 2027 22:28:02.165            32.823            RioGallegos          1025.719
        80   01 Jun 2027 22:29:33.214   01 Jun 2027 22:29:38.190             4.976            RioGallegos           155.500
        81   01 Jun 2027 22:29:40.272   01 Jun 2027 22:30:31.707            51.435            RioGallegos          1607.344
        82   01 Jun 2027 22:32:52.700   01 Jun 2027 22:33:44.631            51.931            RioGallegos          1622.844
        83   01 Jun 2027 22:36:53.387   01 Jun 2027 22:37:15.986            22.599            RioGallegos           706.219
        84   01 Jun 2027 23:08:38.404   01 Jun 2027 23:09:28.523            50.119                Anadyr2          1566.219
        85   01 Jun 2027 23:09:41.629   01 Jun 2027 23:10:48.140            66.511                Anadyr2          2078.469
        86   01 Jun 2027 23:11:20.684   01 Jun 2027 23:12:36.399            75.715               Magadan2          2366.094
        87   01 Jun 2027 23:15:02.699   01 Jun 2027 23:15:46.590            43.891                Irkutsk          1371.594
        88   01 Jun 2027 23:16:55.309   01 Jun 2027 23:17:14.905            19.596                Irkutsk           612.375
        89   01 Jun 2027 23:17:54.180   01 Jun 2027 23:18:14.264            20.084                Novosib           627.625
        90   01 Jun 2027 23:18:36.443   01 Jun 2027 23:18:43.192             6.749               Magadan2           210.906
        91   01 Jun 2027 23:19:10.047   01 Jun 2027 23:19:20.298            10.251                Norilsk           320.344
        92   01 Jun 2027 23:19:40.199   01 Jun 2027 23:20:11.722            31.523                Irkutsk           985.094
        93   01 Jun 2027 23:21:21.923   01 Jun 2027 23:22:02.308            40.385                Irkutsk          1262.031
        94   01 Jun 2027 23:25:42.510   01 Jun 2027 23:25:57.794            15.284                Irkutsk           477.625
        95   01 Jun 2027 23:26:39.100   01 Jun 2027 23:26:47.908             8.808                Irkutsk           275.250
        96   01 Jun 2027 23:30:53.167   01 Jun 2027 23:31:13.198            20.031                Sumatra           625.969
        97   01 Jun 2027 23:32:16.631   01 Jun 2027 23:32:55.334            38.703                Sumatra          1209.469
        98   01 Jun 2027 23:35:10.395   01 Jun 2027 23:35:26.276            15.881                Sumatra           496.281
        99   01 Jun 2027 23:36:45.220   01 Jun 2027 23:38:15.619            90.399                Sumatra          2824.969
       100   02 Jun 2027 00:12:59.653   02 Jun 2027 00:13:32.556            32.903            RioGallegos          1028.219
       101   02 Jun 2027 00:43:24.318   02 Jun 2027 00:43:44.130            19.812                Anadyr1           619.125
       102   02 Jun 2027 00:44:07.188   02 Jun 2027 00:44:55.404            48.216                Anadyr1          1506.750
       103   02 Jun 2027 00:45:38.673   02 Jun 2027 00:45:45.465             6.792                Anadyr2           212.250
       104   02 Jun 2027 00:46:47.448   02 Jun 2027 00:49:05.640           138.192                Norilsk          4318.500
       105   02 Jun 2027 00:50:32.609   02 Jun 2027 00:50:33.853             1.244                Norilsk            38.875
       106   02 Jun 2027 00:50:39.951   02 Jun 2027 00:51:31.284            51.333                Irkutsk          1604.156
       107   02 Jun 2027 00:51:46.082   02 Jun 2027 00:52:42.348            56.266                Novosib          1758.313
       108   02 Jun 2027 00:54:26.923   02 Jun 2027 00:55:02.581            35.658                Novosib          1114.312
       109   02 Jun 2027 00:56:17.496   02 Jun 2027 00:56:28.278            10.782                Irkutsk           336.937
       110   02 Jun 2027 00:57:06.463   02 Jun 2027 00:57:26.029            19.566                Novosib           611.438
       111   02 Jun 2027 00:58:37.954   02 Jun 2027 00:59:09.099            31.145                Novosib           973.281
       112   02 Jun 2027 01:01:50.798   02 Jun 2027 01:02:10.371            19.573                Novosib           611.656
       113   02 Jun 2027 01:03:22.200   02 Jun 2027 01:03:49.985            27.785                  Delhi           868.281
       114   02 Jun 2027 01:05:51.619   02 Jun 2027 01:08:23.394           151.775                  Delhi          4742.969
       115   02 Jun 2027 01:45:47.402   02 Jun 2027 01:46:01.605            14.203            RioGallegos           443.844
       116   02 Jun 2027 01:46:27.292   02 Jun 2027 01:46:39.955            12.663            RioGallegos           395.719
       117   02 Jun 2027 01:49:10.986   02 Jun 2027 01:49:27.358            16.372            RioGallegos           511.625
       118   02 Jun 2027 02:16:58.016   02 Jun 2027 02:17:09.133            11.117                Anadyr2           347.406
       119   02 Jun 2027 02:18:01.915   02 Jun 2027 02:18:19.875            17.960                Anadyr2           561.250
       120   02 Jun 2027 02:19:21.291   02 Jun 2027 02:19:24.605             3.314                Anadyr2           103.563
       121   02 Jun 2027 02:19:28.562   02 Jun 2027 02:19:41.405            12.843                Anadyr2           401.344
       122   02 Jun 2027 02:19:51.466   02 Jun 2027 02:19:54.845             3.379                Anadyr1           105.594
       123   02 Jun 2027 02:20:17.973   02 Jun 2027 02:20:20.941             2.968                Anadyr1            92.750
       124   02 Jun 2027 02:21:33.334   02 Jun 2027 02:22:19.658            46.324                Anadyr1          1447.625
       125   02 Jun 2027 02:22:47.342   02 Jun 2027 02:23:23.022            35.680                Norilsk          1115.000
       126   02 Jun 2027 02:23:30.530   02 Jun 2027 02:23:36.806             6.276               Magadan2           196.125
       127   02 Jun 2027 02:23:49.361   02 Jun 2027 02:23:53.983             4.622                Norilsk           144.438
       128   02 Jun 2027 02:24:56.865   02 Jun 2027 02:25:23.682            26.817               Magadan2           838.031
       129   02 Jun 2027 02:25:35.093   02 Jun 2027 02:27:17.878           102.785              Murmansk1          3212.031
       130   02 Jun 2027 02:30:25.819   02 Jun 2027 02:30:31.804             5.985                Irkutsk           187.031
       131   02 Jun 2027 02:30:59.969   02 Jun 2027 02:31:26.026            26.057                Irkutsk           814.281
       132   02 Jun 2027 02:33:21.471   02 Jun 2027 02:33:29.390             7.919                Irkutsk           247.469
       133   02 Jun 2027 02:33:54.870   02 Jun 2027 02:34:42.716            47.846                Irkutsk          1495.188
       134   02 Jun 2027 02:39:17.366   02 Jun 2027 02:39:46.517            29.151                  Delhi           910.969
       135   02 Jun 2027 02:42:46.366   02 Jun 2027 02:43:49.667            63.301                  Delhi          1978.156
       136   02 Jun 2027 04:07:56.499   02 Jun 2027 04:10:46.980           170.481                Norilsk          5327.531
       137   02 Jun 2027 04:10:47.764   02 Jun 2027 04:11:26.626            38.862              Murmansk1          1214.438
       138   02 Jun 2027 04:11:32.917   02 Jun 2027 04:12:57.590            84.673              Murmansk1          2646.031
       139   02 Jun 2027 04:13:36.611   02 Jun 2027 04:16:40.659           184.048                 Moscow          5751.500
       140   02 Jun 2027 04:28:39.903   02 Jun 2027 04:32:45.887           245.984               CapeTown          7687.000
       141   02 Jun 2027 04:34:32.455   02 Jun 2027 04:36:04.165            91.710               CapeTown          2865.938
       142   02 Jun 2027 04:36:24.563   02 Jun 2027 04:38:01.456            96.893               CapeTown          3027.906
       143   02 Jun 2027 04:40:11.069   02 Jun 2027 04:40:40.138            29.069               CapeTown           908.406
       144   02 Jun 2027 05:43:53.981   02 Jun 2027 05:45:05.590            71.609                Norilsk          2237.781
       145   02 Jun 2027 05:45:14.125   02 Jun 2027 05:48:28.882           194.757              Murmansk2          6086.156
       146   02 Jun 2027 05:48:28.882   02 Jun 2027 05:49:50.717            81.835              Murmansk1          2557.344
       147   02 Jun 2027 07:07:43.807   02 Jun 2027 07:10:59.125           195.318                Anadyr2          6103.687
       148   02 Jun 2027 07:10:59.125   02 Jun 2027 07:12:18.637            79.512                Anadyr1          2484.750
       149   02 Jun 2027 07:14:00.246   02 Jun 2027 07:14:19.810            19.564              Murmansk1           611.375
       150   02 Jun 2027 08:44:12.023   02 Jun 2027 08:45:21.772            69.749               Magadan2          2179.656
       151   02 Jun 2027 08:45:21.772   02 Jun 2027 08:45:35.137            13.365               Magadan1           417.656
       152   02 Jun 2027 08:45:50.056   02 Jun 2027 08:49:04.039           193.983                Anadyr2          6061.969
       153   02 Jun 2027 10:17:24.876   02 Jun 2027 10:19:24.982           120.106               Magadan2          3753.313
       154   02 Jun 2027 10:20:26.920   02 Jun 2027 10:20:46.237            19.317               Magadan2           603.656
       155   02 Jun 2027 10:20:58.235   02 Jun 2027 10:24:18.029           199.794               Magadan1          6243.562
       156   02 Jun 2027 11:34:43.948   02 Jun 2027 11:37:07.563           143.615                Sumatra          4487.969
       157   02 Jun 2027 11:54:51.851   02 Jun 2027 11:57:11.335           139.484                Irkutsk          4358.875
       158   02 Jun 2027 11:58:15.703   02 Jun 2027 11:58:55.199            39.496                Irkutsk          1234.250
       159   02 Jun 2027 11:59:05.842   02 Jun 2027 11:59:41.583            35.741                Irkutsk          1116.906
       160   02 Jun 2027 12:05:39.733   02 Jun 2027 12:05:50.229            10.496              Murmansk1           328.000
       161   02 Jun 2027 12:06:21.750   02 Jun 2027 12:07:19.351            57.601              Murmansk1          1800.031
       162   02 Jun 2027 12:07:23.083   02 Jun 2027 12:07:59.082            35.999              Murmansk1          1124.969
       163   02 Jun 2027 12:38:15.411   02 Jun 2027 12:39:24.914            69.503            RioGallegos          2171.969
       164   02 Jun 2027 12:40:39.829   02 Jun 2027 12:42:42.027           122.198            RioGallegos          3818.688
       165   02 Jun 2027 12:46:32.188   02 Jun 2027 12:47:15.304            43.116            RioGallegos          1347.375
       166   02 Jun 2027 13:12:38.713   02 Jun 2027 13:14:33.345           114.632                Sumatra          3582.250
       167   02 Jun 2027 13:17:16.159   02 Jun 2027 13:18:14.524            58.365                Sumatra          1823.906
       168   02 Jun 2027 13:28:29.709   02 Jun 2027 13:34:47.692           377.983                Irkutsk         11811.969
       169   02 Jun 2027 13:41:37.610   02 Jun 2027 13:41:55.598            17.988              Murmansk2           562.125
       170   02 Jun 2027 13:43:14.250   02 Jun 2027 13:43:41.076            26.826              Murmansk1           838.312
       171   02 Jun 2027 14:58:30.641   02 Jun 2027 15:04:07.205           336.564                  Delhi         10517.625
       172   02 Jun 2027 15:06:55.275   02 Jun 2027 15:08:31.236            95.961                Novosib          2998.781
       173   02 Jun 2027 15:09:29.089   02 Jun 2027 15:12:01.246           152.157                Novosib          4754.906
       174   02 Jun 2027 15:17:29.396   02 Jun 2027 15:17:44.577            15.181              Murmansk1           474.406
       175   02 Jun 2027 15:19:15.800   02 Jun 2027 15:19:31.712            15.912              Murmansk1           497.250
       176   02 Jun 2027 16:24:25.896   02 Jun 2027 16:24:50.098            24.202               CapeTown           756.313
       177   02 Jun 2027 16:25:13.668   02 Jun 2027 16:26:42.628            88.960               CapeTown          2780.000
       178   02 Jun 2027 16:45:42.075   02 Jun 2027 16:46:11.096            29.021                 Moscow           906.906
       179   02 Jun 2027 16:46:49.636   02 Jun 2027 16:47:03.269            13.633              Murmansk2           426.031
       180   02 Jun 2027 16:47:31.614   02 Jun 2027 16:47:54.658            23.044              Murmansk2           720.125
       181   02 Jun 2027 16:48:58.603   02 Jun 2027 16:50:17.925            79.322              Murmansk2          2478.812
       182   02 Jun 2027 16:50:48.679   02 Jun 2027 16:51:43.796            55.117                 Moscow          1722.406
       183   02 Jun 2027 16:52:01.958   02 Jun 2027 16:52:54.024            52.066              Murmansk2          1627.063
       184   02 Jun 2027 16:52:58.725   02 Jun 2027 16:53:23.782            25.057              Murmansk1           783.031
       185   02 Jun 2027 16:54:20.127   02 Jun 2027 16:55:30.666            70.539              Murmansk1          2204.344
       186   02 Jun 2027 17:01:43.735   02 Jun 2027 17:01:56.718            12.983                Anadyr2           405.719
       187   02 Jun 2027 17:02:32.216   02 Jun 2027 17:03:30.909            58.693                Anadyr1          1834.156
       188   02 Jun 2027 17:04:05.816   02 Jun 2027 17:04:50.809            44.993                Anadyr2          1406.031
       189   02 Jun 2027 17:05:17.184   02 Jun 2027 17:05:26.518             9.334                Anadyr2           291.687
       190   02 Jun 2027 17:05:58.980   02 Jun 2027 17:06:01.009             2.029                Anadyr2            63.406
       191   02 Jun 2027 18:00:20.597   02 Jun 2027 18:00:33.332            12.735               CapeTown           397.969
       192   02 Jun 2027 18:01:15.147   02 Jun 2027 18:01:32.408            17.261               CapeTown           539.406
       193   02 Jun 2027 18:02:10.970   02 Jun 2027 18:02:21.868            10.898               CapeTown           340.563
       194   02 Jun 2027 18:04:27.872   02 Jun 2027 18:05:22.472            54.600               CapeTown          1706.250
       195   02 Jun 2027 18:21:53.134   02 Jun 2027 18:24:33.400           160.266                 Moscow          5008.313
       196   02 Jun 2027 18:25:41.291   02 Jun 2027 18:27:00.928            79.637              Murmansk2          2488.656
       197   02 Jun 2027 18:27:27.795   02 Jun 2027 18:27:39.327            11.532              Murmansk2           360.375
       198   02 Jun 2027 18:28:45.055   02 Jun 2027 18:31:15.177           150.122              Murmansk1          4691.312
       199   02 Jun 2027 18:43:08.244   02 Jun 2027 18:43:28.512            20.268                Anadyr2           633.375
       200   02 Jun 2027 18:43:39.820   02 Jun 2027 18:43:44.129             4.309                Anadyr1           134.656
       201   02 Jun 2027 18:43:54.728   02 Jun 2027 18:44:26.036            31.308                Anadyr1           978.375
       202   02 Jun 2027 19:33:04.944   02 Jun 2027 19:33:46.875            41.931               CapeTown          1310.344
       203   02 Jun 2027 19:35:34.727   02 Jun 2027 19:37:35.265           120.538               CapeTown          3766.812
       204   02 Jun 2027 20:09:07.302   02 Jun 2027 20:09:35.147            27.845                Anadyr1           870.156
       205   02 Jun 2027 20:09:41.104   02 Jun 2027 20:09:57.487            16.383                Anadyr1           511.969
       206   02 Jun 2027 20:10:28.903   02 Jun 2027 20:10:45.778            16.875                Anadyr1           527.344
       207   02 Jun 2027 20:11:20.520   02 Jun 2027 20:12:07.982            47.462                Anadyr2          1483.187
       208   02 Jun 2027 20:12:23.683   02 Jun 2027 20:12:36.157            12.474               Magadan2           389.813
       209   02 Jun 2027 20:13:44.112   02 Jun 2027 20:14:02.294            18.182               Magadan2           568.188
       210   02 Jun 2027 20:14:11.854   02 Jun 2027 20:14:43.957            32.103               Magadan2          1003.219
       211   02 Jun 2027 20:15:48.533   02 Jun 2027 20:16:21.202            32.669               Magadan1          1020.906
       212   02 Jun 2027 20:17:00.096   02 Jun 2027 20:17:24.865            24.769               Magadan2           774.031
       213   02 Jun 2027 20:18:13.572   02 Jun 2027 20:18:33.337            19.765               Magadan2           617.656
       214   02 Jun 2027 20:19:01.006   02 Jun 2027 20:19:34.420            33.414               Magadan1          1044.187
       215   02 Jun 2027 20:20:06.520   02 Jun 2027 20:20:27.071            20.551               Magadan1           642.219
       216   02 Jun 2027 20:21:18.599   02 Jun 2027 20:21:45.098            26.499               Magadan2           828.094
       217   02 Jun 2027 20:22:05.003   02 Jun 2027 20:22:12.395             7.392               Magadan1           231.000
       218   02 Jun 2027 20:23:04.805   02 Jun 2027 20:23:26.473            21.668               Magadan2           677.125
       219   02 Jun 2027 21:45:01.618   02 Jun 2027 21:48:42.957           221.339                Anadyr1          6916.844
       220   02 Jun 2027 21:48:53.517   02 Jun 2027 21:50:00.748            67.231                Anadyr2          2100.969
       221   02 Jun 2027 21:50:06.932   02 Jun 2027 21:50:09.597             2.665                Anadyr2            83.281
       222   02 Jun 2027 21:50:11.392   02 Jun 2027 21:50:27.436            16.044                Anadyr2           501.375
       223   02 Jun 2027 21:50:32.747   02 Jun 2027 21:51:14.333            41.586                Norilsk          1299.563
       224   02 Jun 2027 21:52:28.678   02 Jun 2027 21:52:54.768            26.090               Magadan2           815.313
       225   02 Jun 2027 21:53:45.860   02 Jun 2027 21:54:10.766            24.906               Magadan2           778.313
       226   02 Jun 2027 21:54:56.633   02 Jun 2027 21:55:36.171            39.538                Irkutsk          1235.562
       227   02 Jun 2027 21:56:48.611   02 Jun 2027 21:57:02.612            14.001               Magadan2           437.531
       228   02 Jun 2027 21:57:31.506   02 Jun 2027 21:57:55.637            24.131               Magadan2           754.094
       229   02 Jun 2027 21:58:35.172   02 Jun 2027 21:59:13.609            38.437               Magadan1          1201.156
       230   02 Jun 2027 22:42:39.275   02 Jun 2027 22:42:45.747             6.472            RioGallegos           202.250
       231   02 Jun 2027 22:43:08.532   02 Jun 2027 22:43:45.312            36.780            RioGallegos          1149.375
       232   02 Jun 2027 22:44:46.681   02 Jun 2027 22:45:13.851            27.170            RioGallegos           849.063
       233   02 Jun 2027 22:46:21.156   02 Jun 2027 22:46:50.979            29.823            RioGallegos           931.969
       234   02 Jun 2027 22:48:12.974   02 Jun 2027 22:48:47.192            34.218            RioGallegos          1069.312
       235   02 Jun 2027 22:50:03.125   02 Jun 2027 22:50:12.863             9.738            RioGallegos           304.312
       236   02 Jun 2027 23:20:34.923   02 Jun 2027 23:22:50.658           135.735                Anadyr1          4241.719
       237   02 Jun 2027 23:23:09.762   02 Jun 2027 23:23:27.638            17.876                Norilsk           558.625
       238   02 Jun 2027 23:23:28.652   02 Jun 2027 23:24:08.675            40.023               Magadan1          1250.719
       239   02 Jun 2027 23:25:04.431   02 Jun 2027 23:25:08.287             3.856               Magadan1           120.500
       240   02 Jun 2027 23:25:43.157   02 Jun 2027 23:26:06.147            22.990               Magadan2           718.437
       241   02 Jun 2027 23:26:06.147   02 Jun 2027 23:26:26.418            20.271               Magadan1           633.469
       242   02 Jun 2027 23:28:01.551   02 Jun 2027 23:28:16.368            14.817                Norilsk           463.031
       243   02 Jun 2027 23:29:10.179   02 Jun 2027 23:29:50.171            39.992               Magadan2          1249.750
       244   02 Jun 2027 23:30:24.466   02 Jun 2027 23:30:29.626             5.160               Magadan2           161.250
       245   02 Jun 2027 23:30:39.188   02 Jun 2027 23:31:10.305            31.117                Novosib           972.406
       246   02 Jun 2027 23:32:28.225   02 Jun 2027 23:32:46.378            18.153               Magadan1           567.281
       247   02 Jun 2027 23:33:08.714   02 Jun 2027 23:33:37.679            28.965                Novosib           905.156
       248   02 Jun 2027 23:35:06.140   02 Jun 2027 23:35:16.568            10.428                Novosib           325.875
       249   02 Jun 2027 23:35:57.635   02 Jun 2027 23:36:25.389            27.754                Irkutsk           867.313
       250   02 Jun 2027 23:36:59.912   02 Jun 2027 23:37:31.559            31.647                Irkutsk           988.969
       251   02 Jun 2027 23:47:59.369   02 Jun 2027 23:49:08.795            69.426                Sumatra          2169.563
       252   02 Jun 2027 23:50:39.346   02 Jun 2027 23:51:25.017            45.671                Sumatra          1427.219
       253   03 Jun 2027 00:24:40.001   03 Jun 2027 00:24:52.221            12.220            RioGallegos           381.875
       254   03 Jun 2027 00:25:16.679   03 Jun 2027 00:26:02.963            46.284            RioGallegos          1446.375
       255   03 Jun 2027 00:55:36.287   03 Jun 2027 00:56:05.672            29.385                Anadyr1           918.281
       256   03 Jun 2027 00:56:49.831   03 Jun 2027 00:57:14.485            24.654                Anadyr1           770.437
       257   03 Jun 2027 00:57:26.688   03 Jun 2027 00:57:43.183            16.495                Anadyr2           515.469
       258   03 Jun 2027 00:58:49.760   03 Jun 2027 01:00:32.089           102.329                Norilsk          3197.781
       259   03 Jun 2027 01:01:44.406   03 Jun 2027 01:01:47.442             3.036               Magadan1            94.875
       260   03 Jun 2027 01:01:52.747   03 Jun 2027 01:02:24.315            31.568               Magadan1           986.500
       261   03 Jun 2027 01:02:43.422   03 Jun 2027 01:03:43.599            60.177                Irkutsk          1880.531
       262   03 Jun 2027 01:06:19.187   03 Jun 2027 01:06:24.732             5.545                Novosib           173.281
       263   03 Jun 2027 01:06:32.229   03 Jun 2027 01:07:00.669            28.440                Novosib           888.750
       264   03 Jun 2027 01:07:56.220   03 Jun 2027 01:08:30.580            34.360                Irkutsk          1073.750
       265   03 Jun 2027 01:10:49.930   03 Jun 2027 01:11:00.454            10.524                Novosib           328.875
       266   03 Jun 2027 01:11:45.320   03 Jun 2027 01:11:58.925            13.605                Irkutsk           425.156
       267   03 Jun 2027 01:12:30.735   03 Jun 2027 01:13:15.384            44.649                Novosib          1395.281
       268   03 Jun 2027 01:17:26.896   03 Jun 2027 01:17:41.977            15.081                  Delhi           471.281
       269   03 Jun 2027 01:19:13.740   03 Jun 2027 01:20:28.413            74.673                Sumatra          2333.531
       270   03 Jun 2027 01:23:22.407   03 Jun 2027 01:23:38.585            16.178                Sumatra           505.562
       271   03 Jun 2027 01:51:58.422   03 Jun 2027 01:52:29.895            31.473            RioGallegos           983.531
       272   03 Jun 2027 01:53:41.917   03 Jun 2027 01:54:11.530            29.613            RioGallegos           925.406
       273   03 Jun 2027 01:55:07.108   03 Jun 2027 01:55:28.923            21.815            RioGallegos           681.719
       274   03 Jun 2027 01:56:07.605   03 Jun 2027 01:56:54.871            47.266            RioGallegos          1477.062
       275   03 Jun 2027 02:30:21.245   03 Jun 2027 02:31:18.870            57.625                Anadyr2          1800.781
       276   03 Jun 2027 02:34:04.527   03 Jun 2027 02:34:30.303            25.776                Anadyr1           805.500
       277   03 Jun 2027 02:34:48.907   03 Jun 2027 02:35:13.777            24.870                Norilsk           777.188
       278   03 Jun 2027 02:35:50.854   03 Jun 2027 02:36:03.901            13.047                Norilsk           407.719
       279   03 Jun 2027 02:37:06.776   03 Jun 2027 02:37:22.376            15.600              Murmansk1           487.500
       280   03 Jun 2027 02:38:23.323   03 Jun 2027 02:38:39.684            16.361              Murmansk1           511.281
       281   03 Jun 2027 02:39:06.230   03 Jun 2027 02:39:39.431            33.201              Murmansk2          1037.531
       282   03 Jun 2027 02:40:58.587   03 Jun 2027 02:41:36.954            38.367                Irkutsk          1198.969
       283   03 Jun 2027 02:44:39.618   03 Jun 2027 02:44:51.245            11.627                Novosib           363.344
       284   03 Jun 2027 02:45:28.583   03 Jun 2027 02:45:33.725             5.142                Irkutsk           160.688
       285   03 Jun 2027 02:45:54.730   03 Jun 2027 02:46:32.666            37.936                Irkutsk          1185.500
       286   03 Jun 2027 02:48:13.917   03 Jun 2027 02:50:13.341           119.424                  Delhi          3732.000
       287   03 Jun 2027 04:19:38.779   03 Jun 2027 04:19:59.374            20.595              Murmansk2           643.594
       288   03 Jun 2027 04:19:59.813   03 Jun 2027 04:22:37.878           158.065                Norilsk          4939.531
       289   03 Jun 2027 04:22:58.609   03 Jun 2027 04:25:12.779           134.170              Murmansk2          4192.812
       290   03 Jun 2027 04:25:13.755   03 Jun 2027 04:25:41.459            27.704                 Moscow           865.750
       291   03 Jun 2027 04:26:15.695   03 Jun 2027 04:26:57.548            41.853                 Moscow          1307.906
       292   03 Jun 2027 04:27:28.298   03 Jun 2027 04:27:31.300             3.002                 Moscow            93.812
       293   03 Jun 2027 05:45:31.932   03 Jun 2027 05:46:23.604            51.672                Anadyr2          1614.750
       294   03 Jun 2027 05:47:12.726   03 Jun 2027 05:48:23.154            70.428                Anadyr2          2200.875
       295   03 Jun 2027 05:55:47.079   03 Jun 2027 06:01:52.075           364.996              Murmansk1         11406.125
       296   03 Jun 2027 06:17:13.900   03 Jun 2027 06:18:04.616            50.716               CapeTown          1584.875
       297   03 Jun 2027 06:23:46.379   03 Jun 2027 06:24:42.777            56.398               CapeTown          1762.437
       298   03 Jun 2027 07:19:54.452   03 Jun 2027 07:20:30.065            35.613                Anadyr2          1112.906
       299   03 Jun 2027 07:20:50.792   03 Jun 2027 07:22:54.592           123.800                Anadyr1          3868.750
       300   03 Jun 2027 07:22:54.592   03 Jun 2027 07:23:50.344            55.752                Anadyr2          1742.250
       301   03 Jun 2027 08:53:52.489   03 Jun 2027 08:54:42.034            49.545                Anadyr2          1548.281
       302   03 Jun 2027 08:55:16.037   03 Jun 2027 08:55:29.931            13.894               Magadan1           434.187
       303   03 Jun 2027 08:55:43.470   03 Jun 2027 08:56:06.416            22.946                Norilsk           717.062
       304   03 Jun 2027 08:56:09.628   03 Jun 2027 08:58:21.734           132.106               Magadan1          4128.313
       305   03 Jun 2027 08:58:21.734   03 Jun 2027 08:58:28.113             6.379               Magadan2           199.344
       306   03 Jun 2027 08:58:35.433   03 Jun 2027 08:59:15.658            40.225                Norilsk          1257.031
       307   03 Jun 2027 08:59:18.881   03 Jun 2027 09:00:38.718            79.837                Novosib          2494.906
       308   03 Jun 2027 09:01:39.923   03 Jun 2027 09:01:56.501            16.578                Norilsk           518.062
       309   03 Jun 2027 09:04:43.821   03 Jun 2027 09:04:49.634             5.813              Murmansk1           181.656
       310   03 Jun 2027 09:36:42.266   03 Jun 2027 09:37:22.844            40.578            RioGallegos          1268.062
       311   03 Jun 2027 09:38:46.233   03 Jun 2027 09:39:50.440            64.207            RioGallegos          2006.469
       312   03 Jun 2027 10:25:22.072   03 Jun 2027 10:26:28.993            66.921                Irkutsk          2091.281
       313   03 Jun 2027 10:29:28.961   03 Jun 2027 10:32:50.752           201.791               Magadan2          6305.969
       314   03 Jun 2027 10:34:04.587   03 Jun 2027 10:34:34.773            30.186                Norilsk           943.312
       315   03 Jun 2027 10:34:36.737   03 Jun 2027 10:34:57.310            20.573                Irkutsk           642.906
       316   03 Jun 2027 10:35:00.125   03 Jun 2027 10:35:05.401             5.276                Novosib           164.875
       317   03 Jun 2027 10:35:07.709   03 Jun 2027 10:35:54.748            47.039              Murmansk1          1469.969
       318   03 Jun 2027 10:36:04.719   03 Jun 2027 10:36:10.319             5.600                Norilsk           175.000
       319   03 Jun 2027 10:36:14.396   03 Jun 2027 10:37:00.460            46.064                Irkutsk          1439.500
       320   03 Jun 2027 10:37:58.814   03 Jun 2027 10:38:47.282            48.468              Murmansk2          1514.625
       321   03 Jun 2027 11:11:46.083   03 Jun 2027 11:12:31.038            44.955            RioGallegos          1404.844
       322   03 Jun 2027 11:12:59.025   03 Jun 2027 11:13:47.913            48.888            RioGallegos          1527.750
       323   03 Jun 2027 11:46:37.025   03 Jun 2027 11:47:10.256            33.231                Sumatra          1038.469
       324   03 Jun 2027 11:49:51.546   03 Jun 2027 11:50:23.911            32.365                Sumatra          1011.406
       325   03 Jun 2027 11:56:52.342   03 Jun 2027 11:58:49.664           117.322                Sumatra          3666.312
       326   03 Jun 2027 12:10:03.896   03 Jun 2027 12:10:04.156             0.260                Irkutsk             8.125
       327   03 Jun 2027 12:12:51.019   03 Jun 2027 12:13:25.947            34.928                Norilsk          1091.500
       328   03 Jun 2027 12:15:30.278   03 Jun 2027 12:15:43.517            13.239              Murmansk2           413.719
       329   03 Jun 2027 12:15:54.186   03 Jun 2027 12:16:07.262            13.076                Norilsk           408.625
       330   03 Jun 2027 12:17:41.075   03 Jun 2027 12:17:48.301             7.226              Murmansk2           225.812
       331   03 Jun 2027 12:18:10.088   03 Jun 2027 12:18:28.951            18.863              Murmansk1           589.469
       332   03 Jun 2027 12:19:10.463   03 Jun 2027 12:19:13.985             3.522              Murmansk2           110.062
       333   03 Jun 2027 12:19:24.323   03 Jun 2027 12:19:30.560             6.237              Murmansk1           194.906
       334   03 Jun 2027 12:19:59.122   03 Jun 2027 12:20:10.837            11.715              Murmansk2           366.094
       335   03 Jun 2027 12:51:30.664   03 Jun 2027 12:51:52.490            21.826            RioGallegos           682.062
       336   03 Jun 2027 12:52:34.454   03 Jun 2027 12:54:42.612           128.158            RioGallegos          4004.938
       337   03 Jun 2027 12:58:29.629   03 Jun 2027 12:58:38.564             8.935            RioGallegos           279.219
       338   03 Jun 2027 13:26:01.835   03 Jun 2027 13:27:11.747            69.912                Sumatra          2184.750
       339   03 Jun 2027 13:29:49.003   03 Jun 2027 13:30:20.922            31.919                Sumatra           997.469
       340   03 Jun 2027 13:42:00.256   03 Jun 2027 13:45:50.222           229.966                Irkutsk          7186.437
       341   03 Jun 2027 15:15:13.499   03 Jun 2027 15:17:01.450           107.951                 Moscow          3373.469
       342   03 Jun 2027 15:17:54.400   03 Jun 2027 15:18:28.256            33.856                 Moscow          1058.000
       343   03 Jun 2027 15:20:57.811   03 Jun 2027 15:21:41.587            43.776              Murmansk1          1368.000
       344   03 Jun 2027 15:22:01.998   03 Jun 2027 15:23:03.064            61.066                Norilsk          1908.312
       345   03 Jun 2027 15:25:53.864   03 Jun 2027 15:27:28.000            94.136                Norilsk          2941.750
       346   03 Jun 2027 16:30:11.347   03 Jun 2027 16:31:07.379            56.032               CapeTown          1751.000
       347   03 Jun 2027 16:33:58.950   03 Jun 2027 16:34:09.943            10.993               CapeTown           343.531
       348   03 Jun 2027 16:34:40.283   03 Jun 2027 16:35:57.448            77.165               CapeTown          2411.406
       349   03 Jun 2027 16:52:11.362   03 Jun 2027 16:52:35.136            23.774                 Moscow           742.937
       350   03 Jun 2027 16:54:08.602   03 Jun 2027 16:55:01.213            52.611                 Moscow          1644.094
       351   03 Jun 2027 16:57:19.133   03 Jun 2027 16:57:56.744            37.611              Murmansk2          1175.344
       352   03 Jun 2027 17:01:41.438   03 Jun 2027 17:01:44.073             2.635              Murmansk2            82.344
       353   03 Jun 2027 17:02:22.792   03 Jun 2027 17:03:12.948            50.156              Murmansk1          1567.375
       354   03 Jun 2027 17:09:46.557   03 Jun 2027 17:11:21.506            94.949                Anadyr1          2967.156
       355   03 Jun 2027 17:16:11.846   03 Jun 2027 17:16:52.218            40.372                Anadyr2          1261.625
       356   03 Jun 2027 18:04:42.617   03 Jun 2027 18:06:51.924           129.307               CapeTown          4040.844
       357   03 Jun 2027 18:34:29.523   03 Jun 2027 18:35:05.058            35.535              Murmansk2          1110.469
       358   03 Jun 2027 18:35:09.979   03 Jun 2027 18:37:43.452           153.473              Murmansk1          4796.031
       359   03 Jun 2027 18:39:39.531   03 Jun 2027 18:39:47.649             8.118              Murmansk2           253.687
       360   03 Jun 2027 18:40:30.676   03 Jun 2027 18:41:39.198            68.522              Murmansk2          2141.312
       361   03 Jun 2027 18:48:57.126   03 Jun 2027 18:49:59.978            62.852               Magadan1          1964.125
       362   03 Jun 2027 19:44:23.303   03 Jun 2027 19:47:05.026           161.723               CapeTown          5053.844
       363   03 Jun 2027 20:21:09.060   03 Jun 2027 20:23:09.477           120.417                Anadyr2          3763.031
       364   03 Jun 2027 20:23:32.354   03 Jun 2027 20:25:23.833           111.479               Magadan2          3483.719
       365   03 Jun 2027 20:28:48.883   03 Jun 2027 20:28:59.436            10.553               Magadan1           329.781
       366   03 Jun 2027 20:29:26.674   03 Jun 2027 20:29:27.902             1.228               Magadan1            38.375
       367   03 Jun 2027 20:31:55.798   03 Jun 2027 20:32:03.017             7.219               Magadan2           225.594
       368   03 Jun 2027 20:33:11.291   03 Jun 2027 20:33:13.365             2.074               Magadan1            64.813
       369   03 Jun 2027 20:34:11.321   03 Jun 2027 20:34:32.852            21.531               Magadan1           672.844
       370   03 Jun 2027 21:57:02.100   03 Jun 2027 22:00:42.454           220.354                Anadyr2          6886.063
       371   03 Jun 2027 22:00:44.137   03 Jun 2027 22:01:06.023            21.886                Norilsk           683.938
       372   03 Jun 2027 22:01:39.171   03 Jun 2027 22:03:03.560            84.389               Magadan1          2637.156
       373   03 Jun 2027 22:03:03.560   03 Jun 2027 22:04:36.900            93.340               Magadan2          2916.875
       374   03 Jun 2027 22:05:38.007   03 Jun 2027 22:05:51.637            13.630               Magadan2           425.937
       375   03 Jun 2027 22:06:03.507   03 Jun 2027 22:06:28.512            25.005               Magadan2           781.406
       376   03 Jun 2027 22:06:42.540   03 Jun 2027 22:07:25.448            42.908                Irkutsk          1340.875
       377   03 Jun 2027 22:22:32.150   03 Jun 2027 22:24:07.184            95.034                Sumatra          2969.812
       378   03 Jun 2027 22:51:11.504   03 Jun 2027 22:51:53.261            41.757            RioGallegos          1304.906
       379   03 Jun 2027 23:00:18.277   03 Jun 2027 23:00:44.830            26.553            RioGallegos           829.781
       380   03 Jun 2027 23:32:30.532   03 Jun 2027 23:34:49.440           138.908                Anadyr1          4340.875
       381   03 Jun 2027 23:34:52.346   03 Jun 2027 23:36:34.268           101.922                Norilsk          3185.062
       382   03 Jun 2027 23:36:44.120   03 Jun 2027 23:37:40.470            56.350               Magadan2          1760.937
       383   03 Jun 2027 23:38:54.172   03 Jun 2027 23:39:29.064            34.892                Irkutsk          1090.375
       384   03 Jun 2027 23:40:01.645   03 Jun 2027 23:40:04.736             3.091                Novosib            96.594
       385   03 Jun 2027 23:40:14.516   03 Jun 2027 23:40:47.712            33.196                Novosib          1037.375
       386   03 Jun 2027 23:42:32.340   03 Jun 2027 23:42:59.839            27.499                Novosib           859.344
       387   03 Jun 2027 23:45:20.086   03 Jun 2027 23:45:36.474            16.388                Novosib           512.125
       388   03 Jun 2027 23:52:35.731   03 Jun 2027 23:53:36.266            60.535                Sumatra          1891.719
       389   04 Jun 2027 00:01:21.636   04 Jun 2027 00:02:10.877            49.241                Sumatra          1538.781
       390   04 Jun 2027 00:29:57.810   04 Jun 2027 00:30:39.148            41.338            RioGallegos          1291.812
       391   04 Jun 2027 00:38:37.426   04 Jun 2027 00:39:06.621            29.195            RioGallegos           912.344
       392   04 Jun 2027 01:06:57.518   04 Jun 2027 01:07:07.230             9.712                Anadyr1           303.500
       393   04 Jun 2027 01:07:30.035   04 Jun 2027 01:08:04.703            34.668                Anadyr1          1083.375
       394   04 Jun 2027 01:08:42.180   04 Jun 2027 01:09:42.589            60.409                Anadyr1          1887.781
       395   04 Jun 2027 01:10:52.060   04 Jun 2027 01:12:33.641           101.581                Norilsk          3174.406
       396   04 Jun 2027 01:13:45.241   04 Jun 2027 01:13:53.717             8.476               Magadan1           264.875
       397   04 Jun 2027 01:14:44.597   04 Jun 2027 01:16:21.424            96.827                Novosib          3025.844
       398   04 Jun 2027 01:16:26.629   04 Jun 2027 01:16:42.502            15.873              Murmansk1           496.031
       399   04 Jun 2027 01:17:30.484   04 Jun 2027 01:17:38.497             8.013                Novosib           250.406
       400   04 Jun 2027 01:18:30.788   04 Jun 2027 01:19:27.827            57.039                Novosib          1782.469
       401   04 Jun 2027 01:24:00.227   04 Jun 2027 01:24:26.894            26.667                  Delhi           833.344
       402   04 Jun 2027 01:30:14.298   04 Jun 2027 01:30:34.104            19.806                  Delhi           618.937
       403   04 Jun 2027 01:33:32.533   04 Jun 2027 01:35:17.807           105.274                Sumatra          3289.812
       404   04 Jun 2027 02:03:29.213   04 Jun 2027 02:03:50.172            20.959            RioGallegos           654.969
       405   04 Jun 2027 02:07:03.083   04 Jun 2027 02:07:07.150             4.067            RioGallegos           127.094
       406   04 Jun 2027 02:09:45.785   04 Jun 2027 02:09:54.470             8.685            RioGallegos           271.406
       407   04 Jun 2027 02:10:36.608   04 Jun 2027 02:12:24.204           107.596            RioGallegos          3362.375
       408   04 Jun 2027 02:46:34.209   04 Jun 2027 02:47:14.074            39.865               Magadan1          1245.781
       409   04 Jun 2027 02:47:38.822   04 Jun 2027 02:48:12.137            33.315                Norilsk          1041.094
       410   04 Jun 2027 02:49:05.946   04 Jun 2027 02:49:56.923            50.977              Murmansk2          1593.031
       411   04 Jun 2027 02:50:25.979   04 Jun 2027 02:50:41.218            15.239              Murmansk1           476.219
       412   04 Jun 2027 02:50:41.880   04 Jun 2027 02:51:19.855            37.975                Novosib          1186.719
       413   04 Jun 2027 02:51:40.286   04 Jun 2027 02:52:40.238            59.952                Irkutsk          1873.500
       414   04 Jun 2027 02:59:16.911   04 Jun 2027 02:59:46.703            29.792                  Delhi           931.000
       415   04 Jun 2027 04:31:52.152   04 Jun 2027 04:32:53.822            61.670                Novosib          1927.188
       416   04 Jun 2027 04:33:09.546   04 Jun 2027 04:33:13.515             3.969                Norilsk           124.031
       417   04 Jun 2027 04:33:16.389   04 Jun 2027 04:33:36.015            19.626                Novosib           613.312
       418   04 Jun 2027 04:33:43.365   04 Jun 2027 04:34:30.878            47.513                Novosib          1484.781
       419   04 Jun 2027 04:34:34.117   04 Jun 2027 04:36:24.792           110.675              Murmansk1          3458.594
       420   04 Jun 2027 04:36:34.507   04 Jun 2027 04:37:25.997            51.490              Murmansk2          1609.062
       421   04 Jun 2027 04:55:15.510   04 Jun 2027 04:55:35.186            19.676               CapeTown           614.875
       422   04 Jun 2027 05:55:28.751   04 Jun 2027 05:56:40.146            71.395               Magadan1          2231.094
       423   04 Jun 2027 05:57:01.827   04 Jun 2027 05:57:17.634            15.807               Magadan1           493.969
       424   04 Jun 2027 05:57:31.797   04 Jun 2027 05:57:59.526            27.729                Anadyr2           866.531
       425   04 Jun 2027 05:58:24.957   04 Jun 2027 05:59:38.814            73.857                Anadyr2          2308.031
       426   04 Jun 2027 06:08:08.956   04 Jun 2027 06:08:30.081            21.125                Norilsk           660.156
       427   04 Jun 2027 06:08:40.839   04 Jun 2027 06:10:05.029            84.190              Murmansk2          2630.937
       428   04 Jun 2027 06:29:53.428   04 Jun 2027 06:30:08.358            14.930               CapeTown           466.563
       429   04 Jun 2027 07:31:25.566   04 Jun 2027 07:32:02.880            37.314               Magadan1          1166.062
       430   04 Jun 2027 07:32:27.426   04 Jun 2027 07:35:02.759           155.333                Norilsk          4854.156
       431   04 Jun 2027 07:35:05.018   04 Jun 2027 07:37:37.242           152.224                Anadyr1          4757.000
       432   04 Jun 2027 09:04:23.431   04 Jun 2027 09:04:35.125            11.694               Magadan2           365.438
       433   04 Jun 2027 09:05:05.273   04 Jun 2027 09:05:11.817             6.544                Irkutsk           204.500
       434   04 Jun 2027 09:05:32.394   04 Jun 2027 09:05:44.933            12.539               Magadan2           391.844
       435   04 Jun 2027 09:05:46.555   04 Jun 2027 09:07:50.209           123.654                Anadyr1          3864.188
       436   04 Jun 2027 09:08:09.642   04 Jun 2027 09:09:30.576            80.934               Magadan2          2529.188
       437   04 Jun 2027 09:10:13.041   04 Jun 2027 09:10:22.258             9.217                Anadyr1           288.031
       438   04 Jun 2027 09:10:22.258   04 Jun 2027 09:11:40.620            78.362                Anadyr2          2448.812
       439   04 Jun 2027 09:12:19.330   04 Jun 2027 09:12:26.262             6.932                Norilsk           216.625
       440   04 Jun 2027 09:12:30.513   04 Jun 2027 09:12:53.120            22.607              Murmansk2           706.469
       441   04 Jun 2027 09:14:14.784   04 Jun 2027 09:14:40.235            25.451              Murmansk1           795.344
       442   04 Jun 2027 09:48:26.014   04 Jun 2027 09:49:06.835            40.821            RioGallegos          1275.656
       443   04 Jun 2027 09:50:52.686   04 Jun 2027 09:51:41.688            49.002            RioGallegos          1531.312
       444   04 Jun 2027 10:27:01.533   04 Jun 2027 10:27:34.216            32.683                Sumatra          1021.344
       445   04 Jun 2027 10:42:16.728   04 Jun 2027 10:42:20.417             3.689                Norilsk           115.281
       446   04 Jun 2027 10:42:26.713   04 Jun 2027 10:42:32.265             5.552                Irkutsk           173.500
       447   04 Jun 2027 10:42:35.362   04 Jun 2027 10:42:39.250             3.888                Novosib           121.500
       448   04 Jun 2027 10:42:45.553   04 Jun 2027 10:43:10.895            25.342                Novosib           791.938
       449   04 Jun 2027 10:43:13.785   04 Jun 2027 10:43:14.638             0.853                Irkutsk            26.656
       450   04 Jun 2027 10:43:24.930   04 Jun 2027 10:44:40.619            75.689               Magadan2          2365.281
       451   04 Jun 2027 10:44:52.198   04 Jun 2027 10:45:20.119            27.921                Norilsk           872.531
       452   04 Jun 2027 10:45:28.929   04 Jun 2027 10:47:39.700           130.771               Magadan1          4086.594
       453   04 Jun 2027 10:48:04.093   04 Jun 2027 10:48:46.018            41.925                Irkutsk          1310.156
       454   04 Jun 2027 10:48:59.468   04 Jun 2027 10:49:05.901             6.433                Novosib           201.031
       455   04 Jun 2027 10:49:06.255   04 Jun 2027 10:49:08.656             2.401              Murmansk1            75.031
       456   04 Jun 2027 10:49:08.656   04 Jun 2027 10:49:57.326            48.670              Murmansk2          1520.937
       457   04 Jun 2027 11:23:56.321   04 Jun 2027 11:25:04.263            67.942            RioGallegos          2123.187
       458   04 Jun 2027 11:58:35.839   04 Jun 2027 11:59:06.352            30.513                Sumatra           953.531
       459   04 Jun 2027 12:05:11.702   04 Jun 2027 12:07:15.313           123.611                Sumatra          3862.844
       460   04 Jun 2027 12:12:53.044   04 Jun 2027 12:13:35.604            42.560                Irkutsk          1330.000
       461   04 Jun 2027 12:17:27.065   04 Jun 2027 12:18:18.632            51.567                Irkutsk          1611.469
       462   04 Jun 2027 12:23:53.109   04 Jun 2027 12:24:04.661            11.552              Murmansk1           361.000
       463   04 Jun 2027 12:28:24.398   04 Jun 2027 12:28:34.369             9.971              Murmansk2           311.594
       464   04 Jun 2027 12:29:42.551   04 Jun 2027 12:29:46.874             4.323              Murmansk2           135.094
       465   04 Jun 2027 12:30:16.498   04 Jun 2027 12:30:26.219             9.721              Murmansk2           303.781
       466   04 Jun 2027 13:04:11.899   04 Jun 2027 13:06:42.093           150.194            RioGallegos          4693.563
       467   04 Jun 2027 13:50:45.848   04 Jun 2027 13:51:47.706            61.858                Novosib          1933.062
       468   04 Jun 2027 13:52:34.220   04 Jun 2027 13:55:37.136           182.916                Novosib          5716.125
       469   04 Jun 2027 13:59:09.401   04 Jun 2027 14:00:40.338            90.937                Novosib          2841.781
       470   04 Jun 2027 15:27:12.052   04 Jun 2027 15:30:30.478           198.426                 Moscow          6200.813
       471   04 Jun 2027 15:30:38.901   04 Jun 2027 15:31:53.506            74.605              Murmansk2          2331.406
       472   04 Jun 2027 15:34:44.096   04 Jun 2027 15:36:24.750           100.654                Norilsk          3145.437
       473   04 Jun 2027 15:38:19.059   04 Jun 2027 15:39:22.534            63.475                Norilsk          1983.594
       474   04 Jun 2027 15:40:07.411   04 Jun 2027 15:41:32.722            85.311                Norilsk          2665.969
       475   04 Jun 2027 17:04:37.226   04 Jun 2027 17:05:00.698            23.472                 Moscow           733.500
       476   04 Jun 2027 17:07:44.651   04 Jun 2027 17:08:57.059            72.408              Murmansk2          2262.750
       477   04 Jun 2027 17:11:31.591   04 Jun 2027 17:11:59.013            27.422              Murmansk1           856.938
       478   04 Jun 2027 17:15:09.965   04 Jun 2027 17:15:48.053            38.088              Murmansk2          1190.250
       479   04 Jun 2027 17:21:40.846   04 Jun 2027 17:23:00.285            79.439                Anadyr1          2482.469
       480   04 Jun 2027 17:23:18.194   04 Jun 2027 17:23:22.746             4.552                Anadyr2           142.250
       481   04 Jun 2027 17:24:18.747   04 Jun 2027 17:24:28.267             9.520                Anadyr2           297.500
       482   04 Jun 2027 17:29:44.166   04 Jun 2027 17:30:08.311            24.145                Anadyr2           754.531
