uniorb/output/strategy_1/Drop/Drop_KinoSat_111410.txt

KinoSat_111410
-------------------------
    Access    *     Start Time (UTCG)     *     Stop Time (UTCG)  *   Duration (s)        *       Station  *  Data (Mbytes)
         1   01 Jun 2027 04:14:27.528   01 Jun 2027 04:14:58.743            31.215                Norilsk           975.469
         2   01 Jun 2027 04:15:35.489   01 Jun 2027 04:18:46.545           191.056              Murmansk1          5970.500
         3   01 Jun 2027 04:18:48.136   01 Jun 2027 04:20:48.343           120.207                 Moscow          3756.469
         4   01 Jun 2027 04:34:48.216   01 Jun 2027 04:35:38.764            50.548               CapeTown          1579.625
         5   01 Jun 2027 04:43:02.607   01 Jun 2027 04:43:31.738            29.131               CapeTown           910.344
         6   01 Jun 2027 04:45:02.814   01 Jun 2027 04:45:51.495            48.681               CapeTown          1521.281
         7   01 Jun 2027 05:36:55.582   01 Jun 2027 05:37:17.567            21.985               Magadan2           687.031
         8   01 Jun 2027 05:37:17.567   01 Jun 2027 05:38:08.425            50.858               Magadan1          1589.313
         9   01 Jun 2027 05:38:08.425   01 Jun 2027 05:38:28.502            20.077               Magadan2           627.406
        10   01 Jun 2027 05:38:40.003   01 Jun 2027 05:40:30.946           110.943                Anadyr1          3466.969
        11   01 Jun 2027 05:42:24.408   01 Jun 2027 05:42:45.793            21.385                Anadyr1           668.281
        12   01 Jun 2027 07:14:24.998   01 Jun 2027 07:15:14.136            49.138                Irkutsk          1535.563
        13   01 Jun 2027 07:15:37.272   01 Jun 2027 07:18:30.637           173.365                Anadyr2          5417.656
        14   01 Jun 2027 07:19:03.454   01 Jun 2027 07:19:16.664            13.210              Murmansk1           412.812
        15   01 Jun 2027 07:19:16.664   01 Jun 2027 07:19:41.213            24.549              Murmansk2           767.156
        16   01 Jun 2027 07:19:41.213   01 Jun 2027 07:21:03.425            82.212              Murmansk1          2569.125
        17   01 Jun 2027 07:23:13.804   01 Jun 2027 07:23:17.453             3.649                 Moscow           114.031
        18   01 Jun 2027 08:47:41.067   01 Jun 2027 08:48:51.312            70.245               Magadan1          2195.156
        19   01 Jun 2027 08:48:51.312   01 Jun 2027 08:49:18.662            27.350               Magadan2           854.688
        20   01 Jun 2027 08:49:21.418   01 Jun 2027 08:52:32.787           191.369                Anadyr1          5980.281
        21   01 Jun 2027 08:52:38.575   01 Jun 2027 08:53:14.107            35.532               Magadan2          1110.375
        22   01 Jun 2027 08:53:26.546   01 Jun 2027 08:53:47.742            21.196                Irkutsk           662.375
        23   01 Jun 2027 08:53:59.915   01 Jun 2027 08:54:58.053            58.138              Murmansk1          1816.813
        24   01 Jun 2027 09:28:56.140   01 Jun 2027 09:29:59.754            63.614            RioGallegos          1987.938
        25   01 Jun 2027 10:05:16.499   01 Jun 2027 10:05:25.218             8.719                Sumatra           272.469
        26   01 Jun 2027 10:09:23.513   01 Jun 2027 10:09:59.288            35.775                Sumatra          1117.969
        27   01 Jun 2027 10:25:05.697   01 Jun 2027 10:26:12.190            66.493                Novosib          2077.906
        28   01 Jun 2027 10:26:19.789   01 Jun 2027 10:30:05.679           225.890                Irkutsk          7059.063
        29   01 Jun 2027 11:05:34.421   01 Jun 2027 11:05:41.750             7.329            RioGallegos           229.031
        30   01 Jun 2027 11:07:22.917   01 Jun 2027 11:08:05.027            42.110            RioGallegos          1315.938
        31   01 Jun 2027 11:39:53.408   01 Jun 2027 11:40:13.212            19.804                Sumatra           618.875
        32   01 Jun 2027 11:41:47.801   01 Jun 2027 11:42:25.359            37.558                Sumatra          1173.688
        33   01 Jun 2027 11:44:02.923   01 Jun 2027 11:44:36.952            34.029                Sumatra          1063.406
        34   01 Jun 2027 11:48:30.985   01 Jun 2027 11:49:59.437            88.452                  Delhi          2764.125
        35   01 Jun 2027 13:41:46.108   01 Jun 2027 13:42:40.732            54.624                Novosib          1707.000
        36   01 Jun 2027 13:46:42.014   01 Jun 2027 13:46:51.842             9.828                Norilsk           307.125
        37   01 Jun 2027 13:48:22.358   01 Jun 2027 13:48:39.660            17.302              Murmansk1           540.688
        38   01 Jun 2027 15:15:09.506   01 Jun 2027 15:15:28.649            19.143                 Moscow           598.219
        39   01 Jun 2027 15:16:05.250   01 Jun 2027 15:16:56.003            50.753                 Moscow          1586.031
        40   01 Jun 2027 15:17:21.616   01 Jun 2027 15:17:34.877            13.261                 Moscow           414.406
        41   01 Jun 2027 15:17:45.748   01 Jun 2027 15:21:03.974           198.226                Norilsk          6194.562
        42   01 Jun 2027 15:21:14.541   01 Jun 2027 15:22:12.022            57.481                Norilsk          1796.281
        43   01 Jun 2027 15:29:46.738   01 Jun 2027 15:30:35.299            48.561                Anadyr1          1517.531
        44   01 Jun 2027 16:29:16.803   01 Jun 2027 16:29:20.027             3.224               CapeTown           100.750
        45   01 Jun 2027 16:29:36.032   01 Jun 2027 16:31:29.405           113.373               CapeTown          3542.906
        46   01 Jun 2027 16:51:33.042   01 Jun 2027 16:51:54.748            21.706                 Moscow           678.312
        47   01 Jun 2027 16:53:21.394   01 Jun 2027 16:53:59.628            38.234                 Moscow          1194.812
        48   01 Jun 2027 16:56:01.116   01 Jun 2027 16:56:49.527            48.411              Murmansk1          1512.844
        49   01 Jun 2027 16:58:22.674   01 Jun 2027 16:58:53.720            31.046              Murmansk2           970.188
        50   01 Jun 2027 16:58:53.720   01 Jun 2027 16:59:25.169            31.449              Murmansk1           982.781
        51   01 Jun 2027 17:05:45.852   01 Jun 2027 17:06:09.207            23.355                Anadyr1           729.844
        52   01 Jun 2027 17:07:08.417   01 Jun 2027 17:07:38.509            30.092                Anadyr1           940.375
        53   01 Jun 2027 17:08:09.052   01 Jun 2027 17:08:18.562             9.510                Anadyr2           297.187
        54   01 Jun 2027 17:08:36.929   01 Jun 2027 17:08:49.813            12.884                Anadyr2           402.625
        55   01 Jun 2027 17:09:40.871   01 Jun 2027 17:10:40.547            59.676                Anadyr2          1864.875
        56   01 Jun 2027 17:12:24.964   01 Jun 2027 17:13:02.540            37.576                Anadyr1          1174.250
        57   01 Jun 2027 18:08:45.645   01 Jun 2027 18:09:15.876            30.231               CapeTown           944.719
        58   01 Jun 2027 18:29:52.276   01 Jun 2027 18:32:30.507           158.231              Murmansk2          4944.719
        59   01 Jun 2027 18:32:50.979   01 Jun 2027 18:34:34.013           103.034              Murmansk1          3219.812
        60   01 Jun 2027 18:34:48.088   01 Jun 2027 18:35:44.709            56.621              Murmansk2          1769.406
        61   01 Jun 2027 18:48:10.988   01 Jun 2027 18:48:48.328            37.340               Magadan2          1166.875
        62   01 Jun 2027 18:50:38.592   01 Jun 2027 18:50:59.989            21.397               Magadan1           668.656
        63   01 Jun 2027 20:14:10.672   01 Jun 2027 20:16:16.959           126.287                Anadyr1          3946.469
        64   01 Jun 2027 20:16:27.508   01 Jun 2027 20:19:13.651           166.143               Magadan2          5191.969
        65   01 Jun 2027 20:19:36.013   01 Jun 2027 20:20:01.869            25.856                Anadyr1           808.000
        66   01 Jun 2027 20:20:56.724   01 Jun 2027 20:21:40.109            43.385               Magadan1          1355.781
        67   01 Jun 2027 20:22:47.243   01 Jun 2027 20:23:25.219            37.976               Magadan1          1186.750
        68   01 Jun 2027 20:24:37.800   01 Jun 2027 20:24:41.090             3.290               Magadan1           102.813
        69   01 Jun 2027 20:25:02.984   01 Jun 2027 20:25:42.397            39.413               Magadan1          1231.656
        70   01 Jun 2027 20:27:09.105   01 Jun 2027 20:27:13.586             4.481               Magadan1           140.031
        71   01 Jun 2027 20:27:18.023   01 Jun 2027 20:27:54.438            36.415               Magadan1          1137.969
        72   01 Jun 2027 21:09:27.628   01 Jun 2027 21:09:53.777            26.149            RioGallegos           817.156
        73   01 Jun 2027 21:11:20.443   01 Jun 2027 21:12:11.580            51.137            RioGallegos          1598.031
        74   01 Jun 2027 21:14:53.868   01 Jun 2027 21:15:49.064            55.196            RioGallegos          1724.875
        75   01 Jun 2027 21:49:56.350   01 Jun 2027 21:51:55.766           119.416                Anadyr1          3731.750
        76   01 Jun 2027 21:52:03.854   01 Jun 2027 21:53:10.937            67.083                Norilsk          2096.344
        77   01 Jun 2027 21:55:08.873   01 Jun 2027 21:55:29.982            21.109                Norilsk           659.656
        78   01 Jun 2027 21:56:38.791   01 Jun 2027 21:56:48.012             9.221                Irkutsk           288.156
        79   01 Jun 2027 21:58:19.944   01 Jun 2027 21:58:29.720             9.776                Norilsk           305.500
        80   01 Jun 2027 21:59:26.083   01 Jun 2027 22:00:34.037            67.954                Irkutsk          2123.563
        81   01 Jun 2027 22:01:29.372   01 Jun 2027 22:01:38.271             8.899                Irkutsk           278.094
        82   01 Jun 2027 22:04:50.967   01 Jun 2027 22:05:35.902            44.935                Irkutsk          1404.219
        83   01 Jun 2027 22:16:07.141   01 Jun 2027 22:17:14.057            66.916                Sumatra          2091.125
        84   01 Jun 2027 22:17:58.129   01 Jun 2027 22:19:44.721           106.592                Sumatra          3331.000
        85   01 Jun 2027 23:25:02.798   01 Jun 2027 23:25:16.668            13.870                Anadyr2           433.437
        86   01 Jun 2027 23:26:14.464   01 Jun 2027 23:27:28.164            73.700                Anadyr2          2303.125
        87   01 Jun 2027 23:27:55.197   01 Jun 2027 23:28:06.615            11.418                Norilsk           356.813
        88   01 Jun 2027 23:28:33.257   01 Jun 2027 23:28:36.129             2.872               Magadan1            89.750
        89   01 Jun 2027 23:28:59.411   01 Jun 2027 23:30:08.790            69.379               Magadan2          2168.094
        90   01 Jun 2027 23:31:47.849   01 Jun 2027 23:32:01.372            13.523                Irkutsk           422.594
        91   01 Jun 2027 23:32:26.965   01 Jun 2027 23:33:19.071            52.106                Novosib          1628.313
        92   01 Jun 2027 23:35:13.294   01 Jun 2027 23:36:00.000            46.705               Magadan2          1459.531
        93   01 Jun 2027 23:38:18.134   01 Jun 2027 23:38:21.914             3.780                Novosib           118.125
        94   01 Jun 2027 23:39:44.654   01 Jun 2027 23:40:10.429            25.775                Novosib           805.469
        95   01 Jun 2027 23:41:01.705   01 Jun 2027 23:41:45.423            43.718                  Delhi          1366.187
        96   01 Jun 2027 23:44:06.191   01 Jun 2027 23:44:22.127            15.936                  Delhi           498.000
        97   01 Jun 2027 23:44:53.810   01 Jun 2027 23:45:00.670             6.860                  Delhi           214.375
        98   01 Jun 2027 23:46:50.184   01 Jun 2027 23:47:51.404            61.220                  Delhi          1913.125
        99   02 Jun 2027 00:26:48.051   02 Jun 2027 00:27:04.577            16.526            RioGallegos           516.438
       100   02 Jun 2027 00:27:44.141   02 Jun 2027 00:27:48.288             4.147            RioGallegos           129.594
       101   02 Jun 2027 00:27:52.535   02 Jun 2027 00:28:09.513            16.978            RioGallegos           530.563
       102   02 Jun 2027 00:29:48.872   02 Jun 2027 00:29:58.614             9.742            RioGallegos           304.438
       103   02 Jun 2027 00:31:02.197   02 Jun 2027 00:31:15.956            13.759            RioGallegos           429.969
       104   02 Jun 2027 00:31:32.508   02 Jun 2027 00:31:38.252             5.744            RioGallegos           179.500
       105   02 Jun 2027 00:58:56.665   02 Jun 2027 00:59:25.846            29.181                Anadyr1           911.906
       106   02 Jun 2027 00:59:48.391   02 Jun 2027 01:00:28.388            39.997                Anadyr1          1249.906
       107   02 Jun 2027 01:01:23.099   02 Jun 2027 01:01:34.165            11.066                Anadyr2           345.813
       108   02 Jun 2027 01:03:13.989   02 Jun 2027 01:03:54.568            40.579                Anadyr1          1268.094
       109   02 Jun 2027 01:03:55.771   02 Jun 2027 01:04:05.757             9.986                Norilsk           312.062
       110   02 Jun 2027 01:04:26.322   02 Jun 2027 01:06:18.032           111.710               Magadan1          3490.937
       111   02 Jun 2027 01:06:33.557   02 Jun 2027 01:07:23.358            49.801              Murmansk2          1556.281
       112   02 Jun 2027 01:07:37.588   02 Jun 2027 01:07:57.989            20.401              Murmansk1           637.531
       113   02 Jun 2027 01:09:15.190   02 Jun 2027 01:10:18.961            63.771              Murmansk2          1992.844
       114   02 Jun 2027 01:16:34.669   02 Jun 2027 01:16:37.278             2.609                Irkutsk            81.531
       115   02 Jun 2027 01:16:48.571   02 Jun 2027 01:17:33.474            44.903                Novosib          1403.219
       116   02 Jun 2027 01:20:58.864   02 Jun 2027 01:21:31.721            32.857                  Delhi          1026.781
       117   02 Jun 2027 01:23:38.651   02 Jun 2027 01:24:05.124            26.473                  Delhi           827.281
       118   02 Jun 2027 01:57:29.906   02 Jun 2027 01:58:32.095            62.189            RioGallegos          1943.406
       119   02 Jun 2027 01:59:02.471   02 Jun 2027 01:59:51.113            48.642            RioGallegos          1520.063
       120   02 Jun 2027 02:32:13.765   02 Jun 2027 02:32:24.067            10.302                Anadyr1           321.938
       121   02 Jun 2027 02:32:39.097   02 Jun 2027 02:33:26.078            46.981                Anadyr2          1468.156
       122   02 Jun 2027 02:35:08.445   02 Jun 2027 02:35:18.012             9.567                Anadyr1           298.969
       123   02 Jun 2027 02:37:31.074   02 Jun 2027 02:38:22.314            51.240                Anadyr2          1601.250
       124   02 Jun 2027 02:38:29.373   02 Jun 2027 02:38:54.262            24.889               Magadan1           777.781
       125   02 Jun 2027 02:39:04.981   02 Jun 2027 02:39:07.515             2.534               Magadan2            79.187
       126   02 Jun 2027 02:39:49.002   02 Jun 2027 02:40:06.572            17.570                Norilsk           549.063
       127   02 Jun 2027 02:40:17.305   02 Jun 2027 02:40:30.535            13.230               Magadan1           413.438
       128   02 Jun 2027 02:42:04.109   02 Jun 2027 02:43:31.160            87.051              Murmansk1          2720.344
       129   02 Jun 2027 02:44:02.160   02 Jun 2027 02:45:03.431            61.271                Novosib          1914.719
       130   02 Jun 2027 02:50:49.885   02 Jun 2027 02:50:57.886             8.001                Novosib           250.031
       131   02 Jun 2027 02:52:27.288   02 Jun 2027 02:53:04.426            37.138                Novosib          1160.563
       132   02 Jun 2027 02:54:34.776   02 Jun 2027 02:55:07.237            32.461                  Delhi          1014.406
       133   02 Jun 2027 03:14:49.012   02 Jun 2027 03:15:11.890            22.878               CapeTown           714.938
       134   02 Jun 2027 04:26:47.010   02 Jun 2027 04:26:47.497             0.487                Norilsk            15.219
       135   02 Jun 2027 04:26:53.751   02 Jun 2027 04:28:35.409           101.658              Murmansk1          3176.813
       136   02 Jun 2027 04:28:43.240   02 Jun 2027 04:29:25.467            42.227              Murmansk2          1319.594
       137   02 Jun 2027 05:48:56.116   02 Jun 2027 05:52:20.727           204.611                Anadyr1          6394.094
       138   02 Jun 2027 07:26:40.221   02 Jun 2027 07:30:24.366           224.145               Magadan2          7004.531
       139   02 Jun 2027 08:09:33.315   02 Jun 2027 08:09:53.359            20.044            RioGallegos           626.375
       140   02 Jun 2027 09:00:23.403   02 Jun 2027 09:01:36.985            73.582               Magadan1          2299.438
       141   02 Jun 2027 09:01:36.985   02 Jun 2027 09:02:23.199            46.214               Magadan2          1444.188
       142   02 Jun 2027 09:02:39.947   02 Jun 2027 09:04:39.087           119.140               Magadan2          3723.125
       143   02 Jun 2027 09:05:17.502   02 Jun 2027 09:05:53.587            36.085               Magadan1          1127.656
       144   02 Jun 2027 09:40:50.950   02 Jun 2027 09:41:58.524            67.574            RioGallegos          2111.687
       145   02 Jun 2027 10:16:43.063   02 Jun 2027 10:17:39.973            56.910                Sumatra          1778.437
       146   02 Jun 2027 10:37:09.281   02 Jun 2027 10:37:29.117            19.836                Irkutsk           619.875
       147   02 Jun 2027 10:37:54.214   02 Jun 2027 10:39:18.889            84.675                Norilsk          2646.094
       148   02 Jun 2027 10:39:26.072   02 Jun 2027 10:40:23.702            57.630              Murmansk2          1800.938
       149   02 Jun 2027 10:40:30.087   02 Jun 2027 10:42:27.235           117.148                Norilsk          3660.875
       150   02 Jun 2027 10:42:41.971   02 Jun 2027 10:43:32.312            50.341                Novosib          1573.156
       151   02 Jun 2027 11:17:59.388   02 Jun 2027 11:18:38.228            38.840            RioGallegos          1213.750
       152   02 Jun 2027 11:19:00.260   02 Jun 2027 11:19:35.686            35.426            RioGallegos          1107.063
       153   02 Jun 2027 11:52:13.517   02 Jun 2027 11:54:18.354           124.837                Sumatra          3901.156
       154   02 Jun 2027 11:56:33.912   02 Jun 2027 11:56:42.681             8.769                Sumatra           274.031
       155   02 Jun 2027 12:00:14.451   02 Jun 2027 12:01:00.452            46.001                  Delhi          1437.531
       156   02 Jun 2027 12:07:30.156   02 Jun 2027 12:09:17.983           107.827                Irkutsk          3369.594
       157   02 Jun 2027 13:37:11.902   02 Jun 2027 13:38:00.325            48.423                  Delhi          1513.219
       158   02 Jun 2027 13:38:07.087   02 Jun 2027 13:38:33.755            26.668                  Delhi           833.375
       159   02 Jun 2027 13:40:16.265   02 Jun 2027 13:42:18.527           122.262                  Delhi          3820.688
       160   02 Jun 2027 13:45:37.914   02 Jun 2027 13:46:12.693            34.779                Novosib          1086.844
       161   02 Jun 2027 13:46:52.426   02 Jun 2027 13:47:47.497            55.071                Novosib          1720.969
       162   02 Jun 2027 13:48:39.908   02 Jun 2027 13:50:02.555            82.647                Novosib          2582.719
       163   02 Jun 2027 15:24:18.210   02 Jun 2027 15:25:01.039            42.829              Murmansk1          1338.406
       164   02 Jun 2027 15:25:38.250   02 Jun 2027 15:27:07.066            88.816                 Moscow          2775.500
       165   02 Jun 2027 15:28:05.486   02 Jun 2027 15:28:51.163            45.677              Murmansk1          1427.406
       166   02 Jun 2027 15:30:48.863   02 Jun 2027 15:30:55.897             7.034              Murmansk2           219.812
       167   02 Jun 2027 15:30:55.897   02 Jun 2027 15:31:09.036            13.139              Murmansk1           410.594
       168   02 Jun 2027 15:31:19.533   02 Jun 2027 15:33:01.685           102.152                Norilsk          3192.250
       169   02 Jun 2027 15:33:14.148   02 Jun 2027 15:33:47.513            33.365                Norilsk          1042.656
       170   02 Jun 2027 15:42:52.086   02 Jun 2027 15:43:25.483            33.397                Anadyr1          1043.656
       171   02 Jun 2027 16:40:28.699   02 Jun 2027 16:40:43.034            14.335               CapeTown           447.969
       172   02 Jun 2027 16:41:14.076   02 Jun 2027 16:42:04.980            50.904               CapeTown          1590.750
       173   02 Jun 2027 16:46:18.986   02 Jun 2027 16:46:25.982             6.996               CapeTown           218.625
       174   02 Jun 2027 16:59:46.875   02 Jun 2027 17:00:30.621            43.746                 Moscow          1367.063
       175   02 Jun 2027 17:01:14.372   02 Jun 2027 17:02:08.056            53.684                 Moscow          1677.625
       176   02 Jun 2027 17:04:51.225   02 Jun 2027 17:05:24.209            32.984                 Moscow          1030.750
       177   02 Jun 2027 17:07:12.690   02 Jun 2027 17:07:45.161            32.471              Murmansk2          1014.719
       178   02 Jun 2027 17:09:34.856   02 Jun 2027 17:10:20.218            45.362              Murmansk2          1417.562
       179   02 Jun 2027 17:17:09.753   02 Jun 2027 17:17:21.394            11.641                Anadyr1           363.781
       180   02 Jun 2027 17:17:46.083   02 Jun 2027 17:18:09.027            22.944                Anadyr2           717.000
       181   02 Jun 2027 17:19:24.407   02 Jun 2027 17:19:33.275             8.868                Anadyr2           277.125
       182   02 Jun 2027 17:19:45.758   02 Jun 2027 17:20:02.630            16.872                Anadyr2           527.250
       183   02 Jun 2027 17:20:53.035   02 Jun 2027 17:21:08.548            15.513                Anadyr2           484.781
       184   02 Jun 2027 17:21:38.129   02 Jun 2027 17:21:54.209            16.080                Anadyr1           502.500
       185   02 Jun 2027 17:22:54.635   02 Jun 2027 17:23:03.964             9.329                Anadyr1           291.531
       186   02 Jun 2027 17:23:22.896   02 Jun 2027 17:24:02.050            39.154                Anadyr2          1223.563
       187   02 Jun 2027 18:18:04.987   02 Jun 2027 18:19:58.194           113.207               CapeTown          3537.719
       188   02 Jun 2027 18:42:47.138   02 Jun 2027 18:46:47.945           240.807              Murmansk1          7525.219
       189   02 Jun 2027 18:46:47.945   02 Jun 2027 18:46:57.053             9.108              Murmansk2           284.625
       190   02 Jun 2027 18:59:50.318   02 Jun 2027 19:00:13.559            23.241               Magadan2           726.281
       191   02 Jun 2027 19:01:33.824   02 Jun 2027 19:02:27.727            53.903               Magadan1          1684.469
       192   02 Jun 2027 20:26:11.919   02 Jun 2027 20:28:18.704           126.785                Anadyr1          3962.031
       193   02 Jun 2027 20:28:20.174   02 Jun 2027 20:30:12.560           112.386                Anadyr2          3512.063
       194   02 Jun 2027 20:30:16.181   02 Jun 2027 20:30:47.548            31.367               Magadan2           980.219
       195   02 Jun 2027 20:32:13.802   02 Jun 2027 20:32:51.056            37.254               Magadan1          1164.188
       196   02 Jun 2027 20:33:49.450   02 Jun 2027 20:34:26.511            37.061               Magadan1          1158.156
       197   02 Jun 2027 20:36:27.013   02 Jun 2027 20:37:05.184            38.171               Magadan2          1192.844
       198   02 Jun 2027 20:38:47.007   02 Jun 2027 20:38:58.454            11.447               Magadan2           357.719
       199   02 Jun 2027 20:39:08.724   02 Jun 2027 20:39:35.084            26.360               Magadan1           823.750
       200   02 Jun 2027 21:21:05.355   02 Jun 2027 21:21:51.089            45.734            RioGallegos          1429.187
       201   02 Jun 2027 21:23:41.888   02 Jun 2027 21:23:53.508            11.620            RioGallegos           363.125
       202   02 Jun 2027 21:24:27.375   02 Jun 2027 21:24:47.972            20.597            RioGallegos           643.656
       203   02 Jun 2027 21:25:25.524   02 Jun 2027 21:26:10.623            45.099            RioGallegos          1409.344
       204   02 Jun 2027 21:28:58.006   02 Jun 2027 21:29:41.411            43.405            RioGallegos          1356.406
       205   02 Jun 2027 22:01:54.618   02 Jun 2027 22:02:29.975            35.357                Anadyr2          1104.906
       206   02 Jun 2027 22:04:03.192   02 Jun 2027 22:05:48.160           104.968                Norilsk          3280.250
       207   02 Jun 2027 22:06:23.840   02 Jun 2027 22:07:07.309            43.469                Norilsk          1358.406
       208   02 Jun 2027 22:10:00.516   02 Jun 2027 22:10:02.247             1.731               Magadan1            54.094
       209   02 Jun 2027 22:10:22.144   02 Jun 2027 22:10:41.401            19.257               Magadan2           601.781
       210   02 Jun 2027 22:11:00.606   02 Jun 2027 22:11:50.185            49.579                Irkutsk          1549.344
       211   02 Jun 2027 22:14:09.112   02 Jun 2027 22:14:19.181            10.069                Irkutsk           314.656
       212   02 Jun 2027 22:14:39.288   02 Jun 2027 22:15:30.334            51.046                Irkutsk          1595.188
       213   02 Jun 2027 22:25:08.987   02 Jun 2027 22:25:35.641            26.654                Sumatra           832.938
       214   02 Jun 2027 22:28:31.697   02 Jun 2027 22:28:46.992            15.295                Sumatra           477.969
       215   02 Jun 2027 22:31:47.876   02 Jun 2027 22:32:22.421            34.545                Sumatra          1079.531
       216   02 Jun 2027 23:05:37.983   02 Jun 2027 23:06:04.282            26.299            RioGallegos           821.844
       217   02 Jun 2027 23:36:53.254   02 Jun 2027 23:39:13.055           139.801                Anadyr1          4368.781
       218   02 Jun 2027 23:39:57.269   02 Jun 2027 23:40:20.185            22.916                Norilsk           716.125
       219   02 Jun 2027 23:40:36.009   02 Jun 2027 23:41:24.435            48.426               Magadan2          1513.313
       220   02 Jun 2027 23:42:16.808   02 Jun 2027 23:42:55.845            39.037               Magadan1          1219.906
       221   02 Jun 2027 23:43:49.169   02 Jun 2027 23:44:03.079            13.910                Irkutsk           434.687
       222   02 Jun 2027 23:44:08.137   02 Jun 2027 23:44:21.005            12.868                Novosib           402.125
       223   02 Jun 2027 23:44:27.719   02 Jun 2027 23:45:14.605            46.886                Irkutsk          1465.187
       224   02 Jun 2027 23:48:19.880   02 Jun 2027 23:48:54.154            34.274                Novosib          1071.062
       225   02 Jun 2027 23:50:55.386   02 Jun 2027 23:52:23.155            87.769                Novosib          2742.781
       226   02 Jun 2027 23:57:26.975   02 Jun 2027 23:58:44.725            77.750                  Delhi          2429.688
       227   03 Jun 2027 00:43:01.976   03 Jun 2027 00:43:17.792            15.816            RioGallegos           494.250
       228   03 Jun 2027 01:10:38.454   03 Jun 2027 01:10:48.214             9.760                Anadyr1           305.000
       229   03 Jun 2027 01:10:49.326   03 Jun 2027 01:11:23.256            33.930                Anadyr2          1060.312
       230   03 Jun 2027 01:11:49.129   03 Jun 2027 01:13:02.669            73.540                Anadyr1          2298.125
       231   03 Jun 2027 01:15:57.635   03 Jun 2027 01:18:02.020           124.385                Norilsk          3887.031
       232   03 Jun 2027 01:18:27.527   03 Jun 2027 01:19:21.346            53.819              Murmansk2          1681.844
       233   03 Jun 2027 01:19:57.074   03 Jun 2027 01:20:03.545             6.471                Novosib           202.219
       234   03 Jun 2027 01:20:04.786   03 Jun 2027 01:20:14.521             9.735              Murmansk2           304.219
       235   03 Jun 2027 01:20:48.924   03 Jun 2027 01:21:17.218            28.294                Novosib           884.187
       236   03 Jun 2027 01:23:49.051   03 Jun 2027 01:23:53.032             3.981                Irkutsk           124.406
       237   03 Jun 2027 01:24:47.473   03 Jun 2027 01:25:21.377            33.904                 Moscow          1059.500
       238   03 Jun 2027 01:27:41.916   03 Jun 2027 01:27:44.425             2.509                Irkutsk            78.406
       239   03 Jun 2027 01:28:23.008   03 Jun 2027 01:29:17.879            54.871                  Delhi          1714.719
       240   03 Jun 2027 01:36:50.000   03 Jun 2027 01:36:52.876             2.876                  Delhi            89.875
       241   03 Jun 2027 01:37:37.666   03 Jun 2027 01:38:48.766            71.100                  Delhi          2221.875
       242   03 Jun 2027 02:10:09.423   03 Jun 2027 02:10:45.748            36.325            RioGallegos          1135.156
       243   03 Jun 2027 02:12:07.803   03 Jun 2027 02:12:59.833            52.030            RioGallegos          1625.938
       244   03 Jun 2027 02:43:57.142   03 Jun 2027 02:44:07.265            10.123                Anadyr2           316.344
       245   03 Jun 2027 02:44:07.265   03 Jun 2027 02:44:14.926             7.661                Anadyr1           239.406
       246   03 Jun 2027 02:45:27.482   03 Jun 2027 02:46:48.425            80.943                Anadyr2          2529.469
       247   03 Jun 2027 02:49:31.502   03 Jun 2027 02:50:31.929            60.427               Magadan2          1888.344
       248   03 Jun 2027 02:54:05.312   03 Jun 2027 02:54:50.920            45.608              Murmansk2          1425.250
       249   03 Jun 2027 02:54:50.920   03 Jun 2027 02:54:59.583             8.663              Murmansk1           270.719
       250   03 Jun 2027 02:55:53.304   03 Jun 2027 02:55:57.315             4.011              Murmansk2           125.344
       251   03 Jun 2027 02:56:00.168   03 Jun 2027 02:57:02.259            62.091                Novosib          1940.344
       252   03 Jun 2027 03:00:14.111   03 Jun 2027 03:01:05.833            51.722                 Moscow          1616.312
       253   03 Jun 2027 03:01:12.072   03 Jun 2027 03:01:28.726            16.654              Murmansk1           520.437
       254   03 Jun 2027 03:01:28.726   03 Jun 2027 03:02:07.225            38.499              Murmansk2          1203.094
       255   03 Jun 2027 03:02:09.022   03 Jun 2027 03:02:18.028             9.006                Norilsk           281.437
       256   03 Jun 2027 03:02:27.294   03 Jun 2027 03:03:34.949            67.655              Murmansk1          2114.219
       257   03 Jun 2027 03:03:49.916   03 Jun 2027 03:04:23.617            33.701              Murmansk1          1053.156
       258   03 Jun 2027 03:04:34.932   03 Jun 2027 03:05:26.980            52.048              Murmansk1          1626.500
       259   03 Jun 2027 03:22:26.838   03 Jun 2027 03:23:03.519            36.681               CapeTown          1146.281
       260   03 Jun 2027 04:37:57.016   03 Jun 2027 04:39:52.386           115.370              Murmansk1          3605.313
       261   03 Jun 2027 04:39:52.386   03 Jun 2027 04:40:09.362            16.976              Murmansk2           530.500
       262   03 Jun 2027 06:00:31.421   03 Jun 2027 06:00:38.548             7.127               Magadan1           222.719
       263   03 Jun 2027 06:00:45.874   03 Jun 2027 06:03:42.374           176.500               Magadan1          5515.625
       264   03 Jun 2027 07:38:29.325   03 Jun 2027 07:41:03.523           154.198                Anadyr1          4818.687
       265   03 Jun 2027 09:13:39.959   03 Jun 2027 09:14:41.792            61.833                Norilsk          1932.281
       266   03 Jun 2027 09:14:42.546   03 Jun 2027 09:17:46.222           183.676               Magadan2          5739.875
       267   03 Jun 2027 09:18:11.628   03 Jun 2027 09:19:36.937            85.309              Murmansk2          2665.906
       268   03 Jun 2027 09:19:36.937   03 Jun 2027 09:19:48.833            11.896              Murmansk1           371.750
       269   03 Jun 2027 09:52:49.005   03 Jun 2027 09:54:21.723            92.718            RioGallegos          2897.438
       270   03 Jun 2027 09:55:24.748   03 Jun 2027 09:55:26.628             1.880            RioGallegos            58.750
       271   03 Jun 2027 10:28:19.078   03 Jun 2027 10:29:55.995            96.917                Sumatra          3028.656
       272   03 Jun 2027 10:48:48.325   03 Jun 2027 10:49:42.737            54.412                Irkutsk          1700.375
       273   03 Jun 2027 10:49:49.803   03 Jun 2027 10:50:16.005            26.202                Novosib           818.812
       274   03 Jun 2027 10:50:19.936   03 Jun 2027 10:51:41.662            81.726                Novosib          2553.938
       275   03 Jun 2027 10:51:43.397   03 Jun 2027 10:52:23.637            40.240                Irkutsk          1257.500
       276   03 Jun 2027 10:52:41.769   03 Jun 2027 10:53:18.701            36.932              Murmansk2          1154.125
       277   03 Jun 2027 10:53:18.701   03 Jun 2027 10:53:27.943             9.242              Murmansk1           288.813
       278   03 Jun 2027 10:53:38.891   03 Jun 2027 10:53:44.088             5.197                Novosib           162.406
       279   03 Jun 2027 10:53:45.517   03 Jun 2027 10:54:00.179            14.662                Norilsk           458.187
       280   03 Jun 2027 10:54:00.194   03 Jun 2027 10:54:06.000             5.806                Irkutsk           181.437
       281   03 Jun 2027 10:54:18.960   03 Jun 2027 10:54:47.987            29.027              Murmansk1           907.094
       282   03 Jun 2027 10:55:27.622   03 Jun 2027 10:55:37.197             9.575                Novosib           299.219
       283   03 Jun 2027 10:58:09.966   03 Jun 2027 10:58:20.223            10.257              Murmansk2           320.531
       284   03 Jun 2027 10:59:10.509   03 Jun 2027 10:59:34.692            24.183              Murmansk1           755.719
       285   03 Jun 2027 11:30:29.874   03 Jun 2027 11:31:12.735            42.861            RioGallegos          1339.406
       286   03 Jun 2027 11:31:26.797   03 Jun 2027 11:31:54.922            28.125            RioGallegos           878.906
       287   03 Jun 2027 12:04:42.405   03 Jun 2027 12:05:46.403            63.998                Sumatra          1999.938
       288   03 Jun 2027 12:07:37.699   03 Jun 2027 12:07:56.157            18.458                Sumatra           576.812
       289   03 Jun 2027 12:14:43.242   03 Jun 2027 12:14:48.211             4.969                Sumatra           155.281
       290   03 Jun 2027 12:18:46.497   03 Jun 2027 12:19:52.650            66.153                  Delhi          2067.281
       291   03 Jun 2027 12:20:14.399   03 Jun 2027 12:20:14.428             0.029                Irkutsk             0.906
       292   03 Jun 2027 12:20:19.608   03 Jun 2027 12:21:58.479            98.871                Novosib          3089.719
       293   03 Jun 2027 12:22:56.806   03 Jun 2027 12:25:26.304           149.498                Norilsk          4671.812
       294   03 Jun 2027 13:49:56.550   03 Jun 2027 13:51:21.881            85.331                  Delhi          2666.594
       295   03 Jun 2027 13:52:06.275   03 Jun 2027 13:52:59.415            53.140                  Delhi          1660.625
       296   03 Jun 2027 13:57:30.147   03 Jun 2027 13:57:40.207            10.060                 Moscow           314.375
       297   03 Jun 2027 13:59:02.487   03 Jun 2027 13:59:42.604            40.117                Novosib          1253.656
       298   03 Jun 2027 13:59:48.847   03 Jun 2027 14:00:53.206            64.359              Murmansk1          2011.219
       299   03 Jun 2027 14:01:04.246   03 Jun 2027 14:01:46.537            42.291              Murmansk2          1321.594
       300   03 Jun 2027 14:02:02.346   03 Jun 2027 14:03:08.559            66.213                Novosib          2069.156
       301   03 Jun 2027 14:04:47.169   03 Jun 2027 14:05:05.284            18.115                Norilsk           566.094
       302   03 Jun 2027 14:07:18.563   03 Jun 2027 14:08:12.884            54.321                Norilsk          1697.531
       303   03 Jun 2027 15:13:57.763   03 Jun 2027 15:15:11.896            74.133               CapeTown          2316.656
       304   03 Jun 2027 15:16:18.200   03 Jun 2027 15:16:28.381            10.181               CapeTown           318.156
       305   03 Jun 2027 15:32:37.911   03 Jun 2027 15:33:52.679            74.768                 Moscow          2336.500
       306   03 Jun 2027 15:36:06.946   03 Jun 2027 15:37:49.846           102.900              Murmansk1          3215.625
       307   03 Jun 2027 15:51:27.406   03 Jun 2027 15:53:30.003           122.597                Anadyr1          3831.156
       308   03 Jun 2027 15:57:21.661   03 Jun 2027 15:57:48.260            26.599                Anadyr2           831.219
       309   03 Jun 2027 15:57:54.181   03 Jun 2027 15:57:57.529             3.348                Anadyr2           104.625
       310   03 Jun 2027 16:45:49.238   03 Jun 2027 16:46:41.018            51.780               CapeTown          1618.125
       311   03 Jun 2027 16:49:04.088   03 Jun 2027 16:49:31.346            27.258               CapeTown           851.813
       312   03 Jun 2027 17:12:45.985   03 Jun 2027 17:14:07.604            81.619                 Moscow          2550.594
       313   03 Jun 2027 17:14:23.069   03 Jun 2027 17:14:29.739             6.670              Murmansk1           208.438
       314   03 Jun 2027 17:14:59.299   03 Jun 2027 17:15:16.293            16.994              Murmansk2           531.063
       315   03 Jun 2027 17:15:32.102   03 Jun 2027 17:16:24.324            52.222                 Moscow          1631.938
       316   03 Jun 2027 17:19:08.795   03 Jun 2027 17:19:36.026            27.231              Murmansk1           850.969
       317   03 Jun 2027 17:26:27.280   03 Jun 2027 17:27:44.985            77.705                Anadyr1          2428.281
       318   03 Jun 2027 17:27:44.985   03 Jun 2027 17:27:53.834             8.849                Anadyr2           276.531
       319   03 Jun 2027 17:28:09.648   03 Jun 2027 17:28:19.811            10.163                Anadyr1           317.594
       320   03 Jun 2027 17:28:51.113   03 Jun 2027 17:28:58.449             7.336                Anadyr2           229.250
       321   03 Jun 2027 17:37:10.674   03 Jun 2027 17:37:45.157            34.483                Anadyr2          1077.594
       322   03 Jun 2027 18:22:43.747   03 Jun 2027 18:23:55.888            72.141               CapeTown          2254.406
       323   03 Jun 2027 18:31:48.180   03 Jun 2027 18:32:07.129            18.949               CapeTown           592.156
       324   03 Jun 2027 18:55:54.219   03 Jun 2027 18:59:18.688           204.469              Murmansk2          6389.656
       325   03 Jun 2027 19:02:17.622   03 Jun 2027 19:03:26.667            69.045                Anadyr2          2157.656
       326   03 Jun 2027 19:03:37.543   03 Jun 2027 19:04:18.900            41.357                Anadyr2          1292.406
       327   03 Jun 2027 19:05:23.111   03 Jun 2027 19:05:36.964            13.853               Magadan2           432.906
       328   03 Jun 2027 19:07:14.010   03 Jun 2027 19:07:47.297            33.287               Magadan1          1040.219
       329   03 Jun 2027 20:38:12.977   03 Jun 2027 20:42:03.545           230.568                Anadyr2          7205.250
       330   03 Jun 2027 20:42:18.313   03 Jun 2027 20:44:24.228           125.915                Norilsk          3934.844
       331   03 Jun 2027 20:44:52.483   03 Jun 2027 20:44:54.940             2.457               Magadan1            76.781
       332   03 Jun 2027 20:48:10.920   03 Jun 2027 20:48:49.576            38.656               Magadan1          1208.000
       333   03 Jun 2027 20:51:33.109   03 Jun 2027 20:52:01.373            28.264               Magadan1           883.250
       334   03 Jun 2027 21:32:49.160   03 Jun 2027 21:36:07.608           198.448            RioGallegos          6201.500
       335   03 Jun 2027 22:13:52.212   03 Jun 2027 22:14:26.753            34.541                Anadyr1          1079.406
       336   03 Jun 2027 22:16:03.244   03 Jun 2027 22:16:11.633             8.389                Norilsk           262.156
       337   03 Jun 2027 22:16:31.718   03 Jun 2027 22:18:27.871           116.153               Magadan1          3629.781
       338   03 Jun 2027 22:19:17.325   03 Jun 2027 22:19:51.152            33.827               Magadan1          1057.094
       339   03 Jun 2027 22:20:19.212   03 Jun 2027 22:21:14.519            55.307                Irkutsk          1728.344
       340   03 Jun 2027 22:22:14.201   03 Jun 2027 22:22:50.212            36.011                Irkutsk          1125.344
       341   03 Jun 2027 22:23:26.928   03 Jun 2027 22:23:57.315            30.387                Novosib           949.594
       342   03 Jun 2027 22:25:27.821   03 Jun 2027 22:25:41.573            13.752                Novosib           429.750
       343   03 Jun 2027 22:34:09.989   03 Jun 2027 22:35:59.652           109.663                Sumatra          3426.969
       344   03 Jun 2027 22:40:27.836   03 Jun 2027 22:40:37.216             9.380                Sumatra           293.125
       345   03 Jun 2027 23:16:57.609   03 Jun 2027 23:16:58.933             1.324            RioGallegos            41.375
       346   03 Jun 2027 23:48:42.400   03 Jun 2027 23:49:53.087            70.687                Anadyr1          2208.969
       347   03 Jun 2027 23:50:32.373   03 Jun 2027 23:50:59.130            26.757                Anadyr1           836.156
       348   03 Jun 2027 23:51:44.147   03 Jun 2027 23:51:53.365             9.218                Anadyr1           288.062
       349   03 Jun 2027 23:51:59.414   03 Jun 2027 23:52:30.966            31.552                Norilsk           986.000
       350   03 Jun 2027 23:52:38.547   03 Jun 2027 23:53:10.991            32.444               Magadan2          1013.875
       351   03 Jun 2027 23:53:10.991   03 Jun 2027 23:53:22.316            11.325               Magadan1           353.906
       352   03 Jun 2027 23:53:31.926   03 Jun 2027 23:53:42.259            10.333                Norilsk           322.906
       353   03 Jun 2027 23:53:59.948   03 Jun 2027 23:54:06.451             6.503               Magadan2           203.219
       354   03 Jun 2027 23:54:06.451   03 Jun 2027 23:54:27.765            21.314               Magadan1           666.063
       355   03 Jun 2027 23:55:20.158   03 Jun 2027 23:56:11.863            51.705               Magadan1          1615.781
       356   03 Jun 2027 23:56:21.842   03 Jun 2027 23:56:49.225            27.383                Irkutsk           855.719
       357   03 Jun 2027 23:56:59.425   03 Jun 2027 23:58:11.516            72.091                Novosib          2252.844
       358   03 Jun 2027 23:58:40.919   03 Jun 2027 23:58:44.502             3.583                Novosib           111.969
       359   04 Jun 2027 00:01:57.581   04 Jun 2027 00:02:33.634            36.053                Novosib          1126.656
       360   04 Jun 2027 00:04:01.501   04 Jun 2027 00:04:52.064            50.563                  Delhi          1580.094
       361   04 Jun 2027 00:06:29.838   04 Jun 2027 00:07:09.426            39.588                  Delhi          1237.125
       362   04 Jun 2027 00:08:04.829   04 Jun 2027 00:09:15.550            70.721                  Delhi          2210.031
       363   04 Jun 2027 00:51:43.090   04 Jun 2027 00:51:49.244             6.154            RioGallegos           192.313
       364   04 Jun 2027 00:52:28.609   04 Jun 2027 00:52:41.368            12.759            RioGallegos           398.719
       365   04 Jun 2027 01:22:19.791   04 Jun 2027 01:23:19.573            59.782                Anadyr1          1868.188
       366   04 Jun 2027 01:23:49.602   04 Jun 2027 01:24:31.071            41.469                Anadyr1          1295.906
       367   04 Jun 2027 01:27:51.700   04 Jun 2027 01:28:10.435            18.735                Anadyr1           585.469
       368   04 Jun 2027 01:28:16.573   04 Jun 2027 01:30:09.128           112.555               Magadan2          3517.344
       369   04 Jun 2027 01:30:23.565   04 Jun 2027 01:31:59.368            95.803              Murmansk1          2993.844
       370   04 Jun 2027 01:32:01.632   04 Jun 2027 01:32:33.679            32.047              Murmansk2          1001.469
       371   04 Jun 2027 01:32:57.395   04 Jun 2027 01:33:25.101            27.706                Novosib           865.812
       372   04 Jun 2027 01:35:13.771   04 Jun 2027 01:35:20.141             6.370                Irkutsk           199.063
       373   04 Jun 2027 01:35:37.849   04 Jun 2027 01:36:02.243            24.394                 Moscow           762.312
       374   04 Jun 2027 01:39:17.792   04 Jun 2027 01:40:07.995            50.203                  Delhi          1568.844
       375   04 Jun 2027 01:48:41.766   04 Jun 2027 01:49:02.138            20.372                  Delhi           636.625
       376   04 Jun 2027 01:49:42.779   04 Jun 2027 01:49:51.518             8.739                  Delhi           273.094
       377   04 Jun 2027 02:55:41.442   04 Jun 2027 02:58:20.852           159.410                Anadyr2          4981.563
       378   04 Jun 2027 02:58:38.916   04 Jun 2027 02:58:59.263            20.347                Anadyr1           635.844
       379   04 Jun 2027 02:59:17.427   04 Jun 2027 02:59:20.383             2.956                Anadyr1            92.375
       380   04 Jun 2027 02:59:44.695   04 Jun 2027 02:59:47.671             2.976                Anadyr1            93.000
       381   04 Jun 2027 03:00:59.600   04 Jun 2027 03:01:09.888            10.288               Magadan1           321.500
       382   04 Jun 2027 03:12:26.154   04 Jun 2027 03:13:09.493            43.339                 Moscow          1354.344
       383   04 Jun 2027 03:13:17.447   04 Jun 2027 03:16:00.856           163.409                Norilsk          5106.531
       384   04 Jun 2027 03:16:13.425   04 Jun 2027 03:18:17.798           124.373                 Moscow          3886.656
       385   04 Jun 2027 03:18:27.757   04 Jun 2027 03:21:23.656           175.899                 Moscow          5496.844
       386   04 Jun 2027 03:34:02.585   04 Jun 2027 03:35:13.072            70.487               CapeTown          2202.719
       387   04 Jun 2027 03:35:31.539   04 Jun 2027 03:36:03.298            31.759               CapeTown           992.469
       388   04 Jun 2027 03:36:35.009   04 Jun 2027 03:37:09.902            34.893               CapeTown          1090.406
       389   04 Jun 2027 04:30:06.048   04 Jun 2027 04:31:11.700            65.652                Anadyr1          2051.625
       390   04 Jun 2027 04:38:20.296   04 Jun 2027 04:38:30.394            10.098               Magadan2           315.562
       391   04 Jun 2027 04:38:51.655   04 Jun 2027 04:38:59.094             7.439                Anadyr1           232.469
       392   04 Jun 2027 04:38:59.094   04 Jun 2027 04:39:09.696            10.602                Anadyr2           331.313
       393   04 Jun 2027 04:39:31.338   04 Jun 2027 04:39:37.927             6.589                Anadyr1           205.906
       394   04 Jun 2027 04:49:12.329   04 Jun 2027 04:49:27.890            15.561              Murmansk2           486.281
       395   04 Jun 2027 04:49:36.650   04 Jun 2027 04:50:24.537            47.887                Norilsk          1496.469
       396   04 Jun 2027 04:50:33.203   04 Jun 2027 04:53:16.096           162.893              Murmansk1          5090.406
       397   04 Jun 2027 05:21:08.625   04 Jun 2027 05:21:25.656            17.031               CapeTown           532.219
       398   04 Jun 2027 06:12:35.342   04 Jun 2027 06:12:56.999            21.657                Anadyr1           676.781
       399   04 Jun 2027 06:13:22.466   04 Jun 2027 06:15:11.725           109.259                Anadyr1          3414.344
       400   04 Jun 2027 06:15:17.746   04 Jun 2027 06:15:39.061            21.315                Norilsk           666.094
       401   04 Jun 2027 06:16:18.812   04 Jun 2027 06:16:41.092            22.280               Magadan1           696.250
       402   04 Jun 2027 06:17:52.610   04 Jun 2027 06:18:49.013            56.403                Anadyr1          1762.594
       403   04 Jun 2027 07:50:05.218   04 Jun 2027 07:50:18.454            13.236                Irkutsk           413.625
       404   04 Jun 2027 07:50:27.808   04 Jun 2027 07:51:26.401            58.593               Magadan1          1831.031
       405   04 Jun 2027 07:51:26.401   04 Jun 2027 07:54:25.252           178.851               Magadan2          5589.094
       406   04 Jun 2027 09:23:10.621   04 Jun 2027 09:23:32.488            21.867                Norilsk           683.344
       407   04 Jun 2027 09:24:21.024   04 Jun 2027 09:24:26.018             4.994                Irkutsk           156.063
       408   04 Jun 2027 09:24:53.089   04 Jun 2027 09:25:05.305            12.216                Novosib           381.750
       409   04 Jun 2027 09:25:25.969   04 Jun 2027 09:26:44.899            78.930               Magadan2          2466.563
       410   04 Jun 2027 09:27:12.431   04 Jun 2027 09:27:28.954            16.523                Irkutsk           516.344
       411   04 Jun 2027 09:27:45.477   04 Jun 2027 09:28:11.653            26.176                Irkutsk           818.000
       412   04 Jun 2027 09:28:13.731   04 Jun 2027 09:28:15.174             1.443                Irkutsk            45.094
       413   04 Jun 2027 09:28:20.561   04 Jun 2027 09:29:57.476            96.915                Irkutsk          3028.594
       414   04 Jun 2027 09:30:24.081   04 Jun 2027 09:30:45.403            21.322                Novosib           666.313
       415   04 Jun 2027 09:31:10.579   04 Jun 2027 09:31:33.499            22.920              Murmansk2           716.250
       416   04 Jun 2027 10:04:50.358   04 Jun 2027 10:05:54.112            63.754            RioGallegos          1992.313
       417   04 Jun 2027 10:40:02.616   04 Jun 2027 10:42:19.698           137.082                Sumatra          4283.813
       418   04 Jun 2027 11:00:18.190   04 Jun 2027 11:00:20.959             2.769                Norilsk            86.531
       419   04 Jun 2027 11:00:32.144   04 Jun 2027 11:01:25.405            53.261                Irkutsk          1664.406
       420   04 Jun 2027 11:01:38.378   04 Jun 2027 11:01:50.985            12.607                Novosib           393.969
       421   04 Jun 2027 11:01:52.356   04 Jun 2027 11:02:04.386            12.030                Novosib           375.938
       422   04 Jun 2027 11:02:22.561   04 Jun 2027 11:03:39.188            76.627                Novosib          2394.594
       423   04 Jun 2027 11:03:50.903   04 Jun 2027 11:04:29.090            38.187                Novosib          1193.344
       424   04 Jun 2027 11:04:36.017   04 Jun 2027 11:05:16.045            40.028                Norilsk          1250.875
       425   04 Jun 2027 11:05:27.836   04 Jun 2027 11:05:42.943            15.107              Murmansk2           472.094
       426   04 Jun 2027 11:05:42.943   04 Jun 2027 11:05:48.087             5.144              Murmansk1           160.750
       427   04 Jun 2027 11:06:07.066   04 Jun 2027 11:06:20.470            13.404              Murmansk2           418.875
       428   04 Jun 2027 11:08:47.996   04 Jun 2027 11:09:04.824            16.828              Murmansk1           525.875
       429   04 Jun 2027 11:43:06.938   04 Jun 2027 11:43:29.246            22.308            RioGallegos           697.125
       430   04 Jun 2027 11:44:19.207   04 Jun 2027 11:44:54.595            35.388            RioGallegos          1105.875
       431   04 Jun 2027 12:17:23.580   04 Jun 2027 12:20:04.519           160.939                Sumatra          5029.344
       432   04 Jun 2027 12:32:22.724   04 Jun 2027 12:33:57.273            94.549                Novosib          2954.656
       433   04 Jun 2027 12:35:30.243   04 Jun 2027 12:36:33.806            63.563                Norilsk          1986.344
       434   04 Jun 2027 12:37:44.253   04 Jun 2027 12:38:15.291            31.038                Norilsk           969.938
       435   04 Jun 2027 14:02:59.555   04 Jun 2027 14:04:01.745            62.190                  Delhi          1943.438
       436   04 Jun 2027 14:04:50.128   04 Jun 2027 14:06:56.234           126.106                  Delhi          3940.812
       437   04 Jun 2027 14:10:07.750   04 Jun 2027 14:10:25.271            17.521                 Moscow           547.531
       438   04 Jun 2027 14:11:29.873   04 Jun 2027 14:14:01.243           151.370                Novosib          4730.312
       439   04 Jun 2027 14:14:18.785   04 Jun 2027 14:14:58.655            39.870                Norilsk          1245.937
       440   04 Jun 2027 14:15:36.244   04 Jun 2027 14:16:17.966            41.722                Norilsk          1303.813
       441   04 Jun 2027 15:24:30.221   04 Jun 2027 15:26:43.100           132.879               CapeTown          4152.469
       442   04 Jun 2027 15:30:18.009   04 Jun 2027 15:30:46.074            28.065               CapeTown           877.031
       443   04 Jun 2027 15:44:53.520   04 Jun 2027 15:45:14.262            20.742                 Moscow           648.188
       444   04 Jun 2027 15:48:18.911   04 Jun 2027 15:48:41.406            22.495              Murmansk2           702.969
       445   04 Jun 2027 15:49:03.866   04 Jun 2027 15:50:58.492           114.626              Murmansk2          3582.062
       446   04 Jun 2027 16:03:13.523   04 Jun 2027 16:04:22.316            68.793                Anadyr1          2149.781
       447   04 Jun 2027 16:04:34.402   04 Jun 2027 16:05:29.863            55.461                Anadyr2          1733.156
       448   04 Jun 2027 16:06:01.534   04 Jun 2027 16:07:01.587            60.053                Anadyr2          1876.656
       449   04 Jun 2027 17:00:24.451   04 Jun 2027 17:00:24.697             0.246               CapeTown             7.688
       450   04 Jun 2027 17:01:16.229   04 Jun 2027 17:01:36.044            19.815               CapeTown           619.219
       451   04 Jun 2027 17:26:06.418   04 Jun 2027 17:26:10.086             3.668                 Moscow           114.625
       452   04 Jun 2027 17:26:52.736   04 Jun 2027 17:27:12.656            19.920              Murmansk1           622.500
       453   04 Jun 2027 17:27:18.510   04 Jun 2027 17:29:09.700           111.190              Murmansk2          3474.687
       454   04 Jun 2027 17:29:28.127   04 Jun 2027 17:29:38.957            10.830                 Moscow           338.437
       455   04 Jun 2027 17:30:37.767   04 Jun 2027 17:31:57.151            79.384              Murmansk2          2480.750
       456   04 Jun 2027 17:38:26.990   04 Jun 2027 17:39:26.737            59.747                Anadyr1          1867.094
       457   04 Jun 2027 17:39:33.779   04 Jun 2027 17:40:10.663            36.884                Anadyr1          1152.625
       458   04 Jun 2027 17:43:09.060   04 Jun 2027 17:44:44.816            95.756               Magadan1          2992.375
       459   04 Jun 2027 19:14:19.239   04 Jun 2027 19:18:16.288           237.049                Anadyr1          7407.781
       460   04 Jun 2027 19:18:36.812   04 Jun 2027 19:21:40.992           184.180               Magadan1          5755.625
       461   04 Jun 2027 20:50:13.802   04 Jun 2027 20:52:22.011           128.209                Anadyr1          4006.531
       462   04 Jun 2027 20:52:30.995   04 Jun 2027 20:56:26.283           235.288               Magadan1          7352.750
       463   04 Jun 2027 21:01:59.670   04 Jun 2027 21:02:24.574            24.904               Magadan2           778.250
       464   04 Jun 2027 21:44:37.118   04 Jun 2027 21:48:01.647           204.529            RioGallegos          6391.531
       465   04 Jun 2027 22:25:49.046   04 Jun 2027 22:26:28.322            39.276                Anadyr1          1227.375
       466   04 Jun 2027 22:28:03.837   04 Jun 2027 22:28:13.542             9.705                Norilsk           303.281
       467   04 Jun 2027 22:28:34.696   04 Jun 2027 22:30:30.312           115.616               Magadan1          3613.000
       468   04 Jun 2027 22:31:11.443   04 Jun 2027 22:31:23.303            11.860                Norilsk           370.625
       469   04 Jun 2027 22:31:59.088   04 Jun 2027 22:32:42.145            43.057               Magadan2          1345.531
       470   04 Jun 2027 22:33:07.427   04 Jun 2027 22:34:19.758            72.331                Irkutsk          2260.344
       471   04 Jun 2027 22:35:07.442   04 Jun 2027 22:35:34.272            26.830                Novosib           838.437
       472   04 Jun 2027 22:35:53.124   04 Jun 2027 22:36:46.644            53.520                Novosib          1672.500
       473   04 Jun 2027 22:45:56.846   04 Jun 2027 22:46:39.020            42.174                Sumatra          1317.937
       474   04 Jun 2027 22:48:35.085   04 Jun 2027 22:48:45.993            10.908                Sumatra           340.875
       475   04 Jun 2027 22:53:40.234   04 Jun 2027 22:54:13.036            32.802                Sumatra          1025.063
       476   05 Jun 2027 00:00:30.236   05 Jun 2027 00:02:12.710           102.474                Anadyr2          3202.312
       477   05 Jun 2027 00:02:46.461   05 Jun 2027 00:02:54.637             8.176                Anadyr1           255.500
       478   05 Jun 2027 00:03:12.302   05 Jun 2027 00:03:25.165            12.863                Anadyr1           401.969
       479   05 Jun 2027 00:04:01.602   05 Jun 2027 00:04:18.069            16.467                Norilsk           514.594
       480   05 Jun 2027 00:04:40.807   05 Jun 2027 00:05:57.655            76.848               Magadan1          2401.500
       481   05 Jun 2027 00:06:56.476   05 Jun 2027 00:07:09.631            13.155               Magadan2           411.094
       482   05 Jun 2027 00:07:16.502   05 Jun 2027 00:07:50.527            34.025               Magadan2          1063.281
