uniorb/output/strategy_1/Drop/Drop_KinoSat_110807.txt

KinoSat_110807
-------------------------
    Access    *     Start Time (UTCG)     *     Stop Time (UTCG)  *   Duration (s)        *       Station  *  Data (Mbytes)
         1   01 Jun 2027 03:17:09.075   01 Jun 2027 03:21:13.713           244.638                Anadyr2          7644.937
         2   01 Jun 2027 03:21:24.768   01 Jun 2027 03:21:28.767             3.999               Magadan2           124.969
         3   01 Jun 2027 03:21:38.156   01 Jun 2027 03:22:01.289            23.133               Magadan1           722.906
         4   01 Jun 2027 03:22:38.003   01 Jun 2027 03:22:57.553            19.550                Anadyr1           610.938
         5   01 Jun 2027 04:54:30.482   01 Jun 2027 04:55:29.141            58.659               Magadan2          1833.094
         6   01 Jun 2027 04:55:29.141   01 Jun 2027 04:55:38.655             9.514               Magadan1           297.312
         7   01 Jun 2027 04:55:58.760   01 Jun 2027 04:56:43.168            44.408                Irkutsk          1387.750
         8   01 Jun 2027 04:56:44.653   01 Jun 2027 04:58:38.923           114.270                Anadyr2          3570.938
         9   01 Jun 2027 05:35:11.067   01 Jun 2027 05:36:24.942            73.875            RioGallegos          2308.594
        10   01 Jun 2027 05:41:01.523   01 Jun 2027 05:41:14.629            13.106            RioGallegos           409.562
        11   01 Jun 2027 06:29:15.673   01 Jun 2027 06:29:35.995            20.322                Novosib           635.062
        12   01 Jun 2027 06:29:45.024   01 Jun 2027 06:29:49.743             4.719                Norilsk           147.469
        13   01 Jun 2027 06:29:55.202   01 Jun 2027 06:31:48.512           113.310                Norilsk          3540.938
        14   01 Jun 2027 06:31:51.133   01 Jun 2027 06:33:20.536            89.403                Irkutsk          2793.844
        15   01 Jun 2027 06:33:23.210   01 Jun 2027 06:33:30.428             7.218               Magadan2           225.562
        16   01 Jun 2027 06:33:31.191   01 Jun 2027 06:33:54.215            23.024              Murmansk1           719.500
        17   01 Jun 2027 06:33:54.507   01 Jun 2027 06:34:01.864             7.357                Norilsk           229.906
        18   01 Jun 2027 06:34:13.749   01 Jun 2027 06:35:21.512            67.763                Novosib          2117.594
        19   01 Jun 2027 06:35:24.553   01 Jun 2027 06:35:30.831             6.278                Norilsk           196.187
        20   01 Jun 2027 06:35:58.493   01 Jun 2027 06:36:34.229            35.736                Norilsk          1116.750
        21   01 Jun 2027 06:36:58.104   01 Jun 2027 06:38:17.602            79.498                Norilsk          2484.312
        22   01 Jun 2027 07:09:03.892   01 Jun 2027 07:10:38.980            95.088            RioGallegos          2971.500
        23   01 Jun 2027 07:44:39.225   01 Jun 2027 07:46:29.436           110.211                Sumatra          3444.094
        24   01 Jun 2027 08:06:18.198   01 Jun 2027 08:08:46.465           148.267                Irkutsk          4633.344
        25   01 Jun 2027 08:08:51.503   01 Jun 2027 08:09:24.004            32.501                Irkutsk          1015.656
        26   01 Jun 2027 08:09:38.466   01 Jun 2027 08:11:15.303            96.837                Norilsk          3026.156
        27   01 Jun 2027 08:11:45.184   01 Jun 2027 08:12:14.243            29.059              Murmansk2           908.094
        28   01 Jun 2027 08:12:14.243   01 Jun 2027 08:12:16.761             2.518              Murmansk1            78.687
        29   01 Jun 2027 08:46:37.100   01 Jun 2027 08:47:43.009            65.909            RioGallegos          2059.656
        30   01 Jun 2027 08:48:24.258   01 Jun 2027 08:48:25.751             1.493            RioGallegos            46.656
        31   01 Jun 2027 08:49:27.807   01 Jun 2027 08:49:44.513            16.706            RioGallegos           522.063
        32   01 Jun 2027 08:50:46.645   01 Jun 2027 08:51:01.900            15.255            RioGallegos           476.719
        33   01 Jun 2027 08:51:03.607   01 Jun 2027 08:51:16.466            12.859            RioGallegos           401.844
        34   01 Jun 2027 09:20:48.714   01 Jun 2027 09:21:25.390            36.676                Sumatra          1146.125
        35   01 Jun 2027 09:22:03.986   01 Jun 2027 09:22:32.888            28.902                Sumatra           903.188
        36   01 Jun 2027 09:23:50.166   01 Jun 2027 09:24:23.798            33.632                Sumatra          1051.000
        37   01 Jun 2027 09:28:20.483   01 Jun 2027 09:31:16.865           176.382                  Delhi          5511.938
        38   01 Jun 2027 09:31:28.590   01 Jun 2027 09:31:52.424            23.834                  Delhi           744.812
        39   01 Jun 2027 09:43:10.631   01 Jun 2027 09:44:02.065            51.434              Murmansk1          1607.312
        40   01 Jun 2027 09:44:02.065   01 Jun 2027 09:44:24.328            22.263              Murmansk2           695.719
        41   01 Jun 2027 09:44:26.934   01 Jun 2027 09:45:59.316            92.382                 Moscow          2886.937
        42   01 Jun 2027 09:46:47.183   01 Jun 2027 09:47:12.172            24.989                 Moscow           780.906
        43   01 Jun 2027 09:47:17.529   01 Jun 2027 09:47:45.778            28.249                 Moscow           882.781
        44   01 Jun 2027 11:06:02.525   01 Jun 2027 11:07:20.375            77.850                  Delhi          2432.812
        45   01 Jun 2027 11:20:02.926   01 Jun 2027 11:23:57.792           234.866                 Moscow          7339.563
        46   01 Jun 2027 12:31:04.464   01 Jun 2027 12:31:40.890            36.426               CapeTown          1138.312
        47   01 Jun 2027 12:32:32.113   01 Jun 2027 12:32:54.223            22.110               CapeTown           690.938
        48   01 Jun 2027 12:48:49.523   01 Jun 2027 12:50:01.938            72.415                 Moscow          2262.969
        49   01 Jun 2027 12:51:42.882   01 Jun 2027 12:52:29.955            47.073                 Moscow          1471.031
        50   01 Jun 2027 12:52:52.118   01 Jun 2027 12:53:19.135            27.017                 Moscow           844.281
        51   01 Jun 2027 12:53:23.049   01 Jun 2027 12:54:12.062            49.013              Murmansk2          1531.656
        52   01 Jun 2027 12:54:12.062   01 Jun 2027 12:56:48.216           156.154              Murmansk1          4879.812
        53   01 Jun 2027 12:58:10.909   01 Jun 2027 12:58:33.736            22.827              Murmansk1           713.344
        54   01 Jun 2027 13:07:49.392   01 Jun 2027 13:11:21.800           212.408                Anadyr2          6637.750
        55   01 Jun 2027 13:12:02.060   01 Jun 2027 13:13:58.943           116.883                Anadyr1          3652.594
        56   01 Jun 2027 14:30:31.771   01 Jun 2027 14:31:28.781            57.010              Murmansk1          1781.562
        57   01 Jun 2027 14:31:58.755   01 Jun 2027 14:32:46.480            47.725              Murmansk2          1491.406
        58   01 Jun 2027 14:32:52.464   01 Jun 2027 14:33:15.094            22.630              Murmansk2           707.188
        59   01 Jun 2027 14:42:42.974   01 Jun 2027 14:44:34.906           111.932                Anadyr2          3497.875
        60   01 Jun 2027 14:44:35.934   01 Jun 2027 14:45:28.082            52.148                Anadyr1          1629.625
        61   01 Jun 2027 14:45:54.012   01 Jun 2027 14:46:41.680            47.668                Anadyr1          1489.625
        62   01 Jun 2027 15:38:51.369   01 Jun 2027 15:39:27.573            36.204               CapeTown          1131.375
        63   01 Jun 2027 16:11:55.414   01 Jun 2027 16:14:21.664           146.250              Murmansk2          4570.313
        64   01 Jun 2027 16:18:32.018   01 Jun 2027 16:20:04.994            92.976                Anadyr2          2905.500
        65   01 Jun 2027 16:20:29.678   01 Jun 2027 16:21:11.350            41.672                Anadyr1          1302.250
        66   01 Jun 2027 16:21:48.439   01 Jun 2027 16:22:15.928            27.489                Anadyr1           859.031
        67   01 Jun 2027 16:22:18.033   01 Jun 2027 16:23:38.065            80.032               Magadan2          2501.000
        68   01 Jun 2027 16:23:44.185   01 Jun 2027 16:25:06.940            82.755               Magadan1          2586.094
        69   01 Jun 2027 16:26:18.732   01 Jun 2027 16:26:43.736            25.004               Magadan2           781.375
        70   01 Jun 2027 16:28:34.322   01 Jun 2027 16:29:18.275            43.953               Magadan2          1373.531
        71   01 Jun 2027 16:29:58.900   01 Jun 2027 16:30:56.451            57.551               Magadan2          1798.469
        72   01 Jun 2027 17:54:26.909   01 Jun 2027 17:55:59.304            92.395                Anadyr1          2887.344
        73   01 Jun 2027 17:56:12.119   01 Jun 2027 17:57:49.722            97.603                Anadyr2          3050.094
        74   01 Jun 2027 17:58:33.736   01 Jun 2027 18:00:33.547           119.811               Magadan2          3744.094
        75   01 Jun 2027 18:49:08.686   01 Jun 2027 18:52:37.180           208.494            RioGallegos          6515.437
        76   01 Jun 2027 18:52:40.599   01 Jun 2027 18:55:25.032           164.433            RioGallegos          5138.531
        77   01 Jun 2027 19:32:19.296   01 Jun 2027 19:36:28.150           248.854                Norilsk          7776.687
        78   01 Jun 2027 19:36:36.603   01 Jun 2027 19:38:16.504            99.901                Irkutsk          3121.906
        79   01 Jun 2027 19:39:24.905   01 Jun 2027 19:40:28.284            63.379                Irkutsk          1980.594
        80   01 Jun 2027 19:41:04.351   01 Jun 2027 19:41:34.371            30.020                Novosib           938.125
        81   01 Jun 2027 19:50:29.159   01 Jun 2027 19:52:40.642           131.483                Sumatra          4108.844
        82   01 Jun 2027 19:54:09.558   01 Jun 2027 19:54:49.544            39.986                Sumatra          1249.563
        83   01 Jun 2027 21:12:05.271   01 Jun 2027 21:13:12.960            67.689                Irkutsk          2115.281
        84   01 Jun 2027 21:14:14.396   01 Jun 2027 21:16:05.912           111.516                Novosib          3484.875
        85   01 Jun 2027 21:20:22.397   01 Jun 2027 21:23:46.204           203.807                  Delhi          6368.969
        86   01 Jun 2027 22:44:28.782   01 Jun 2027 22:44:50.417            21.635               Magadan2           676.094
        87   01 Jun 2027 22:46:41.040   01 Jun 2027 22:49:19.769           158.729              Murmansk1          4960.281
        88   01 Jun 2027 22:49:19.936   01 Jun 2027 22:50:41.844            81.908              Murmansk2          2559.625
        89   01 Jun 2027 22:52:08.071   01 Jun 2027 22:57:00.235           292.164                 Moscow          9130.125
        90   02 Jun 2027 00:22:21.772   02 Jun 2027 00:23:56.869            95.097              Murmansk2          2971.781
        91   02 Jun 2027 00:24:18.497   02 Jun 2027 00:24:42.836            24.339                Novosib           760.594
        92   02 Jun 2027 00:25:06.078   02 Jun 2027 00:25:37.713            31.635                Novosib           988.594
        93   02 Jun 2027 00:25:47.437   02 Jun 2027 00:27:21.004            93.567                 Moscow          2923.969
        94   02 Jun 2027 00:28:49.125   02 Jun 2027 00:29:47.971            58.846                 Moscow          1838.938
        95   02 Jun 2027 00:50:22.471   02 Jun 2027 00:53:28.442           185.971               CapeTown          5811.594
        96   02 Jun 2027 01:49:04.957   02 Jun 2027 01:49:38.153            33.196               Magadan1          1037.375
        97   02 Jun 2027 01:50:04.872   02 Jun 2027 01:50:27.776            22.904               Magadan2           715.750
        98   02 Jun 2027 01:57:33.936   02 Jun 2027 01:57:44.622            10.686                Norilsk           333.937
        99   02 Jun 2027 01:58:19.623   02 Jun 2027 01:58:39.980            20.357              Murmansk1           636.156
       100   02 Jun 2027 01:58:39.980   02 Jun 2027 01:59:49.258            69.278              Murmansk2          2164.938
       101   02 Jun 2027 02:00:51.626   02 Jun 2027 02:01:18.489            26.863              Murmansk1           839.469
       102   02 Jun 2027 02:01:32.773   02 Jun 2027 02:01:42.506             9.733                 Moscow           304.156
       103   02 Jun 2027 02:01:52.069   02 Jun 2027 02:02:11.663            19.594                 Moscow           612.313
       104   02 Jun 2027 02:03:04.410   02 Jun 2027 02:03:36.666            32.256                Novosib          1008.000
       105   02 Jun 2027 02:08:19.881   02 Jun 2027 02:09:31.298            71.417                 Moscow          2231.781
       106   02 Jun 2027 02:25:54.444   02 Jun 2027 02:26:23.792            29.348               CapeTown           917.125
       107   02 Jun 2027 02:31:16.721   02 Jun 2027 02:31:35.806            19.085               CapeTown           596.406
       108   02 Jun 2027 03:25:36.178   02 Jun 2027 03:25:45.845             9.667                Anadyr1           302.094
       109   02 Jun 2027 03:28:30.062   02 Jun 2027 03:28:35.712             5.650                Anadyr1           176.563
       110   02 Jun 2027 03:28:50.678   02 Jun 2027 03:29:21.143            30.465               Magadan2           952.031
       111   02 Jun 2027 03:29:21.143   02 Jun 2027 03:29:57.860            36.717               Magadan1          1147.406
       112   02 Jun 2027 03:30:16.802   02 Jun 2027 03:30:42.111            25.309               Magadan1           790.906
       113   02 Jun 2027 03:30:42.111   02 Jun 2027 03:32:29.836           107.725               Magadan2          3366.406
       114   02 Jun 2027 03:32:41.332   02 Jun 2027 03:35:02.947           141.615                Anadyr1          4425.469
       115   02 Jun 2027 05:06:37.077   02 Jun 2027 05:07:38.395            61.318               Magadan2          1916.187
       116   02 Jun 2027 05:08:02.206   02 Jun 2027 05:08:52.417            50.211               Magadan1          1569.094
       117   02 Jun 2027 05:08:55.281   02 Jun 2027 05:10:33.843            98.562                Anadyr2          3080.063
       118   02 Jun 2027 05:11:03.549   02 Jun 2027 05:11:21.907            18.358                Norilsk           573.687
       119   02 Jun 2027 05:46:45.459   02 Jun 2027 05:49:34.291           168.832            RioGallegos          5276.000
       120   02 Jun 2027 06:40:32.715   02 Jun 2027 06:41:11.413            38.698                Novosib          1209.312
       121   02 Jun 2027 06:41:39.471   02 Jun 2027 06:44:58.803           199.332                Norilsk          6229.125
       122   02 Jun 2027 06:45:00.185   02 Jun 2027 06:46:04.325            64.140              Murmansk1          2004.375
       123   02 Jun 2027 06:46:28.870   02 Jun 2027 06:49:18.309           169.439              Murmansk2          5294.969
       124   02 Jun 2027 06:50:10.128   02 Jun 2027 06:50:18.742             8.614                Norilsk           269.187
       125   02 Jun 2027 06:50:35.860   02 Jun 2027 06:50:43.645             7.785                Norilsk           243.281
       126   02 Jun 2027 06:55:02.926   02 Jun 2027 06:55:08.029             5.103              Murmansk1           159.469
       127   02 Jun 2027 07:21:04.287   02 Jun 2027 07:23:08.220           123.933            RioGallegos          3872.906
       128   02 Jun 2027 07:56:20.862   02 Jun 2027 07:58:49.898           149.036                Sumatra          4657.375
       129   02 Jun 2027 08:08:47.455   02 Jun 2027 08:10:09.465            82.010                  Delhi          2562.813
       130   02 Jun 2027 08:16:44.417   02 Jun 2027 08:17:08.399            23.982                Irkutsk           749.438
       131   02 Jun 2027 08:18:19.506   02 Jun 2027 08:19:23.037            63.531                Irkutsk          1985.344
       132   02 Jun 2027 08:19:37.352   02 Jun 2027 08:22:29.937           172.585                Novosib          5393.281
       133   02 Jun 2027 09:33:25.872   02 Jun 2027 09:33:26.737             0.865                Sumatra            27.031
       134   02 Jun 2027 09:37:48.795   02 Jun 2027 09:37:55.554             6.759                Sumatra           211.219
       135   02 Jun 2027 09:41:25.716   02 Jun 2027 09:43:14.535           108.819                  Delhi          3400.594
       136   02 Jun 2027 09:55:36.737   02 Jun 2027 09:56:38.022            61.285                Irkutsk          1915.156
       137   02 Jun 2027 09:57:02.435   02 Jun 2027 09:59:44.592           162.157                Novosib          5067.406
       138   02 Jun 2027 09:59:46.823   02 Jun 2027 09:59:49.797             2.974                 Moscow            92.938
       139   02 Jun 2027 09:59:59.191   02 Jun 2027 10:00:41.936            42.745              Murmansk1          1335.781
       140   02 Jun 2027 10:00:41.936   02 Jun 2027 10:00:51.305             9.369              Murmansk2           292.781
       141   02 Jun 2027 11:18:56.310   02 Jun 2027 11:20:40.420           104.110                  Delhi          3253.438
       142   02 Jun 2027 11:21:25.431   02 Jun 2027 11:22:35.978            70.547                  Delhi          2204.594
       143   02 Jun 2027 11:31:14.136   02 Jun 2027 11:31:30.760            16.624                Norilsk           519.500
       144   02 Jun 2027 11:31:34.399   02 Jun 2027 11:32:06.889            32.490                Novosib          1015.312
       145   02 Jun 2027 11:32:13.438   02 Jun 2027 11:32:56.374            42.936              Murmansk1          1341.750
       146   02 Jun 2027 11:32:56.374   02 Jun 2027 11:33:29.706            33.332              Murmansk2          1041.625
       147   02 Jun 2027 11:33:45.384   02 Jun 2027 11:34:42.066            56.682              Murmansk2          1771.313
       148   02 Jun 2027 11:34:55.911   02 Jun 2027 11:35:33.573            37.662              Murmansk2          1176.938
       149   02 Jun 2027 12:41:02.912   02 Jun 2027 12:43:15.030           132.118               CapeTown          4128.688
       150   02 Jun 2027 12:44:36.695   02 Jun 2027 12:46:07.380            90.685               CapeTown          2833.906
       151   02 Jun 2027 13:01:04.063   02 Jun 2027 13:02:01.780            57.717                 Moscow          1803.656
       152   02 Jun 2027 13:04:30.582   02 Jun 2027 13:06:12.902           102.320              Murmansk2          3197.500
       153   02 Jun 2027 13:06:12.902   02 Jun 2027 13:09:22.647           189.745              Murmansk1          5929.531
       154   02 Jun 2027 13:19:33.414   02 Jun 2027 13:23:15.874           222.460                Anadyr1          6951.875
       155   02 Jun 2027 13:24:21.321   02 Jun 2027 13:26:19.219           117.898                Anadyr2          3684.313
       156   02 Jun 2027 14:43:00.593   02 Jun 2027 14:43:12.538            11.945              Murmansk1           373.281
       157   02 Jun 2027 14:43:53.332   02 Jun 2027 14:44:45.046            51.714              Murmansk2          1616.063
       158   02 Jun 2027 14:47:14.466   02 Jun 2027 14:47:38.326            23.860              Murmansk1           745.625
       159   02 Jun 2027 14:54:42.257   02 Jun 2027 14:56:29.654           107.397                Anadyr1          3356.156
       160   02 Jun 2027 14:56:43.905   02 Jun 2027 14:58:49.850           125.945                Anadyr2          3935.781
       161   02 Jun 2027 14:59:48.145   02 Jun 2027 15:02:39.268           171.123               Magadan2          5347.594
       162   02 Jun 2027 16:30:33.356   02 Jun 2027 16:33:08.961           155.605                Anadyr2          4862.656
       163   02 Jun 2027 16:33:32.659   02 Jun 2027 16:37:23.179           230.520               Magadan2          7203.750
       164   02 Jun 2027 16:41:18.666   02 Jun 2027 16:41:38.379            19.713               Magadan1           616.031
       165   02 Jun 2027 18:06:27.533   02 Jun 2027 18:09:12.715           165.182                Anadyr2          5161.938
       166   02 Jun 2027 18:09:21.984   02 Jun 2027 18:09:39.016            17.032                Anadyr2           532.250
       167   02 Jun 2027 18:09:51.029   02 Jun 2027 18:12:49.290           178.261                Norilsk          5570.656
       168   02 Jun 2027 19:00:55.382   02 Jun 2027 19:04:39.752           224.370            RioGallegos          7011.563
       169   02 Jun 2027 19:10:53.256   02 Jun 2027 19:11:38.145            44.889            RioGallegos          1402.781
       170   02 Jun 2027 19:44:47.667   02 Jun 2027 19:45:51.077            63.410               Magadan2          1981.562
       171   02 Jun 2027 19:45:51.077   02 Jun 2027 19:46:26.681            35.604               Magadan1          1112.625
       172   02 Jun 2027 19:47:31.804   02 Jun 2027 19:48:14.650            42.846               Magadan1          1338.938
       173   02 Jun 2027 19:48:29.636   02 Jun 2027 19:49:22.869            53.233                Irkutsk          1663.531
       174   02 Jun 2027 19:50:26.844   02 Jun 2027 19:55:47.022           320.178                Novosib         10005.563
       175   02 Jun 2027 20:04:57.389   02 Jun 2027 20:06:03.125            65.736                Sumatra          2054.250
       176   02 Jun 2027 20:14:07.515   02 Jun 2027 20:14:40.541            33.026                Sumatra          1032.063
       177   02 Jun 2027 21:22:42.137   02 Jun 2027 21:23:01.942            19.805                Norilsk           618.906
       178   02 Jun 2027 21:23:19.520   02 Jun 2027 21:23:23.039             3.519                Norilsk           109.969
       179   02 Jun 2027 21:23:36.822   02 Jun 2027 21:23:37.601             0.779                Norilsk            24.344
       180   02 Jun 2027 21:24:07.723   02 Jun 2027 21:24:37.996            30.273                Irkutsk           946.031
       181   02 Jun 2027 21:24:49.063   02 Jun 2027 21:25:59.524            70.461                Novosib          2201.906
       182   02 Jun 2027 21:26:40.772   02 Jun 2027 21:27:19.611            38.839                Novosib          1213.719
       183   02 Jun 2027 21:30:09.897   02 Jun 2027 21:30:56.162            46.265                Novosib          1445.781
       184   02 Jun 2027 21:32:02.538   02 Jun 2027 21:35:40.379           217.841                  Delhi          6807.531
       185   02 Jun 2027 22:56:19.685   02 Jun 2027 22:57:33.932            74.247               Magadan2          2320.219
       186   02 Jun 2027 22:57:33.932   02 Jun 2027 22:57:48.878            14.946               Magadan1           467.062
       187   02 Jun 2027 22:58:18.696   02 Jun 2027 22:58:29.815            11.119               Magadan2           347.469
       188   02 Jun 2027 22:58:37.797   02 Jun 2027 23:00:52.410           134.613              Murmansk1          4206.656
       189   02 Jun 2027 23:01:21.217   02 Jun 2027 23:03:08.807           107.590              Murmansk2          3362.187
       190   02 Jun 2027 23:03:27.261   02 Jun 2027 23:07:44.424           257.163                 Moscow          8036.344
       191   02 Jun 2027 23:07:54.636   02 Jun 2027 23:09:27.530            92.894                 Moscow          2902.937
       192   03 Jun 2027 00:34:03.955   03 Jun 2027 00:34:19.828            15.873               Magadan1           496.031
       193   03 Jun 2027 00:34:23.081   03 Jun 2027 00:35:57.018            93.937              Murmansk2          2935.531
       194   03 Jun 2027 00:36:05.243   03 Jun 2027 00:36:29.856            24.613              Murmansk2           769.156
       195   03 Jun 2027 00:36:58.659   03 Jun 2027 00:37:14.937            16.278              Murmansk2           508.688
       196   03 Jun 2027 00:37:43.217   03 Jun 2027 00:38:34.854            51.637              Murmansk1          1613.656
       197   03 Jun 2027 00:40:43.398   03 Jun 2027 00:40:43.428             0.030              Murmansk2             0.937
       198   03 Jun 2027 00:40:55.485   03 Jun 2027 00:40:58.592             3.107                 Moscow            97.094
       199   03 Jun 2027 00:41:22.808   03 Jun 2027 00:41:48.804            25.996                 Moscow           812.375
       200   03 Jun 2027 00:44:02.953   03 Jun 2027 00:44:26.807            23.854                 Moscow           745.438
       201   03 Jun 2027 00:45:39.935   03 Jun 2027 00:45:44.779             4.844                 Moscow           151.375
       202   03 Jun 2027 00:46:09.549   03 Jun 2027 00:46:28.121            18.572              Murmansk1           580.375
       203   03 Jun 2027 00:48:22.701   03 Jun 2027 00:49:16.154            53.453                 Moscow          1670.406
       204   03 Jun 2027 01:03:31.821   03 Jun 2027 01:04:13.595            41.774               CapeTown          1305.438
       205   03 Jun 2027 01:08:54.608   03 Jun 2027 01:09:30.727            36.119               CapeTown          1128.719
       206   03 Jun 2027 01:13:46.769   03 Jun 2027 01:14:10.194            23.425               CapeTown           732.031
       207   03 Jun 2027 01:59:14.447   03 Jun 2027 01:59:41.424            26.977                Anadyr1           843.031
       208   03 Jun 2027 02:00:26.643   03 Jun 2027 02:00:40.937            14.294                Anadyr2           446.687
       209   03 Jun 2027 02:00:54.393   03 Jun 2027 02:02:30.784            96.391               Magadan2          3012.219
       210   03 Jun 2027 02:03:43.713   03 Jun 2027 02:03:43.812             0.099               Magadan1             3.094
       211   03 Jun 2027 02:04:26.653   03 Jun 2027 02:04:32.394             5.741               Magadan2           179.406
       212   03 Jun 2027 02:05:19.021   03 Jun 2027 02:05:45.777            26.756               Magadan2           836.125
       213   03 Jun 2027 02:07:03.954   03 Jun 2027 02:08:12.146            68.192               Magadan2          2131.000
       214   03 Jun 2027 02:10:21.182   03 Jun 2027 02:11:05.960            44.778              Murmansk2          1399.313
       215   03 Jun 2027 02:11:22.095   03 Jun 2027 02:11:25.224             3.129              Murmansk1            97.781
       216   03 Jun 2027 02:12:00.329   03 Jun 2027 02:12:22.729            22.400              Murmansk2           700.000
       217   03 Jun 2027 02:13:06.221   03 Jun 2027 02:13:33.660            27.439              Murmansk2           857.469
       218   03 Jun 2027 02:16:34.335   03 Jun 2027 02:16:51.615            17.280                 Moscow           540.000
       219   03 Jun 2027 02:17:27.297   03 Jun 2027 02:17:47.402            20.105                 Moscow           628.281
       220   03 Jun 2027 02:19:11.773   03 Jun 2027 02:19:27.369            15.596                 Moscow           487.375
       221   03 Jun 2027 02:22:19.129   03 Jun 2027 02:22:31.938            12.809                 Moscow           400.281
       222   03 Jun 2027 02:23:03.575   03 Jun 2027 02:23:15.080            11.505                 Moscow           359.531
       223   03 Jun 2027 02:23:18.835   03 Jun 2027 02:23:50.927            32.092                 Moscow          1002.875
       224   03 Jun 2027 02:41:41.355   03 Jun 2027 02:42:10.989            29.634               CapeTown           926.062
       225   03 Jun 2027 02:43:33.980   03 Jun 2027 02:43:49.574            15.594               CapeTown           487.312
       226   03 Jun 2027 02:46:00.834   03 Jun 2027 02:46:19.560            18.726               CapeTown           585.187
       227   03 Jun 2027 02:48:33.268   03 Jun 2027 02:48:54.059            20.791               CapeTown           649.719
       228   03 Jun 2027 03:39:28.892   03 Jun 2027 03:40:55.217            86.325               Magadan1          2697.656
       229   03 Jun 2027 03:40:55.217   03 Jun 2027 03:42:18.278            83.061               Magadan2          2595.656
       230   03 Jun 2027 03:42:25.243   03 Jun 2027 03:42:38.323            13.080               Magadan2           408.750
       231   03 Jun 2027 03:42:55.607   03 Jun 2027 03:47:03.282           247.675                Anadyr1          7739.844
       232   03 Jun 2027 05:17:08.020   03 Jun 2027 05:17:48.257            40.237               Magadan1          1257.406
       233   03 Jun 2027 05:18:07.266   03 Jun 2027 05:20:19.380           132.114               Magadan1          4128.563
       234   03 Jun 2027 05:20:21.428   03 Jun 2027 05:22:26.871           125.443                Anadyr2          3920.094
       235   03 Jun 2027 06:00:28.079   03 Jun 2027 06:00:32.955             4.876            RioGallegos           152.375
       236   03 Jun 2027 06:02:35.723   03 Jun 2027 06:03:43.528            67.805            RioGallegos          2118.906
       237   03 Jun 2027 06:52:42.031   03 Jun 2027 06:53:45.401            63.370               Magadan1          1980.312
       238   03 Jun 2027 06:53:53.927   03 Jun 2027 06:54:55.687            61.760               Magadan1          1930.000
       239   03 Jun 2027 06:54:55.687   03 Jun 2027 06:56:50.022           114.335               Magadan2          3572.969
       240   03 Jun 2027 06:57:08.754   03 Jun 2027 06:57:39.231            30.477               Magadan2           952.406
       241   03 Jun 2027 06:57:40.051   03 Jun 2027 06:59:36.583           116.532                Novosib          3641.625
       242   03 Jun 2027 07:33:08.033   03 Jun 2027 07:34:50.110           102.077            RioGallegos          3189.906
       243   03 Jun 2027 08:08:09.088   03 Jun 2027 08:09:22.109            73.021                Sumatra          2281.906
       244   03 Jun 2027 08:11:03.259   03 Jun 2027 08:11:53.249            49.990                Sumatra          1562.187
       245   03 Jun 2027 08:19:34.352   03 Jun 2027 08:19:34.777             0.425                  Delhi            13.281
       246   03 Jun 2027 08:20:36.303   03 Jun 2027 08:21:37.625            61.322                  Delhi          1916.313
       247   03 Jun 2027 08:30:19.945   03 Jun 2027 08:30:32.788            12.843                Irkutsk           401.344
       248   03 Jun 2027 08:30:34.107   03 Jun 2027 08:32:22.126           108.019                Novosib          3375.594
       249   03 Jun 2027 08:32:34.450   03 Jun 2027 08:34:16.654           102.204                Irkutsk          3193.875
       250   03 Jun 2027 08:34:21.752   03 Jun 2027 08:34:55.653            33.901              Murmansk2          1059.406
       251   03 Jun 2027 09:11:55.171   03 Jun 2027 09:12:23.546            28.375            RioGallegos           886.719
       252   03 Jun 2027 09:13:39.154   03 Jun 2027 09:13:43.965             4.811            RioGallegos           150.344
       253   03 Jun 2027 09:14:48.886   03 Jun 2027 09:15:17.981            29.095            RioGallegos           909.219
       254   03 Jun 2027 09:46:20.714   03 Jun 2027 09:47:39.684            78.970                Sumatra          2467.813
       255   03 Jun 2027 09:50:09.327   03 Jun 2027 09:50:21.532            12.205                Sumatra           381.406
       256   03 Jun 2027 09:52:12.079   03 Jun 2027 09:52:30.061            17.982                  Delhi           561.937
       257   03 Jun 2027 10:00:05.687   03 Jun 2027 10:00:50.099            44.412                  Delhi          1387.875
       258   03 Jun 2027 10:07:18.422   03 Jun 2027 10:07:30.857            12.435              Murmansk1           388.594
       259   03 Jun 2027 10:07:34.798   03 Jun 2027 10:08:07.713            32.915              Murmansk2          1028.594
       260   03 Jun 2027 10:08:33.775   03 Jun 2027 10:08:50.776            17.001                 Moscow           531.281
       261   03 Jun 2027 10:08:55.180   03 Jun 2027 10:09:11.798            16.618                Novosib           519.312
       262   03 Jun 2027 10:09:21.002   03 Jun 2027 10:10:21.603            60.601              Murmansk2          1893.781
       263   03 Jun 2027 10:10:34.341   03 Jun 2027 10:10:45.563            11.222              Murmansk2           350.688
       264   03 Jun 2027 10:11:35.847   03 Jun 2027 10:11:41.259             5.412              Murmansk2           169.125
       265   03 Jun 2027 10:11:41.259   03 Jun 2027 10:12:05.284            24.025              Murmansk1           750.781
       266   03 Jun 2027 11:32:26.139   03 Jun 2027 11:34:41.070           134.931                  Delhi          4216.594
       267   03 Jun 2027 11:35:20.028   03 Jun 2027 11:35:26.202             6.174                  Delhi           192.937
       268   03 Jun 2027 11:39:15.091   03 Jun 2027 11:39:33.536            18.445                 Moscow           576.406
       269   03 Jun 2027 11:39:53.632   03 Jun 2027 11:40:26.098            32.466                 Moscow          1014.563
       270   03 Jun 2027 11:40:48.904   03 Jun 2027 11:41:31.243            42.339                Novosib          1323.094
       271   03 Jun 2027 11:41:39.490   03 Jun 2027 11:41:52.418            12.928              Murmansk2           404.000
       272   03 Jun 2027 11:41:52.418   03 Jun 2027 11:42:09.287            16.869              Murmansk1           527.156
       273   03 Jun 2027 11:42:18.043   03 Jun 2027 11:43:14.385            56.342              Murmansk2          1760.688
       274   03 Jun 2027 11:43:15.404   03 Jun 2027 11:43:20.037             4.633                Norilsk           144.781
       275   03 Jun 2027 11:43:23.604   03 Jun 2027 11:44:03.274            39.670              Murmansk1          1239.688
       276   03 Jun 2027 11:44:05.696   03 Jun 2027 11:44:10.290             4.594                 Moscow           143.563
       277   03 Jun 2027 11:44:13.544   03 Jun 2027 11:44:57.029            43.485              Murmansk1          1358.906
       278   03 Jun 2027 11:45:05.436   03 Jun 2027 11:46:23.738            78.302                Norilsk          2446.938
       279   03 Jun 2027 11:46:43.586   03 Jun 2027 11:47:04.025            20.439              Murmansk2           638.719
       280   03 Jun 2027 11:47:05.847   03 Jun 2027 11:47:16.290            10.443                Norilsk           326.344
       281   03 Jun 2027 11:47:55.205   03 Jun 2027 11:48:09.459            14.254                Norilsk           445.438
       282   03 Jun 2027 12:52:08.444   03 Jun 2027 12:54:56.187           167.743               CapeTown          5241.969
       283   03 Jun 2027 12:58:19.088   03 Jun 2027 13:00:23.388           124.300               CapeTown          3884.375
       284   03 Jun 2027 13:16:43.793   03 Jun 2027 13:19:21.614           157.821              Murmansk1          4931.906
       285   03 Jun 2027 13:19:41.452   03 Jun 2027 13:19:50.628             9.176              Murmansk1           286.750
       286   03 Jun 2027 13:31:22.304   03 Jun 2027 13:35:11.555           229.251                Anadyr2          7164.094
       287   03 Jun 2027 13:35:28.639   03 Jun 2027 13:36:56.103            87.464                Anadyr1          2733.250
       288   03 Jun 2027 14:55:32.197   03 Jun 2027 14:56:49.097            76.900              Murmansk1          2403.125
       289   03 Jun 2027 14:59:01.177   03 Jun 2027 14:59:10.378             9.201              Murmansk1           287.531
       290   03 Jun 2027 15:01:01.578   03 Jun 2027 15:01:32.461            30.883              Murmansk2           965.094
       291   03 Jun 2027 15:06:42.040   03 Jun 2027 15:08:25.865           103.825                Anadyr1          3244.531
       292   03 Jun 2027 15:08:49.769   03 Jun 2027 15:09:16.063            26.294                Anadyr2           821.687
       293   03 Jun 2027 15:09:29.582   03 Jun 2027 15:09:56.670            27.088                Anadyr2           846.500
       294   03 Jun 2027 15:10:51.615   03 Jun 2027 15:16:13.610           321.995               Magadan1         10062.344
       295   03 Jun 2027 16:43:24.816   03 Jun 2027 16:44:10.336            45.520                Anadyr1          1422.500
       296   03 Jun 2027 16:45:01.886   03 Jun 2027 16:47:00.565           118.679               Magadan2          3708.719
       297   03 Jun 2027 16:47:00.565   03 Jun 2027 16:47:49.358            48.793               Magadan1          1524.781
       298   03 Jun 2027 16:53:16.074   03 Jun 2027 16:53:19.478             3.404               Magadan1           106.375
       299   03 Jun 2027 16:56:19.706   03 Jun 2027 16:56:38.459            18.753               Magadan2           586.031
       300   03 Jun 2027 18:18:27.886   03 Jun 2027 18:21:52.638           204.752                Anadyr2          6398.500
       301   03 Jun 2027 18:22:11.707   03 Jun 2027 18:23:39.961            88.254               Magadan2          2757.938
       302   03 Jun 2027 18:23:39.961   03 Jun 2027 18:23:57.183            17.222               Magadan1           538.187
       303   03 Jun 2027 18:24:37.442   03 Jun 2027 18:26:21.681           104.239                Norilsk          3257.469
       304   03 Jun 2027 18:27:22.253   03 Jun 2027 18:29:37.298           135.045                Irkutsk          4220.156
       305   03 Jun 2027 19:12:45.375   03 Jun 2027 19:13:16.171            30.796            RioGallegos           962.375
       306   03 Jun 2027 19:15:35.397   03 Jun 2027 19:15:52.566            17.169            RioGallegos           536.531
       307   03 Jun 2027 19:22:27.548   03 Jun 2027 19:24:02.591            95.043            RioGallegos          2970.094
       308   03 Jun 2027 19:56:20.021   03 Jun 2027 19:57:59.758            99.737                Norilsk          3116.781
       309   03 Jun 2027 20:00:41.589   03 Jun 2027 20:01:58.356            76.767                Irkutsk          2398.969
       310   03 Jun 2027 20:03:04.287   03 Jun 2027 20:08:54.971           350.684                Novosib         10958.875
       311   03 Jun 2027 20:16:44.741   03 Jun 2027 20:16:54.577             9.836                Sumatra           307.375
       312   03 Jun 2027 20:17:07.595   03 Jun 2027 20:17:28.399            20.804                Sumatra           650.125
       313   03 Jun 2027 21:36:10.939   03 Jun 2027 21:36:24.454            13.515                Irkutsk           422.344
       314   03 Jun 2027 21:36:32.913   03 Jun 2027 21:38:16.962           104.049                Novosib          3251.531
       315   03 Jun 2027 21:38:39.468   03 Jun 2027 21:39:26.114            46.646                Novosib          1457.687
       316   03 Jun 2027 21:43:48.364   03 Jun 2027 21:47:29.630           221.266                  Delhi          6914.563
       317   03 Jun 2027 23:08:44.436   03 Jun 2027 23:09:45.166            60.730               Magadan2          1897.813
       318   03 Jun 2027 23:10:35.741   03 Jun 2027 23:13:21.568           165.827              Murmansk2          5182.094
       319   03 Jun 2027 23:13:21.568   03 Jun 2027 23:14:41.359            79.791              Murmansk1          2493.469
       320   03 Jun 2027 23:15:01.422   03 Jun 2027 23:17:32.413           150.991                 Moscow          4718.469
       321   03 Jun 2027 23:21:31.686   03 Jun 2027 23:21:42.213            10.527                 Moscow           328.969
       322   03 Jun 2027 23:44:26.559   03 Jun 2027 23:45:29.771            63.212               CapeTown          1975.375
       323   03 Jun 2027 23:46:13.089   03 Jun 2027 23:46:19.182             6.093               CapeTown           190.406
       324   04 Jun 2027 00:40:29.357   04 Jun 2027 00:41:16.788            47.431               Magadan1          1482.219
       325   04 Jun 2027 00:43:59.448   04 Jun 2027 00:44:19.471            20.023               Magadan2           625.719
       326   04 Jun 2027 00:46:24.550   04 Jun 2027 00:48:36.141           131.591              Murmansk2          4112.219
       327   04 Jun 2027 00:48:55.581   04 Jun 2027 00:49:14.908            19.327              Murmansk1           603.969
       328   04 Jun 2027 00:49:42.719   04 Jun 2027 00:51:05.297            82.578                 Moscow          2580.563
       329   04 Jun 2027 00:56:22.456   04 Jun 2027 00:57:07.771            45.315                 Moscow          1416.094
       330   04 Jun 2027 01:13:48.352   04 Jun 2027 01:15:26.102            97.750               CapeTown          3054.687
       331   04 Jun 2027 02:10:16.258   04 Jun 2027 02:11:14.742            58.484                Anadyr1          1827.625
       332   04 Jun 2027 02:11:33.194   04 Jun 2027 02:11:40.067             6.873                Anadyr2           214.781
       333   04 Jun 2027 02:12:17.020   04 Jun 2027 02:13:06.503            49.483               Magadan1          1546.344
       334   04 Jun 2027 02:13:23.825   04 Jun 2027 02:13:25.770             1.945               Magadan1            60.781
       335   04 Jun 2027 02:14:32.538   04 Jun 2027 02:14:51.007            18.469               Magadan1           577.156
       336   04 Jun 2027 02:15:31.042   04 Jun 2027 02:15:45.779            14.737               Magadan1           460.531
       337   04 Jun 2027 02:17:15.040   04 Jun 2027 02:17:21.713             6.673               Magadan2           208.531
       338   04 Jun 2027 02:17:21.713   04 Jun 2027 02:17:47.813            26.100               Magadan1           815.625
       339   04 Jun 2027 02:19:16.809   04 Jun 2027 02:19:22.694             5.885                Norilsk           183.906
       340   04 Jun 2027 02:20:01.438   04 Jun 2027 02:20:03.744             2.306                Norilsk            72.062
       341   04 Jun 2027 02:21:03.571   04 Jun 2027 02:21:07.954             4.383                Norilsk           136.969
       342   04 Jun 2027 02:21:16.321   04 Jun 2027 02:21:25.259             8.938                Norilsk           279.313
       343   04 Jun 2027 02:22:22.638   04 Jun 2027 02:23:03.080            40.442              Murmansk1          1263.812
       344   04 Jun 2027 02:23:29.514   04 Jun 2027 02:23:52.765            23.251              Murmansk1           726.594
       345   04 Jun 2027 02:23:56.052   04 Jun 2027 02:24:04.253             8.201              Murmansk2           256.281
       346   04 Jun 2027 02:24:17.529   04 Jun 2027 02:24:44.627            27.098              Murmansk2           846.813
       347   04 Jun 2027 02:25:33.007   04 Jun 2027 02:26:29.101            56.094              Murmansk2          1752.937
       348   04 Jun 2027 02:31:44.847   04 Jun 2027 02:32:19.712            34.865                 Moscow          1089.531
       349   04 Jun 2027 02:37:15.113   04 Jun 2027 02:37:24.839             9.726                 Moscow           303.938
       350   04 Jun 2027 02:50:59.631   04 Jun 2027 02:51:24.300            24.669               CapeTown           770.906
       351   04 Jun 2027 02:55:27.458   04 Jun 2027 02:56:19.385            51.927               CapeTown          1622.719
       352   04 Jun 2027 03:51:03.071   04 Jun 2027 03:51:56.698            53.627                Anadyr2          1675.844
       353   04 Jun 2027 03:53:23.542   04 Jun 2027 03:57:26.243           242.701                Anadyr1          7584.406
       354   04 Jun 2027 03:57:26.243   04 Jun 2027 03:59:03.248            97.005                Anadyr2          3031.406
       355   04 Jun 2027 04:39:50.427   04 Jun 2027 04:40:36.185            45.758            RioGallegos          1429.937
       356   04 Jun 2027 05:28:07.723   04 Jun 2027 05:29:16.653            68.930                Norilsk          2154.062
       357   04 Jun 2027 05:29:20.026   04 Jun 2027 05:32:05.581           165.555               Magadan2          5173.594
       358   04 Jun 2027 05:32:08.937   04 Jun 2027 05:32:10.869             1.932                Irkutsk            60.375
       359   04 Jun 2027 05:32:11.949   04 Jun 2027 05:32:58.636            46.687                Anadyr2          1458.969
       360   04 Jun 2027 05:33:17.847   04 Jun 2027 05:33:48.356            30.509                Irkutsk           953.406
       361   04 Jun 2027 05:34:03.860   04 Jun 2027 05:35:15.655            71.795                Norilsk          2243.594
       362   04 Jun 2027 05:35:33.062   04 Jun 2027 05:35:59.811            26.749                Norilsk           835.906
       363   04 Jun 2027 05:37:11.627   04 Jun 2027 05:37:29.152            17.525                Norilsk           547.656
       364   04 Jun 2027 05:37:37.463   04 Jun 2027 05:37:47.217             9.754              Murmansk1           304.812
       365   04 Jun 2027 05:37:58.807   04 Jun 2027 05:38:02.160             3.353              Murmansk1           104.781
       366   04 Jun 2027 05:38:12.666   04 Jun 2027 05:38:30.193            17.527                Norilsk           547.719
       367   04 Jun 2027 05:39:15.815   04 Jun 2027 05:39:38.860            23.045              Murmansk1           720.156
       368   04 Jun 2027 06:10:04.545   04 Jun 2027 06:12:15.717           131.172            RioGallegos          4099.125
       369   04 Jun 2027 06:13:09.981   04 Jun 2027 06:13:34.867            24.886            RioGallegos           777.688
       370   04 Jun 2027 07:05:06.766   04 Jun 2027 07:07:25.555           138.789                Irkutsk          4337.156
       371   04 Jun 2027 07:07:34.685   04 Jun 2027 07:07:38.223             3.538                Norilsk           110.563
       372   04 Jun 2027 07:07:40.835   04 Jun 2027 07:10:12.343           151.508                Irkutsk          4734.625
       373   04 Jun 2027 07:10:16.430   04 Jun 2027 07:10:42.746            26.316                Novosib           822.375
       374   04 Jun 2027 07:45:15.247   04 Jun 2027 07:45:47.920            32.673            RioGallegos          1021.031
       375   04 Jun 2027 07:48:22.009   04 Jun 2027 07:48:29.718             7.709            RioGallegos           240.906
       376   04 Jun 2027 08:20:03.234   04 Jun 2027 08:22:03.033           119.799                Sumatra          3743.719
       377   04 Jun 2027 08:30:41.599   04 Jun 2027 08:31:41.720            60.121                  Delhi          1878.781
       378   04 Jun 2027 08:33:07.508   04 Jun 2027 08:33:13.126             5.618                  Delhi           175.562
       379   04 Jun 2027 08:40:53.077   04 Jun 2027 08:41:47.854            54.777                Irkutsk          1711.781
       380   04 Jun 2027 08:42:11.338   04 Jun 2027 08:42:40.822            29.484                Norilsk           921.375
       381   04 Jun 2027 08:42:42.737   04 Jun 2027 08:43:50.942            68.205                Novosib          2131.406
       382   04 Jun 2027 08:43:55.305   04 Jun 2027 08:43:57.232             1.927                Irkutsk            60.219
       383   04 Jun 2027 08:43:58.231   04 Jun 2027 08:44:26.559            28.328                Norilsk           885.250
       384   04 Jun 2027 08:44:40.728   04 Jun 2027 08:45:47.511            66.783                Irkutsk          2086.969
       385   04 Jun 2027 08:45:51.730   04 Jun 2027 08:46:12.674            20.944                Irkutsk           654.500
       386   04 Jun 2027 08:46:13.494   04 Jun 2027 08:46:25.559            12.065              Murmansk2           377.031
       387   04 Jun 2027 08:46:28.368   04 Jun 2027 08:46:55.266            26.898              Murmansk2           840.563
       388   04 Jun 2027 08:47:28.377   04 Jun 2027 08:48:02.050            33.673                 Moscow          1052.281
       389   04 Jun 2027 09:24:48.807   04 Jun 2027 09:25:34.196            45.389            RioGallegos          1418.406
       390   04 Jun 2027 09:26:59.037   04 Jun 2027 09:27:29.773            30.736            RioGallegos           960.500
       391   04 Jun 2027 09:59:59.209   04 Jun 2027 10:02:07.191           127.982                Sumatra          3999.437
       392   04 Jun 2027 10:18:12.340   04 Jun 2027 10:18:18.995             6.655                Irkutsk           207.969
       393   04 Jun 2027 10:18:22.502   04 Jun 2027 10:19:05.784            43.282              Murmansk1          1352.563
       394   04 Jun 2027 10:19:25.944   04 Jun 2027 10:19:50.056            24.112                Norilsk           753.500
       395   04 Jun 2027 10:20:33.873   04 Jun 2027 10:20:54.050            20.177                Norilsk           630.531
       396   04 Jun 2027 10:20:56.629   04 Jun 2027 10:21:07.048            10.419                Norilsk           325.594
       397   04 Jun 2027 10:21:15.871   04 Jun 2027 10:21:16.997             1.126                Novosib            35.187
       398   04 Jun 2027 10:21:18.271   04 Jun 2027 10:21:44.954            26.683              Murmansk1           833.844
       399   04 Jun 2027 10:21:48.396   04 Jun 2027 10:22:14.033            25.637                Novosib           801.156
       400   04 Jun 2027 10:22:47.121   04 Jun 2027 10:22:55.321             8.200                 Moscow           256.250
       401   04 Jun 2027 10:25:09.158   04 Jun 2027 10:25:11.143             1.985              Murmansk1            62.031
       402   04 Jun 2027 10:27:03.967   04 Jun 2027 10:27:07.009             3.042              Murmansk2            95.063
       403   04 Jun 2027 11:52:03.594   04 Jun 2027 11:52:15.753            12.159              Murmansk1           379.969
       404   04 Jun 2027 11:52:15.753   04 Jun 2027 11:52:52.942            37.189              Murmansk2          1162.156
       405   04 Jun 2027 11:53:05.837   04 Jun 2027 11:53:12.033             6.196              Murmansk1           193.625
       406   04 Jun 2027 11:53:13.710   04 Jun 2027 11:53:40.348            26.638              Murmansk1           832.437
       407   04 Jun 2027 11:53:47.432   04 Jun 2027 11:54:19.704            32.272              Murmansk2          1008.500
       408   04 Jun 2027 11:54:23.409   04 Jun 2027 11:54:50.979            27.570                 Moscow           861.563
       409   04 Jun 2027 11:55:12.498   04 Jun 2027 11:55:25.856            13.358              Murmansk2           417.437
       410   04 Jun 2027 11:55:36.887   04 Jun 2027 11:56:12.997            36.110              Murmansk1          1128.438
       411   04 Jun 2027 11:56:23.778   04 Jun 2027 11:57:24.237            60.459                 Moscow          1889.344
       412   04 Jun 2027 11:57:34.109   04 Jun 2027 11:58:13.935            39.826              Murmansk1          1244.562
       413   04 Jun 2027 11:58:29.208   04 Jun 2027 11:58:53.837            24.629              Murmansk2           769.656
       414   04 Jun 2027 11:59:08.035   04 Jun 2027 11:59:38.621            30.586                Norilsk           955.813
       415   04 Jun 2027 12:00:04.830   04 Jun 2027 12:00:55.747            50.917              Murmansk1          1591.156
       416   04 Jun 2027 12:01:49.623   04 Jun 2027 12:02:11.632            22.009                Norilsk           687.781
       417   04 Jun 2027 12:03:15.337   04 Jun 2027 12:03:18.809             3.472              Murmansk1           108.500
       418   04 Jun 2027 12:03:33.847   04 Jun 2027 12:03:55.542            21.695              Murmansk2           677.969
       419   04 Jun 2027 12:04:06.358   04 Jun 2027 12:04:45.750            39.392              Murmansk2          1231.000
       420   04 Jun 2027 13:05:12.560   04 Jun 2027 13:06:50.938            98.378               CapeTown          3074.313
       421   04 Jun 2027 13:08:30.873   04 Jun 2027 13:10:34.630           123.757               CapeTown          3867.406
       422   04 Jun 2027 13:28:58.960   04 Jun 2027 13:30:55.924           116.964              Murmansk2          3655.125
       423   04 Jun 2027 13:31:21.185   04 Jun 2027 13:31:38.538            17.353              Murmansk1           542.281
       424   04 Jun 2027 13:32:30.244   04 Jun 2027 13:32:38.696             8.452              Murmansk2           264.125
       425   04 Jun 2027 13:32:53.251   04 Jun 2027 13:33:04.815            11.564              Murmansk2           361.375
       426   04 Jun 2027 13:33:38.326   04 Jun 2027 13:33:51.204            12.878              Murmansk2           402.438
       427   04 Jun 2027 13:35:48.594   04 Jun 2027 13:36:46.910            58.316              Murmansk1          1822.375
       428   04 Jun 2027 13:38:33.846   04 Jun 2027 13:38:47.035            13.189              Murmansk2           412.156
       429   04 Jun 2027 13:40:31.276   04 Jun 2027 13:40:58.766            27.490              Murmansk2           859.063
       430   04 Jun 2027 13:43:14.304   04 Jun 2027 13:45:36.232           141.928                Anadyr2          4435.250
       431   04 Jun 2027 13:46:03.675   04 Jun 2027 13:47:08.464            64.789                Anadyr2          2024.656
       432   04 Jun 2027 13:50:33.804   04 Jun 2027 13:52:15.813           102.009                Anadyr2          3187.781
       433   04 Jun 2027 15:14:19.067   04 Jun 2027 15:14:31.930            12.863              Murmansk2           401.969
       434   04 Jun 2027 15:14:48.113   04 Jun 2027 15:16:29.058           100.945              Murmansk2          3154.531
       435   04 Jun 2027 15:19:51.033   04 Jun 2027 15:20:23.205            32.172                Anadyr1          1005.375
       436   04 Jun 2027 15:21:13.091   04 Jun 2027 15:21:23.124            10.033                Anadyr2           313.531
       437   04 Jun 2027 15:21:29.961   04 Jun 2027 15:21:48.121            18.160                Anadyr2           567.500
       438   04 Jun 2027 15:22:21.940   04 Jun 2027 15:25:45.356           203.416               Magadan1          6356.750
       439   04 Jun 2027 15:25:58.757   04 Jun 2027 15:26:57.333            58.576               Magadan2          1830.500
       440   04 Jun 2027 15:28:36.167   04 Jun 2027 15:29:18.157            41.990               Magadan2          1312.187
       441   04 Jun 2027 16:54:36.101   04 Jun 2027 16:55:04.711            28.610                Anadyr2           894.062
       442   04 Jun 2027 16:55:55.394   04 Jun 2027 16:56:39.415            44.021                Anadyr1          1375.656
       443   04 Jun 2027 16:56:59.709   04 Jun 2027 16:58:39.320            99.611               Magadan1          3112.844
       444   04 Jun 2027 16:59:52.045   04 Jun 2027 17:00:01.288             9.243               Magadan1           288.844
       445   04 Jun 2027 17:00:10.531   04 Jun 2027 17:01:04.657            54.126               Magadan1          1691.438
       446   04 Jun 2027 18:30:27.919   04 Jun 2027 18:32:03.217            95.298                Anadyr2          2978.063
       447   04 Jun 2027 18:32:13.290   04 Jun 2027 18:33:54.169           100.879                Anadyr1          3152.469
       448   04 Jun 2027 18:33:57.571   04 Jun 2027 18:35:31.869            94.298               Magadan2          2946.812
       449   04 Jun 2027 18:35:42.940   04 Jun 2027 18:36:43.131            60.191                Norilsk          1880.969
       450   04 Jun 2027 18:38:25.011   04 Jun 2027 18:41:20.611           175.600                Irkutsk          5487.500
       451   04 Jun 2027 18:42:14.101   04 Jun 2027 18:44:06.629           112.528                Irkutsk          3516.500
       452   04 Jun 2027 18:55:06.756   04 Jun 2027 18:55:44.715            37.959                Sumatra          1186.219
       453   04 Jun 2027 18:56:32.992   04 Jun 2027 18:58:38.383           125.391                Sumatra          3918.469
       454   04 Jun 2027 20:12:21.017   04 Jun 2027 20:14:21.359           120.342                Irkutsk          3760.687
       455   04 Jun 2027 20:14:22.768   04 Jun 2027 20:15:56.169            93.401                Novosib          2918.781
       456   04 Jun 2027 20:18:05.333   04 Jun 2027 20:18:37.697            32.364                Novosib          1011.375
       457   04 Jun 2027 20:26:02.421   04 Jun 2027 20:27:15.862            73.441                Sumatra          2295.031
       458   04 Jun 2027 20:35:38.527   04 Jun 2027 20:35:41.717             3.190                Sumatra            99.687
       459   04 Jun 2027 21:44:55.396   04 Jun 2027 21:45:54.869            59.473               Magadan1          1858.531
       460   04 Jun 2027 21:48:11.693   04 Jun 2027 21:50:07.660           115.967                Novosib          3623.969
       461   04 Jun 2027 21:50:11.466   04 Jun 2027 21:50:31.672            20.206              Murmansk1           631.438
       462   04 Jun 2027 21:54:05.538   04 Jun 2027 21:55:37.512            91.974                Novosib          2874.188
       463   04 Jun 2027 21:55:38.777   04 Jun 2027 21:57:09.995            91.218                  Delhi          2850.562
       464   04 Jun 2027 21:58:26.004   04 Jun 2027 21:58:53.151            27.147                  Delhi           848.344
       465   04 Jun 2027 22:06:30.890   04 Jun 2027 22:06:32.610             1.720                  Delhi            53.750
       466   04 Jun 2027 23:19:49.621   04 Jun 2027 23:20:28.191            38.570               Magadan2          1205.312
       467   04 Jun 2027 23:20:58.557   04 Jun 2027 23:21:33.132            34.575               Magadan1          1080.469
       468   04 Jun 2027 23:21:43.212   04 Jun 2027 23:22:10.112            26.900               Magadan2           840.625
       469   04 Jun 2027 23:22:34.589   04 Jun 2027 23:25:04.587           149.998              Murmansk2          4687.438
       470   04 Jun 2027 23:25:04.587   04 Jun 2027 23:26:56.723           112.136              Murmansk1          3504.250
       471   04 Jun 2027 23:27:14.103   04 Jun 2027 23:28:40.487            86.384                 Moscow          2699.500
       472   04 Jun 2027 23:29:02.802   04 Jun 2027 23:29:08.570             5.768                 Moscow           180.250
       473   04 Jun 2027 23:29:14.935   04 Jun 2027 23:31:28.514           133.579                 Moscow          4174.344
       474   04 Jun 2027 23:54:18.953   04 Jun 2027 23:55:43.590            84.637               CapeTown          2644.906
       475   04 Jun 2027 23:57:10.868   04 Jun 2027 23:57:41.007            30.139               CapeTown           941.844
       476   05 Jun 2027 00:58:26.124   05 Jun 2027 00:59:57.609            91.485              Murmansk2          2858.906
       477   05 Jun 2027 01:00:40.777   05 Jun 2027 01:01:10.731            29.954              Murmansk1           936.062
       478   05 Jun 2027 01:01:41.805   05 Jun 2027 01:03:33.049           111.244                 Moscow          3476.375
       479   05 Jun 2027 01:25:39.153   05 Jun 2027 01:26:59.290            80.137               CapeTown          2504.281
       480   05 Jun 2027 02:22:16.354   05 Jun 2027 02:23:40.981            84.627                Anadyr2          2644.594
       481   05 Jun 2027 02:23:55.631   05 Jun 2027 02:24:54.430            58.799               Magadan1          1837.469
       482   05 Jun 2027 02:26:14.718   05 Jun 2027 02:26:34.648            19.930               Magadan1           622.812
