uniorb/output/strategy_1/Drop/Drop_KinoSat_110902.txt

KinoSat_110902
-------------------------
    Access    *     Start Time (UTCG)     *     Stop Time (UTCG)  *   Duration (s)        *       Station  *  Data (Mbytes)
         1   01 Jun 2027 04:02:21.362   01 Jun 2027 04:03:47.717            86.355               Magadan2          2698.594
         2   01 Jun 2027 04:03:47.717   01 Jun 2027 04:06:34.719           167.002               Magadan1          5218.813
         3   01 Jun 2027 04:06:45.248   01 Jun 2027 04:06:50.606             5.358                Anadyr2           167.438
         4   01 Jun 2027 05:38:08.425   01 Jun 2027 05:39:40.690            92.265               Magadan1          2883.281
         5   01 Jun 2027 05:39:40.690   01 Jun 2027 05:40:07.460            26.770               Magadan2           836.563
         6   01 Jun 2027 05:40:30.946   01 Jun 2027 05:42:24.408           113.462                Anadyr1          3545.688
         7   01 Jun 2027 06:23:15.965   01 Jun 2027 06:24:13.987            58.022            RioGallegos          1813.188
         8   01 Jun 2027 07:13:04.978   01 Jun 2027 07:13:58.880            53.902               Magadan2          1684.438
         9   01 Jun 2027 07:14:00.952   01 Jun 2027 07:14:24.998            24.046                Irkutsk           751.437
        10   01 Jun 2027 07:14:29.156   01 Jun 2027 07:17:21.302           172.146               Magadan2          5379.562
        11   01 Jun 2027 07:17:31.857   01 Jun 2027 07:19:03.454            91.597              Murmansk2          2862.406
        12   01 Jun 2027 07:19:05.634   01 Jun 2027 07:19:22.045            16.411                Novosib           512.844
        13   01 Jun 2027 07:53:44.669   01 Jun 2027 07:54:36.940            52.271            RioGallegos          1633.469
        14   01 Jun 2027 08:28:09.811   01 Jun 2027 08:30:44.069           154.258                Sumatra          4820.562
        15   01 Jun 2027 08:49:37.665   01 Jun 2027 08:49:57.296            19.631                Norilsk           613.469
        16   01 Jun 2027 08:50:06.377   01 Jun 2027 08:51:41.185            94.808                Novosib          2962.750
        17   01 Jun 2027 08:51:47.986   01 Jun 2027 08:54:28.016           160.030                Novosib          5000.937
        18   01 Jun 2027 08:54:28.216   01 Jun 2027 08:54:58.053            29.837              Murmansk2           932.406
        19   01 Jun 2027 08:55:41.038   01 Jun 2027 08:55:47.474             6.436              Murmansk1           201.125
        20   01 Jun 2027 08:57:13.684   01 Jun 2027 08:57:39.018            25.334              Murmansk1           791.688
        21   01 Jun 2027 09:31:58.582   01 Jun 2027 09:32:31.035            32.453            RioGallegos          1014.156
        22   01 Jun 2027 09:35:03.667   01 Jun 2027 09:35:15.355            11.688            RioGallegos           365.250
        23   01 Jun 2027 09:35:19.046   01 Jun 2027 09:35:45.850            26.804            RioGallegos           837.625
        24   01 Jun 2027 10:05:25.218   01 Jun 2027 10:05:30.411             5.193                Sumatra           162.281
        25   01 Jun 2027 10:08:34.127   01 Jun 2027 10:09:23.513            49.386                Sumatra          1543.312
        26   01 Jun 2027 10:15:02.890   01 Jun 2027 10:16:08.878            65.988                  Delhi          2062.125
        27   01 Jun 2027 10:27:50.476   01 Jun 2027 10:29:02.162            71.686                Novosib          2240.188
        28   01 Jun 2027 10:29:10.714   01 Jun 2027 10:30:07.356            56.642                Novosib          1770.063
        29   01 Jun 2027 10:30:16.286   01 Jun 2027 10:31:46.272            89.986              Murmansk2          2812.063
        30   01 Jun 2027 10:31:46.272   01 Jun 2027 10:32:21.443            35.171              Murmansk1          1099.094
        31   01 Jun 2027 10:34:00.918   01 Jun 2027 10:34:13.476            12.558              Murmansk1           392.437
        32   01 Jun 2027 11:50:59.899   01 Jun 2027 11:52:38.612            98.713                  Delhi          3084.781
        33   01 Jun 2027 11:52:56.699   01 Jun 2027 11:54:47.803           111.104                  Delhi          3472.000
        34   01 Jun 2027 12:03:49.752   01 Jun 2027 12:04:20.750            30.998                Novosib           968.687
        35   01 Jun 2027 12:11:02.038   01 Jun 2027 12:11:03.501             1.463                Norilsk            45.719
        36   01 Jun 2027 13:15:39.946   01 Jun 2027 13:18:25.765           165.819               CapeTown          5181.844
        37   01 Jun 2027 13:45:03.069   01 Jun 2027 13:45:03.856             0.787                 Moscow            24.594
        38   01 Jun 2027 13:45:26.313   01 Jun 2027 13:46:18.746            52.433              Murmansk2          1638.531
        39   01 Jun 2027 13:46:36.655   01 Jun 2027 13:47:08.404            31.749              Murmansk1           992.156
        40   01 Jun 2027 13:47:08.404   01 Jun 2027 13:47:26.932            18.528              Murmansk2           579.000
        41   01 Jun 2027 13:48:22.358   01 Jun 2027 13:48:39.660            17.302              Murmansk2           540.688
        42   01 Jun 2027 13:52:52.175   01 Jun 2027 13:53:35.807            43.632                Anadyr1          1363.500
        43   01 Jun 2027 13:54:40.957   01 Jun 2027 13:56:09.596            88.639                Anadyr1          2769.969
        44   01 Jun 2027 13:56:09.596   01 Jun 2027 13:57:29.194            79.598                Anadyr2          2487.437
        45   01 Jun 2027 15:20:43.077   01 Jun 2027 15:20:50.991             7.914              Murmansk1           247.312
        46   01 Jun 2027 15:21:01.665   01 Jun 2027 15:21:29.340            27.675              Murmansk2           864.844
        47   01 Jun 2027 15:21:53.691   01 Jun 2027 15:22:35.140            41.449              Murmansk2          1295.281
        48   01 Jun 2027 15:23:19.971   01 Jun 2027 15:24:36.494            76.523              Murmansk2          2391.344
        49   01 Jun 2027 15:30:35.299   01 Jun 2027 15:31:04.396            29.097                Anadyr2           909.281
        50   01 Jun 2027 15:31:24.951   01 Jun 2027 15:33:43.137           138.186               Magadan1          4318.313
        51   01 Jun 2027 15:33:43.137   01 Jun 2027 15:34:20.366            37.229               Magadan2          1163.406
        52   01 Jun 2027 17:02:25.027   01 Jun 2027 17:03:04.671            39.644                Anadyr2          1238.875
        53   01 Jun 2027 17:03:26.217   01 Jun 2027 17:04:03.080            36.863                Anadyr2          1151.969
        54   01 Jun 2027 17:04:29.359   01 Jun 2027 17:04:58.157            28.798                Anadyr2           899.937
        55   01 Jun 2027 17:05:55.012   01 Jun 2027 17:06:32.086            37.074               Magadan2          1158.563
        56   01 Jun 2027 17:06:40.323   01 Jun 2027 17:07:00.919            20.596               Magadan2           643.625
        57   01 Jun 2027 17:08:27.001   01 Jun 2027 17:08:36.929             9.928                Anadyr2           310.250
        58   01 Jun 2027 17:08:50.931   01 Jun 2027 17:09:32.766            41.835               Magadan2          1307.344
        59   01 Jun 2027 17:10:07.083   01 Jun 2027 17:10:43.405            36.322               Magadan1          1135.063
        60   01 Jun 2027 17:11:47.372   01 Jun 2027 17:11:55.497             8.125               Magadan2           253.906
        61   01 Jun 2027 17:12:05.273   01 Jun 2027 17:12:52.719            47.446               Magadan1          1482.687
        62   01 Jun 2027 17:16:05.224   01 Jun 2027 17:16:32.781            27.557               Magadan1           861.156
        63   01 Jun 2027 18:38:19.120   01 Jun 2027 18:40:02.758           103.638                Anadyr2          3238.687
        64   01 Jun 2027 18:40:22.830   01 Jun 2027 18:40:45.168            22.338                Anadyr1           698.062
        65   01 Jun 2027 18:40:49.060   01 Jun 2027 18:41:04.717            15.657               Magadan1           489.281
        66   01 Jun 2027 18:41:22.456   01 Jun 2027 18:41:27.664             5.208                Anadyr1           162.750
        67   01 Jun 2027 18:41:37.961   01 Jun 2027 18:44:34.433           176.472                Norilsk          5514.750
        68   01 Jun 2027 18:50:33.383   01 Jun 2027 18:50:38.592             5.209               Magadan1           162.781
        69   01 Jun 2027 18:50:59.989   01 Jun 2027 18:51:08.641             8.652               Magadan2           270.375
        70   01 Jun 2027 18:51:29.468   01 Jun 2027 18:51:46.416            16.948               Magadan2           529.625
        71   01 Jun 2027 18:52:26.196   01 Jun 2027 18:52:46.322            20.126               Magadan1           628.937
        72   01 Jun 2027 19:32:44.780   01 Jun 2027 19:33:34.987            50.207            RioGallegos          1568.969
        73   01 Jun 2027 19:34:42.511   01 Jun 2027 19:35:45.535            63.024            RioGallegos          1969.500
        74   01 Jun 2027 19:37:55.380   01 Jun 2027 19:38:22.546            27.166            RioGallegos           848.938
        75   01 Jun 2027 19:38:49.700   01 Jun 2027 19:38:50.810             1.110            RioGallegos            34.688
        76   01 Jun 2027 19:40:24.818   01 Jun 2027 19:41:40.112            75.294            RioGallegos          2352.937
        77   01 Jun 2027 20:16:10.794   01 Jun 2027 20:16:29.716            18.922                Norilsk           591.312
        78   01 Jun 2027 20:16:55.886   01 Jun 2027 20:18:02.508            66.622                Norilsk          2081.937
        79   01 Jun 2027 20:20:11.355   01 Jun 2027 20:21:09.481            58.126                Norilsk          1816.437
        80   01 Jun 2027 20:21:42.841   01 Jun 2027 20:21:54.817            11.976                Norilsk           374.250
        81   01 Jun 2027 20:21:59.993   01 Jun 2027 20:22:23.479            23.486                Irkutsk           733.937
        82   01 Jun 2027 20:22:46.846   01 Jun 2027 20:23:02.125            15.279                Irkutsk           477.469
        83   01 Jun 2027 20:23:08.721   01 Jun 2027 20:25:02.029           113.308                Novosib          3540.875
        84   01 Jun 2027 20:25:37.227   01 Jun 2027 20:27:03.052            85.825                Novosib          2682.031
        85   01 Jun 2027 20:41:54.004   01 Jun 2027 20:42:48.311            54.307                Sumatra          1697.094
        86   01 Jun 2027 20:43:31.572   01 Jun 2027 20:44:31.851            60.279                Sumatra          1883.719
        87   01 Jun 2027 21:53:10.937   01 Jun 2027 21:53:47.200            36.263                Norilsk          1133.219
        88   01 Jun 2027 21:53:51.915   01 Jun 2027 21:54:10.151            18.236                Norilsk           569.875
        89   01 Jun 2027 21:55:29.982   01 Jun 2027 21:55:41.690            11.708                Norilsk           365.875
        90   01 Jun 2027 21:56:06.817   01 Jun 2027 21:57:56.002           109.185                Novosib          3412.031
        91   01 Jun 2027 22:03:12.833   01 Jun 2027 22:04:52.450            99.617                Novosib          3113.031
        92   01 Jun 2027 22:05:39.750   01 Jun 2027 22:07:25.724           105.974                  Delhi          3311.687
        93   01 Jun 2027 23:23:41.091   01 Jun 2027 23:24:07.204            26.113                Anadyr1           816.031
        94   01 Jun 2027 23:24:45.142   01 Jun 2027 23:24:50.386             5.244                Anadyr2           163.875
        95   01 Jun 2027 23:28:06.615   01 Jun 2027 23:29:47.259           100.644                Norilsk          3145.125
        96   01 Jun 2027 23:30:08.790   01 Jun 2027 23:30:34.306            25.516               Magadan2           797.375
        97   01 Jun 2027 23:30:59.501   01 Jun 2027 23:33:17.141           137.640              Murmansk2          4301.250
        98   01 Jun 2027 23:33:17.141   01 Jun 2027 23:34:26.696            69.555              Murmansk1          2173.594
        99   01 Jun 2027 23:35:13.251   01 Jun 2027 23:35:52.018            38.767                 Moscow          1211.469
       100   01 Jun 2027 23:37:24.092   01 Jun 2027 23:38:21.048            56.956                 Moscow          1779.875
       101   01 Jun 2027 23:40:27.282   01 Jun 2027 23:40:36.792             9.510                 Moscow           297.187
       102   01 Jun 2027 23:40:55.751   01 Jun 2027 23:41:08.937            13.186                 Moscow           412.063
       103   02 Jun 2027 00:55:33.318   02 Jun 2027 00:55:55.468            22.150                Anadyr1           692.187
       104   02 Jun 2027 00:56:44.780   02 Jun 2027 00:57:10.852            26.072                Anadyr1           814.750
       105   02 Jun 2027 00:57:58.479   02 Jun 2027 00:58:20.371            21.892                Anadyr1           684.125
       106   02 Jun 2027 00:58:20.371   02 Jun 2027 00:58:21.085             0.714                Anadyr2            22.312
       107   02 Jun 2027 01:00:28.388   02 Jun 2027 01:01:15.583            47.195                Anadyr1          1474.844
       108   02 Jun 2027 01:01:16.094   02 Jun 2027 01:02:41.406            85.312               Magadan1          2666.000
       109   02 Jun 2027 01:03:05.413   02 Jun 2027 01:04:05.899            60.486               Magadan1          1890.188
       110   02 Jun 2027 01:06:14.696   02 Jun 2027 01:07:23.358            68.662              Murmansk1          2145.687
       111   02 Jun 2027 01:08:19.546   02 Jun 2027 01:08:26.491             6.945                Novosib           217.031
       112   02 Jun 2027 01:08:35.038   02 Jun 2027 01:08:46.655            11.617              Murmansk2           363.031
       113   02 Jun 2027 01:09:40.194   02 Jun 2027 01:10:37.079            56.885                 Moscow          1777.656
       114   02 Jun 2027 01:15:11.384   02 Jun 2027 01:16:48.571            97.187                Novosib          3037.094
       115   02 Jun 2027 01:38:56.461   02 Jun 2027 01:40:10.654            74.193               CapeTown          2318.531
       116   02 Jun 2027 02:30:09.027   02 Jun 2027 02:31:19.707            70.680                Anadyr2          2208.750
       117   02 Jun 2027 02:31:41.803   02 Jun 2027 02:31:55.531            13.728                Anadyr2           429.000
       118   02 Jun 2027 02:32:06.290   02 Jun 2027 02:32:13.765             7.475                Anadyr1           233.594
       119   02 Jun 2027 02:32:27.611   02 Jun 2027 02:33:22.941            55.330               Magadan1          1729.063
       120   02 Jun 2027 02:33:36.737   02 Jun 2027 02:34:32.595            55.858               Magadan1          1745.563
       121   02 Jun 2027 02:39:57.986   02 Jun 2027 02:40:17.305            19.319               Magadan2           603.719
       122   02 Jun 2027 02:41:49.424   02 Jun 2027 02:42:17.605            28.181                Norilsk           880.656
       123   02 Jun 2027 02:42:19.768   02 Jun 2027 02:43:13.972            54.204              Murmansk2          1693.875
       124   02 Jun 2027 02:45:27.630   02 Jun 2027 02:45:39.967            12.337                 Moscow           385.531
       125   02 Jun 2027 02:46:01.787   02 Jun 2027 02:46:18.603            16.816                 Moscow           525.500
       126   02 Jun 2027 02:48:24.274   02 Jun 2027 02:48:32.858             8.584                 Moscow           268.250
       127   02 Jun 2027 02:49:36.339   02 Jun 2027 02:49:56.141            19.802              Murmansk2           618.812
       128   02 Jun 2027 02:51:02.687   02 Jun 2027 02:51:46.153            43.466                 Moscow          1358.312
       129   02 Jun 2027 02:57:07.148   02 Jun 2027 02:57:42.063            34.915                 Moscow          1091.094
       130   02 Jun 2027 03:14:12.928   02 Jun 2027 03:14:49.012            36.084               CapeTown          1127.625
       131   02 Jun 2027 04:11:29.579   02 Jun 2027 04:11:49.503            19.924                Anadyr2           622.625
       132   02 Jun 2027 04:11:54.330   02 Jun 2027 04:12:15.655            21.325                Anadyr2           666.406
       133   02 Jun 2027 04:12:56.703   02 Jun 2027 04:16:54.313           237.610                Anadyr2          7425.312
       134   02 Jun 2027 04:17:19.052   02 Jun 2027 04:18:09.570            50.518               Magadan2          1578.688
       135   02 Jun 2027 05:49:12.550   02 Jun 2027 05:49:39.583            27.033               Magadan1           844.781
       136   02 Jun 2027 05:49:52.290   02 Jun 2027 05:54:17.096           264.806                Anadyr2          8275.187
       137   02 Jun 2027 05:54:24.176   02 Jun 2027 05:54:30.331             6.155               Magadan2           192.344
       138   02 Jun 2027 06:30:58.987   02 Jun 2027 06:32:01.586            62.599            RioGallegos          1956.219
       139   02 Jun 2027 07:24:50.868   02 Jun 2027 07:25:36.844            45.976               Magadan2          1436.750
       140   02 Jun 2027 07:25:46.104   02 Jun 2027 07:25:49.017             2.913               Magadan2            91.031
       141   02 Jun 2027 07:26:01.677   02 Jun 2027 07:26:40.221            38.544               Magadan2          1204.500
       142   02 Jun 2027 07:26:40.221   02 Jun 2027 07:28:15.013            94.792               Magadan1          2962.250
       143   02 Jun 2027 07:28:16.780   02 Jun 2027 07:29:16.691            59.911               Magadan1          1872.219
       144   02 Jun 2027 07:29:35.426   02 Jun 2027 07:31:33.494           118.068              Murmansk2          3689.625
       145   02 Jun 2027 07:31:33.494   02 Jun 2027 07:32:54.186            80.692              Murmansk1          2521.625
       146   02 Jun 2027 07:32:54.186   02 Jun 2027 07:33:09.184            14.998              Murmansk2           468.688
       147   02 Jun 2027 07:34:25.912   02 Jun 2027 07:34:56.801            30.889              Murmansk2           965.281
       148   02 Jun 2027 08:05:00.466   02 Jun 2027 08:05:53.805            53.339            RioGallegos          1666.844
       149   02 Jun 2027 08:06:30.219   02 Jun 2027 08:06:54.450            24.231            RioGallegos           757.219
       150   02 Jun 2027 08:09:04.144   02 Jun 2027 08:09:33.315            29.171            RioGallegos           911.594
       151   02 Jun 2027 08:39:59.111   02 Jun 2027 08:41:03.874            64.763                Sumatra          2023.844
       152   02 Jun 2027 08:42:41.356   02 Jun 2027 08:43:33.727            52.371                Sumatra          1636.594
       153   02 Jun 2027 08:54:18.376   02 Jun 2027 08:54:44.587            26.211                  Delhi           819.094
       154   02 Jun 2027 09:01:02.159   02 Jun 2027 09:01:35.094            32.935                Novosib          1029.219
       155   02 Jun 2027 09:02:47.717   02 Jun 2027 09:04:37.782           110.065                Novosib          3439.531
       156   02 Jun 2027 09:04:38.942   02 Jun 2027 09:06:00.104            81.162                 Moscow          2536.313
       157   02 Jun 2027 09:06:01.020   02 Jun 2027 09:06:52.070            51.050                 Moscow          1595.313
       158   02 Jun 2027 09:07:06.652   02 Jun 2027 09:07:44.592            37.940                 Moscow          1185.625
       159   02 Jun 2027 09:43:54.858   02 Jun 2027 09:44:33.535            38.677            RioGallegos          1208.656
       160   02 Jun 2027 10:18:24.558   02 Jun 2027 10:19:40.368            75.810                Sumatra          2369.063
       161   02 Jun 2027 10:22:26.023   02 Jun 2027 10:22:28.230             2.207                Sumatra            68.969
       162   02 Jun 2027 10:22:39.828   02 Jun 2027 10:23:14.730            34.902                Sumatra          1090.688
       163   02 Jun 2027 10:24:03.799   02 Jun 2027 10:24:04.357             0.558                  Delhi            17.437
       164   02 Jun 2027 10:28:29.024   02 Jun 2027 10:28:33.069             4.045                  Delhi           126.406
       165   02 Jun 2027 10:39:40.050   02 Jun 2027 10:40:12.943            32.893              Murmansk1          1027.906
       166   02 Jun 2027 10:40:23.702   02 Jun 2027 10:41:21.160            57.458              Murmansk2          1795.562
       167   02 Jun 2027 10:41:24.158   02 Jun 2027 10:43:12.719           108.561                 Moscow          3392.531
       168   02 Jun 2027 12:04:40.678   02 Jun 2027 12:06:35.609           114.931                  Delhi          3591.594
       169   02 Jun 2027 12:10:54.198   02 Jun 2027 12:12:33.168            98.970                 Moscow          3092.812
       170   02 Jun 2027 12:12:53.852   02 Jun 2027 12:13:51.723            57.871              Murmansk2          1808.469
       171   02 Jun 2027 12:13:56.915   02 Jun 2027 12:14:14.878            17.963              Murmansk1           561.344
       172   02 Jun 2027 12:14:59.692   02 Jun 2027 12:15:32.090            32.398                Norilsk          1012.437
       173   02 Jun 2027 12:16:05.868   02 Jun 2027 12:16:25.059            19.191              Murmansk2           599.719
       174   02 Jun 2027 12:16:50.651   02 Jun 2027 12:16:58.654             8.003              Murmansk1           250.094
       175   02 Jun 2027 13:23:52.604   02 Jun 2027 13:26:39.441           166.837               CapeTown          5213.656
       176   02 Jun 2027 13:29:38.987   02 Jun 2027 13:31:40.447           121.460               CapeTown          3795.625
       177   02 Jun 2027 13:53:50.914   02 Jun 2027 13:54:04.674            13.760              Murmansk1           430.000
       178   02 Jun 2027 13:55:18.283   02 Jun 2027 13:55:25.785             7.502              Murmansk1           234.437
       179   02 Jun 2027 13:56:49.162   02 Jun 2027 13:57:23.608            34.446              Murmansk2          1076.437
       180   02 Jun 2027 13:58:34.862   02 Jun 2027 13:58:45.619            10.757              Murmansk1           336.156
       181   02 Jun 2027 14:03:11.980   02 Jun 2027 14:07:15.103           243.123                Anadyr2          7597.594
       182   02 Jun 2027 15:30:55.897   02 Jun 2027 15:31:35.842            39.945              Murmansk2          1248.281
       183   02 Jun 2027 15:32:27.729   02 Jun 2027 15:32:43.304            15.575              Murmansk1           486.719
       184   02 Jun 2027 15:32:52.954   02 Jun 2027 15:33:01.639             8.685              Murmansk1           271.406
       185   02 Jun 2027 15:34:36.689   02 Jun 2027 15:34:56.884            20.195              Murmansk2           631.094
       186   02 Jun 2027 15:39:26.022   02 Jun 2027 15:39:48.496            22.474                Anadyr1           702.312
       187   02 Jun 2027 15:39:48.496   02 Jun 2027 15:40:24.501            36.005                Anadyr2          1125.156
       188   02 Jun 2027 15:41:28.671   02 Jun 2027 15:42:52.086            83.415                Anadyr2          2606.719
       189   02 Jun 2027 15:42:57.151   02 Jun 2027 15:45:32.105           154.954               Magadan1          4842.313
       190   02 Jun 2027 15:46:06.870   02 Jun 2027 15:47:44.704            97.834               Magadan1          3057.313
       191   02 Jun 2027 17:17:21.394   02 Jun 2027 17:17:46.083            24.689                Anadyr1           771.531
       192   02 Jun 2027 17:18:38.959   02 Jun 2027 17:19:02.467            23.508               Magadan1           734.625
       193   02 Jun 2027 17:19:40.577   02 Jun 2027 17:20:50.242            69.665               Magadan1          2177.031
       194   02 Jun 2027 17:23:56.376   02 Jun 2027 17:24:07.505            11.129               Magadan1           347.781
       195   02 Jun 2027 17:24:45.841   02 Jun 2027 17:24:58.419            12.578               Magadan1           393.063
       196   02 Jun 2027 17:26:58.725   02 Jun 2027 17:27:52.187            53.462               Magadan1          1670.688
       197   02 Jun 2027 18:50:19.450   02 Jun 2027 18:52:04.073           104.623                Anadyr2          3269.469
       198   02 Jun 2027 18:52:23.537   02 Jun 2027 18:53:33.827            70.290                Anadyr1          2196.562
       199   02 Jun 2027 18:53:37.642   02 Jun 2027 18:53:52.396            14.754               Magadan2           461.062
       200   02 Jun 2027 18:54:06.150   02 Jun 2027 18:54:50.867            44.717               Magadan1          1397.406
       201   02 Jun 2027 18:55:13.958   02 Jun 2027 18:56:30.717            76.759                Norilsk          2398.719
       202   02 Jun 2027 18:57:47.687   02 Jun 2027 18:58:22.409            34.722                Norilsk          1085.063
       203   02 Jun 2027 18:59:00.012   02 Jun 2027 19:01:22.114           142.102                Irkutsk          4440.688
       204   02 Jun 2027 19:02:44.313   02 Jun 2027 19:03:13.525            29.212                Irkutsk           912.875
       205   02 Jun 2027 19:51:39.990   02 Jun 2027 19:52:02.889            22.899            RioGallegos           715.594
       206   02 Jun 2027 19:52:24.660   02 Jun 2027 19:52:38.471            13.811            RioGallegos           431.594
       207   02 Jun 2027 19:54:03.984   02 Jun 2027 19:54:57.107            53.123            RioGallegos          1660.094
       208   02 Jun 2027 20:28:54.039   02 Jun 2027 20:29:16.016            21.977                Norilsk           686.781
       209   02 Jun 2027 20:30:54.231   02 Jun 2027 20:31:44.610            50.379               Magadan1          1574.344
       210   02 Jun 2027 20:32:15.241   02 Jun 2027 20:34:01.992           106.751                Irkutsk          3335.969
       211   02 Jun 2027 20:34:21.690   02 Jun 2027 20:35:06.343            44.653                Novosib          1395.406
       212   02 Jun 2027 20:36:49.351   02 Jun 2027 20:37:34.457            45.106                Novosib          1409.562
       213   02 Jun 2027 20:37:55.146   02 Jun 2027 20:38:49.868            54.722                Novosib          1710.063
       214   02 Jun 2027 20:52:53.186   02 Jun 2027 20:54:16.303            83.117                Sumatra          2597.406
       215   02 Jun 2027 20:55:28.409   02 Jun 2027 20:56:04.422            36.013                Sumatra          1125.406
       216   02 Jun 2027 22:04:46.289   02 Jun 2027 22:05:10.763            24.474               Magadan2           764.812
       217   02 Jun 2027 22:05:48.160   02 Jun 2027 22:06:23.840            35.680                Norilsk          1115.000
       218   02 Jun 2027 22:07:46.406   02 Jun 2027 22:08:16.138            29.732                Norilsk           929.125
       219   02 Jun 2027 22:09:24.589   02 Jun 2027 22:10:52.264            87.675                Irkutsk          2739.844
       220   02 Jun 2027 22:14:24.592   02 Jun 2027 22:14:39.288            14.696                Irkutsk           459.250
       221   02 Jun 2027 22:15:37.827   02 Jun 2027 22:16:31.996            54.169                  Delhi          1692.781
       222   02 Jun 2027 22:19:23.559   02 Jun 2027 22:20:21.197            57.638                  Delhi          1801.188
       223   02 Jun 2027 22:22:20.869   02 Jun 2027 22:22:50.492            29.623                  Delhi           925.719
       224   02 Jun 2027 22:27:08.389   02 Jun 2027 22:27:51.559            43.170                  Delhi          1349.063
       225   02 Jun 2027 23:35:54.485   02 Jun 2027 23:36:04.399             9.914                Anadyr2           309.813
       226   02 Jun 2027 23:36:21.219   02 Jun 2027 23:36:31.869            10.650                Anadyr1           332.813
       227   02 Jun 2027 23:36:36.582   02 Jun 2027 23:36:53.254            16.672                Anadyr1           521.000
       228   02 Jun 2027 23:39:29.810   02 Jun 2027 23:39:46.103            16.293                Anadyr1           509.156
       229   02 Jun 2027 23:39:56.133   02 Jun 2027 23:41:39.284           103.151               Magadan1          3223.469
       230   02 Jun 2027 23:41:39.284   02 Jun 2027 23:42:16.808            37.524               Magadan2          1172.625
       231   02 Jun 2027 23:42:26.779   02 Jun 2027 23:44:27.683           120.904              Murmansk1          3778.250
       232   02 Jun 2027 23:44:32.933   02 Jun 2027 23:44:33.976             1.043              Murmansk2            32.594
       233   02 Jun 2027 23:44:41.078   02 Jun 2027 23:45:18.608            37.530              Murmansk1          1172.812
       234   02 Jun 2027 23:46:26.504   02 Jun 2027 23:47:34.466            67.962              Murmansk1          2123.812
       235   02 Jun 2027 23:48:02.019   02 Jun 2027 23:48:35.945            33.926                 Moscow          1060.187
       236   02 Jun 2027 23:51:35.794   02 Jun 2027 23:52:40.964            65.170                 Moscow          2036.563
       237   03 Jun 2027 00:15:43.985   03 Jun 2027 00:17:56.883           132.898               CapeTown          4153.062
       238   03 Jun 2027 01:12:01.489   03 Jun 2027 01:12:47.150            45.661               Magadan2          1426.906
       239   03 Jun 2027 01:13:19.312   03 Jun 2027 01:13:25.525             6.213               Magadan2           194.156
       240   03 Jun 2027 01:14:09.964   03 Jun 2027 01:14:15.244             5.280               Magadan1           165.000
       241   03 Jun 2027 01:14:35.265   03 Jun 2027 01:15:49.173            73.908               Magadan1          2309.625
       242   03 Jun 2027 01:19:21.346   03 Jun 2027 01:19:58.499            37.153              Murmansk1          1161.031
       243   03 Jun 2027 01:23:31.819   03 Jun 2027 01:23:52.216            20.397              Murmansk2           637.406
       244   03 Jun 2027 01:24:16.984   03 Jun 2027 01:24:31.220            14.236                 Moscow           444.875
       245   03 Jun 2027 01:25:50.865   03 Jun 2027 01:25:55.079             4.214                Novosib           131.688
       246   03 Jun 2027 01:27:06.633   03 Jun 2027 01:27:14.856             8.223                 Moscow           256.969
       247   03 Jun 2027 01:28:53.320   03 Jun 2027 01:29:33.620            40.300              Murmansk2          1259.375
       248   03 Jun 2027 01:33:42.835   03 Jun 2027 01:33:57.360            14.525                 Moscow           453.906
       249   03 Jun 2027 01:49:06.338   03 Jun 2027 01:49:28.201            21.863               CapeTown           683.219
       250   03 Jun 2027 01:51:46.619   03 Jun 2027 01:52:41.162            54.543               CapeTown          1704.469
       251   03 Jun 2027 02:42:07.615   03 Jun 2027 02:44:07.265           119.650                Anadyr1          3739.062
       252   03 Jun 2027 02:44:19.376   03 Jun 2027 02:44:57.717            38.341               Magadan1          1198.156
       253   03 Jun 2027 02:44:58.311   03 Jun 2027 02:45:15.404            17.093               Magadan2           534.156
       254   03 Jun 2027 02:46:06.378   03 Jun 2027 02:46:33.620            27.242               Magadan2           851.312
       255   03 Jun 2027 02:49:12.189   03 Jun 2027 02:49:44.825            32.636               Magadan1          1019.875
       256   03 Jun 2027 02:52:18.577   03 Jun 2027 02:52:31.834            13.257               Magadan1           414.281
       257   03 Jun 2027 02:53:16.597   03 Jun 2027 02:53:35.320            18.723                Norilsk           585.094
       258   03 Jun 2027 02:54:14.345   03 Jun 2027 02:54:50.920            36.575              Murmansk1          1142.969
       259   03 Jun 2027 02:55:53.304   03 Jun 2027 02:55:54.947             1.643              Murmansk1            51.344
       260   03 Jun 2027 02:55:57.315   03 Jun 2027 02:56:10.145            12.830              Murmansk2           400.937
       261   03 Jun 2027 02:57:31.061   03 Jun 2027 02:58:28.465            57.404                 Moscow          1793.875
       262   03 Jun 2027 03:00:35.610   03 Jun 2027 03:01:12.072            36.462              Murmansk1          1139.438
       263   03 Jun 2027 03:01:12.072   03 Jun 2027 03:01:28.726            16.654              Murmansk2           520.437
       264   03 Jun 2027 03:01:44.615   03 Jun 2027 03:01:44.963             0.348                Norilsk            10.875
       265   03 Jun 2027 04:23:24.528   03 Jun 2027 04:25:02.708            98.180                Anadyr2          3068.125
       266   03 Jun 2027 04:25:02.708   03 Jun 2027 04:25:30.138            27.430                Anadyr1           857.187
       267   03 Jun 2027 04:25:31.142   03 Jun 2027 04:26:57.446            86.304                Anadyr2          2697.000
       268   03 Jun 2027 04:27:08.275   03 Jun 2027 04:27:34.125            25.850                Anadyr1           807.812
       269   03 Jun 2027 04:27:47.494   03 Jun 2027 04:28:09.158            21.664               Magadan1           677.000
       270   03 Jun 2027 04:28:15.778   03 Jun 2027 04:29:34.502            78.724                Norilsk          2460.125
       271   03 Jun 2027 04:30:03.745   03 Jun 2027 04:30:17.959            14.214              Murmansk2           444.187
       272   03 Jun 2027 04:30:27.682   03 Jun 2027 04:30:40.024            12.342              Murmansk2           385.688
       273   03 Jun 2027 04:30:58.978   03 Jun 2027 04:31:14.642            15.664              Murmansk1           489.500
       274   03 Jun 2027 05:59:08.262   03 Jun 2027 06:00:38.548            90.286               Magadan2          2821.438
       275   03 Jun 2027 06:00:38.548   03 Jun 2027 06:00:45.874             7.326               Magadan1           228.938
       276   03 Jun 2027 06:00:56.041   03 Jun 2027 06:01:39.020            42.979                Irkutsk          1343.094
       277   03 Jun 2027 06:01:50.375   03 Jun 2027 06:06:06.988           256.613                Anadyr1          8019.156
       278   03 Jun 2027 06:06:26.954   03 Jun 2027 06:06:29.085             2.131               Magadan1            66.594
       279   03 Jun 2027 06:41:53.147   03 Jun 2027 06:43:17.158            84.011            RioGallegos          2625.344
       280   03 Jun 2027 07:36:53.964   03 Jun 2027 07:37:53.510            59.546               Magadan2          1860.813
       281   03 Jun 2027 07:38:13.465   03 Jun 2027 07:42:05.069           231.604                Irkutsk          7237.625
       282   03 Jun 2027 09:02:25.374   03 Jun 2027 09:03:11.537            46.163                  Delhi          1442.594
       283   03 Jun 2027 09:14:04.022   03 Jun 2027 09:18:03.377           239.355                Irkutsk          7479.844
       284   03 Jun 2027 09:18:10.551   03 Jun 2027 09:20:08.746           118.195                 Moscow          3693.594
       285   03 Jun 2027 09:56:50.830   03 Jun 2027 09:57:33.227            42.397            RioGallegos          1324.906
       286   03 Jun 2027 09:59:50.138   03 Jun 2027 10:00:34.034            43.896            RioGallegos          1371.750
       287   03 Jun 2027 10:32:22.882   03 Jun 2027 10:33:12.346            49.464                Sumatra          1545.750
       288   03 Jun 2027 10:38:16.706   03 Jun 2027 10:39:14.769            58.063                  Delhi          1814.469
       289   03 Jun 2027 10:50:49.889   03 Jun 2027 10:52:03.380            73.491                 Moscow          2296.594
       290   03 Jun 2027 10:52:06.288   03 Jun 2027 10:52:18.346            12.058              Murmansk2           376.813
       291   03 Jun 2027 10:52:27.476   03 Jun 2027 10:52:58.403            30.927                Norilsk           966.469
       292   03 Jun 2027 10:53:02.304   03 Jun 2027 10:53:16.358            14.054                Norilsk           439.187
       293   03 Jun 2027 10:53:18.701   03 Jun 2027 10:53:27.943             9.242              Murmansk2           288.813
       294   03 Jun 2027 10:53:27.943   03 Jun 2027 10:54:18.960            51.017              Murmansk1          1594.281
       295   03 Jun 2027 10:55:12.722   03 Jun 2027 10:55:43.430            30.708                 Moscow           959.625
       296   03 Jun 2027 12:20:30.793   03 Jun 2027 12:24:38.001           247.208                 Moscow          7725.250
       297   03 Jun 2027 12:24:41.070   03 Jun 2027 12:26:06.585            85.515              Murmansk1          2672.344
       298   03 Jun 2027 12:26:06.585   03 Jun 2027 12:27:16.742            70.157              Murmansk2          2192.406
       299   03 Jun 2027 12:32:08.324   03 Jun 2027 12:32:52.970            44.646              Murmansk2          1395.187
       300   03 Jun 2027 13:35:18.935   03 Jun 2027 13:36:59.897           100.962               CapeTown          3155.063
       301   03 Jun 2027 13:37:46.684   03 Jun 2027 13:38:27.685            41.001               CapeTown          1281.281
       302   03 Jun 2027 13:40:05.304   03 Jun 2027 13:41:52.700           107.396               CapeTown          3356.125
       303   03 Jun 2027 14:00:53.206   03 Jun 2027 14:03:06.699           133.493              Murmansk1          4171.656
       304   03 Jun 2027 14:10:05.768   03 Jun 2027 14:10:40.082            34.314              Murmansk2          1072.312
       305   03 Jun 2027 14:15:04.453   03 Jun 2027 14:17:35.923           151.470                Anadyr1          4733.437
       306   03 Jun 2027 14:21:58.888   03 Jun 2027 14:23:20.853            81.965                Anadyr2          2561.406
       307   03 Jun 2027 15:40:04.461   03 Jun 2027 15:40:20.015            15.554              Murmansk2           486.062
       308   03 Jun 2027 15:40:52.039   03 Jun 2027 15:42:49.809           117.770              Murmansk1          3680.312
       309   03 Jun 2027 15:50:33.707   03 Jun 2027 15:51:27.406            53.699                Anadyr1          1678.094
       310   03 Jun 2027 15:52:22.155   03 Jun 2027 15:52:23.721             1.566                Anadyr2            48.937
       311   03 Jun 2027 15:53:30.003   03 Jun 2027 15:54:37.053            67.050                Anadyr1          2095.312
       312   03 Jun 2027 15:54:59.713   03 Jun 2027 15:57:30.486           150.773               Magadan2          4711.656
       313   03 Jun 2027 15:58:25.095   03 Jun 2027 15:59:46.827            81.732               Magadan1          2554.125
       314   03 Jun 2027 16:00:54.892   03 Jun 2027 16:01:19.485            24.593               Magadan1           768.531
       315   03 Jun 2027 17:26:27.831   03 Jun 2027 17:27:15.639            47.808                Anadyr2          1494.000
       316   03 Jun 2027 17:27:44.985   03 Jun 2027 17:28:09.648            24.663                Anadyr1           770.719
       317   03 Jun 2027 17:28:45.134   03 Jun 2027 17:28:46.919             1.785                Anadyr1            55.781
       318   03 Jun 2027 17:28:50.835   03 Jun 2027 17:29:54.263            63.428               Magadan2          1982.125
       319   03 Jun 2027 17:29:54.263   03 Jun 2027 17:30:43.237            48.974               Magadan1          1530.438
       320   03 Jun 2027 17:31:21.138   03 Jun 2027 17:32:50.137            88.999               Magadan2          2781.219
       321   03 Jun 2027 19:02:19.452   03 Jun 2027 19:04:05.256           105.804                Anadyr1          3306.375
       322   03 Jun 2027 19:04:18.900   03 Jun 2027 19:06:00.889           101.989                Anadyr2          3187.156
       323   03 Jun 2027 19:06:11.013   03 Jun 2027 19:07:14.010            62.997               Magadan1          1968.656
       324   03 Jun 2027 19:07:14.970   03 Jun 2027 19:08:28.433            73.463                Norilsk          2295.719
       325   03 Jun 2027 19:10:09.429   03 Jun 2027 19:13:05.604           176.175                Irkutsk          5505.469
       326   03 Jun 2027 19:15:18.906   03 Jun 2027 19:16:21.446            62.540                Irkutsk          1954.375
       327   03 Jun 2027 19:26:32.418   03 Jun 2027 19:29:53.049           200.631                Sumatra          6269.719
       328   03 Jun 2027 20:44:24.228   03 Jun 2027 20:45:09.882            45.654                Norilsk          1426.688
       329   03 Jun 2027 20:45:14.328   03 Jun 2027 20:47:25.964           131.636                Novosib          4113.625
       330   03 Jun 2027 20:50:07.237   03 Jun 2027 20:51:11.108            63.871                Novosib          1995.969
       331   03 Jun 2027 20:58:23.209   03 Jun 2027 20:58:41.646            18.437                Sumatra           576.156
       332   03 Jun 2027 21:06:18.151   03 Jun 2027 21:07:26.525            68.374                Sumatra          2136.688
       333   03 Jun 2027 22:16:47.268   03 Jun 2027 22:17:42.043            54.775               Magadan2          1711.719
       334   03 Jun 2027 22:19:53.697   03 Jun 2027 22:22:40.587           166.890              Murmansk1          5215.312
       335   03 Jun 2027 22:27:28.987   03 Jun 2027 22:28:50.884            81.897                  Delhi          2559.281
       336   03 Jun 2027 22:32:53.135   03 Jun 2027 22:33:28.184            35.049                  Delhi          1095.281
       337   03 Jun 2027 23:47:55.791   03 Jun 2027 23:48:00.758             4.967                Anadyr1           155.219
       338   03 Jun 2027 23:51:10.982   03 Jun 2027 23:51:29.615            18.633                Anadyr1           582.281
       339   03 Jun 2027 23:51:38.224   03 Jun 2027 23:52:09.009            30.785               Magadan2           962.031
       340   03 Jun 2027 23:52:16.708   03 Jun 2027 23:52:26.464             9.756               Magadan2           304.875
       341   03 Jun 2027 23:53:10.991   03 Jun 2027 23:53:59.948            48.957               Magadan2          1529.906
       342   03 Jun 2027 23:54:06.451   03 Jun 2027 23:54:27.765            21.314               Magadan2           666.063
       343   03 Jun 2027 23:54:29.806   03 Jun 2027 23:56:26.081           116.275              Murmansk1          3633.594
       344   03 Jun 2027 23:56:27.982   03 Jun 2027 23:57:20.174            52.192              Murmansk2          1631.000
       345   03 Jun 2027 23:57:44.381   03 Jun 2027 23:59:05.113            80.732              Murmansk2          2522.875
       346   03 Jun 2027 23:59:57.336   04 Jun 2027 00:02:53.413           176.077                 Moscow          5502.406
       347   04 Jun 2027 00:25:56.457   04 Jun 2027 00:27:28.079            91.622               CapeTown          2863.188
       348   04 Jun 2027 00:29:13.648   04 Jun 2027 00:30:17.667            64.019               CapeTown          2000.594
       349   04 Jun 2027 01:24:03.645   04 Jun 2027 01:24:48.992            45.347               Magadan2          1417.094
       350   04 Jun 2027 01:30:17.837   04 Jun 2027 01:32:01.632           103.795              Murmansk2          3243.594
       351   04 Jun 2027 01:32:33.679   04 Jun 2027 01:33:17.827            44.148              Murmansk2          1379.625
       352   04 Jun 2027 01:35:20.344   04 Jun 2027 01:35:37.849            17.505                 Moscow           547.031
       353   04 Jun 2027 01:40:54.626   04 Jun 2027 01:41:09.027            14.401                 Moscow           450.031
       354   04 Jun 2027 01:45:02.887   04 Jun 2027 01:45:11.592             8.705                 Moscow           272.031
       355   04 Jun 2027 01:46:05.528   04 Jun 2027 01:46:15.343             9.815                 Moscow           306.719
       356   04 Jun 2027 01:57:29.558   04 Jun 2027 01:58:33.871            64.313               CapeTown          2009.781
       357   04 Jun 2027 02:06:01.066   04 Jun 2027 02:06:25.458            24.392               CapeTown           762.250
       358   04 Jun 2027 02:54:08.049   04 Jun 2027 02:55:41.442            93.393                Anadyr2          2918.531
       359   04 Jun 2027 02:55:43.682   04 Jun 2027 02:56:53.272            69.590               Magadan2          2174.688
       360   04 Jun 2027 02:57:01.069   04 Jun 2027 02:58:01.955            60.886               Magadan1          1902.687
       361   04 Jun 2027 03:00:21.616   04 Jun 2027 03:01:10.239            48.623                Anadyr1          1519.469
       362   04 Jun 2027 03:01:10.239   04 Jun 2027 03:01:59.394            49.155                Anadyr2          1536.094
       363   04 Jun 2027 03:02:06.647   04 Jun 2027 03:02:27.979            21.332               Magadan1           666.625
       364   04 Jun 2027 03:03:00.490   04 Jun 2027 03:04:20.360            79.870               Magadan1          2495.938
       365   04 Jun 2027 04:35:06.312   04 Jun 2027 04:38:55.045           228.733                Anadyr2          7147.906
       366   04 Jun 2027 04:38:59.094   04 Jun 2027 04:39:31.338            32.244                Anadyr1          1007.625
       367   04 Jun 2027 04:39:37.927   04 Jun 2027 04:40:51.794            73.867                Anadyr1          2308.344
       368   04 Jun 2027 04:40:51.794   04 Jun 2027 04:41:02.511            10.717                Anadyr2           334.906
       369   04 Jun 2027 06:10:28.648   04 Jun 2027 06:11:34.522            65.874               Magadan2          2058.562
       370   04 Jun 2027 06:11:34.522   04 Jun 2027 06:12:17.166            42.644               Magadan1          1332.625
       371   04 Jun 2027 06:12:34.700   04 Jun 2027 06:13:34.876            60.176                Norilsk          1880.500
       372   04 Jun 2027 06:13:42.946   04 Jun 2027 06:15:11.451            88.505                Novosib          2765.781
       373   04 Jun 2027 06:15:11.725   04 Jun 2027 06:15:32.603            20.878                Anadyr1           652.438
       374   04 Jun 2027 06:15:33.037   04 Jun 2027 06:16:29.285            56.248               Magadan2          1757.750
       375   04 Jun 2027 06:16:39.343   04 Jun 2027 06:17:52.610            73.267                Anadyr1          2289.594
       376   04 Jun 2027 06:18:03.575   04 Jun 2027 06:18:40.222            36.647                Norilsk          1145.219
       377   04 Jun 2027 06:18:48.322   04 Jun 2027 06:21:27.568           159.246              Murmansk1          4976.437
       378   04 Jun 2027 06:53:38.174   04 Jun 2027 06:56:23.537           165.363            RioGallegos          5167.594
       379   04 Jun 2027 07:48:53.557   04 Jun 2027 07:50:05.218            71.661                Irkutsk          2239.406
       380   04 Jun 2027 07:50:18.454   04 Jun 2027 07:51:28.656            70.202                Irkutsk          2193.812
       381   04 Jun 2027 07:51:29.338   04 Jun 2027 07:51:34.650             5.312                Norilsk           166.000
       382   04 Jun 2027 07:51:47.403   04 Jun 2027 07:54:23.604           156.201                Irkutsk          4881.281
       383   04 Jun 2027 08:29:19.857   04 Jun 2027 08:29:59.116            39.259            RioGallegos          1226.844
       384   04 Jun 2027 08:33:13.967   04 Jun 2027 08:33:22.695             8.728            RioGallegos           272.750
       385   04 Jun 2027 09:03:55.022   04 Jun 2027 09:04:10.892            15.870                Sumatra           495.937
       386   04 Jun 2027 09:07:03.182   04 Jun 2027 09:08:01.206            58.024                Sumatra          1813.250
       387   04 Jun 2027 09:13:46.547   04 Jun 2027 09:15:22.574            96.027                  Delhi          3000.844
       388   04 Jun 2027 09:24:41.085   04 Jun 2027 09:24:53.089            12.004                Novosib           375.125
       389   04 Jun 2027 09:24:54.060   04 Jun 2027 09:26:10.764            76.704                Irkutsk          2397.000
       390   04 Jun 2027 09:26:15.602   04 Jun 2027 09:26:43.476            27.874              Murmansk2           871.063
       391   04 Jun 2027 09:27:02.451   04 Jun 2027 09:27:21.220            18.769                Norilsk           586.531
       392   04 Jun 2027 09:27:23.413   04 Jun 2027 09:27:54.862            31.449                Norilsk           982.781
       393   04 Jun 2027 09:27:57.703   04 Jun 2027 09:28:00.033             2.330                Norilsk            72.812
       394   04 Jun 2027 09:28:11.653   04 Jun 2027 09:28:13.731             2.078                Irkutsk            64.937
       395   04 Jun 2027 09:28:15.010   04 Jun 2027 09:28:34.089            19.079                Novosib           596.219
       396   04 Jun 2027 09:28:38.711   04 Jun 2027 09:29:10.354            31.643              Murmansk2           988.844
       397   04 Jun 2027 09:29:22.498   04 Jun 2027 09:29:49.401            26.903                Norilsk           840.719
       398   04 Jun 2027 09:29:54.623   04 Jun 2027 09:30:04.471             9.848              Murmansk2           307.750
       399   04 Jun 2027 09:30:12.696   04 Jun 2027 09:31:18.448            65.752                Norilsk          2054.750
       400   04 Jun 2027 10:10:06.635   04 Jun 2027 10:10:43.076            36.441            RioGallegos          1138.781
       401   04 Jun 2027 10:11:49.104   04 Jun 2027 10:11:52.006             2.902            RioGallegos            90.688
       402   04 Jun 2027 10:12:41.876   04 Jun 2027 10:12:54.840            12.964            RioGallegos           405.125
       403   04 Jun 2027 10:48:33.430   04 Jun 2027 10:49:48.685            75.255                  Delhi          2351.719
       404   04 Jun 2027 10:52:12.780   04 Jun 2027 10:52:53.858            41.078                  Delhi          1283.688
       405   04 Jun 2027 11:01:51.791   04 Jun 2027 11:01:57.774             5.983                 Moscow           186.969
       406   04 Jun 2027 11:02:00.193   04 Jun 2027 11:02:51.423            51.230                 Moscow          1600.937
       407   04 Jun 2027 11:02:55.929   04 Jun 2027 11:03:01.090             5.161              Murmansk1           161.281
       408   04 Jun 2027 11:03:08.186   04 Jun 2027 11:03:18.656            10.470              Murmansk2           327.188
       409   04 Jun 2027 11:03:25.479   04 Jun 2027 11:04:14.197            48.718              Murmansk2          1522.438
       410   04 Jun 2027 11:04:27.311   04 Jun 2027 11:04:58.075            30.764                 Moscow           961.375
       411   04 Jun 2027 11:05:04.730   04 Jun 2027 11:05:51.281            46.551                 Moscow          1454.719
       412   04 Jun 2027 11:06:05.001   04 Jun 2027 11:06:08.791             3.790                 Moscow           118.437
       413   04 Jun 2027 11:06:20.470   04 Jun 2027 11:06:21.537             1.067              Murmansk2            33.344
       414   04 Jun 2027 11:06:23.726   04 Jun 2027 11:06:36.683            12.957                 Moscow           404.906
       415   04 Jun 2027 11:06:39.225   04 Jun 2027 11:07:27.793            48.568              Murmansk1          1517.750
       416   04 Jun 2027 12:32:30.334   04 Jun 2027 12:34:41.717           131.383                 Moscow          4105.719
       417   04 Jun 2027 12:35:09.999   04 Jun 2027 12:35:49.271            39.272                 Moscow          1227.250
       418   04 Jun 2027 12:35:58.591   04 Jun 2027 12:37:44.046           105.455              Murmansk2          3295.469
       419   04 Jun 2027 12:38:00.236   04 Jun 2027 12:38:48.683            48.447              Murmansk1          1513.969
       420   04 Jun 2027 12:39:18.306   04 Jun 2027 12:39:41.173            22.867              Murmansk1           714.594
       421   04 Jun 2027 12:41:32.258   04 Jun 2027 12:41:39.303             7.045              Murmansk2           220.156
       422   04 Jun 2027 13:46:54.810   04 Jun 2027 13:50:18.338           203.528               CapeTown          6360.250
       423   04 Jun 2027 13:51:47.916   04 Jun 2027 13:53:26.915            98.999               CapeTown          3093.719
       424   04 Jun 2027 14:13:10.785   04 Jun 2027 14:15:08.089           117.304              Murmansk1          3665.750
       425   04 Jun 2027 14:15:39.298   04 Jun 2027 14:16:33.679            54.381              Murmansk1          1699.406
       426   04 Jun 2027 14:26:58.975   04 Jun 2027 14:29:36.480           157.505                Anadyr1          4922.031
       427   04 Jun 2027 15:22:03.375   04 Jun 2027 15:23:45.716           102.341               CapeTown          3198.156
       428   04 Jun 2027 15:54:00.178   04 Jun 2027 15:54:40.706            40.528              Murmansk2          1266.500
       429   04 Jun 2027 16:02:34.298   04 Jun 2027 16:04:34.402           120.104                Anadyr2          3753.250
       430   04 Jun 2027 16:05:50.812   04 Jun 2027 16:09:22.666           211.854               Magadan2          6620.438
       431   04 Jun 2027 16:09:54.771   04 Jun 2027 16:11:49.124           114.353               Magadan1          3573.531
       432   04 Jun 2027 17:38:29.194   04 Jun 2027 17:39:03.916            34.722                Anadyr2          1085.063
       433   04 Jun 2027 17:39:26.737   04 Jun 2027 17:40:10.663            43.926                Anadyr2          1372.688
       434   04 Jun 2027 17:40:49.626   04 Jun 2027 17:42:44.997           115.371               Magadan2          3605.344
       435   04 Jun 2027 18:35:23.832   04 Jun 2027 18:37:33.795           129.963            RioGallegos          4061.344
       436   04 Jun 2027 19:14:19.069   04 Jun 2027 19:16:06.272           107.203                Anadyr2          3350.094
       437   04 Jun 2027 19:16:32.302   04 Jun 2027 19:20:27.189           234.887                Norilsk          7340.219
       438   04 Jun 2027 19:21:26.633   04 Jun 2027 19:23:19.571           112.938                Norilsk          3529.313
       439   04 Jun 2027 19:36:58.778   04 Jun 2027 19:38:58.425           119.647                Sumatra          3738.969
       440   04 Jun 2027 19:40:23.713   04 Jun 2027 19:42:19.922           116.209                Sumatra          3631.531
       441   04 Jun 2027 20:56:10.000   04 Jun 2027 20:57:56.502           106.502                Irkutsk          3328.187
       442   04 Jun 2027 20:58:27.217   04 Jun 2027 21:00:19.491           112.274                Novosib          3508.563
       443   04 Jun 2027 21:01:20.714   04 Jun 2027 21:01:38.780            18.066                Novosib           564.563
       444   04 Jun 2027 21:03:15.869   04 Jun 2027 21:04:00.263            44.394                Novosib          1387.312
       445   04 Jun 2027 21:08:05.857   04 Jun 2027 21:08:56.981            51.124                  Delhi          1597.625
       446   04 Jun 2027 21:10:54.341   04 Jun 2027 21:10:58.183             3.842                  Delhi           120.063
       447   04 Jun 2027 22:28:47.505   04 Jun 2027 22:29:38.424            50.919               Magadan2          1591.219
       448   04 Jun 2027 22:31:23.667   04 Jun 2027 22:34:53.314           209.647              Murmansk1          6551.469
       449   04 Jun 2027 22:35:21.056   04 Jun 2027 22:35:54.120            33.064              Murmansk2          1033.250
       450   04 Jun 2027 22:39:23.981   04 Jun 2027 22:40:02.326            38.345                  Delhi          1198.281
       451   04 Jun 2027 22:46:30.883   04 Jun 2027 22:46:47.688            16.805                  Delhi           525.156
       452   04 Jun 2027 22:47:44.435   04 Jun 2027 22:48:53.107            68.672                  Delhi          2146.000
       453   04 Jun 2027 23:57:10.800   04 Jun 2027 23:57:15.882             5.082                Anadyr2           158.813
       454   05 Jun 2027 00:03:16.075   05 Jun 2027 00:05:21.540           125.465               Magadan2          3920.781
       455   05 Jun 2027 00:06:25.474   05 Jun 2027 00:08:20.815           115.341              Murmansk2          3604.406
       456   05 Jun 2027 00:08:27.982   05 Jun 2027 00:10:28.109           120.127              Murmansk1          3753.969
       457   05 Jun 2027 00:10:40.271   05 Jun 2027 00:12:00.721            80.450                 Moscow          2514.063
       458   05 Jun 2027 00:12:15.494   05 Jun 2027 00:12:35.306            19.812                 Moscow           619.125
       459   05 Jun 2027 00:36:49.934   05 Jun 2027 00:38:55.437           125.503               CapeTown          3921.969
       460   05 Jun 2027 00:41:15.245   05 Jun 2027 00:42:03.179            47.934               CapeTown          1497.937
       461   05 Jun 2027 01:34:58.962   05 Jun 2027 01:36:06.333            67.371               Magadan2          2105.344
       462   05 Jun 2027 01:42:19.533   05 Jun 2027 01:42:21.064             1.531              Murmansk1            47.844
       463   05 Jun 2027 01:43:13.425   05 Jun 2027 01:44:22.620            69.195              Murmansk1          2162.344
       464   05 Jun 2027 01:44:22.620   05 Jun 2027 01:44:52.229            29.609              Murmansk2           925.281
       465   05 Jun 2027 01:45:10.768   05 Jun 2027 01:45:55.556            44.788                Novosib          1399.625
       466   05 Jun 2027 01:46:20.091   05 Jun 2027 01:46:25.422             5.331              Murmansk1           166.594
       467   05 Jun 2027 01:47:03.030   05 Jun 2027 01:47:27.643            24.613                 Moscow           769.156
       468   05 Jun 2027 01:49:41.363   05 Jun 2027 01:50:01.277            19.914                 Moscow           622.313
       469   05 Jun 2027 01:52:53.069   05 Jun 2027 01:53:20.067            26.998                 Moscow           843.687
       470   05 Jun 2027 02:09:26.203   05 Jun 2027 02:10:44.723            78.520               CapeTown          2453.750
       471   05 Jun 2027 03:06:28.162   05 Jun 2027 03:07:01.962            33.800                Anadyr2          1056.250
       472   05 Jun 2027 03:12:27.288   05 Jun 2027 03:13:12.477            45.189               Magadan1          1412.156
       473   05 Jun 2027 03:13:21.569   05 Jun 2027 03:16:22.525           180.956               Magadan2          5654.875
       474   05 Jun 2027 04:50:01.981   05 Jun 2027 04:50:52.313            50.332               Magadan1          1572.875
       475   05 Jun 2027 04:50:59.329   05 Jun 2027 04:53:05.249           125.920                Anadyr1          3935.000
       476   05 Jun 2027 06:23:36.725   05 Jun 2027 06:24:18.558            41.833                Irkutsk          1307.281
       477   05 Jun 2027 06:24:21.957   05 Jun 2027 06:29:14.804           292.847               Magadan1          9151.469
       478   05 Jun 2027 06:29:22.690   05 Jun 2027 06:29:50.149            27.459              Murmansk2           858.094
       479   05 Jun 2027 06:29:58.721   05 Jun 2027 06:31:28.537            89.816              Murmansk2          2806.750
       480   05 Jun 2027 06:31:44.456   05 Jun 2027 06:31:52.596             8.140              Murmansk2           254.375
       481   05 Jun 2027 06:32:35.434   05 Jun 2027 06:32:48.475            13.041              Murmansk1           407.531
       482   05 Jun 2027 06:33:20.189   05 Jun 2027 06:33:34.863            14.674              Murmansk1           458.563
