uniorb/output/strategy_1/Drop/Drop_KinoSat_110504.txt

KinoSat_110504
-------------------------
    Access    *     Start Time (UTCG)     *     Stop Time (UTCG)  *   Duration (s)        *       Station  *  Data (Mbytes)
         1   01 Jun 2027 03:56:38.112   01 Jun 2027 03:56:52.465            14.353               Magadan1          1794.125
         2   01 Jun 2027 03:56:59.315   01 Jun 2027 03:57:52.722            53.407               Magadan1          6675.875
         3   01 Jun 2027 03:58:34.989   01 Jun 2027 04:01:05.015           150.026               Magadan2         18753.250
         4   01 Jun 2027 04:01:06.645   01 Jun 2027 04:01:58.770            52.125               Magadan1          6515.625
         5   01 Jun 2027 04:02:56.660   01 Jun 2027 04:03:46.191            49.531                Anadyr1          6191.375
         6   01 Jun 2027 04:03:47.717   01 Jun 2027 04:04:15.603            27.886               Magadan2          3485.750
         7   01 Jun 2027 04:39:31.510   01 Jun 2027 04:40:35.600            64.090            RioGallegos          8011.250
         8   01 Jun 2027 05:18:07.514   01 Jun 2027 05:19:19.709            72.195                Sumatra          9024.375
         9   01 Jun 2027 05:35:07.403   01 Jun 2027 05:35:37.023            29.620                Irkutsk          3702.500
        10   01 Jun 2027 05:35:37.692   01 Jun 2027 05:36:33.405            55.713               Magadan1          6964.125
        11   01 Jun 2027 05:36:40.137   01 Jun 2027 05:37:05.967            25.830               Magadan1          3228.750
        12   01 Jun 2027 05:37:17.567   01 Jun 2027 05:38:08.425            50.858               Magadan2          6357.250
        13   01 Jun 2027 05:38:28.502   01 Jun 2027 05:38:41.224            12.722               Magadan2          1590.250
        14   01 Jun 2027 05:38:59.162   01 Jun 2027 05:39:26.831            27.669                Norilsk          3458.625
        15   01 Jun 2027 05:39:36.777   01 Jun 2027 05:40:10.397            33.620                Irkutsk          4202.500
        16   01 Jun 2027 05:40:50.870   01 Jun 2027 05:41:11.655            20.785                Novosib          2598.125
        17   01 Jun 2027 06:15:02.630   01 Jun 2027 06:15:42.887            40.257            RioGallegos          5032.125
        18   01 Jun 2027 06:49:41.854   01 Jun 2027 06:51:43.359           121.505                Sumatra         15188.125
        19   01 Jun 2027 07:10:33.658   01 Jun 2027 07:11:12.544            38.886                Novosib          4860.750
        20   01 Jun 2027 07:12:41.298   01 Jun 2027 07:13:32.171            50.873                 Moscow          6359.125
        21   01 Jun 2027 07:13:51.693   01 Jun 2027 07:14:00.952             9.259                Irkutsk          1157.375
        22   01 Jun 2027 07:14:06.761   01 Jun 2027 07:14:34.245            27.484                 Moscow          3435.500
        23   01 Jun 2027 07:14:47.150   01 Jun 2027 07:15:02.269            15.119                Novosib          1889.875
        24   01 Jun 2027 07:15:04.808   01 Jun 2027 07:15:38.775            33.967                Norilsk          4245.875
        25   01 Jun 2027 07:15:41.321   01 Jun 2027 07:16:11.737            30.416              Murmansk1          3802.000
        26   01 Jun 2027 07:17:37.843   01 Jun 2027 07:17:45.893             8.050                 Moscow          1006.250
        27   01 Jun 2027 08:34:01.885   01 Jun 2027 08:35:27.239            85.354                  Delhi         10669.250
        28   01 Jun 2027 08:49:59.408   01 Jun 2027 08:51:26.268            86.860                 Moscow         10857.500
        29   01 Jun 2027 08:51:53.727   01 Jun 2027 08:52:07.600            13.873              Murmansk1          1734.125
        30   01 Jun 2027 08:53:29.814   01 Jun 2027 08:53:41.691            11.877              Murmansk1          1484.625
        31   01 Jun 2027 10:23:01.823   01 Jun 2027 10:23:38.311            36.488                 Moscow          4561.000
        32   01 Jun 2027 10:24:18.564   01 Jun 2027 10:26:45.366           146.802                 Moscow         18350.250
        33   01 Jun 2027 10:27:04.661   01 Jun 2027 10:27:35.668            31.007                Norilsk          3875.875
        34   01 Jun 2027 10:27:37.421   01 Jun 2027 10:27:53.247            15.826                 Moscow          1978.250
        35   01 Jun 2027 11:32:51.566   01 Jun 2027 11:33:17.575            26.009               CapeTown          3251.125
        36   01 Jun 2027 11:34:36.202   01 Jun 2027 11:39:37.858           301.656               CapeTown         37707.000
        37   01 Jun 2027 12:12:49.120   01 Jun 2027 12:21:35.639           526.519                Anadyr1         65814.875
        38   01 Jun 2027 13:51:45.719   01 Jun 2027 13:58:20.076           394.357               Magadan1         49294.625
        39   01 Jun 2027 16:22:00.733   01 Jun 2027 16:23:43.209           102.476            RioGallegos         12809.500
        40   01 Jun 2027 17:07:37.907   01 Jun 2027 17:13:33.629           355.722                Irkutsk         44465.250
        41   01 Jun 2027 17:15:11.274   01 Jun 2027 17:15:11.715             0.441                Irkutsk            55.125
        42   01 Jun 2027 17:23:17.315   01 Jun 2027 17:25:06.560           109.245                Sumatra         13655.625
        43   01 Jun 2027 17:26:43.674   01 Jun 2027 17:28:57.325           133.651                Sumatra         16706.375
        44   01 Jun 2027 18:44:19.299   01 Jun 2027 18:46:45.057           145.758                Novosib         18219.750
        45   01 Jun 2027 18:48:22.619   01 Jun 2027 18:49:08.102            45.483                Novosib          5685.375
        46   01 Jun 2027 20:18:48.551   01 Jun 2027 20:19:01.810            13.259              Murmansk1          1657.375
        47   01 Jun 2027 21:52:13.618   01 Jun 2027 21:52:35.376            21.758              Murmansk1          2719.750
        48   01 Jun 2027 21:53:08.269   01 Jun 2027 21:54:17.433            69.164              Murmansk2          3623.124
        49   02 Jun 2027 04:13:20.666   02 Jun 2027 04:13:28.042             7.376                Anadyr1           922.000
        50   02 Jun 2027 04:13:49.031   02 Jun 2027 04:14:35.854            46.823               Magadan1          5852.875
        51   02 Jun 2027 04:14:35.854   02 Jun 2027 04:15:26.660            50.806               Magadan2          6350.750
        52   02 Jun 2027 04:15:32.087   02 Jun 2027 04:15:52.272            20.185               Magadan2          2523.125
        53   02 Jun 2027 04:54:23.469   02 Jun 2027 04:55:24.780            61.311            RioGallegos          7663.875
        54   02 Jun 2027 04:58:42.276   02 Jun 2027 04:59:04.716            22.440            RioGallegos          2805.000
        55   02 Jun 2027 05:28:39.888   02 Jun 2027 05:30:33.800           113.912                Sumatra         14239.000
        56   02 Jun 2027 05:47:41.882   02 Jun 2027 05:49:16.293            94.411                Irkutsk         11801.375
        57   02 Jun 2027 05:49:39.583   02 Jun 2027 05:50:02.458            22.875               Magadan1          2859.375
        58   02 Jun 2027 05:50:03.591   02 Jun 2027 05:50:51.173            47.582                Novosib          5947.750
        59   02 Jun 2027 05:50:56.320   02 Jun 2027 05:52:12.744            76.424                Irkutsk          9553.000
        60   02 Jun 2027 07:12:43.939   02 Jun 2027 07:13:42.527            58.588                  Delhi          7323.500
        61   02 Jun 2027 07:24:46.285   02 Jun 2027 07:26:15.653            89.368                 Moscow         11171.000
        62   02 Jun 2027 07:26:31.920   02 Jun 2027 07:27:32.228            60.308                Norilsk          7538.500
        63   02 Jun 2027 07:27:41.806   02 Jun 2027 07:29:15.041            93.235                 Moscow         11654.375
        64   02 Jun 2027 08:59:42.837   02 Jun 2027 09:01:02.159            79.322                Novosib          9915.250
        65   02 Jun 2027 09:02:52.596   02 Jun 2027 09:03:33.450            40.854                 Moscow          5106.750
        66   02 Jun 2027 09:04:21.543   02 Jun 2027 09:04:41.513            19.970                Norilsk          2496.250
        67   02 Jun 2027 10:36:32.666   02 Jun 2027 10:36:57.730            25.064                 Moscow          3133.000
        68   02 Jun 2027 10:37:29.320   02 Jun 2027 10:38:47.911            78.591                 Moscow          9823.875
        69   02 Jun 2027 11:44:31.535   02 Jun 2027 11:45:19.036            47.501               CapeTown          5937.625
        70   02 Jun 2027 11:48:25.290   02 Jun 2027 11:50:50.302           145.012               CapeTown         18126.500
        71   02 Jun 2027 12:24:44.504   02 Jun 2027 12:26:49.326           124.822                Anadyr1         15602.750
        72   02 Jun 2027 12:28:33.145   02 Jun 2027 12:30:54.552           141.407                Anadyr2         17675.875
        73   02 Jun 2027 12:31:47.150   02 Jun 2027 12:34:16.297           149.147                Anadyr2         18643.375
        74   02 Jun 2027 14:03:30.538   02 Jun 2027 14:10:11.952           401.414               Magadan2         50176.750
        75   02 Jun 2027 14:11:49.125   02 Jun 2027 14:12:23.014            33.889               Magadan2          4236.125
        76   02 Jun 2027 16:32:32.848   02 Jun 2027 16:35:26.509           173.661            RioGallegos         21707.625
        77   02 Jun 2027 16:35:29.153   02 Jun 2027 16:37:34.926           125.773            RioGallegos         15721.625
        78   02 Jun 2027 17:19:13.360   02 Jun 2027 17:22:55.994           222.634                Irkutsk         27829.250
        79   02 Jun 2027 17:25:36.828   02 Jun 2027 17:25:54.937            18.109                Irkutsk          2263.625
        80   02 Jun 2027 17:34:09.879   02 Jun 2027 17:38:36.204           266.325                Sumatra         33290.625
        81   02 Jun 2027 17:40:22.790   02 Jun 2027 17:40:58.923            36.133                Sumatra          4516.625
        82   02 Jun 2027 18:57:42.461   02 Jun 2027 18:58:40.019            57.558                Novosib          7194.750
        83   02 Jun 2027 19:04:39.422   02 Jun 2027 19:06:38.404           118.982                  Delhi         14872.750
        84   02 Jun 2027 19:08:40.088   02 Jun 2027 19:10:09.010            88.922                  Delhi         11115.250
        85   02 Jun 2027 20:30:14.768   02 Jun 2027 20:31:39.613            84.845              Murmansk1         10605.625
        86   02 Jun 2027 22:04:13.531   02 Jun 2027 22:05:03.278            49.747              Murmansk1          6218.375
        87   02 Jun 2027 22:06:21.514   02 Jun 2027 22:08:32.871           131.357              Murmansk2         16419.625
        88   02 Jun 2027 22:34:06.082   02 Jun 2027 22:35:50.190           104.108               CapeTown         13013.500
        89   03 Jun 2027 04:26:39.922   03 Jun 2027 04:27:42.351            62.429                Irkutsk          7803.625
        90   03 Jun 2027 04:27:51.826   03 Jun 2027 04:28:52.794            60.968                Novosib          7621.000
        91   03 Jun 2027 05:39:45.011   03 Jun 2027 05:42:38.685           173.674                Sumatra         21709.250
        92   03 Jun 2027 06:00:14.014   03 Jun 2027 06:00:58.965            44.951                Novosib          5618.875
        93   03 Jun 2027 06:01:24.734   03 Jun 2027 06:03:26.484           121.750                Novosib         15218.750
        94   03 Jun 2027 06:03:45.528   03 Jun 2027 06:03:48.918             3.390              Murmansk2           423.750
        95   03 Jun 2027 06:03:53.752   03 Jun 2027 06:05:04.334            70.582                Novosib          8822.750
        96   03 Jun 2027 07:13:55.795   03 Jun 2027 07:15:15.538            79.743                Sumatra          9967.875
        97   03 Jun 2027 07:24:39.360   03 Jun 2027 07:24:45.549             6.189                  Delhi           773.625
        98   03 Jun 2027 07:26:33.875   03 Jun 2027 07:28:05.497            91.622                  Delhi         11452.750
        99   03 Jun 2027 07:37:36.185   03 Jun 2027 07:39:02.480            86.295              Murmansk1         10786.875
       100   03 Jun 2027 07:39:15.127   03 Jun 2027 07:39:40.043            24.916                 Moscow          3114.500
       101   03 Jun 2027 07:39:40.991   03 Jun 2027 07:39:46.988             5.997                Novosib           749.625
       102   03 Jun 2027 07:40:01.740   03 Jun 2027 07:40:54.884            53.144                 Moscow          6643.000
       103   03 Jun 2027 08:58:36.423   03 Jun 2027 08:58:58.916            22.493                  Delhi          2811.625
       104   03 Jun 2027 09:00:41.091   03 Jun 2027 09:01:38.129            57.038                  Delhi          7129.750
       105   03 Jun 2027 09:12:58.350   03 Jun 2027 09:13:27.337            28.987                Novosib          3623.375
       106   03 Jun 2027 09:14:08.031   03 Jun 2027 09:14:22.813            14.782              Murmansk1          1847.750
       107   03 Jun 2027 09:14:22.813   03 Jun 2027 09:14:32.507             9.694              Murmansk2          1211.750
       108   03 Jun 2027 09:14:34.547   03 Jun 2027 09:16:45.122           130.575                 Moscow         16321.875
       109   03 Jun 2027 10:50:01.235   03 Jun 2027 10:50:26.317            25.082                 Moscow          3135.250
       110   03 Jun 2027 11:03:26.973   03 Jun 2027 11:04:40.166            73.193                Anadyr1          9149.125
       111   03 Jun 2027 11:58:16.570   03 Jun 2027 12:00:23.109           126.539               CapeTown         15817.375
       112   03 Jun 2027 12:36:41.182   03 Jun 2027 12:38:56.922           135.740                Anadyr1         16967.500
       113   03 Jun 2027 12:41:15.261   03 Jun 2027 12:42:06.133            50.872                Anadyr1          6359.000
       114   03 Jun 2027 12:44:48.508   03 Jun 2027 12:45:11.946            23.438                Anadyr2          2929.750
       115   03 Jun 2027 14:15:19.370   03 Jun 2027 14:24:47.026           567.656               Magadan1         70957.000
       116   03 Jun 2027 16:43:52.089   03 Jun 2027 16:47:14.004           201.915            RioGallegos         25239.375
       117   03 Jun 2027 16:49:41.179   03 Jun 2027 16:51:15.212            94.033            RioGallegos         11754.125
       118   03 Jun 2027 17:33:22.175   03 Jun 2027 17:34:49.454            87.279                Irkutsk         10909.875
       119   03 Jun 2027 17:36:54.322   03 Jun 2027 17:39:12.591           138.269                Irkutsk         17283.625
       120   03 Jun 2027 17:45:24.040   03 Jun 2027 17:48:32.736           188.696                Sumatra         23587.000
       121   03 Jun 2027 17:49:14.029   03 Jun 2027 17:50:10.229            56.200                Sumatra          7025.000
       122   03 Jun 2027 17:51:21.360   03 Jun 2027 17:53:06.212           104.852                Sumatra         13106.500
       123   03 Jun 2027 19:15:33.032   03 Jun 2027 19:18:19.949           166.917                  Delhi         20864.625
       124   03 Jun 2027 20:42:11.792   03 Jun 2027 20:44:21.180           129.388              Murmansk2         16173.500
       125   03 Jun 2027 20:46:34.039   03 Jun 2027 20:46:52.243            18.204              Murmansk1          2275.500
       126   03 Jun 2027 22:19:18.775   03 Jun 2027 22:20:34.519            75.744              Murmansk2          9468.000
       127   03 Jun 2027 22:22:40.587   03 Jun 2027 22:23:05.503            24.916              Murmansk1          3114.500
       128   03 Jun 2027 22:48:43.129   03 Jun 2027 22:50:36.239           113.110               CapeTown         14138.750
       129   04 Jun 2027 04:38:01.235   04 Jun 2027 04:38:06.012             4.777                Norilsk           597.125
       130   04 Jun 2027 04:38:09.280   04 Jun 2027 04:38:32.598            23.318                Novosib          2914.750
       131   04 Jun 2027 04:38:34.814   04 Jun 2027 04:38:40.772             5.958               Magadan2           744.750
       132   04 Jun 2027 04:38:52.830   04 Jun 2027 04:39:37.102            44.272              Murmansk2          5534.000
       133   04 Jun 2027 04:39:54.195   04 Jun 2027 04:40:01.772             7.577                Irkutsk           947.125
       134   04 Jun 2027 04:40:02.809   04 Jun 2027 04:40:23.143            20.334              Murmansk2          2541.750
       135   04 Jun 2027 04:40:59.323   04 Jun 2027 04:41:00.601             1.278                Norilsk           159.750
       136   04 Jun 2027 04:41:09.222   04 Jun 2027 04:41:27.011            17.789                Norilsk          2223.625
       137   04 Jun 2027 05:15:01.797   04 Jun 2027 05:15:56.549            54.752            RioGallegos          6844.000
       138   04 Jun 2027 05:17:37.297   04 Jun 2027 05:18:11.976            34.679            RioGallegos          4334.875
       139   04 Jun 2027 05:51:06.216   04 Jun 2027 05:51:46.539            40.323                Sumatra          5040.375
       140   04 Jun 2027 05:54:05.139   04 Jun 2027 05:54:28.293            23.154                Sumatra          2894.250
       141   04 Jun 2027 06:11:35.692   04 Jun 2027 06:12:34.700            59.008                Norilsk          7376.000
       142   04 Jun 2027 06:12:36.428   04 Jun 2027 06:15:11.059           154.631                Irkutsk         19328.875
       143   04 Jun 2027 06:15:59.655   04 Jun 2027 06:16:42.248            42.593                Novosib          5324.125
       144   04 Jun 2027 06:51:56.927   04 Jun 2027 06:52:44.093            47.166            RioGallegos          5895.750
       145   04 Jun 2027 07:26:12.185   04 Jun 2027 07:26:41.250            29.065                Sumatra          3633.125
       146   04 Jun 2027 07:36:31.017   04 Jun 2027 07:38:33.514           122.497                  Delhi         15312.125
       147   04 Jun 2027 07:49:55.503   04 Jun 2027 07:50:05.521            10.018                 Moscow          1252.250
       148   04 Jun 2027 07:50:06.056   04 Jun 2027 07:50:29.439            23.383                Norilsk          2922.875
       149   04 Jun 2027 07:50:34.344   04 Jun 2027 07:51:17.754            43.410                Novosib          5426.250
       150   04 Jun 2027 07:51:28.534   04 Jun 2027 07:52:42.603            74.069                Novosib          9258.625
       151   04 Jun 2027 09:12:04.485   04 Jun 2027 09:12:24.605            20.120                  Delhi          2515.000
       152   04 Jun 2027 09:23:41.306   04 Jun 2027 09:24:48.395            67.089              Murmansk2          8386.125
       153   04 Jun 2027 09:25:03.195   04 Jun 2027 09:25:21.041            17.846                 Moscow          2230.750
       154   04 Jun 2027 09:25:26.278   04 Jun 2027 09:26:11.812            45.534                Norilsk          5691.750
       155   04 Jun 2027 09:26:20.899   04 Jun 2027 09:27:13.335            52.436                Novosib          6554.500
       156   04 Jun 2027 09:27:29.020   04 Jun 2027 09:27:53.463            24.443              Murmansk2          3055.375
       157   04 Jun 2027 09:27:53.463   04 Jun 2027 09:28:38.711            45.248              Murmansk1          5656.000
       158   04 Jun 2027 11:14:16.377   04 Jun 2027 11:18:32.667           256.290                Anadyr1         32036.250
       159   04 Jun 2027 12:53:52.399   04 Jun 2027 12:55:32.317            99.918                Anadyr2         12489.750
       160   04 Jun 2027 14:27:10.988   04 Jun 2027 14:31:00.031           229.043               Magadan1         28630.375
       161   04 Jun 2027 14:31:03.640   04 Jun 2027 14:33:33.107           149.467               Magadan1         18683.375
       162   04 Jun 2027 14:34:19.852   04 Jun 2027 14:35:52.296            92.444               Magadan1         11555.500
       163   04 Jun 2027 16:55:25.370   04 Jun 2027 16:59:04.596           219.226            RioGallegos         27403.250
       164   04 Jun 2027 17:00:37.100   04 Jun 2027 17:01:44.006            66.906            RioGallegos          8363.250
       165   04 Jun 2027 17:46:34.768   04 Jun 2027 17:48:38.328           123.560                Irkutsk         15445.000
       166   04 Jun 2027 18:01:05.531   04 Jun 2027 18:03:30.131           144.600                Sumatra         18075.000
       167   04 Jun 2027 19:26:51.092   04 Jun 2027 19:30:06.870           195.778                  Delhi         24472.250
       168   04 Jun 2027 19:34:26.457   04 Jun 2027 19:34:48.526            22.069                  Delhi          2758.625
       169   04 Jun 2027 20:52:41.615   04 Jun 2027 20:53:02.454            20.839              Murmansk1          2604.875
       170   04 Jun 2027 20:54:07.037   04 Jun 2027 20:56:28.619           141.582              Murmansk2         17697.750
       171   04 Jun 2027 23:01:45.707   04 Jun 2027 23:03:00.162            74.455               CapeTown          9306.875
       172   05 Jun 2027 03:14:26.739   05 Jun 2027 03:15:21.355            54.616                Anadyr2          6827.000
       173   05 Jun 2027 03:15:49.011   05 Jun 2027 03:16:22.525            33.514               Magadan1          4189.250
       174   05 Jun 2027 04:47:43.074   05 Jun 2027 04:48:14.143            31.069                Novosib          3883.625
       175   05 Jun 2027 04:48:16.201   05 Jun 2027 04:49:11.970            55.769               Magadan1          6971.125
       176   05 Jun 2027 04:49:49.808   05 Jun 2027 04:50:39.653            49.845                Novosib          6230.625
       177   05 Jun 2027 04:50:42.983   05 Jun 2027 04:51:23.601            40.618               Magadan2          5077.250
       178   05 Jun 2027 04:51:34.584   05 Jun 2027 04:51:37.491             2.907                Irkutsk           363.375
       179   05 Jun 2027 04:51:46.152   05 Jun 2027 04:51:57.222            11.070               Magadan1          1383.750
       180   05 Jun 2027 04:52:05.857   05 Jun 2027 04:52:15.851             9.994                Norilsk          1249.250
       181   05 Jun 2027 04:52:29.042   05 Jun 2027 04:53:13.945            44.903                Novosib          5612.875
       182   05 Jun 2027 04:54:29.711   05 Jun 2027 04:54:38.288             8.577                Norilsk          1072.125
       183   05 Jun 2027 05:26:58.240   05 Jun 2027 05:27:20.813            22.573            RioGallegos          2821.625
       184   05 Jun 2027 05:28:59.783   05 Jun 2027 05:29:32.651            32.868            RioGallegos          4108.500
       185   05 Jun 2027 06:02:38.124   05 Jun 2027 06:04:17.832            99.708                Sumatra         12463.500
       186   05 Jun 2027 06:24:18.558   05 Jun 2027 06:25:37.366            78.808                Irkutsk          9851.000
       187   05 Jun 2027 06:25:47.343   05 Jun 2027 06:26:44.370            57.027                Novosib          7128.375
       188   05 Jun 2027 06:27:05.244   05 Jun 2027 06:28:43.993            98.749                Novosib         12343.625
       189   05 Jun 2027 07:38:36.347   05 Jun 2027 07:38:47.649            11.302                Sumatra          1412.750
       190   05 Jun 2027 07:41:40.766   05 Jun 2027 07:42:27.515            46.749                Sumatra          5843.625
       191   05 Jun 2027 07:46:16.642   05 Jun 2027 07:46:24.032             7.390                  Delhi           923.750
       192   05 Jun 2027 07:47:58.838   05 Jun 2027 07:48:18.325            19.487                  Delhi          2435.875
       193   05 Jun 2027 07:49:09.288   05 Jun 2027 07:50:04.041            54.753                  Delhi          6844.125
       194   05 Jun 2027 08:00:53.931   05 Jun 2027 08:00:56.695             2.764                Irkutsk           345.500
       195   05 Jun 2027 08:01:08.597   05 Jun 2027 08:02:06.496            57.899                Norilsk          7237.375
       196   05 Jun 2027 08:02:08.351   05 Jun 2027 08:02:49.532            41.181                 Moscow          5147.625
       197   05 Jun 2027 08:03:04.258   05 Jun 2027 08:03:22.627            18.369              Murmansk1          2296.125
       198   05 Jun 2027 08:03:34.119   05 Jun 2027 08:04:15.757            41.638                Norilsk          5204.750
       199   05 Jun 2027 08:04:22.486   05 Jun 2027 08:04:48.324            25.838                 Moscow          3229.750
       200   05 Jun 2027 09:23:43.375   05 Jun 2027 09:24:48.647            65.272                  Delhi          8159.000
       201   05 Jun 2027 09:35:49.120   05 Jun 2027 09:35:55.900             6.780                Novosib           847.500
       202   05 Jun 2027 09:36:00.051   05 Jun 2027 09:36:50.041            49.990              Murmansk2          6248.750
       203   05 Jun 2027 09:37:15.082   05 Jun 2027 09:38:14.688            59.606              Murmansk2          7450.750
       204   05 Jun 2027 09:38:20.461   05 Jun 2027 09:39:18.010            57.549                Novosib          7193.625
       205   05 Jun 2027 09:39:43.746   05 Jun 2027 09:40:09.680            25.934                 Moscow          3241.750
       206   05 Jun 2027 09:40:09.702   05 Jun 2027 09:40:22.072            12.370                Novosib          1546.250
       207   05 Jun 2027 09:40:28.772   05 Jun 2027 09:40:57.580            28.808              Murmansk2          3601.000
       208   05 Jun 2027 09:41:31.939   05 Jun 2027 09:42:10.542            38.603                 Moscow          4825.375
       209   05 Jun 2027 11:25:48.181   05 Jun 2027 11:31:40.209           352.028                Anadyr2         44003.500
       210   05 Jun 2027 14:39:04.681   05 Jun 2027 14:41:26.063           141.382               Magadan2         17672.750
       211   05 Jun 2027 14:43:50.860   05 Jun 2027 14:44:38.560            47.700               Magadan2          5962.500
       212   05 Jun 2027 14:47:05.840   05 Jun 2027 14:48:35.345            89.505               Magadan1         11188.125
       213   05 Jun 2027 17:09:19.840   05 Jun 2027 17:13:23.453           243.613            RioGallegos         30451.625
       214   05 Jun 2027 18:14:16.383   05 Jun 2027 18:14:58.411            42.028                Sumatra          5253.500
       215   05 Jun 2027 19:41:16.465   05 Jun 2027 19:45:14.694           238.229                  Delhi         29778.625
       216   05 Jun 2027 21:05:40.158   05 Jun 2027 21:10:09.001           268.843              Murmansk1         33605.375
       217   05 Jun 2027 21:10:15.204   05 Jun 2027 21:13:00.955           165.751                 Moscow         20718.875
       218   05 Jun 2027 23:14:24.032   05 Jun 2027 23:14:31.676             7.644               CapeTown           955.500
       219   06 Jun 2027 03:25:11.834   06 Jun 2027 03:27:07.978           116.144                Anadyr1         14518.000
       220   06 Jun 2027 04:59:16.591   06 Jun 2027 04:59:32.007            15.416                Irkutsk          1927.000
       221   06 Jun 2027 04:59:47.446   06 Jun 2027 05:00:40.975            53.529               Magadan1          6691.125
       222   06 Jun 2027 05:00:41.101   06 Jun 2027 05:01:36.058            54.957                Irkutsk          6869.625
       223   06 Jun 2027 05:02:01.120   06 Jun 2027 05:02:40.587            39.467               Magadan2          4933.375
       224   06 Jun 2027 05:02:44.997   06 Jun 2027 05:02:53.947             8.950               Magadan2          1118.750
       225   06 Jun 2027 05:03:17.265   06 Jun 2027 05:04:13.467            56.202                Irkutsk          7025.250
       226   06 Jun 2027 05:06:07.805   06 Jun 2027 05:06:22.960            15.155                Norilsk          1894.375
       227   06 Jun 2027 05:38:57.916   06 Jun 2027 05:39:44.619            46.703            RioGallegos          5837.875
       228   06 Jun 2027 06:14:18.204   06 Jun 2027 06:16:01.405           103.201                Sumatra         12900.125
       229   06 Jun 2027 06:35:39.607   06 Jun 2027 06:35:49.875            10.268                Norilsk          1283.500
       230   06 Jun 2027 06:35:53.644   06 Jun 2027 06:36:49.258            55.614                Irkutsk          6951.750
       231   06 Jun 2027 06:37:01.349   06 Jun 2027 06:37:14.016            12.667              Murmansk1          1583.375
       232   06 Jun 2027 06:37:47.527   06 Jun 2027 06:39:43.969           116.442              Murmansk2         14555.250
       233   06 Jun 2027 06:39:48.714   06 Jun 2027 06:40:40.092            51.378                Novosib          6422.250
       234   06 Jun 2027 07:58:08.632   06 Jun 2027 07:58:54.866            46.234                  Delhi          5779.250
       235   06 Jun 2027 08:00:00.350   06 Jun 2027 08:00:42.671            42.321                  Delhi          5290.125
       236   06 Jun 2027 08:12:52.508   06 Jun 2027 08:13:21.616            29.108                Novosib          3638.500
       237   06 Jun 2027 08:13:30.089   06 Jun 2027 08:14:18.420            48.331              Murmansk2          6041.375
       238   06 Jun 2027 08:14:31.636   06 Jun 2027 08:14:58.529            26.893                Novosib          3361.625
       239   06 Jun 2027 08:15:15.090   06 Jun 2027 08:15:35.313            20.223              Murmansk1          2527.875
       240   06 Jun 2027 08:15:35.313   06 Jun 2027 08:16:11.442            36.129              Murmansk2          4516.125
       241   06 Jun 2027 08:16:11.868   06 Jun 2027 08:16:30.445            18.577                Norilsk          2322.125
       242   06 Jun 2027 09:36:36.352   06 Jun 2027 09:38:03.220            86.868                  Delhi         10858.500
       243   06 Jun 2027 09:47:55.127   06 Jun 2027 09:49:49.434           114.307                 Moscow         14288.375
       244   06 Jun 2027 09:49:57.653   06 Jun 2027 09:50:18.832            21.179                 Moscow          2647.375
       245   06 Jun 2027 09:50:27.239   06 Jun 2027 09:51:26.667            59.428                Norilsk          7428.500
       246   06 Jun 2027 09:51:47.240   06 Jun 2027 09:52:18.097            30.857              Murmansk1          3857.125
       247   06 Jun 2027 09:52:33.013   06 Jun 2027 09:53:24.350            51.337                Norilsk          6417.125
       248   06 Jun 2027 10:59:13.248   06 Jun 2027 11:01:23.361           130.113               CapeTown         16264.125
       249   06 Jun 2027 11:37:30.660   06 Jun 2027 11:43:35.537           364.877                Anadyr2         45609.625
       250   06 Jun 2027 13:18:08.252   06 Jun 2027 13:19:58.785           110.533               Magadan2         13816.625
       251   06 Jun 2027 14:50:59.975   06 Jun 2027 14:53:08.369           128.394               Magadan2         16049.250
       252   06 Jun 2027 17:22:37.493   06 Jun 2027 17:24:51.253           133.760            RioGallegos         16720.000
       253   06 Jun 2027 18:08:32.142   06 Jun 2027 18:13:22.485           290.343                Novosib         36292.875
       254   06 Jun 2027 19:54:49.263   06 Jun 2027 19:56:23.528            94.265                  Delhi         11783.125
       255   06 Jun 2027 21:17:47.972   06 Jun 2027 21:18:43.581            55.609              Murmansk1          6951.125
       256   06 Jun 2027 21:19:07.922   06 Jun 2027 21:23:23.400           255.478              Murmansk2         31934.750
       257   06 Jun 2027 21:23:57.108   06 Jun 2027 21:24:48.337            51.229                 Moscow          6403.625
       258   06 Jun 2027 21:27:02.786   06 Jun 2027 21:27:53.959            51.173                 Moscow          6396.625
       259   07 Jun 2027 03:36:12.267   07 Jun 2027 03:36:37.445            25.178               Magadan1          3147.250
       260   07 Jun 2027 03:36:55.680   07 Jun 2027 03:37:05.887            10.207               Magadan1          1275.875
       261   07 Jun 2027 03:37:17.327   07 Jun 2027 03:37:41.666            24.339               Magadan1          3042.375
       262   07 Jun 2027 03:37:55.013   07 Jun 2027 03:38:56.868            61.855                Anadyr1          7731.875
       263   07 Jun 2027 03:39:36.192   07 Jun 2027 03:40:15.474            39.282               Magadan2          4910.250
       264   07 Jun 2027 05:11:19.207   07 Jun 2027 05:11:55.671            36.464                Irkutsk          4558.000
       265   07 Jun 2027 05:12:14.834   07 Jun 2027 05:13:55.560           100.726                Norilsk         12590.750
       266   07 Jun 2027 05:13:59.001   07 Jun 2027 05:16:18.091           139.090                Irkutsk         17386.250
       267   07 Jun 2027 06:37:41.647   07 Jun 2027 06:38:38.194            56.547                  Delhi          7068.375
       268   07 Jun 2027 06:48:17.617   07 Jun 2027 06:49:19.593            61.976                Novosib          7747.000
       269   07 Jun 2027 06:49:27.806   07 Jun 2027 06:50:36.998            69.192                Irkutsk          8649.000
       270   07 Jun 2027 06:50:54.585   07 Jun 2027 06:52:11.211            76.626                Irkutsk          9578.250
       271   07 Jun 2027 08:10:05.931   07 Jun 2027 08:11:02.417            56.486                  Delhi          7060.750
       272   07 Jun 2027 08:24:51.704   07 Jun 2027 08:26:03.433            71.729                Irkutsk          8966.125
       273   07 Jun 2027 08:26:06.519   07 Jun 2027 08:26:28.192            21.673                Novosib          2709.125
       274   07 Jun 2027 08:26:42.067   07 Jun 2027 08:27:29.601            47.534              Murmansk1          5941.750
       275   07 Jun 2027 08:27:30.536   07 Jun 2027 08:28:00.652            30.116                 Moscow          3764.500
       276   07 Jun 2027 09:49:56.067   07 Jun 2027 09:51:16.146            80.079                  Delhi         10009.875
       277   07 Jun 2027 09:57:47.079   07 Jun 2027 09:59:16.662            89.583                 Moscow         11197.875
       278   07 Jun 2027 09:59:38.960   07 Jun 2027 10:01:05.091            86.131                Novosib         10766.375
       279   07 Jun 2027 10:01:17.288   07 Jun 2027 10:02:13.992            56.704              Murmansk2          7088.000
       280   07 Jun 2027 10:02:19.744   07 Jun 2027 10:02:53.497            33.753                 Moscow          4219.125
       281   07 Jun 2027 10:03:11.347   07 Jun 2027 10:04:09.362            58.015                 Moscow          7251.875
       282   07 Jun 2027 10:04:11.176   07 Jun 2027 10:04:33.982            22.806                 Moscow          2850.750
       283   07 Jun 2027 10:04:46.926   07 Jun 2027 10:05:25.629            38.703                Norilsk          4837.875
       284   07 Jun 2027 11:10:12.219   07 Jun 2027 11:13:06.020           173.801               CapeTown         21725.125
       285   07 Jun 2027 11:17:12.056   07 Jun 2027 11:18:05.583            53.527               CapeTown          6690.875
       286   07 Jun 2027 11:49:18.618   07 Jun 2027 11:52:57.802           219.184                Anadyr2         27398.000
       287   07 Jun 2027 13:28:54.698   07 Jun 2027 13:32:06.729           192.031               Magadan1         24003.875
       288   07 Jun 2027 15:09:05.216   07 Jun 2027 15:10:13.439            68.223               Magadan2          8527.875
       289   07 Jun 2027 16:45:37.754   07 Jun 2027 16:48:39.281           181.527                Irkutsk         22690.875
       290   07 Jun 2027 18:19:51.012   07 Jun 2027 18:26:36.557           405.545                Novosib         50693.125
       291   07 Jun 2027 21:29:27.950   07 Jun 2027 21:31:14.867           106.917              Murmansk2         13364.625
       292   07 Jun 2027 21:31:22.220   07 Jun 2027 21:33:52.781           150.561              Murmansk2         18820.125
       293   07 Jun 2027 21:34:27.597   07 Jun 2027 21:39:10.631           283.034                 Moscow         35379.250
       294   08 Jun 2027 03:47:40.132   08 Jun 2027 03:47:54.326            14.194                Anadyr1          1774.250
       295   08 Jun 2027 03:47:58.676   08 Jun 2027 03:49:01.025            62.349                Anadyr1          7793.625
       296   08 Jun 2027 03:49:01.025   08 Jun 2027 03:49:14.261            13.236                Anadyr2          1654.500
       297   08 Jun 2027 03:49:36.206   08 Jun 2027 03:49:52.397            16.191                Anadyr1          2023.875
       298   08 Jun 2027 03:49:56.072   08 Jun 2027 03:50:12.019            15.947               Magadan2          1993.375
       299   08 Jun 2027 03:50:21.684   08 Jun 2027 03:50:43.347            21.663               Magadan1          2707.875
       300   08 Jun 2027 03:51:00.101   08 Jun 2027 03:51:38.333            38.232                Irkutsk          4779.000
       301   08 Jun 2027 03:52:05.386   08 Jun 2027 03:52:13.249             7.863                Anadyr1           982.875
       302   08 Jun 2027 05:22:53.106   08 Jun 2027 05:22:58.511             5.405               Magadan2           675.625
       303   08 Jun 2027 05:23:16.015   08 Jun 2027 05:24:24.732            68.717               Magadan1          8589.625
       304   08 Jun 2027 05:24:41.995   08 Jun 2027 05:25:55.820            73.825                Novosib          9228.125
       305   08 Jun 2027 05:26:06.800   08 Jun 2027 05:27:06.407            59.607                Novosib          7450.875
       306   08 Jun 2027 05:27:54.121   08 Jun 2027 05:28:21.947            27.826                Irkutsk          3478.250
       307   08 Jun 2027 05:28:27.648   08 Jun 2027 05:28:41.715            14.067                Novosib          1758.375
       308   08 Jun 2027 05:28:51.660   08 Jun 2027 05:30:12.461            80.801                Norilsk         10100.125
       309   08 Jun 2027 05:30:26.524   08 Jun 2027 05:30:35.505             8.981                Norilsk          1122.625
       310   08 Jun 2027 05:31:47.460   08 Jun 2027 05:31:51.998             4.538                Norilsk           567.250
       311   08 Jun 2027 06:03:07.349   08 Jun 2027 06:03:31.844            24.495            RioGallegos          3061.875
       312   08 Jun 2027 06:37:57.954   08 Jun 2027 06:39:03.061            65.107                Sumatra          8138.375
       313   08 Jun 2027 06:56:54.699   08 Jun 2027 06:57:14.829            20.130                  Delhi          2516.250
       314   08 Jun 2027 06:58:41.975   08 Jun 2027 06:58:56.084            14.109                Novosib          1763.625
       315   08 Jun 2027 07:00:24.115   08 Jun 2027 07:01:02.919            38.804              Murmansk1          4850.500
       316   08 Jun 2027 07:01:03.694   08 Jun 2027 07:01:45.034            41.340                Irkutsk          5167.500
       317   08 Jun 2027 07:02:01.500   08 Jun 2027 07:02:08.938             7.438                Norilsk           929.750
       318   08 Jun 2027 07:02:10.894   08 Jun 2027 07:02:37.908            27.014                Novosib          3376.750
       319   08 Jun 2027 07:02:47.423   08 Jun 2027 07:03:37.978            50.555              Murmansk2          6319.375
       320   08 Jun 2027 07:03:56.474   08 Jun 2027 07:04:09.206            12.732                Norilsk          1591.500
       321   08 Jun 2027 07:04:16.286   08 Jun 2027 07:05:28.624            72.338                Norilsk          9042.250
       322   08 Jun 2027 07:42:30.280   08 Jun 2027 07:42:49.490            19.210            RioGallegos          2401.250
       323   08 Jun 2027 08:17:24.002   08 Jun 2027 08:17:46.571            22.569                Sumatra          2821.125
       324   08 Jun 2027 08:22:08.529   08 Jun 2027 08:23:00.865            52.336                  Delhi          6542.000
       325   08 Jun 2027 08:36:27.921   08 Jun 2027 08:36:57.410            29.489              Murmansk2          3686.125
       326   08 Jun 2027 08:37:00.014   08 Jun 2027 08:37:28.317            28.303              Murmansk2          3537.875
       327   08 Jun 2027 08:37:48.117   08 Jun 2027 08:38:55.015            66.898                Novosib          8362.250
       328   08 Jun 2027 08:39:00.978   08 Jun 2027 08:39:53.750            52.772                 Moscow          6596.500
       329   08 Jun 2027 10:09:49.375   08 Jun 2027 10:11:07.956            78.581                 Moscow          9822.625
       330   08 Jun 2027 10:11:25.595   08 Jun 2027 10:12:16.178            50.583                 Moscow          6322.875
       331   08 Jun 2027 10:12:51.661   08 Jun 2027 10:15:46.642           174.981                 Moscow         21872.625
       332   08 Jun 2027 10:16:07.212   08 Jun 2027 10:16:51.300            44.088                 Moscow          5511.000
       333   08 Jun 2027 10:16:52.444   08 Jun 2027 10:17:40.707            48.263              Murmansk2          6032.875
       334   08 Jun 2027 11:21:33.331   08 Jun 2027 11:24:53.551           200.220               CapeTown         25027.500
       335   08 Jun 2027 11:27:11.449   08 Jun 2027 11:29:11.635           120.186               CapeTown         15023.250
       336   08 Jun 2027 12:02:25.280   08 Jun 2027 12:04:58.524           153.244                Anadyr1         19155.500
       337   08 Jun 2027 13:40:21.508   08 Jun 2027 13:41:44.204            82.696               Magadan1         10337.000
       338   08 Jun 2027 13:41:44.204   08 Jun 2027 13:43:12.930            88.726               Magadan2         11090.750
       339   08 Jun 2027 13:43:56.049   08 Jun 2027 13:46:08.487           132.438               Magadan2         16554.750
       340   08 Jun 2027 16:56:28.646   08 Jun 2027 17:02:21.052           352.406                Irkutsk         44050.750
       341   08 Jun 2027 17:13:46.581   08 Jun 2027 17:15:20.709            94.128                Sumatra         11766.000
       342   08 Jun 2027 18:31:25.010   08 Jun 2027 18:36:09.239           284.229                Novosib         35528.625
       343   08 Jun 2027 18:39:18.155   08 Jun 2027 18:39:23.192             5.037                Novosib           629.625
       344   08 Jun 2027 20:07:37.832   08 Jun 2027 20:07:58.763            20.931              Murmansk1          2616.375
       345   08 Jun 2027 21:40:37.396   08 Jun 2027 21:44:55.896           258.500              Murmansk1         32312.500
       346   08 Jun 2027 21:45:42.663   08 Jun 2027 21:46:23.480            40.817                 Moscow          5102.125
       347   08 Jun 2027 21:47:39.265   08 Jun 2027 21:48:18.959            39.694              Murmansk1          4961.750
       348   08 Jun 2027 21:50:02.911   08 Jun 2027 21:51:15.406            72.495                 Moscow          9061.875
       349   08 Jun 2027 22:12:31.875   08 Jun 2027 22:13:48.006            76.131               CapeTown          9516.375
       350   08 Jun 2027 22:15:03.793   08 Jun 2027 22:16:59.693           115.900               CapeTown         14487.500
       351   09 Jun 2027 04:00:10.062   09 Jun 2027 04:01:15.681            65.619                Anadyr2          8202.375
       352   09 Jun 2027 04:01:36.082   09 Jun 2027 04:03:11.885            95.803                Anadyr1         11975.375
       353   09 Jun 2027 04:03:43.795   09 Jun 2027 04:03:54.294            10.499               Magadan2          1312.375
       354   09 Jun 2027 04:03:59.839   09 Jun 2027 04:04:00.622             0.783                Anadyr1            97.875
       355   09 Jun 2027 04:04:03.599   09 Jun 2027 04:04:30.195            26.596               Magadan2          3324.500
       356   09 Jun 2027 05:18:20.688   09 Jun 2027 05:19:33.992            73.304                Sumatra          9163.000
       357   09 Jun 2027 05:35:30.692   09 Jun 2027 05:35:52.513            21.821               Magadan1          2727.625
       358   09 Jun 2027 05:36:13.584   09 Jun 2027 05:38:22.011           128.427                Irkutsk         16053.375
       359   09 Jun 2027 05:38:46.501   09 Jun 2027 05:38:55.484             8.983               Magadan2          1122.875
       360   09 Jun 2027 05:39:14.226   09 Jun 2027 05:39:43.172            28.946                Norilsk          3618.250
       361   09 Jun 2027 05:39:46.382   09 Jun 2027 05:40:07.850            21.468              Murmansk1          2683.500
       362   09 Jun 2027 05:40:17.929   09 Jun 2027 05:41:11.339            53.410              Murmansk1          6676.250
       363   09 Jun 2027 05:41:26.591   09 Jun 2027 05:41:41.529            14.938                Novosib          1867.250
       364   09 Jun 2027 05:42:58.395   09 Jun 2027 05:43:21.466            23.071                Norilsk          2883.875
       365   09 Jun 2027 06:15:17.391   09 Jun 2027 06:15:45.937            28.546            RioGallegos          3568.250
       366   09 Jun 2027 06:49:56.484   09 Jun 2027 06:50:18.583            22.099                Sumatra          2762.375
       367   09 Jun 2027 06:52:22.097   09 Jun 2027 06:52:28.632             6.535                Sumatra           816.875
       368   09 Jun 2027 06:59:01.730   09 Jun 2027 06:59:33.859            32.129                Sumatra          4016.125
       369   09 Jun 2027 07:00:16.499   09 Jun 2027 07:00:33.547            17.048                  Delhi          2131.000
       370   09 Jun 2027 07:05:16.621   09 Jun 2027 07:05:46.114            29.493                  Delhi          3686.625
       371   09 Jun 2027 07:12:03.373   09 Jun 2027 07:12:49.176            45.803                Novosib          5725.375
       372   09 Jun 2027 07:12:55.335   09 Jun 2027 07:13:46.925            51.590                 Moscow          6448.750
       373   09 Jun 2027 07:14:09.051   09 Jun 2027 07:14:21.726            12.675                 Moscow          1584.375
       374   09 Jun 2027 07:14:23.169   09 Jun 2027 07:14:31.256             8.087              Murmansk1          1010.875
       375   09 Jun 2027 07:14:31.256   09 Jun 2027 07:14:41.853            10.597              Murmansk2          1324.625
       376   09 Jun 2027 07:14:49.792   09 Jun 2027 07:15:54.161            64.369                Norilsk          8046.125
       377   09 Jun 2027 07:16:07.677   09 Jun 2027 07:17:20.115            72.438                 Moscow          9054.750
       378   09 Jun 2027 08:34:16.638   09 Jun 2027 08:35:41.663            85.025                  Delhi         10628.125
       379   09 Jun 2027 08:48:35.164   09 Jun 2027 08:49:52.700            77.536                Norilsk          9692.000
       380   09 Jun 2027 08:50:20.738   09 Jun 2027 08:51:49.564            88.826                 Moscow         11103.250
       381   09 Jun 2027 08:52:08.243   09 Jun 2027 08:52:22.490            14.247              Murmansk1          1780.875
       382   09 Jun 2027 08:52:33.271   09 Jun 2027 08:52:59.840            26.569                 Moscow          3321.125
       383   09 Jun 2027 10:21:59.614   09 Jun 2027 10:22:32.627            33.013              Murmansk2          4126.625
       384   09 Jun 2027 10:22:35.436   09 Jun 2027 10:22:41.465             6.029                 Moscow           753.625
       385   09 Jun 2027 10:23:04.823   09 Jun 2027 10:24:40.241            95.418              Murmansk1         11927.250
       386   09 Jun 2027 10:24:52.993   09 Jun 2027 10:26:02.759            69.766              Murmansk2          8720.750
       387   09 Jun 2027 10:26:14.579   09 Jun 2027 10:26:47.683            33.104              Murmansk2          4138.000
       388   09 Jun 2027 10:27:00.048   09 Jun 2027 10:27:52.368            52.320                 Moscow          6540.000
       389   09 Jun 2027 10:28:07.874   09 Jun 2027 10:28:36.251            28.377              Murmansk2          3547.125
       390   09 Jun 2027 11:33:05.909   09 Jun 2027 11:33:32.703            26.794               CapeTown          3349.250
       391   09 Jun 2027 11:34:50.911   09 Jun 2027 11:39:32.183           281.272               CapeTown         35159.000
       392   09 Jun 2027 12:13:03.678   09 Jun 2027 12:15:35.858           152.180                Anadyr1         19022.500
       393   09 Jun 2027 12:16:00.005   09 Jun 2027 12:16:59.469            59.464                Anadyr1          7433.000
       394   09 Jun 2027 13:52:00.125   09 Jun 2027 13:55:12.724           192.599               Magadan1         24074.875
       395   09 Jun 2027 13:56:30.708   09 Jun 2027 13:58:19.072           108.364               Magadan2         13545.500
       396   09 Jun 2027 16:22:13.214   09 Jun 2027 16:23:57.604           104.390            RioGallegos         13048.750
       397   09 Jun 2027 17:07:52.180   09 Jun 2027 17:12:14.442           262.262                Irkutsk         32782.750
       398   09 Jun 2027 17:13:48.538   09 Jun 2027 17:15:26.333            97.795                Irkutsk         12224.375
       399   09 Jun 2027 17:23:30.922   09 Jun 2027 17:25:20.897           109.975                Sumatra         13746.875
       400   09 Jun 2027 17:29:12.018   09 Jun 2027 17:29:49.637            37.619                Sumatra          4702.375
       401   09 Jun 2027 18:44:35.248   09 Jun 2027 18:46:26.729           111.481                Novosib         13935.125
       402   09 Jun 2027 18:48:37.585   09 Jun 2027 18:49:45.252            67.667                Novosib          8458.375
       403   09 Jun 2027 20:19:01.065   09 Jun 2027 20:20:39.948            98.883              Murmansk2         12360.375
       404   09 Jun 2027 21:53:24.563   09 Jun 2027 21:54:32.360            67.797              Murmansk2          8474.625
       405   09 Jun 2027 21:56:26.423   09 Jun 2027 21:58:14.434           108.011                 Moscow         13501.375
       406   09 Jun 2027 21:59:14.188   09 Jun 2027 22:02:27.514           193.326                 Moscow         24165.750
       407   09 Jun 2027 22:26:38.246   09 Jun 2027 22:27:02.539            24.293               CapeTown          3036.625
       408   10 Jun 2027 04:12:45.304   10 Jun 2027 04:13:14.954            29.650               Magadan2          3706.250
       409   10 Jun 2027 04:13:23.287   10 Jun 2027 04:14:03.676            40.389               Magadan1          5048.625
       410   10 Jun 2027 04:14:18.367   10 Jun 2027 04:14:34.544            16.177               Magadan1          2022.125
       411   10 Jun 2027 04:14:46.663   10 Jun 2027 04:14:51.136             4.473               Magadan1           559.125
       412   10 Jun 2027 04:14:55.225   10 Jun 2027 04:15:42.148            46.923               Magadan1          5865.375
       413   10 Jun 2027 04:15:58.711   10 Jun 2027 04:16:00.919             2.208                Irkutsk           276.000
       414   10 Jun 2027 04:16:08.099   10 Jun 2027 04:16:27.499            19.400               Magadan2          2425.000
       415   10 Jun 2027 04:51:32.919   10 Jun 2027 04:52:59.487            86.568            RioGallegos         10821.000
       416   10 Jun 2027 05:28:53.712   10 Jun 2027 05:30:48.977           115.265                Sumatra         14408.125
       417   10 Jun 2027 05:47:56.586   10 Jun 2027 05:48:54.847            58.261                Irkutsk          7282.625
       418   10 Jun 2027 05:49:00.611   10 Jun 2027 05:49:28.100            27.489               Magadan2          3436.125
       419   10 Jun 2027 05:49:31.290   10 Jun 2027 05:49:45.389            14.099                Irkutsk          1762.375
       420   10 Jun 2027 05:49:54.691   10 Jun 2027 05:50:16.427            21.736               Magadan2          2717.000
       421   10 Jun 2027 05:50:18.269   10 Jun 2027 05:51:06.567            48.298                Novosib          6037.250
       422   10 Jun 2027 05:51:10.756   10 Jun 2027 05:52:27.382            76.626                Irkutsk          9578.250
       423   10 Jun 2027 07:12:41.642   10 Jun 2027 07:12:58.609            16.967                  Delhi          2120.875
       424   10 Jun 2027 07:22:29.731   10 Jun 2027 07:22:31.565             1.834                  Delhi           229.250
       425   10 Jun 2027 07:24:30.867   10 Jun 2027 07:24:51.952            21.085                Norilsk          2635.625
       426   10 Jun 2027 07:25:01.691   10 Jun 2027 07:25:55.678            53.987                 Moscow          6748.375
       427   10 Jun 2027 07:26:00.996   10 Jun 2027 07:26:35.075            34.079                Norilsk          4259.875
       428   10 Jun 2027 07:26:55.710   10 Jun 2027 07:28:33.407            97.697                Novosib         12212.125
       429   10 Jun 2027 08:46:30.661   10 Jun 2027 08:47:24.749            54.088                  Delhi          6761.000
       430   10 Jun 2027 08:59:33.008   10 Jun 2027 08:59:45.440            12.432                Norilsk          1554.000
       431   10 Jun 2027 08:59:47.544   10 Jun 2027 09:00:17.690            30.146                Norilsk          3768.250
       432   10 Jun 2027 09:00:25.275   10 Jun 2027 09:01:00.044            34.769              Murmansk1          4346.125
       433   10 Jun 2027 09:01:07.712   10 Jun 2027 09:02:04.342            56.630                 Moscow          7078.750
       434   10 Jun 2027 09:02:14.105   10 Jun 2027 09:02:24.284            10.179                 Moscow          1272.375
       435   10 Jun 2027 09:02:28.422   10 Jun 2027 09:02:43.162            14.740                 Moscow          1842.500
       436   10 Jun 2027 09:02:51.310   10 Jun 2027 09:03:10.492            19.182              Murmansk1          2397.750
       437   10 Jun 2027 09:03:21.760   10 Jun 2027 09:03:36.304            14.544                Norilsk          1818.000
       438   10 Jun 2027 09:03:38.816   10 Jun 2027 09:04:30.212            51.396                Novosib          6424.500
       439   10 Jun 2027 10:34:26.389   10 Jun 2027 10:35:33.245            66.856              Murmansk1          8357.000
       440   10 Jun 2027 10:35:48.819   10 Jun 2027 10:36:40.554            51.735              Murmansk1          6466.875
       441   10 Jun 2027 10:36:58.126   10 Jun 2027 10:37:21.625            23.499              Murmansk1          2937.375
       442   10 Jun 2027 10:37:50.807   10 Jun 2027 10:39:57.535           126.728                 Moscow         15841.000
       443   10 Jun 2027 11:44:45.956   10 Jun 2027 11:45:34.965            49.009               CapeTown          6126.125
       444   10 Jun 2027 11:46:09.675   10 Jun 2027 11:46:48.145            38.470               CapeTown          4808.750
       445   10 Jun 2027 11:49:26.942   10 Jun 2027 11:51:04.470            97.528               CapeTown         12191.000
       446   10 Jun 2027 12:24:59.078   10 Jun 2027 12:27:36.532           157.454                Anadyr1         19681.750
       447   10 Jun 2027 12:28:48.345   10 Jun 2027 12:30:28.028            99.683                Anadyr1         12460.375
       448   10 Jun 2027 12:33:52.055   10 Jun 2027 12:35:09.137            77.082                Anadyr2          9635.250
       449   10 Jun 2027 14:03:45.006   10 Jun 2027 14:09:00.537           315.531               Magadan1         39441.375
       450   10 Jun 2027 16:32:46.845   10 Jun 2027 16:35:40.964           174.119            RioGallegos         21764.875
       451   10 Jun 2027 17:19:27.736   10 Jun 2027 17:23:10.538           222.802                Irkutsk         27850.250
       452   10 Jun 2027 17:24:44.502   10 Jun 2027 17:25:51.679            67.177                Irkutsk          8397.125
       453   10 Jun 2027 17:34:23.851   10 Jun 2027 17:37:00.654           156.803                Sumatra         19600.375
       454   10 Jun 2027 17:38:50.662   10 Jun 2027 17:39:21.123            30.461                Sumatra          3807.625
       455   10 Jun 2027 17:40:35.797   10 Jun 2027 17:41:13.696            37.899                Sumatra          4737.375
       456   10 Jun 2027 18:57:57.954   10 Jun 2027 18:58:54.604            56.650                Novosib          7081.250
       457   10 Jun 2027 19:04:52.980   10 Jun 2027 19:06:52.776           119.796                  Delhi         14974.500
       458   10 Jun 2027 19:07:54.474   10 Jun 2027 19:08:54.800            60.326                  Delhi          7540.750
       459   10 Jun 2027 20:30:32.413   10 Jun 2027 20:31:29.708            57.295              Murmansk2          7161.875
       460   10 Jun 2027 22:06:37.387   10 Jun 2027 22:09:18.283           160.896              Murmansk1         20112.000
       461   10 Jun 2027 22:14:47.879   10 Jun 2027 22:15:16.174            28.295                 Moscow          3536.875
       462   10 Jun 2027 22:34:20.116   10 Jun 2027 22:36:05.233           105.117               CapeTown         13139.625
       463   11 Jun 2027 04:23:18.886   11 Jun 2027 04:24:03.004            44.118                Irkutsk          5514.750
       464   11 Jun 2027 04:24:23.449   11 Jun 2027 04:24:48.204            24.755               Magadan1          3094.375
       465   11 Jun 2027 04:24:54.393   11 Jun 2027 04:25:35.750            41.357                Irkutsk          5169.625
       466   11 Jun 2027 04:26:19.255   11 Jun 2027 04:27:22.854            63.599                Norilsk          7949.875
       467   11 Jun 2027 04:27:41.854   11 Jun 2027 04:28:23.719            41.865               Magadan1          5233.125
       468   11 Jun 2027 04:28:27.113   11 Jun 2027 04:29:08.436            41.323                Novosib          5165.375
       469   11 Jun 2027 05:03:23.055   11 Jun 2027 05:04:39.334            76.279            RioGallegos          9534.875
       470   11 Jun 2027 05:39:59.084   11 Jun 2027 05:41:31.413            92.329                Sumatra         11541.125
       471   11 Jun 2027 06:00:00.659   11 Jun 2027 06:00:35.442            34.783                Irkutsk          4347.875
       472   11 Jun 2027 06:00:54.177   11 Jun 2027 06:01:13.696            19.519                Novosib          2439.875
       473   11 Jun 2027 06:01:35.882   11 Jun 2027 06:02:43.815            67.933                Norilsk          8491.625
       474   11 Jun 2027 06:02:47.142   11 Jun 2027 06:03:41.639            54.497                Irkutsk          6812.125
       475   11 Jun 2027 06:03:59.324   11 Jun 2027 06:04:22.034            22.710                Norilsk          2838.750
       476   11 Jun 2027 06:39:49.277   11 Jun 2027 06:39:58.437             9.160            RioGallegos          1145.000
       477   11 Jun 2027 06:41:05.783   11 Jun 2027 06:42:01.343            55.560            RioGallegos          6945.000
       478   11 Jun 2027 07:23:03.779   11 Jun 2027 07:24:53.980           110.201                  Delhi         13775.125
       479   11 Jun 2027 07:37:00.231   11 Jun 2027 07:38:30.293            90.062                Norilsk         11257.750
       480   11 Jun 2027 07:38:42.684   11 Jun 2027 07:39:29.156            46.472                 Moscow          5809.000
       481   11 Jun 2027 07:39:36.331   11 Jun 2027 07:39:51.470            15.139              Murmansk1          1892.375
       482   11 Jun 2027 07:40:19.685   11 Jun 2027 07:41:09.329            49.644                 Moscow          6205.500
