uniorb/output/strategy_1/Drop/Drop_KinoSat_110907.txt

KinoSat_110907
-------------------------
    Access    *     Start Time (UTCG)     *     Stop Time (UTCG)  *   Duration (s)        *       Station  *  Data (Mbytes)
         1   01 Jun 2027 03:13:02.893   01 Jun 2027 03:13:27.124            24.231                Anadyr2           757.219
         2   01 Jun 2027 03:13:34.003   01 Jun 2027 03:13:49.494            15.491               Magadan1           484.094
         3   01 Jun 2027 03:13:52.608   01 Jun 2027 03:14:19.730            27.122                Anadyr2           847.562
         4   01 Jun 2027 03:14:36.605   01 Jun 2027 03:14:46.626            10.021               Magadan1           313.156
         5   01 Jun 2027 03:14:58.918   01 Jun 2027 03:15:05.988             7.070                Anadyr2           220.937
         6   01 Jun 2027 03:15:40.641   01 Jun 2027 03:17:09.075            88.434                Anadyr1          2763.562
         7   01 Jun 2027 03:18:23.118   01 Jun 2027 03:18:30.523             7.405               Magadan1           231.406
         8   01 Jun 2027 03:18:30.523   01 Jun 2027 03:18:32.992             2.469               Magadan2            77.156
         9   01 Jun 2027 03:18:54.211   01 Jun 2027 03:18:58.277             4.066                Anadyr1           127.063
        10   01 Jun 2027 04:49:32.374   01 Jun 2027 04:50:35.429            63.055                Anadyr1          1970.469
        11   01 Jun 2027 04:50:35.429   01 Jun 2027 04:50:51.728            16.299                Anadyr2           509.344
        12   01 Jun 2027 04:51:02.895   01 Jun 2027 04:51:20.420            17.525                Anadyr1           547.656
        13   01 Jun 2027 04:51:38.627   01 Jun 2027 04:54:30.482           171.855               Magadan2          5370.469
        14   01 Jun 2027 04:54:30.482   01 Jun 2027 04:54:35.835             5.353               Magadan1           167.281
        15   01 Jun 2027 06:23:29.352   01 Jun 2027 06:24:24.561            55.209                Norilsk          1725.281
        16   01 Jun 2027 06:24:27.212   01 Jun 2027 06:24:48.567            21.355                Norilsk           667.344
        17   01 Jun 2027 06:24:48.857   01 Jun 2027 06:26:58.713           129.856                Anadyr2          4058.000
        18   01 Jun 2027 06:27:04.081   01 Jun 2027 06:27:50.718            46.637                Anadyr2          1457.406
        19   01 Jun 2027 06:28:02.916   01 Jun 2027 06:28:37.322            34.406                Novosib          1075.187
        20   01 Jun 2027 06:28:42.304   01 Jun 2027 06:29:45.024            62.720                Norilsk          1960.000
        21   01 Jun 2027 06:29:49.743   01 Jun 2027 06:29:55.202             5.459                Norilsk           170.594
        22   01 Jun 2027 06:30:08.554   01 Jun 2027 06:30:16.562             8.008               Magadan1           250.250
        23   01 Jun 2027 06:30:19.697   01 Jun 2027 06:34:41.643           261.946              Murmansk2          8185.813
        24   01 Jun 2027 07:05:19.003   01 Jun 2027 07:08:32.023           193.020            RioGallegos          6031.875
        25   01 Jun 2027 07:42:20.615   01 Jun 2027 07:42:57.128            36.513                Sumatra          1141.031
        26   01 Jun 2027 08:00:50.923   01 Jun 2027 08:02:33.635           102.712               Magadan2          3209.750
        27   01 Jun 2027 08:02:33.635   01 Jun 2027 08:02:35.732             2.097               Magadan1            65.531
        28   01 Jun 2027 08:02:45.864   01 Jun 2027 08:03:43.773            57.909               Magadan2          1809.656
        29   01 Jun 2027 08:04:00.126   01 Jun 2027 08:04:43.996            43.870              Murmansk1          1370.938
        30   01 Jun 2027 08:04:45.035   01 Jun 2027 08:05:28.973            43.938              Murmansk2          1373.063
        31   01 Jun 2027 08:05:32.192   01 Jun 2027 08:06:18.198            46.006                Irkutsk          1437.687
        32   01 Jun 2027 08:07:28.922   01 Jun 2027 08:07:38.555             9.633                Novosib           301.031
        33   01 Jun 2027 08:10:10.762   01 Jun 2027 08:10:22.465            11.703              Murmansk2           365.719
        34   01 Jun 2027 08:41:27.661   01 Jun 2027 08:42:35.534            67.873            RioGallegos          2121.031
        35   01 Jun 2027 09:15:53.839   01 Jun 2027 09:17:05.128            71.289                Sumatra          2227.781
        36   01 Jun 2027 09:20:16.122   01 Jun 2027 09:20:48.714            32.592                Sumatra          1018.500
        37   01 Jun 2027 09:25:09.132   01 Jun 2027 09:26:39.354            90.222                  Delhi          2819.437
        38   01 Jun 2027 09:38:03.363   01 Jun 2027 09:39:09.905            66.542                Irkutsk          2079.437
        39   01 Jun 2027 09:39:14.596   01 Jun 2027 09:39:46.739            32.143                Novosib          1004.469
        40   01 Jun 2027 09:40:02.184   01 Jun 2027 09:40:07.054             4.870                Novosib           152.187
        41   01 Jun 2027 09:40:14.634   01 Jun 2027 09:42:46.252           151.618                 Moscow          4738.062
        42   01 Jun 2027 09:43:10.631   01 Jun 2027 09:44:02.065            51.434              Murmansk2          1607.312
        43   01 Jun 2027 09:44:24.328   01 Jun 2027 09:44:44.157            19.829              Murmansk2           619.656
        44   01 Jun 2027 09:45:28.258   01 Jun 2027 09:46:18.538            50.280              Murmansk2          1571.250
        45   01 Jun 2027 11:00:27.789   01 Jun 2027 11:03:21.181           173.392                  Delhi          5418.500
        46   01 Jun 2027 11:15:16.356   01 Jun 2027 11:17:19.720           123.364              Murmansk2          3855.125
        47   01 Jun 2027 11:17:27.892   01 Jun 2027 11:19:19.824           111.932              Murmansk2          3497.875
        48   01 Jun 2027 11:19:19.824   01 Jun 2027 11:19:46.859            27.035              Murmansk1           844.844
        49   01 Jun 2027 12:44:25.213   01 Jun 2027 12:46:24.222           119.009                 Moscow          3719.031
        50   01 Jun 2027 12:47:55.762   01 Jun 2027 12:49:52.839           117.077              Murmansk2          3658.656
        51   01 Jun 2027 12:49:52.839   01 Jun 2027 12:51:02.461            69.622              Murmansk1          2175.687
        52   01 Jun 2027 12:51:21.380   01 Jun 2027 12:51:27.964             6.584              Murmansk1           205.750
        53   01 Jun 2027 12:52:15.366   01 Jun 2027 12:52:27.583            12.217              Murmansk1           381.781
        54   01 Jun 2027 12:52:53.678   01 Jun 2027 12:53:23.049            29.371              Murmansk2           917.844
        55   01 Jun 2027 12:55:16.557   01 Jun 2027 12:55:51.318            34.761                Norilsk          1086.281
        56   01 Jun 2027 13:58:29.883   01 Jun 2027 14:02:57.263           267.380               CapeTown          8355.625
        57   01 Jun 2027 14:25:22.766   01 Jun 2027 14:25:58.555            35.789              Murmansk1          1118.406
        58   01 Jun 2027 14:26:10.426   01 Jun 2027 14:27:01.453            51.027              Murmansk2          1594.594
        59   01 Jun 2027 14:28:51.414   01 Jun 2027 14:29:08.551            17.137              Murmansk1           535.531
        60   01 Jun 2027 14:29:27.297   01 Jun 2027 14:29:33.418             6.121              Murmansk1           191.281
        61   01 Jun 2027 14:29:47.648   01 Jun 2027 14:30:26.102            38.454              Murmansk1          1201.688
        62   01 Jun 2027 14:38:47.533   01 Jun 2027 14:41:29.954           162.421                Anadyr2          5075.656
        63   01 Jun 2027 15:34:04.782   01 Jun 2027 15:35:34.486            89.704               CapeTown          2803.250
        64   01 Jun 2027 16:05:17.862   01 Jun 2027 16:06:19.291            61.429              Murmansk2          1919.656
        65   01 Jun 2027 16:06:19.291   01 Jun 2027 16:06:45.784            26.493              Murmansk1           827.906
        66   01 Jun 2027 16:07:35.485   01 Jun 2027 16:08:32.681            57.196              Murmansk1          1787.375
        67   01 Jun 2027 16:14:27.629   01 Jun 2027 16:14:55.876            28.247                Anadyr1           882.719
        68   01 Jun 2027 16:16:07.843   01 Jun 2027 16:17:25.178            77.335                Anadyr1          2416.719
        69   01 Jun 2027 16:17:30.152   01 Jun 2027 16:19:43.777           133.625               Magadan2          4175.781
        70   01 Jun 2027 16:20:35.131   01 Jun 2027 16:21:55.551            80.420               Magadan1          2513.125
        71   01 Jun 2027 16:22:14.850   01 Jun 2027 16:22:18.033             3.183               Magadan2            99.469
        72   01 Jun 2027 16:23:22.993   01 Jun 2027 16:23:44.185            21.192               Magadan1           662.250
        73   01 Jun 2027 17:50:22.968   01 Jun 2027 17:53:51.044           208.076                Anadyr1          6502.375
        74   01 Jun 2027 17:54:17.916   01 Jun 2027 17:55:39.231            81.315               Magadan2          2541.094
        75   01 Jun 2027 17:55:39.231   01 Jun 2027 17:56:17.786            38.555               Magadan1          1204.844
        76   01 Jun 2027 18:03:30.001   01 Jun 2027 18:04:09.307            39.306               Magadan2          1228.312
        77   01 Jun 2027 18:46:18.582   01 Jun 2027 18:49:08.686           170.104            RioGallegos          5315.750
        78   01 Jun 2027 18:52:37.180   01 Jun 2027 18:52:40.599             3.419            RioGallegos           106.844
        79   01 Jun 2027 19:26:10.759   01 Jun 2027 19:27:59.881           109.122                Anadyr1          3410.062
        80   01 Jun 2027 19:28:21.446   01 Jun 2027 19:32:19.296           237.850                Norilsk          7432.812
        81   01 Jun 2027 19:33:10.185   01 Jun 2027 19:34:23.491            73.306                Irkutsk          2290.813
        82   01 Jun 2027 19:34:59.278   01 Jun 2027 19:36:36.603            97.325                Irkutsk          3041.406
        83   01 Jun 2027 19:38:16.504   01 Jun 2027 19:39:24.905            68.401                Irkutsk          2137.531
        84   01 Jun 2027 19:47:54.749   01 Jun 2027 19:50:29.159           154.410                Sumatra          4825.313
        85   01 Jun 2027 19:52:40.642   01 Jun 2027 19:54:09.558            88.916                Sumatra          2778.625
        86   01 Jun 2027 21:08:01.639   01 Jun 2027 21:09:37.125            95.486                Irkutsk          2983.938
        87   01 Jun 2027 21:10:23.356   01 Jun 2027 21:10:38.815            15.459                Novosib           483.094
        88   01 Jun 2027 21:18:13.274   01 Jun 2027 21:20:22.397           129.123                  Delhi          4035.094
        89   01 Jun 2027 21:27:05.641   01 Jun 2027 21:27:25.367            19.726                Sumatra           616.438
        90   01 Jun 2027 22:40:39.282   01 Jun 2027 22:41:02.535            23.253               Magadan2           726.656
        91   01 Jun 2027 22:41:02.535   01 Jun 2027 22:41:40.955            38.420               Magadan1          1200.625
        92   01 Jun 2027 22:41:48.451   01 Jun 2027 22:42:00.643            12.192               Magadan1           381.000
        93   01 Jun 2027 22:42:22.710   01 Jun 2027 22:42:24.775             2.065               Magadan2            64.531
        94   01 Jun 2027 22:43:00.319   01 Jun 2027 22:46:41.040           220.721              Murmansk1          6897.531
        95   01 Jun 2027 22:47:27.236   01 Jun 2027 22:48:43.475            76.239              Murmansk2          2382.469
        96   01 Jun 2027 22:55:06.054   01 Jun 2027 22:56:29.436            83.382                  Delhi          2605.688
        97   02 Jun 2027 00:08:45.400   02 Jun 2027 00:08:56.019            10.619                Anadyr2           331.844
        98   02 Jun 2027 00:13:40.449   02 Jun 2027 00:14:26.657            46.208                Anadyr1          1444.000
        99   02 Jun 2027 00:15:30.920   02 Jun 2027 00:16:48.990            78.070               Magadan1          2439.688
       100   02 Jun 2027 00:17:19.189   02 Jun 2027 00:17:44.902            25.713               Magadan1           803.531
       101   02 Jun 2027 00:18:18.148   02 Jun 2027 00:22:41.847           263.699              Murmansk1          8240.594
       102   02 Jun 2027 00:22:54.674   02 Jun 2027 00:23:57.240            62.566                 Moscow          1955.188
       103   02 Jun 2027 00:47:52.895   02 Jun 2027 00:49:35.200           102.305               CapeTown          3197.031
       104   02 Jun 2027 00:49:56.364   02 Jun 2027 00:50:22.471            26.107               CapeTown           815.844
       105   02 Jun 2027 00:53:28.442   02 Jun 2027 00:53:46.513            18.071               CapeTown           564.719
       106   02 Jun 2027 01:46:21.812   02 Jun 2027 01:48:01.008            99.196               Magadan2          3099.875
       107   02 Jun 2027 01:54:13.739   02 Jun 2027 01:56:16.972           123.233              Murmansk1          3851.031
       108   02 Jun 2027 01:56:24.927   02 Jun 2027 01:57:18.724            53.797              Murmansk1          1681.156
       109   02 Jun 2027 01:57:26.466   02 Jun 2027 01:58:32.454            65.988                 Moscow          2062.125
       110   02 Jun 2027 02:21:20.273   02 Jun 2027 02:21:28.335             8.062               CapeTown           251.937
       111   02 Jun 2027 02:22:19.892   02 Jun 2027 02:23:39.891            79.999               CapeTown          2499.969
       112   02 Jun 2027 03:24:00.478   02 Jun 2027 03:26:08.077           127.599               Magadan1          3987.469
       113   02 Jun 2027 03:26:15.942   02 Jun 2027 03:26:32.537            16.595               Magadan1           518.594
       114   02 Jun 2027 03:26:32.537   02 Jun 2027 03:28:17.048           104.511               Magadan2          3265.969
       115   02 Jun 2027 03:28:21.565   02 Jun 2027 03:28:30.062             8.497                Anadyr1           265.531
       116   02 Jun 2027 03:29:23.227   02 Jun 2027 03:30:54.771            91.544                Anadyr1          2860.750
       117   02 Jun 2027 05:02:41.010   02 Jun 2027 05:02:45.216             4.206               Magadan1           131.438
       118   02 Jun 2027 05:02:51.565   02 Jun 2027 05:04:46.432           114.867                Anadyr2          3589.594
       119   02 Jun 2027 05:04:46.432   02 Jun 2027 05:04:50.970             4.538                Anadyr1           141.813
       120   02 Jun 2027 06:35:37.160   02 Jun 2027 06:37:07.158            89.998                Irkutsk          2812.437
       121   02 Jun 2027 06:37:23.280   02 Jun 2027 06:38:21.929            58.649                Norilsk          1832.781
       122   02 Jun 2027 06:38:23.761   02 Jun 2027 06:38:42.055            18.294                Novosib           571.688
       123   02 Jun 2027 06:38:48.121   02 Jun 2027 06:42:02.068           193.947                Irkutsk          6060.844
       124   02 Jun 2027 06:42:12.257   02 Jun 2027 06:43:15.213            62.956              Murmansk1          1967.375
       125   02 Jun 2027 06:43:35.190   02 Jun 2027 06:43:37.009             1.819              Murmansk2            56.844
       126   02 Jun 2027 06:44:01.782   02 Jun 2027 06:44:32.304            30.522              Murmansk2           953.812
       127   02 Jun 2027 06:45:00.185   02 Jun 2027 06:45:31.411            31.226              Murmansk2           975.812
       128   02 Jun 2027 07:17:10.358   02 Jun 2027 07:18:23.538            73.180            RioGallegos          2286.875
       129   02 Jun 2027 07:18:54.383   02 Jun 2027 07:20:01.629            67.246            RioGallegos          2101.437
       130   02 Jun 2027 07:53:33.013   02 Jun 2027 07:55:10.237            97.224                Sumatra          3038.250
       131   02 Jun 2027 08:13:41.025   02 Jun 2027 08:15:01.519            80.494                Norilsk          2515.437
       132   02 Jun 2027 08:15:15.663   02 Jun 2027 08:16:57.999           102.336                Novosib          3198.000
       133   02 Jun 2027 08:17:08.399   02 Jun 2027 08:18:19.506            71.107                Irkutsk          2222.094
       134   02 Jun 2027 08:18:24.787   02 Jun 2027 08:19:53.462            88.675                Norilsk          2771.094
       135   02 Jun 2027 08:21:05.657   02 Jun 2027 08:21:45.681            40.024              Murmansk1          1250.750
       136   02 Jun 2027 08:23:47.420   02 Jun 2027 08:24:10.028            22.608              Murmansk1           706.500
       137   02 Jun 2027 08:53:47.391   02 Jun 2027 08:54:38.313            50.922            RioGallegos          1591.312
       138   02 Jun 2027 08:55:31.780   02 Jun 2027 08:56:51.023            79.243            RioGallegos          2476.344
       139   02 Jun 2027 09:28:06.249   02 Jun 2027 09:29:43.723            97.474                Sumatra          3046.063
       140   02 Jun 2027 09:36:45.970   02 Jun 2027 09:38:20.132            94.162                  Delhi          2942.562
       141   02 Jun 2027 09:38:56.202   02 Jun 2027 09:39:56.818            60.616                  Delhi          1894.250
       142   02 Jun 2027 09:50:11.499   02 Jun 2027 09:50:42.161            30.662                 Moscow           958.187
       143   02 Jun 2027 09:50:56.592   02 Jun 2027 09:52:50.684           114.092                Novosib          3565.375
       144   02 Jun 2027 09:52:55.013   02 Jun 2027 09:53:03.045             8.032              Murmansk2           251.000
       145   02 Jun 2027 09:53:04.193   02 Jun 2027 09:53:31.493            27.300                Irkutsk           853.125
       146   02 Jun 2027 09:53:40.529   02 Jun 2027 09:53:44.750             4.221              Murmansk1           131.906
       147   02 Jun 2027 09:55:19.842   02 Jun 2027 09:55:49.803            29.961              Murmansk2           936.281
       148   02 Jun 2027 09:55:51.879   02 Jun 2027 09:56:28.876            36.997                 Moscow          1156.156
       149   02 Jun 2027 11:12:51.342   02 Jun 2027 11:14:40.242           108.900                  Delhi          3403.125
       150   02 Jun 2027 11:16:34.471   02 Jun 2027 11:17:51.637            77.166                  Delhi          2411.438
       151   02 Jun 2027 11:26:51.684   02 Jun 2027 11:27:05.145            13.461              Murmansk2           420.656
       152   02 Jun 2027 11:27:18.650   02 Jun 2027 11:30:15.776           177.126              Murmansk2          5535.188
       153   02 Jun 2027 11:30:25.961   02 Jun 2027 11:31:14.136            48.175                Norilsk          1505.469
       154   02 Jun 2027 11:31:21.823   02 Jun 2027 11:33:14.876           113.053                 Moscow          3532.906
       155   02 Jun 2027 12:56:30.583   02 Jun 2027 12:58:16.959           106.376                 Moscow          3324.250
       156   02 Jun 2027 13:00:02.132   02 Jun 2027 13:01:33.966            91.834              Murmansk1          2869.813
       157   02 Jun 2027 13:01:49.633   02 Jun 2027 13:04:30.582           160.949              Murmansk2          5029.656
       158   02 Jun 2027 13:05:59.796   02 Jun 2027 13:06:53.674            53.878                Norilsk          1683.687
       159   02 Jun 2027 13:16:49.565   02 Jun 2027 13:19:33.414           163.849                Anadyr1          5120.281
       160   02 Jun 2027 14:11:02.930   02 Jun 2027 14:11:45.141            42.211               CapeTown          1319.094
       161   02 Jun 2027 14:13:20.762   02 Jun 2027 14:13:53.404            32.642               CapeTown          1020.063
       162   02 Jun 2027 14:37:44.677   02 Jun 2027 14:39:10.945            86.268              Murmansk1          2695.875
       163   02 Jun 2027 14:39:28.035   02 Jun 2027 14:40:24.079            56.044              Murmansk1          1751.375
       164   02 Jun 2027 14:50:44.714   02 Jun 2027 14:53:30.953           166.239                Anadyr2          5194.969
       165   02 Jun 2027 14:54:40.525   02 Jun 2027 14:54:56.977            16.452                Anadyr2           514.125
       166   02 Jun 2027 14:56:21.531   02 Jun 2027 14:56:43.905            22.374                Anadyr2           699.188
       167   02 Jun 2027 15:46:40.746   02 Jun 2027 15:47:02.533            21.787               CapeTown           680.844
       168   02 Jun 2027 16:18:05.572   02 Jun 2027 16:20:29.750           144.178              Murmansk2          4505.562
       169   02 Jun 2027 16:26:28.670   02 Jun 2027 16:28:13.602           104.932                Anadyr1          3279.125
       170   02 Jun 2027 16:28:25.626   02 Jun 2027 16:29:26.281            60.655                Anadyr2          1895.469
       171   02 Jun 2027 16:29:41.003   02 Jun 2027 16:30:25.565            44.562                Anadyr2          1392.562
       172   02 Jun 2027 16:31:00.357   02 Jun 2027 16:33:32.659           152.302               Magadan1          4759.437
       173   02 Jun 2027 18:02:24.147   02 Jun 2027 18:06:24.195           240.048                Anadyr2          7501.500
       174   02 Jun 2027 18:06:29.617   02 Jun 2027 18:09:00.597           150.980               Magadan1          4718.125
       175   02 Jun 2027 18:57:44.779   02 Jun 2027 19:00:55.382           190.603            RioGallegos          5956.344
       176   02 Jun 2027 19:04:39.752   02 Jun 2027 19:04:46.490             6.738            RioGallegos           210.562
       177   02 Jun 2027 19:38:09.429   02 Jun 2027 19:40:16.451           127.022                Anadyr1          3969.438
       178   02 Jun 2027 19:40:19.411   02 Jun 2027 19:41:00.864            41.453                Norilsk          1295.406
       179   02 Jun 2027 19:42:24.697   02 Jun 2027 19:44:19.422           114.725                Norilsk          3585.156
       180   02 Jun 2027 19:44:54.541   02 Jun 2027 19:46:34.393            99.852                Irkutsk          3120.375
       181   02 Jun 2027 19:47:03.923   02 Jun 2027 19:48:29.636            85.713                Irkutsk          2678.531
       182   02 Jun 2027 19:59:14.563   02 Jun 2027 19:59:44.694            30.131                Sumatra           941.594
       183   02 Jun 2027 20:02:14.201   02 Jun 2027 20:04:57.389           163.188                Sumatra          5099.625
       184   02 Jun 2027 20:06:03.125   02 Jun 2027 20:06:23.255            20.130                Sumatra           629.062
       185   02 Jun 2027 21:19:22.532   02 Jun 2027 21:19:38.059            15.527               Magadan1           485.219
       186   02 Jun 2027 21:19:38.059   02 Jun 2027 21:20:05.050            26.991               Magadan2           843.469
       187   02 Jun 2027 21:20:29.762   02 Jun 2027 21:23:30.278           180.516                Novosib          5641.125
       188   02 Jun 2027 21:29:19.157   02 Jun 2027 21:32:02.538           163.381                  Delhi          5105.656
       189   02 Jun 2027 21:35:40.379   02 Jun 2027 21:37:06.559            86.180                  Delhi          2693.125
       190   02 Jun 2027 22:52:37.175   02 Jun 2027 22:53:12.239            35.064               Magadan1          1095.750
       191   02 Jun 2027 22:54:50.245   02 Jun 2027 23:01:21.217           390.972              Murmansk2         12217.875
       192   03 Jun 2027 00:20:27.921   03 Jun 2027 00:20:37.810             9.889                Anadyr2           309.031
       193   03 Jun 2027 00:21:21.031   03 Jun 2027 00:21:32.275            11.244                Anadyr2           351.375
       194   03 Jun 2027 00:23:00.721   03 Jun 2027 00:23:08.627             7.906                Anadyr2           247.063
       195   03 Jun 2027 00:23:22.880   03 Jun 2027 00:23:35.577            12.697                Anadyr2           396.781
       196   03 Jun 2027 00:25:32.191   03 Jun 2027 00:25:37.936             5.745                Anadyr2           179.531
       197   03 Jun 2027 00:25:42.961   03 Jun 2027 00:26:09.396            26.435                Anadyr2           826.094
       198   03 Jun 2027 00:26:14.582   03 Jun 2027 00:27:14.648            60.066               Magadan2          1877.063
       199   03 Jun 2027 00:27:23.567   03 Jun 2027 00:27:47.613            24.046               Magadan2           751.438
       200   03 Jun 2027 00:28:09.351   03 Jun 2027 00:28:16.737             7.386               Magadan2           230.812
       201   03 Jun 2027 00:28:26.711   03 Jun 2027 00:28:35.860             9.149               Magadan2           285.906
       202   03 Jun 2027 00:29:15.315   03 Jun 2027 00:29:41.175            25.860               Magadan1           808.125
       203   03 Jun 2027 00:30:18.747   03 Jun 2027 00:32:07.422           108.675              Murmansk2          3396.094
       204   03 Jun 2027 00:32:19.523   03 Jun 2027 00:33:17.807            58.284              Murmansk1          1821.375
       205   03 Jun 2027 00:33:54.953   03 Jun 2027 00:34:53.092            58.139                 Moscow          1816.844
       206   03 Jun 2027 00:36:25.121   03 Jun 2027 00:36:30.079             4.958                 Moscow           154.937
       207   03 Jun 2027 00:38:07.245   03 Jun 2027 00:39:48.007           100.762                 Moscow          3148.812
       208   03 Jun 2027 00:59:13.416   03 Jun 2027 01:00:30.178            76.762               CapeTown          2398.813
       209   03 Jun 2027 01:04:27.820   03 Jun 2027 01:05:42.095            74.275               CapeTown          2321.094
       210   03 Jun 2027 01:56:39.059   03 Jun 2027 01:57:15.422            36.363                Anadyr1          1136.344
       211   03 Jun 2027 01:57:52.972   03 Jun 2027 01:58:37.589            44.617               Magadan1          1394.281
       212   03 Jun 2027 01:58:37.589   03 Jun 2027 01:59:05.796            28.207               Magadan2           881.469
       213   03 Jun 2027 01:59:29.873   03 Jun 2027 02:00:04.268            34.395               Magadan1          1074.844
       214   03 Jun 2027 02:05:31.058   03 Jun 2027 02:05:37.143             6.085                Norilsk           190.156
       215   03 Jun 2027 02:05:45.777   03 Jun 2027 02:06:27.731            41.954               Magadan2          1311.062
       216   03 Jun 2027 02:06:53.506   03 Jun 2027 02:08:17.214            83.708              Murmansk2          2615.875
       217   03 Jun 2027 02:09:03.346   03 Jun 2027 02:09:18.778            15.432                Novosib           482.250
       218   03 Jun 2027 02:10:15.983   03 Jun 2027 02:10:42.560            26.577                 Moscow           830.531
       219   03 Jun 2027 02:13:12.383   03 Jun 2027 02:13:32.259            19.876                Novosib           621.125
       220   03 Jun 2027 02:16:51.615   03 Jun 2027 02:17:06.196            14.581                 Moscow           455.656
       221   03 Jun 2027 02:17:47.402   03 Jun 2027 02:18:20.902            33.500                 Moscow          1046.875
       222   03 Jun 2027 02:20:48.375   03 Jun 2027 02:22:19.129            90.754                 Moscow          2836.063
       223   03 Jun 2027 02:43:49.574   03 Jun 2027 02:44:33.397            43.823               CapeTown          1369.469
       224   03 Jun 2027 03:36:04.940   03 Jun 2027 03:37:46.316           101.376               Magadan1          3168.000
       225   03 Jun 2027 03:38:05.188   03 Jun 2027 03:39:28.892            83.704               Magadan2          2615.750
       226   03 Jun 2027 03:40:08.112   03 Jun 2027 03:40:55.217            47.105               Magadan2          1472.031
       227   03 Jun 2027 03:41:25.697   03 Jun 2027 03:41:58.715            33.018               Magadan1          1031.813
       228   03 Jun 2027 05:14:39.142   03 Jun 2027 05:16:34.488           115.346               Magadan1          3604.563
       229   03 Jun 2027 05:16:47.413   03 Jun 2027 05:17:11.052            23.639                Anadyr1           738.719
       230   03 Jun 2027 05:17:44.955   03 Jun 2027 05:18:13.220            28.265                Anadyr1           883.281
       231   03 Jun 2027 06:49:23.043   03 Jun 2027 06:49:37.164            14.121                Norilsk           441.281
       232   03 Jun 2027 06:49:51.556   03 Jun 2027 06:54:09.015           257.459                Irkutsk          8045.594
       233   03 Jun 2027 06:54:14.339   03 Jun 2027 06:55:13.371            59.032              Murmansk2          1844.750
       234   03 Jun 2027 06:57:35.439   03 Jun 2027 06:58:29.722            54.283              Murmansk2          1696.344
       235   03 Jun 2027 06:58:43.767   03 Jun 2027 06:58:58.355            14.588                Norilsk           455.875
       236   03 Jun 2027 07:29:04.890   03 Jun 2027 07:29:38.237            33.347            RioGallegos          1042.094
       237   03 Jun 2027 07:30:49.347   03 Jun 2027 07:31:41.851            52.504            RioGallegos          1640.750
       238   03 Jun 2027 07:32:17.851   03 Jun 2027 07:33:08.033            50.182            RioGallegos          1568.187
       239   03 Jun 2027 08:04:58.861   03 Jun 2027 08:05:44.283            45.422                Sumatra          1419.438
       240   03 Jun 2027 08:25:59.183   03 Jun 2027 08:26:20.745            21.562                Novosib           673.813
       241   03 Jun 2027 08:26:52.411   03 Jun 2027 08:31:18.950           266.539                Norilsk          8329.344
       242   03 Jun 2027 08:31:25.153   03 Jun 2027 08:33:33.789           128.636              Murmansk1          4019.875
       243   03 Jun 2027 09:06:11.890   03 Jun 2027 09:06:44.532            32.642            RioGallegos          1020.062
       244   03 Jun 2027 09:07:49.191   03 Jun 2027 09:08:43.809            54.618            RioGallegos          1706.812
       245   03 Jun 2027 09:40:25.587   03 Jun 2027 09:41:36.224            70.637                Sumatra          2207.406
       246   03 Jun 2027 09:44:46.287   03 Jun 2027 09:44:52.797             6.510                Sumatra           203.438
       247   03 Jun 2027 09:49:48.134   03 Jun 2027 09:51:08.531            80.397                  Delhi          2512.406
       248   03 Jun 2027 10:02:45.384   03 Jun 2027 10:03:07.820            22.436                Novosib           701.125
       249   03 Jun 2027 10:03:12.983   03 Jun 2027 10:04:24.101            71.118              Murmansk2          2222.438
       250   03 Jun 2027 10:04:26.175   03 Jun 2027 10:05:35.066            68.891                 Moscow          2152.844
       251   03 Jun 2027 10:05:39.783   03 Jun 2027 10:07:18.422            98.639              Murmansk2          3082.469
       252   03 Jun 2027 11:25:23.472   03 Jun 2027 11:28:14.097           170.625                  Delhi          5332.031
       253   03 Jun 2027 11:37:59.358   03 Jun 2027 11:38:02.275             2.917              Murmansk2            91.156
       254   03 Jun 2027 11:38:17.765   03 Jun 2027 11:39:12.893            55.128                Novosib          1722.750
       255   03 Jun 2027 11:39:13.391   03 Jun 2027 11:39:19.385             5.994              Murmansk2           187.312
       256   03 Jun 2027 11:39:20.925   03 Jun 2027 11:39:42.982            22.057                Norilsk           689.281
       257   03 Jun 2027 11:39:53.392   03 Jun 2027 11:40:20.553            27.161                Novosib           848.781
       258   03 Jun 2027 11:40:20.622   03 Jun 2027 11:40:27.260             6.638              Murmansk2           207.438
       259   03 Jun 2027 11:40:47.598   03 Jun 2027 11:40:55.852             8.254                 Moscow           257.938
       260   03 Jun 2027 11:40:59.245   03 Jun 2027 11:42:32.745            93.500                 Moscow          2921.875
       261   03 Jun 2027 13:08:39.063   03 Jun 2027 13:10:12.424            93.361                 Moscow          2917.531
       262   03 Jun 2027 13:12:10.211   03 Jun 2027 13:16:43.793           273.582              Murmansk1          8549.437
       263   03 Jun 2027 13:17:52.960   03 Jun 2027 13:18:13.411            20.451              Murmansk2           639.094
       264   03 Jun 2027 13:19:09.611   03 Jun 2027 13:19:59.608            49.997                Norilsk          1562.406
       265   03 Jun 2027 13:28:07.285   03 Jun 2027 13:29:44.900            97.615                Anadyr2          3050.469
       266   03 Jun 2027 13:31:12.995   03 Jun 2027 13:31:58.855            45.860                Anadyr1          1433.125
       267   03 Jun 2027 14:22:08.528   03 Jun 2027 14:23:36.853            88.325               CapeTown          2760.156
       268   03 Jun 2027 14:47:58.545   03 Jun 2027 14:48:09.928            11.383                 Moscow           355.719
       269   03 Jun 2027 14:50:08.924   03 Jun 2027 14:50:25.916            16.992              Murmansk2           531.000
       270   03 Jun 2027 14:51:04.939   03 Jun 2027 14:51:24.215            19.276              Murmansk1           602.375
       271   03 Jun 2027 14:51:27.484   03 Jun 2027 14:51:41.432            13.948              Murmansk2           435.875
       272   03 Jun 2027 14:52:54.822   03 Jun 2027 14:53:30.357            35.535              Murmansk1          1110.469
       273   03 Jun 2027 14:55:11.699   03 Jun 2027 14:55:14.967             3.268              Murmansk1           102.125
       274   03 Jun 2027 14:56:49.097   03 Jun 2027 14:57:11.890            22.793              Murmansk2           712.281
       275   03 Jun 2027 14:58:39.567   03 Jun 2027 14:59:01.177            21.610              Murmansk2           675.313
       276   03 Jun 2027 15:02:42.810   03 Jun 2027 15:04:47.594           124.784                Anadyr2          3899.500
       277   03 Jun 2027 15:04:52.592   03 Jun 2027 15:05:32.094            39.502                Anadyr1          1234.437
       278   03 Jun 2027 15:09:56.670   03 Jun 2027 15:10:06.551             9.881                Anadyr2           308.781
       279   03 Jun 2027 15:13:15.357   03 Jun 2027 15:13:36.914            21.557                Anadyr1           673.656
       280   03 Jun 2027 15:13:53.859   03 Jun 2027 15:14:01.485             7.626                Anadyr2           238.313
       281   03 Jun 2027 16:31:00.307   03 Jun 2027 16:34:19.835           199.528              Murmansk2          6235.250
       282   03 Jun 2027 16:38:29.868   03 Jun 2027 16:40:40.101           130.233                Anadyr2          4069.781
       283   03 Jun 2027 16:41:12.880   03 Jun 2027 16:43:44.261           151.381               Magadan1          4730.656
       284   03 Jun 2027 16:43:59.502   03 Jun 2027 16:45:01.886            62.384               Magadan2          1949.500
       285   03 Jun 2027 18:14:25.175   03 Jun 2027 18:18:05.197           220.022                Anadyr2          6875.687
       286   03 Jun 2027 18:18:26.842   03 Jun 2027 18:18:27.886             1.044                Anadyr2            32.625
       287   03 Jun 2027 18:18:28.702   03 Jun 2027 18:19:57.903            89.201               Magadan2          2787.531
       288   03 Jun 2027 18:22:11.707   03 Jun 2027 18:22:29.489            17.782               Magadan1           555.688
       289   03 Jun 2027 18:28:37.830   03 Jun 2027 18:28:47.462             9.632               Magadan1           301.000
       290   03 Jun 2027 18:29:20.642   03 Jun 2027 18:29:36.029            15.387               Magadan2           480.844
       291   03 Jun 2027 19:09:21.625   03 Jun 2027 19:12:45.375           203.750            RioGallegos          6367.188
       292   03 Jun 2027 19:14:09.608   03 Jun 2027 19:15:35.397            85.789            RioGallegos          2680.906
       293   03 Jun 2027 19:50:34.459   03 Jun 2027 19:51:12.432            37.973                Anadyr1          1186.656
       294   03 Jun 2027 19:51:24.417   03 Jun 2027 19:51:47.959            23.542                Anadyr1           735.688
       295   03 Jun 2027 19:52:18.360   03 Jun 2027 19:54:19.190           120.830                Norilsk          3775.937
       296   03 Jun 2027 19:54:37.630   03 Jun 2027 19:56:20.021           102.391                Norilsk          3199.719
       297   03 Jun 2027 19:56:42.824   03 Jun 2027 19:56:59.068            16.244                Irkutsk           507.625
       298   03 Jun 2027 19:57:07.002   03 Jun 2027 19:57:35.661            28.659                Irkutsk           895.594
       299   03 Jun 2027 19:58:40.083   03 Jun 2027 19:59:29.270            49.187                Irkutsk          1537.094
       300   03 Jun 2027 20:10:45.507   03 Jun 2027 20:14:05.447           199.940                Sumatra          6248.125
       301   03 Jun 2027 20:16:54.577   03 Jun 2027 20:17:07.595            13.018                Sumatra           406.812
       302   03 Jun 2027 21:32:22.951   03 Jun 2027 21:33:19.386            56.435                Novosib          1763.594
       303   03 Jun 2027 21:33:54.199   03 Jun 2027 21:34:31.755            37.556                Novosib          1173.625
       304   03 Jun 2027 21:34:56.422   03 Jun 2027 21:35:14.505            18.083                Novosib           565.094
       305   03 Jun 2027 21:36:16.387   03 Jun 2027 21:36:32.913            16.526                Novosib           516.437
       306   03 Jun 2027 21:38:16.962   03 Jun 2027 21:38:39.468            22.506                Novosib           703.313
       307   03 Jun 2027 21:40:42.971   03 Jun 2027 21:43:44.338           181.367                  Delhi          5667.719
       308   03 Jun 2027 21:47:29.630   03 Jun 2027 21:47:44.515            14.885                  Delhi           465.156
       309   03 Jun 2027 23:04:11.276   03 Jun 2027 23:05:12.556            61.280                Norilsk          1915.000
       310   03 Jun 2027 23:05:19.098   03 Jun 2027 23:05:32.296            13.198               Magadan1           412.438
       311   03 Jun 2027 23:05:48.325   03 Jun 2027 23:05:51.041             2.716                Norilsk            84.875
       312   03 Jun 2027 23:05:51.637   03 Jun 2027 23:06:31.337            39.700               Magadan2          1240.625
       313   03 Jun 2027 23:06:43.558   03 Jun 2027 23:10:35.741           232.183              Murmansk2          7255.719
       314   03 Jun 2027 23:11:31.629   03 Jun 2027 23:13:21.568           109.939              Murmansk1          3435.594
       315   03 Jun 2027 23:14:08.214   03 Jun 2027 23:14:53.962            45.748                 Moscow          1429.625
       316   04 Jun 2027 00:37:44.163   04 Jun 2027 00:38:14.360            30.197               Magadan2           943.656
       317   04 Jun 2027 00:38:50.192   04 Jun 2027 00:39:02.638            12.446               Magadan1           388.938
       318   04 Jun 2027 00:39:11.624   04 Jun 2027 00:39:44.786            33.162               Magadan1          1036.313
       319   04 Jun 2027 00:40:11.712   04 Jun 2027 00:40:29.357            17.645               Magadan1           551.406
       320   04 Jun 2027 00:41:28.386   04 Jun 2027 00:41:29.072             0.686               Magadan1            21.438
       321   04 Jun 2027 00:42:19.672   04 Jun 2027 00:43:05.040            45.368              Murmansk2          1417.750
       322   04 Jun 2027 00:43:19.025   04 Jun 2027 00:44:18.407            59.382              Murmansk2          1855.687
       323   04 Jun 2027 00:44:39.908   04 Jun 2027 00:46:24.550           104.642              Murmansk2          3270.063
       324   04 Jun 2027 00:47:02.919   04 Jun 2027 00:47:30.049            27.130                 Moscow           847.813
       325   04 Jun 2027 00:47:49.369   04 Jun 2027 00:48:06.415            17.046                 Moscow           532.687
       326   04 Jun 2027 00:51:05.297   04 Jun 2027 00:51:40.007            34.710                 Moscow          1084.687
       327   04 Jun 2027 00:55:20.863   04 Jun 2027 00:55:23.440             2.577                 Moscow            80.531
       328   04 Jun 2027 00:55:38.973   04 Jun 2027 00:56:22.456            43.483                 Moscow          1358.844
       329   04 Jun 2027 01:11:20.514   04 Jun 2027 01:12:00.093            39.579               CapeTown          1236.844
       330   04 Jun 2027 01:17:26.959   04 Jun 2027 01:17:42.625            15.666               CapeTown           489.563
       331   04 Jun 2027 01:18:59.350   04 Jun 2027 01:19:56.376            57.026               CapeTown          1782.063
       332   04 Jun 2027 02:08:11.293   04 Jun 2027 02:08:21.780            10.487                Anadyr1           327.719
       333   04 Jun 2027 02:08:44.218   04 Jun 2027 02:08:53.558             9.340                Anadyr2           291.875
       334   04 Jun 2027 02:09:25.440   04 Jun 2027 02:09:31.585             6.145               Magadan2           192.031
       335   04 Jun 2027 02:10:33.309   04 Jun 2027 02:10:58.615            25.306               Magadan2           790.813
       336   04 Jun 2027 02:11:09.159   04 Jun 2027 02:12:06.795            57.636               Magadan1          1801.125
       337   04 Jun 2027 02:14:32.538   04 Jun 2027 02:14:46.010            13.472               Magadan2           421.000
       338   04 Jun 2027 02:15:30.385   04 Jun 2027 02:16:10.655            40.270                Norilsk          1258.438
       339   04 Jun 2027 02:18:17.175   04 Jun 2027 02:19:35.158            77.983              Murmansk1          2436.969
       340   04 Jun 2027 02:19:35.158   04 Jun 2027 02:19:57.344            22.186              Murmansk2           693.312
       341   04 Jun 2027 02:20:16.041   04 Jun 2027 02:20:21.792             5.751              Murmansk1           179.719
       342   04 Jun 2027 02:21:23.430   04 Jun 2027 02:21:50.865            27.435                Novosib           857.344
       343   04 Jun 2027 02:23:37.631   04 Jun 2027 02:23:46.191             8.560                Novosib           267.500
       344   04 Jun 2027 02:25:02.218   04 Jun 2027 02:25:12.487            10.269                Novosib           320.906
       345   04 Jun 2027 02:27:12.346   04 Jun 2027 02:28:17.114            64.768                 Moscow          2024.000
       346   04 Jun 2027 02:48:33.327   04 Jun 2027 02:50:14.054           100.727               CapeTown          3147.719
       347   04 Jun 2027 03:48:31.793   04 Jun 2027 03:50:13.512           101.719               Magadan1          3178.719
       348   04 Jun 2027 03:50:13.512   04 Jun 2027 03:50:34.991            21.479               Magadan2           671.219
       349   04 Jun 2027 03:51:01.135   04 Jun 2027 03:54:20.246           199.111               Magadan2          6222.219
       350   04 Jun 2027 03:54:20.246   04 Jun 2027 03:54:30.135             9.889               Magadan1           309.031
       351   04 Jun 2027 03:54:56.676   04 Jun 2027 03:55:01.401             4.725                Anadyr2           147.656
       352   04 Jun 2027 05:26:33.575   04 Jun 2027 05:29:41.899           188.324                Anadyr2          5885.125
       353   04 Jun 2027 06:07:05.126   04 Jun 2027 06:08:04.592            59.466            RioGallegos          1858.312
       354   04 Jun 2027 07:01:25.532   04 Jun 2027 07:02:03.226            37.694               Magadan1          1177.938
       355   04 Jun 2027 07:02:18.989   04 Jun 2027 07:05:36.361           197.372               Magadan2          6167.875
       356   04 Jun 2027 07:05:41.875   04 Jun 2027 07:06:09.363            27.488              Murmansk2           859.000
       357   04 Jun 2027 07:06:19.751   04 Jun 2027 07:07:21.784            62.033                Novosib          1938.531
       358   04 Jun 2027 07:41:02.635   04 Jun 2027 07:41:47.286            44.651            RioGallegos          1395.344
       359   04 Jun 2027 07:42:22.626   04 Jun 2027 07:43:08.495            45.869            RioGallegos          1433.406
       360   04 Jun 2027 08:16:34.237   04 Jun 2027 08:18:32.633           118.396                Sumatra          3699.875
       361   04 Jun 2027 08:30:27.856   04 Jun 2027 08:30:41.599            13.743                  Delhi           429.469
       362   04 Jun 2027 08:36:41.688   04 Jun 2027 08:37:43.633            61.945                Norilsk          1935.781
       363   04 Jun 2027 08:37:51.083   04 Jun 2027 08:38:13.674            22.591                Norilsk           705.969
       364   04 Jun 2027 08:38:16.487   04 Jun 2027 08:38:33.508            17.021                Norilsk           531.906
       365   04 Jun 2027 08:38:47.856   04 Jun 2027 08:39:29.811            41.955                Novosib          1311.094
       366   04 Jun 2027 08:39:35.052   04 Jun 2027 08:40:00.093            25.041                Norilsk           782.531
       367   04 Jun 2027 08:40:06.064   04 Jun 2027 08:40:52.430            46.366                Irkutsk          1448.937
       368   04 Jun 2027 08:40:59.863   04 Jun 2027 08:41:14.465            14.602                Novosib           456.313
       369   04 Jun 2027 08:41:17.934   04 Jun 2027 08:42:07.212            49.278              Murmansk2          1539.937
       370   04 Jun 2027 08:42:07.212   04 Jun 2027 08:42:07.491             0.279              Murmansk1             8.719
       371   04 Jun 2027 08:43:35.979   04 Jun 2027 08:44:01.703            25.724              Murmansk1           803.875
       372   04 Jun 2027 09:18:41.837   04 Jun 2027 09:18:54.360            12.523            RioGallegos           391.344
       373   04 Jun 2027 09:19:40.187   04 Jun 2027 09:20:27.244            47.057            RioGallegos          1470.531
       374   04 Jun 2027 09:22:42.897   04 Jun 2027 09:22:55.740            12.843            RioGallegos           401.344
       375   04 Jun 2027 09:52:53.478   04 Jun 2027 09:53:34.424            40.946                Sumatra          1279.563
       376   04 Jun 2027 09:53:57.773   04 Jun 2027 09:54:09.883            12.110                Sumatra           378.437
       377   04 Jun 2027 09:55:40.108   04 Jun 2027 09:56:23.181            43.073                Sumatra          1346.031
       378   04 Jun 2027 10:04:53.800   04 Jun 2027 10:05:15.175            21.375                  Delhi           667.969
       379   04 Jun 2027 10:13:47.228   04 Jun 2027 10:13:47.599             0.371                Novosib            11.594
       380   04 Jun 2027 10:14:00.258   04 Jun 2027 10:14:06.785             6.527              Murmansk1           203.969
       381   04 Jun 2027 10:14:12.675   04 Jun 2027 10:14:49.669            36.994                 Moscow          1156.063
       382   04 Jun 2027 10:15:04.237   04 Jun 2027 10:15:35.730            31.493              Murmansk2           984.156
       383   04 Jun 2027 10:15:37.799   04 Jun 2027 10:15:51.124            13.325                Novosib           416.406
       384   04 Jun 2027 10:15:59.868   04 Jun 2027 10:16:14.972            15.104                Norilsk           472.000
       385   04 Jun 2027 10:16:24.202   04 Jun 2027 10:17:19.068            54.866                Norilsk          1714.563
       386   04 Jun 2027 10:17:25.341   04 Jun 2027 10:17:34.840             9.499                Novosib           296.844
       387   04 Jun 2027 10:17:35.497   04 Jun 2027 10:18:22.502            47.005              Murmansk1          1468.906
       388   04 Jun 2027 10:19:43.863   04 Jun 2027 10:20:01.694            17.831                 Moscow           557.219
       389   04 Jun 2027 11:38:07.004   04 Jun 2027 11:39:59.729           112.725                  Delhi          3522.656
       390   04 Jun 2027 11:46:44.152   04 Jun 2027 11:47:02.328            18.176                  Delhi           568.000
       391   04 Jun 2027 11:49:43.874   04 Jun 2027 11:50:43.246            59.372                 Moscow          1855.375
       392   04 Jun 2027 11:50:48.159   04 Jun 2027 11:50:58.751            10.592                 Moscow           331.000
       393   04 Jun 2027 11:51:06.728   04 Jun 2027 11:51:22.017            15.289                Novosib           477.781
       394   04 Jun 2027 11:51:22.588   04 Jun 2027 11:51:53.199            30.611                Norilsk           956.594
       395   04 Jun 2027 11:51:55.857   04 Jun 2027 11:52:52.338            56.481                 Moscow          1765.031
       396   04 Jun 2027 11:53:05.837   04 Jun 2027 11:53:12.033             6.196              Murmansk2           193.625
       397   04 Jun 2027 11:53:13.710   04 Jun 2027 11:53:47.432            33.722              Murmansk2          1053.812
       398   04 Jun 2027 11:53:53.999   04 Jun 2027 11:54:18.444            24.445                Novosib           763.906
       399   04 Jun 2027 11:54:19.704   04 Jun 2027 11:55:12.498            52.794              Murmansk1          1649.812
       400   04 Jun 2027 13:02:24.423   04 Jun 2027 13:05:12.560           168.137               CapeTown          5254.281
       401   04 Jun 2027 13:20:50.804   04 Jun 2027 13:22:10.672            79.868                 Moscow          2495.875
       402   04 Jun 2027 13:24:20.066   04 Jun 2027 13:26:24.329           124.263              Murmansk2          3883.219
       403   04 Jun 2027 13:26:24.329   04 Jun 2027 13:27:11.988            47.659              Murmansk1          1489.344
       404   04 Jun 2027 13:28:58.052   04 Jun 2027 13:29:08.754            10.702              Murmansk1           334.438
       405   04 Jun 2027 13:29:24.351   04 Jun 2027 13:29:40.807            16.456              Murmansk1           514.250
       406   04 Jun 2027 13:30:55.924   04 Jun 2027 13:31:21.185            25.261              Murmansk1           789.406
       407   04 Jun 2027 13:32:38.696   04 Jun 2027 13:32:53.251            14.555              Murmansk2           454.844
       408   04 Jun 2027 13:33:38.326   04 Jun 2027 13:33:51.204            12.878              Murmansk1           402.438
       409   04 Jun 2027 13:33:51.204   04 Jun 2027 13:34:03.287            12.083              Murmansk2           377.594
       410   04 Jun 2027 13:36:46.910   04 Jun 2027 13:36:53.452             6.542              Murmansk1           204.438
       411   04 Jun 2027 13:39:44.621   04 Jun 2027 13:41:43.727           119.106                Anadyr2          3722.063
       412   04 Jun 2027 13:42:10.178   04 Jun 2027 13:43:35.866            85.688                Anadyr1          2677.750
       413   04 Jun 2027 13:45:36.232   04 Jun 2027 13:46:03.675            27.443                Anadyr2           857.594
       414   04 Jun 2027 13:46:03.675   04 Jun 2027 13:46:08.293             4.618                Anadyr1           144.313
       415   04 Jun 2027 14:42:17.576   04 Jun 2027 14:42:37.276            19.700               CapeTown           615.625
       416   04 Jun 2027 15:02:35.634   04 Jun 2027 15:03:06.814            31.180              Murmansk1           974.375
       417   04 Jun 2027 15:03:27.348   04 Jun 2027 15:03:50.392            23.044              Murmansk2           720.125
       418   04 Jun 2027 15:07:10.058   04 Jun 2027 15:07:46.185            36.127              Murmansk1          1128.969
       419   04 Jun 2027 15:09:11.035   04 Jun 2027 15:10:08.871            57.836              Murmansk2          1807.375
       420   04 Jun 2027 15:14:41.635   04 Jun 2027 15:16:21.255            99.620                Anadyr1          3113.125
       421   04 Jun 2027 15:16:31.448   04 Jun 2027 15:16:53.703            22.255                Anadyr2           695.469
       422   04 Jun 2027 15:20:47.829   04 Jun 2027 15:21:13.091            25.262                Anadyr2           789.438
       423   04 Jun 2027 15:21:57.991   04 Jun 2027 15:22:51.546            53.555                Anadyr2          1673.594
       424   04 Jun 2027 16:44:07.529   04 Jun 2027 16:46:31.915           144.386              Murmansk1          4512.063
       425   04 Jun 2027 16:47:00.261   04 Jun 2027 16:47:29.193            28.932              Murmansk2           904.125
       426   04 Jun 2027 16:50:31.168   04 Jun 2027 16:52:14.324           103.156                Anadyr1          3223.625
       427   04 Jun 2027 16:53:07.334   04 Jun 2027 16:54:29.931            82.597               Magadan2          2581.156
       428   04 Jun 2027 16:54:29.931   04 Jun 2027 16:55:05.767            35.836               Magadan1          1119.875
       429   04 Jun 2027 16:55:36.844   04 Jun 2027 16:55:38.519             1.675               Magadan2            52.344
       430   04 Jun 2027 16:56:53.249   04 Jun 2027 16:56:59.709             6.460               Magadan1           201.875
       431   04 Jun 2027 16:58:39.320   04 Jun 2027 16:58:58.060            18.740               Magadan2           585.625
       432   04 Jun 2027 16:59:00.199   04 Jun 2027 16:59:04.510             4.311               Magadan1           134.719
       433   04 Jun 2027 16:59:26.637   04 Jun 2027 16:59:52.045            25.408               Magadan1           794.000
       434   04 Jun 2027 17:03:28.045   04 Jun 2027 17:04:12.327            44.282               Magadan2          1383.812
       435   04 Jun 2027 18:26:26.014   04 Jun 2027 18:29:06.302           160.288                Anadyr1          5009.000
       436   04 Jun 2027 18:29:21.958   04 Jun 2027 18:30:30.424            68.466               Magadan1          2139.562
       437   04 Jun 2027 18:30:30.995   04 Jun 2027 18:32:27.125           116.130                Norilsk          3629.063
       438   04 Jun 2027 19:21:04.766   04 Jun 2027 19:23:11.224           126.458            RioGallegos          3951.813
       439   04 Jun 2027 19:23:31.984   04 Jun 2027 19:24:37.899            65.915            RioGallegos          2059.844
       440   04 Jun 2027 19:25:06.639   04 Jun 2027 19:26:02.756            56.117            RioGallegos          1753.656
       441   04 Jun 2027 20:03:07.888   04 Jun 2027 20:04:00.016            52.128                Anadyr1          1629.000
       442   04 Jun 2027 20:04:18.053   04 Jun 2027 20:06:14.212           116.159                Norilsk          3629.969
       443   04 Jun 2027 20:08:34.010   04 Jun 2027 20:10:02.116            88.106                Irkutsk          2753.312
       444   04 Jun 2027 20:10:46.649   04 Jun 2027 20:11:06.823            20.174                Irkutsk           630.438
       445   04 Jun 2027 20:11:20.054   04 Jun 2027 20:13:27.674           127.620                Novosib          3988.125
       446   04 Jun 2027 20:13:44.524   04 Jun 2027 20:14:22.768            38.244                Novosib          1195.125
       447   04 Jun 2027 20:24:43.123   04 Jun 2027 20:26:02.421            79.298                Sumatra          2478.063
       448   04 Jun 2027 21:40:50.338   04 Jun 2027 21:40:52.731             2.393               Magadan2            74.781
       449   04 Jun 2027 21:41:20.992   04 Jun 2027 21:41:53.420            32.428                Norilsk          1013.375
       450   04 Jun 2027 21:42:05.379   04 Jun 2027 21:42:21.526            16.147               Magadan2           504.594
       451   04 Jun 2027 21:42:32.023   04 Jun 2027 21:42:50.205            18.182                Norilsk           568.188
       452   04 Jun 2027 21:44:04.595   04 Jun 2027 21:45:01.529            56.934                Irkutsk          1779.188
       453   04 Jun 2027 21:45:42.573   04 Jun 2027 21:46:36.702            54.129                Novosib          1691.531
       454   04 Jun 2027 21:47:07.481   04 Jun 2027 21:48:11.693            64.212                Novosib          2006.625
       455   04 Jun 2027 21:52:17.142   04 Jun 2027 21:54:33.414           136.272                  Delhi          4258.500
       456   04 Jun 2027 21:57:17.965   04 Jun 2027 21:58:26.004            68.039                  Delhi          2126.219
       457   04 Jun 2027 23:16:26.747   04 Jun 2027 23:18:46.434           139.687               Magadan2          4365.219
       458   04 Jun 2027 23:18:46.991   04 Jun 2027 23:21:23.152           156.161              Murmansk1          4880.031
       459   04 Jun 2027 23:22:32.816   04 Jun 2027 23:23:49.790            76.974              Murmansk1          2405.438
       460   04 Jun 2027 23:23:57.377   04 Jun 2027 23:24:47.435            50.058                 Moscow          1564.313
       461   04 Jun 2027 23:29:08.570   04 Jun 2027 23:29:14.935             6.365                 Moscow           198.906
       462   05 Jun 2027 00:43:55.422   05 Jun 2027 00:44:00.228             4.806                Anadyr2           150.187
       463   05 Jun 2027 00:45:21.170   05 Jun 2027 00:46:03.204            42.034                Anadyr1          1313.562
       464   05 Jun 2027 00:46:47.100   05 Jun 2027 00:47:00.261            13.161                Anadyr1           411.281
       465   05 Jun 2027 00:49:12.637   05 Jun 2027 00:50:54.341           101.704               Magadan2          3178.250
       466   05 Jun 2027 00:52:01.826   05 Jun 2027 00:52:01.985             0.159                Norilsk             4.969
       467   05 Jun 2027 00:52:13.814   05 Jun 2027 00:52:32.038            18.224               Magadan1           569.500
       468   05 Jun 2027 00:52:58.810   05 Jun 2027 00:53:18.666            19.856               Magadan1           620.500
       469   05 Jun 2027 00:54:20.845   05 Jun 2027 00:56:07.226           106.381              Murmansk2          3324.406
       470   05 Jun 2027 00:56:52.682   05 Jun 2027 00:57:00.366             7.684                Novosib           240.125
       471   05 Jun 2027 00:57:43.803   05 Jun 2027 00:58:51.624            67.821                Novosib          2119.406
       472   05 Jun 2027 01:03:40.473   05 Jun 2027 01:04:04.000            23.527                 Moscow           735.219
       473   05 Jun 2027 01:05:50.534   05 Jun 2027 01:06:19.199            28.665                 Moscow           895.781
       474   05 Jun 2027 01:09:51.023   05 Jun 2027 01:09:54.692             3.669                 Moscow           114.656
       475   05 Jun 2027 01:22:17.386   05 Jun 2027 01:23:21.025            63.639               CapeTown          1988.719
       476   05 Jun 2027 01:28:43.870   05 Jun 2027 01:28:48.467             4.597               CapeTown           143.656
       477   05 Jun 2027 01:30:31.789   05 Jun 2027 01:31:23.336            51.547               CapeTown          1610.844
       478   05 Jun 2027 02:18:19.685   05 Jun 2027 02:19:15.245            55.560                Anadyr2          1736.250
       479   05 Jun 2027 02:20:05.407   05 Jun 2027 02:20:12.530             7.123                Anadyr2           222.594
       480   05 Jun 2027 02:20:36.068   05 Jun 2027 02:20:41.896             5.828                Anadyr2           182.125
       481   05 Jun 2027 02:20:59.361   05 Jun 2027 02:21:20.564            21.203               Magadan2           662.594
       482   05 Jun 2027 02:22:01.310   05 Jun 2027 02:22:26.443            25.133               Magadan1           785.406
