uniorb/output/strategy_1/Drop/Drop_KinoSat_110609.txt

KinoSat_110609
-------------------------
    Access    *     Start Time (UTCG)     *     Stop Time (UTCG)  *   Duration (s)        *       Station  *  Data (Mbytes)
         1   01 Jun 2027 03:03:51.803   01 Jun 2027 03:04:13.851            22.048                Anadyr1           689.000
         2   01 Jun 2027 03:04:17.469   01 Jun 2027 03:04:28.931            11.462               Magadan2           358.188
         3   01 Jun 2027 03:04:35.882   01 Jun 2027 03:05:15.437            39.555                Anadyr2          1236.094
         4   01 Jun 2027 03:05:37.230   01 Jun 2027 03:06:10.503            33.273               Magadan2          1039.781
         5   01 Jun 2027 03:06:10.503   01 Jun 2027 03:06:38.440            27.937               Magadan1           873.031
         6   01 Jun 2027 03:06:51.088   01 Jun 2027 03:07:42.902            51.814               Magadan1          1619.187
         7   01 Jun 2027 03:07:42.902   01 Jun 2027 03:07:58.223            15.321               Magadan2           478.781
         8   01 Jun 2027 03:08:01.172   01 Jun 2027 03:10:21.471           140.299                Anadyr2          4384.344
         9   01 Jun 2027 03:10:21.471   01 Jun 2027 03:10:29.692             8.221                Anadyr1           256.906
        10   01 Jun 2027 03:10:44.954   01 Jun 2027 03:11:07.687            22.733               Magadan2           710.406
        11   01 Jun 2027 04:40:05.360   01 Jun 2027 04:40:32.174            26.814                Irkutsk           837.938
        12   01 Jun 2027 04:40:40.623   01 Jun 2027 04:42:44.381           123.758               Magadan2          3867.438
        13   01 Jun 2027 04:42:44.381   01 Jun 2027 04:43:12.972            28.591               Magadan1           893.469
        14   01 Jun 2027 04:43:24.691   01 Jun 2027 04:47:06.286           221.595                Anadyr1          6924.844
        15   01 Jun 2027 04:47:18.040   01 Jun 2027 04:47:46.184            28.144               Magadan2           879.500
        16   01 Jun 2027 05:22:54.240   01 Jun 2027 05:25:01.642           127.402            RioGallegos          3981.312
        17   01 Jun 2027 05:25:35.617   01 Jun 2027 05:26:09.111            33.494            RioGallegos          1046.688
        18   01 Jun 2027 06:00:32.594   01 Jun 2027 06:02:30.957           118.363                Sumatra          3698.844
        19   01 Jun 2027 06:04:10.569   01 Jun 2027 06:06:16.404           125.835                Sumatra          3932.344
        20   01 Jun 2027 06:18:23.186   01 Jun 2027 06:19:00.836            37.650                Novosib          1176.563
        21   01 Jun 2027 06:19:15.096   01 Jun 2027 06:23:22.079           246.983                Novosib          7718.219
        22   01 Jun 2027 06:23:26.879   01 Jun 2027 06:24:17.861            50.982                Novosib          1593.188
        23   01 Jun 2027 06:24:26.627   01 Jun 2027 06:24:53.446            26.819              Murmansk1           838.094
        24   01 Jun 2027 06:58:44.462   01 Jun 2027 06:59:11.359            26.897            RioGallegos           840.531
        25   01 Jun 2027 07:00:47.052   01 Jun 2027 07:00:55.698             8.646            RioGallegos           270.187
        26   01 Jun 2027 07:01:30.563   01 Jun 2027 07:02:02.390            31.827            RioGallegos           994.594
        27   01 Jun 2027 07:33:16.538   01 Jun 2027 07:35:24.886           128.348                Sumatra          4010.875
        28   01 Jun 2027 07:38:28.863   01 Jun 2027 07:38:40.345            11.482                Sumatra           358.812
        29   01 Jun 2027 07:42:56.365   01 Jun 2027 07:43:29.730            33.365                  Delhi          1042.656
        30   01 Jun 2027 07:44:03.932   01 Jun 2027 07:46:09.397           125.465                  Delhi          3920.781
        31   01 Jun 2027 07:53:36.780   01 Jun 2027 07:53:43.972             7.192                  Delhi           224.750
        32   01 Jun 2027 07:55:03.036   01 Jun 2027 07:55:59.877            56.841                Novosib          1776.281
        33   01 Jun 2027 07:56:42.065   01 Jun 2027 07:57:21.536            39.471                Irkutsk          1233.469
        34   01 Jun 2027 07:57:25.726   01 Jun 2027 07:59:40.334           134.608                 Moscow          4206.500
        35   01 Jun 2027 08:00:07.084   01 Jun 2027 08:01:13.545            66.461                Novosib          2076.906
        36   01 Jun 2027 08:01:20.359   01 Jun 2027 08:01:30.343             9.984                 Moscow           312.000
        37   01 Jun 2027 09:17:43.575   01 Jun 2027 09:18:55.317            71.742                  Delhi          2241.937
        38   01 Jun 2027 09:20:27.480   01 Jun 2027 09:21:35.367            67.887                  Delhi          2121.469
        39   01 Jun 2027 09:32:21.030   01 Jun 2027 09:33:23.545            62.515              Murmansk2          1953.594
        40   01 Jun 2027 09:33:23.545   01 Jun 2027 09:34:37.688            74.143              Murmansk1          2316.969
        41   01 Jun 2027 09:34:46.138   01 Jun 2027 09:37:13.971           147.833                 Moscow          4619.781
        42   01 Jun 2027 09:37:44.586   01 Jun 2027 09:38:09.988            25.402                 Moscow           793.813
        43   01 Jun 2027 11:08:21.973   01 Jun 2027 11:10:34.992           133.019              Murmansk1          4156.844
        44   01 Jun 2027 11:10:34.992   01 Jun 2027 11:11:18.058            43.066              Murmansk2          1345.812
        45   01 Jun 2027 11:11:25.259   01 Jun 2027 11:11:46.122            20.863                Norilsk           651.969
        46   01 Jun 2027 11:14:58.614   01 Jun 2027 11:15:16.356            17.742              Murmansk1           554.437
        47   01 Jun 2027 11:17:19.720   01 Jun 2027 11:17:27.892             8.172              Murmansk1           255.375
        48   01 Jun 2027 12:16:09.020   01 Jun 2027 12:19:43.901           214.881               CapeTown          6715.031
        49   01 Jun 2027 12:20:41.498   01 Jun 2027 12:22:34.269           112.771               CapeTown          3524.094
        50   01 Jun 2027 12:42:36.975   01 Jun 2027 12:44:25.846           108.871              Murmansk1          3402.219
        51   01 Jun 2027 12:56:18.040   01 Jun 2027 13:01:53.548           335.508                Anadyr1         10484.625
        52   01 Jun 2027 13:03:05.382   01 Jun 2027 13:05:49.559           164.177                Anadyr2          5130.531
        53   01 Jun 2027 14:31:54.759   01 Jun 2027 14:33:29.042            94.283                Anadyr1          2946.344
        54   01 Jun 2027 14:34:53.452   01 Jun 2027 14:35:46.370            52.918                Anadyr1          1653.687
        55   01 Jun 2027 14:35:55.107   01 Jun 2027 14:41:18.490           323.383               Magadan1         10105.719
        56   01 Jun 2027 14:41:18.646   01 Jun 2027 14:43:43.263           144.617               Magadan2          4519.281
        57   01 Jun 2027 16:10:09.622   01 Jun 2027 16:12:19.174           129.552               Magadan2          4048.500
        58   01 Jun 2027 16:14:07.702   01 Jun 2027 16:14:30.410            22.708               Magadan2           709.625
        59   01 Jun 2027 17:04:21.825   01 Jun 2027 17:09:11.914           290.089            RioGallegos          9065.281
        60   01 Jun 2027 17:45:51.726   01 Jun 2027 17:51:44.348           352.622                Norilsk         11019.437
        61   01 Jun 2027 17:51:50.733   01 Jun 2027 17:57:42.357           351.624                Irkutsk         10988.250
        62   01 Jun 2027 18:05:58.723   01 Jun 2027 18:14:08.708           489.985                Sumatra         15312.031
        63   01 Jun 2027 19:29:12.807   01 Jun 2027 19:34:12.657           299.850                Novosib          9370.312
        64   01 Jun 2027 19:36:40.841   01 Jun 2027 19:41:08.321           267.480                  Delhi          8358.750
        65   01 Jun 2027 21:00:38.807   01 Jun 2027 21:05:32.472           293.665              Murmansk2          9177.031
        66   01 Jun 2027 22:38:23.969   01 Jun 2027 22:42:04.896           220.927              Murmansk1          6903.969
        67   01 Jun 2027 22:43:34.054   01 Jun 2027 22:43:41.279             7.225                 Moscow           225.781
        68   01 Jun 2027 22:45:49.382   01 Jun 2027 22:47:46.016           116.634                 Moscow          3644.813
        69   01 Jun 2027 23:05:52.895   01 Jun 2027 23:14:16.503           503.608               CapeTown         15737.750
        70   02 Jun 2027 03:18:06.177   02 Jun 2027 03:18:40.664            34.487               Magadan1          1077.719
        71   02 Jun 2027 03:18:40.664   02 Jun 2027 03:18:51.566            10.902               Magadan2           340.688
        72   02 Jun 2027 03:18:52.958   02 Jun 2027 03:21:24.031           151.073                Anadyr2          4721.031
        73   02 Jun 2027 03:22:15.129   02 Jun 2027 03:22:20.786             5.657                Anadyr1           176.781
        74   02 Jun 2027 03:23:19.058   02 Jun 2027 03:23:47.794            28.736               Magadan1           898.000
        75   02 Jun 2027 04:53:17.033   02 Jun 2027 04:53:41.781            24.748               Magadan2           773.375
        76   02 Jun 2027 04:53:42.065   02 Jun 2027 04:54:13.839            31.774                Irkutsk           992.937
        77   02 Jun 2027 04:54:27.326   02 Jun 2027 04:58:19.212           231.886                Irkutsk          7246.438
        78   02 Jun 2027 04:58:40.802   02 Jun 2027 04:59:42.757            61.955               Magadan2          1936.094
        79   02 Jun 2027 05:34:43.435   02 Jun 2027 05:35:49.623            66.188            RioGallegos          2068.375
        80   02 Jun 2027 05:37:39.990   02 Jun 2027 05:38:19.482            39.492            RioGallegos          1234.125
        81   02 Jun 2027 05:38:43.413   02 Jun 2027 05:38:50.602             7.189            RioGallegos           224.656
        82   02 Jun 2027 06:11:31.104   02 Jun 2027 06:13:51.199           140.095                Sumatra          4377.969
        83   02 Jun 2027 06:16:32.785   02 Jun 2027 06:18:03.610            90.825                Sumatra          2838.281
        84   02 Jun 2027 06:30:32.799   02 Jun 2027 06:31:20.229            47.430                Irkutsk          1482.188
        85   02 Jun 2027 06:31:24.538   02 Jun 2027 06:32:21.287            56.749                Irkutsk          1773.406
        86   02 Jun 2027 06:32:32.703   02 Jun 2027 06:32:36.304             3.601               Magadan1           112.531
        87   02 Jun 2027 06:32:37.172   02 Jun 2027 06:36:14.718           217.546                Novosib          6798.312
        88   02 Jun 2027 07:11:23.596   02 Jun 2027 07:11:29.191             5.595            RioGallegos           174.844
        89   02 Jun 2027 07:45:24.715   02 Jun 2027 07:47:00.424            95.709                Sumatra          2990.906
        90   02 Jun 2027 07:48:59.693   02 Jun 2027 07:50:35.415            95.722                Sumatra          2991.313
        91   02 Jun 2027 07:54:28.513   02 Jun 2027 07:56:01.473            92.960                  Delhi          2905.000
        92   02 Jun 2027 07:56:13.088   02 Jun 2027 07:56:59.665            46.577                  Delhi          1455.531
        93   02 Jun 2027 08:07:42.666   02 Jun 2027 08:08:13.214            30.548                Irkutsk           954.625
        94   02 Jun 2027 08:08:43.283   02 Jun 2027 08:10:12.562            89.279                Irkutsk          2789.969
        95   02 Jun 2027 08:10:17.020   02 Jun 2027 08:11:06.361            49.341                Irkutsk          1541.906
        96   02 Jun 2027 08:11:24.134   02 Jun 2027 08:13:41.025           136.891                Norilsk          4277.844
        97   02 Jun 2027 08:13:59.861   02 Jun 2027 08:14:02.590             2.729                 Moscow            85.281
        98   02 Jun 2027 08:14:10.992   02 Jun 2027 08:14:38.814            27.822              Murmansk2           869.438
        99   02 Jun 2027 08:15:06.693   02 Jun 2027 08:15:34.153            27.460              Murmansk1           858.125
       100   02 Jun 2027 08:15:47.741   02 Jun 2027 08:16:33.117            45.376              Murmansk1          1418.000
       101   02 Jun 2027 08:17:47.740   02 Jun 2027 08:18:29.130            41.390              Murmansk2          1293.438
       102   02 Jun 2027 09:30:02.160   02 Jun 2027 09:32:17.245           135.085                  Delhi          4221.406
       103   02 Jun 2027 09:33:43.751   02 Jun 2027 09:34:09.478            25.727                  Delhi           803.969
       104   02 Jun 2027 09:44:29.027   02 Jun 2027 09:46:52.556           143.529                 Moscow          4485.281
       105   02 Jun 2027 09:47:14.146   02 Jun 2027 09:48:44.348            90.202              Murmansk2          2818.812
       106   02 Jun 2027 09:49:04.967   02 Jun 2027 09:49:42.059            37.092                 Moscow          1159.125
       107   02 Jun 2027 11:21:27.994   02 Jun 2027 11:21:59.613            31.619                 Moscow           988.094
       108   02 Jun 2027 11:22:13.899   02 Jun 2027 11:25:39.122           205.223                 Moscow          6413.219
       109   02 Jun 2027 12:27:53.048   02 Jun 2027 12:31:49.338           236.290               CapeTown          7384.062
       110   02 Jun 2027 12:38:48.782   02 Jun 2027 12:39:17.317            28.535               CapeTown           891.719
       111   02 Jun 2027 12:54:57.316   02 Jun 2027 12:56:37.715           100.399              Murmansk2          3137.469
       112   02 Jun 2027 12:57:44.153   02 Jun 2027 12:57:50.774             6.621              Murmansk2           206.906
       113   02 Jun 2027 12:59:14.050   02 Jun 2027 12:59:34.294            20.244              Murmansk1           632.625
       114   02 Jun 2027 12:59:55.336   02 Jun 2027 13:00:21.286            25.950              Murmansk2           810.938
       115   02 Jun 2027 13:00:59.125   02 Jun 2027 13:01:05.048             5.923              Murmansk2           185.094
       116   02 Jun 2027 13:08:14.383   02 Jun 2027 13:10:11.128           116.745                Anadyr2          3648.281
       117   02 Jun 2027 13:10:27.995   02 Jun 2027 13:14:31.617           243.622                Anadyr1          7613.188
       118   02 Jun 2027 13:16:35.719   02 Jun 2027 13:16:49.565            13.846                Anadyr1           432.688
       119   02 Jun 2027 14:35:18.422   02 Jun 2027 14:35:40.451            22.029              Murmansk1           688.406
       120   02 Jun 2027 14:40:24.079   02 Jun 2027 14:40:53.157            29.078              Murmansk2           908.687
       121   02 Jun 2027 14:43:55.605   02 Jun 2027 14:46:17.709           142.104                Anadyr1          4440.750
       122   02 Jun 2027 14:46:54.601   02 Jun 2027 14:56:21.683           567.082               Magadan1         17721.313
       123   02 Jun 2027 16:22:09.198   02 Jun 2027 16:23:01.223            52.025               Magadan2          1625.781
       124   02 Jun 2027 16:23:01.223   02 Jun 2027 16:23:33.906            32.683               Magadan1          1021.344
       125   02 Jun 2027 16:31:04.398   02 Jun 2027 16:31:43.781            39.383               Magadan2          1230.719
       126   02 Jun 2027 17:15:34.205   02 Jun 2027 17:22:29.762           415.557            RioGallegos         12986.156
       127   02 Jun 2027 17:58:16.240   02 Jun 2027 18:00:26.998           130.758                Norilsk          4086.188
       128   02 Jun 2027 18:02:32.558   02 Jun 2027 18:03:43.898            71.340                Irkutsk          2229.375
       129   02 Jun 2027 18:03:50.485   02 Jun 2027 18:06:05.034           134.549                Norilsk          4204.656
       130   02 Jun 2027 18:07:34.055   02 Jun 2027 18:10:21.842           167.787                Irkutsk          5243.344
       131   02 Jun 2027 18:17:08.011   02 Jun 2027 18:25:14.575           486.564                Sumatra         15205.125
       132   02 Jun 2027 19:47:20.951   02 Jun 2027 19:54:41.497           440.546                  Delhi         13767.062
       133   02 Jun 2027 21:12:24.906   02 Jun 2027 21:18:27.052           362.146              Murmansk1         11317.063
       134   02 Jun 2027 22:51:19.507   02 Jun 2027 22:51:37.929            18.422              Murmansk2           575.688
       135   02 Jun 2027 22:52:57.862   02 Jun 2027 22:53:31.912            34.050                 Moscow          1064.063
       136   02 Jun 2027 23:17:06.656   02 Jun 2027 23:18:19.017            72.361               CapeTown          2261.281
       137   02 Jun 2027 23:19:05.805   02 Jun 2027 23:19:53.185            47.380               CapeTown          1480.625
       138   02 Jun 2027 23:20:10.112   02 Jun 2027 23:24:37.904           267.792               CapeTown          8368.500
       139   03 Jun 2027 00:54:43.280   03 Jun 2027 00:55:58.896            75.616               CapeTown          2363.000
       140   03 Jun 2027 01:48:22.086   03 Jun 2027 01:49:54.018            91.932               Magadan1          2872.875
       141   03 Jun 2027 01:50:27.653   03 Jun 2027 01:51:14.723            47.070               Magadan2          1470.937
       142   03 Jun 2027 01:57:52.187   03 Jun 2027 01:58:04.013            11.826                Norilsk           369.562
       143   03 Jun 2027 01:59:38.092   03 Jun 2027 02:01:11.094            93.002              Murmansk2          2906.313
       144   03 Jun 2027 02:02:32.234   03 Jun 2027 02:02:51.475            19.241              Murmansk1           601.281
       145   03 Jun 2027 02:03:05.755   03 Jun 2027 02:03:58.789            53.034                 Moscow          1657.312
       146   03 Jun 2027 02:08:41.016   03 Jun 2027 02:09:27.821            46.805                 Moscow          1462.656
       147   03 Jun 2027 02:32:24.979   03 Jun 2027 02:33:18.722            53.743               CapeTown          1679.469
       148   03 Jun 2027 02:33:26.944   03 Jun 2027 02:33:46.198            19.254               CapeTown           601.687
       149   03 Jun 2027 03:27:42.805   03 Jun 2027 03:27:53.573            10.768                Anadyr2           336.500
       150   03 Jun 2027 03:28:10.234   03 Jun 2027 03:28:14.824             4.590                Anadyr2           143.437
       151   03 Jun 2027 03:28:25.028   03 Jun 2027 03:29:26.161            61.133                Anadyr2          1910.406
       152   03 Jun 2027 03:29:52.740   03 Jun 2027 03:31:13.736            80.996                Anadyr2          2531.125
       153   03 Jun 2027 03:31:16.616   03 Jun 2027 03:31:48.466            31.850                Anadyr2           995.313
       154   03 Jun 2027 03:31:52.571   03 Jun 2027 03:32:01.143             8.572                Anadyr2           267.875
       155   03 Jun 2027 03:32:16.866   03 Jun 2027 03:32:42.694            25.828               Magadan1           807.125
       156   03 Jun 2027 03:32:42.694   03 Jun 2027 03:33:01.738            19.044               Magadan2           595.125
       157   03 Jun 2027 03:33:11.812   03 Jun 2027 03:33:54.690            42.878               Magadan2          1339.937
       158   03 Jun 2027 03:34:13.250   03 Jun 2027 03:34:37.067            23.817               Magadan2           744.281
       159   03 Jun 2027 03:35:13.846   03 Jun 2027 03:36:04.940            51.094               Magadan1          1596.687
       160   03 Jun 2027 05:05:44.210   03 Jun 2027 05:08:54.756           190.546               Magadan2          5954.562
       161   03 Jun 2027 05:09:02.787   03 Jun 2027 05:10:21.600            78.813               Magadan2          2462.906
       162   03 Jun 2027 05:10:29.334   03 Jun 2027 05:10:36.584             7.250               Magadan2           226.563
       163   03 Jun 2027 05:10:43.170   03 Jun 2027 05:11:20.547            37.377               Magadan2          1168.031
       164   03 Jun 2027 05:11:20.547   03 Jun 2027 05:11:38.063            17.516               Magadan1           547.375
       165   03 Jun 2027 05:11:39.126   03 Jun 2027 05:13:03.105            83.979              Murmansk2          2624.344
       166   03 Jun 2027 05:13:27.133   03 Jun 2027 05:13:47.081            19.948                Norilsk           623.375
       167   03 Jun 2027 05:46:35.790   03 Jun 2027 05:48:58.234           142.444            RioGallegos          4451.375
       168   03 Jun 2027 06:22:48.458   03 Jun 2027 06:24:32.815           104.357                Sumatra          3261.156
       169   03 Jun 2027 06:25:20.905   03 Jun 2027 06:25:57.821            36.916                Sumatra          1153.625
       170   03 Jun 2027 06:27:30.436   03 Jun 2027 06:28:18.027            47.591                Sumatra          1487.219
       171   03 Jun 2027 06:28:47.548   03 Jun 2027 06:30:20.039            92.491                Sumatra          2890.344
       172   03 Jun 2027 06:42:55.724   03 Jun 2027 06:43:26.738            31.014                Novosib           969.188
       173   03 Jun 2027 06:43:27.979   03 Jun 2027 06:44:29.053            61.074                Irkutsk          1908.562
       174   03 Jun 2027 06:44:42.846   03 Jun 2027 06:46:53.180           130.334                Norilsk          4072.937
       175   03 Jun 2027 06:46:56.501   03 Jun 2027 06:47:47.282            50.781                Irkutsk          1586.906
       176   03 Jun 2027 06:47:58.152   03 Jun 2027 06:48:30.442            32.290              Murmansk2          1009.062
       177   03 Jun 2027 06:49:04.136   03 Jun 2027 06:49:23.043            18.907                Norilsk           590.844
       178   03 Jun 2027 07:23:22.357   03 Jun 2027 07:23:30.252             7.895            RioGallegos           246.719
       179   03 Jun 2027 07:24:20.843   03 Jun 2027 07:25:21.331            60.488            RioGallegos          1890.250
       180   03 Jun 2027 07:57:39.151   03 Jun 2027 07:58:43.469            64.318                Sumatra          2009.938
       181   03 Jun 2027 08:00:02.634   03 Jun 2027 08:01:18.605            75.971                Sumatra          2374.094
       182   03 Jun 2027 08:06:07.415   03 Jun 2027 08:09:58.622           231.207                  Delhi          7225.219
       183   03 Jun 2027 08:20:45.168   03 Jun 2027 08:22:21.735            96.567                Irkutsk          3017.719
       184   03 Jun 2027 08:22:41.576   03 Jun 2027 08:25:21.694           160.118              Murmansk1          5003.688
       185   03 Jun 2027 08:25:21.694   03 Jun 2027 08:26:34.730            73.036              Murmansk2          2282.375
       186   03 Jun 2027 09:42:28.194   03 Jun 2027 09:45:33.466           185.272                  Delhi          5789.750
       187   03 Jun 2027 09:56:06.306   03 Jun 2027 09:57:47.384           101.078              Murmansk1          3158.688
       188   03 Jun 2027 09:57:54.035   03 Jun 2027 09:58:39.560            45.525              Murmansk1          1422.656
       189   03 Jun 2027 09:58:55.085   03 Jun 2027 10:01:36.333           161.248                 Moscow          5039.000
       190   03 Jun 2027 11:33:03.356   03 Jun 2027 11:33:25.073            21.717                 Moscow           678.656
       191   03 Jun 2027 11:33:41.875   03 Jun 2027 11:33:48.069             6.194              Murmansk2           193.562
       192   03 Jun 2027 11:34:16.901   03 Jun 2027 11:34:30.345            13.444                 Moscow           420.125
       193   03 Jun 2027 11:36:00.680   03 Jun 2027 11:36:05.101             4.421              Murmansk2           138.156
       194   03 Jun 2027 11:39:13.391   03 Jun 2027 11:39:19.385             5.994              Murmansk1           187.312
       195   03 Jun 2027 11:46:00.747   03 Jun 2027 11:49:41.312           220.565                Anadyr1          6892.656
       196   03 Jun 2027 12:41:29.857   03 Jun 2027 12:43:15.072           105.215               CapeTown          3287.969
       197   03 Jun 2027 13:07:19.920   03 Jun 2027 13:08:28.557            68.637              Murmansk2          2144.906
       198   03 Jun 2027 13:09:41.446   03 Jun 2027 13:10:09.955            28.509              Murmansk2           890.906
       199   03 Jun 2027 13:13:57.252   03 Jun 2027 13:14:37.052            39.800              Murmansk2          1243.750
       200   03 Jun 2027 13:20:11.804   03 Jun 2027 13:22:20.257           128.453                Anadyr2          4014.156
       201   03 Jun 2027 13:22:29.574   03 Jun 2027 13:25:40.363           190.789                Anadyr2          5962.156
       202   03 Jun 2027 14:47:50.446   03 Jun 2027 14:49:03.680            73.234              Murmansk1          2288.563
       203   03 Jun 2027 14:55:56.639   03 Jun 2027 14:57:07.661            71.022                Anadyr2          2219.438
       204   03 Jun 2027 14:57:35.953   03 Jun 2027 14:58:27.625            51.672                Anadyr1          1614.750
       205   03 Jun 2027 14:58:45.518   03 Jun 2027 15:01:57.461           191.943               Magadan2          5998.219
       206   03 Jun 2027 15:02:11.613   03 Jun 2027 15:04:49.298           157.685               Magadan1          4927.656
       207   03 Jun 2027 15:05:28.798   03 Jun 2027 15:08:57.695           208.897               Magadan1          6528.031
       208   03 Jun 2027 16:34:41.804   03 Jun 2027 16:34:51.335             9.531               Magadan1           297.844
       209   03 Jun 2027 16:43:03.080   03 Jun 2027 16:43:06.577             3.497               Magadan2           109.281
       210   03 Jun 2027 17:27:04.435   03 Jun 2027 17:34:06.432           421.997            RioGallegos         13187.406
       211   03 Jun 2027 18:10:38.778   03 Jun 2027 18:12:25.611           106.833                Norilsk          3338.531
       212   03 Jun 2027 18:14:18.229   03 Jun 2027 18:16:02.548           104.319                Irkutsk          3259.969
       213   03 Jun 2027 18:17:33.007   03 Jun 2027 18:20:20.431           167.424                Irkutsk          5232.000
       214   03 Jun 2027 18:29:26.610   03 Jun 2027 18:31:53.525           146.915                Sumatra          4591.094
       215   03 Jun 2027 18:32:32.085   03 Jun 2027 18:35:40.500           188.415                Sumatra          5887.969
       216   03 Jun 2027 19:51:07.672   03 Jun 2027 19:52:02.607            54.935                Novosib          1716.719
       217   03 Jun 2027 19:58:33.913   03 Jun 2027 20:06:49.236           495.323                  Delhi         15478.844
       218   03 Jun 2027 21:24:15.936   03 Jun 2027 21:31:14.621           418.685              Murmansk2         13083.906
       219   03 Jun 2027 23:04:45.475   03 Jun 2027 23:05:00.335            14.860                 Moscow           464.375
       220   03 Jun 2027 23:05:37.832   03 Jun 2027 23:07:00.518            82.686                 Moscow          2583.937
       221   03 Jun 2027 23:28:30.017   03 Jun 2027 23:29:27.456            57.439               CapeTown          1794.969
       222   03 Jun 2027 23:31:22.965   03 Jun 2027 23:35:31.332           248.367               CapeTown          7761.469
       223   04 Jun 2027 01:02:57.750   04 Jun 2027 01:04:24.846            87.096               CapeTown          2721.750
       224   04 Jun 2027 01:12:09.625   04 Jun 2027 01:12:42.902            33.277               CapeTown          1039.906
       225   04 Jun 2027 02:00:07.353   04 Jun 2027 02:01:36.255            88.902               Magadan2          2778.188
       226   04 Jun 2027 02:02:30.246   04 Jun 2027 02:02:57.011            26.765               Magadan2           836.406
       227   04 Jun 2027 02:05:35.823   04 Jun 2027 02:06:07.955            32.132               Magadan2          1004.125
       228   04 Jun 2027 02:09:57.246   04 Jun 2027 02:10:27.638            30.392                Norilsk           949.750
       229   04 Jun 2027 02:11:38.710   04 Jun 2027 02:12:19.515            40.805              Murmansk1          1275.156
       230   04 Jun 2027 02:12:52.787   04 Jun 2027 02:13:12.882            20.095              Murmansk2           627.969
       231   04 Jun 2027 02:13:22.987   04 Jun 2027 02:13:55.000            32.013              Murmansk2          1000.406
       232   04 Jun 2027 02:15:11.268   04 Jun 2027 02:16:20.167            68.899                 Moscow          2153.094
       233   04 Jun 2027 02:22:17.001   04 Jun 2027 02:22:27.106            10.105                 Moscow           315.781
       234   04 Jun 2027 02:24:43.995   04 Jun 2027 02:24:50.636             6.641                 Moscow           207.531
       235   04 Jun 2027 03:42:13.413   04 Jun 2027 03:43:18.048            64.635                Anadyr1          2019.844
       236   04 Jun 2027 03:43:44.890   04 Jun 2027 03:46:23.230           158.340               Magadan1          4948.125
       237   04 Jun 2027 03:46:23.230   04 Jun 2027 03:48:05.626           102.396               Magadan2          3199.875
       238   04 Jun 2027 05:19:01.142   04 Jun 2027 05:19:55.693            54.551                Irkutsk          1704.719
       239   04 Jun 2027 05:20:08.000   04 Jun 2027 05:21:50.161           102.161               Magadan1          3192.531
       240   04 Jun 2027 05:21:50.161   04 Jun 2027 05:22:18.772            28.611               Magadan2           894.094
       241   04 Jun 2027 05:22:33.845   04 Jun 2027 05:22:48.402            14.557              Murmansk2           454.906
       242   04 Jun 2027 05:22:49.950   04 Jun 2027 05:23:31.779            41.829               Magadan2          1307.156
       243   04 Jun 2027 05:23:41.323   04 Jun 2027 05:24:06.127            24.804                Norilsk           775.125
       244   04 Jun 2027 05:24:12.684   04 Jun 2027 05:24:33.523            20.839              Murmansk1           651.219
       245   04 Jun 2027 05:24:33.523   04 Jun 2027 05:25:44.732            71.209              Murmansk2          2225.281
       246   04 Jun 2027 05:26:59.536   04 Jun 2027 05:28:07.723            68.187                Norilsk          2130.844
       247   04 Jun 2027 05:29:40.719   04 Jun 2027 05:30:03.533            22.814              Murmansk1           712.938
       248   04 Jun 2027 05:30:07.608   04 Jun 2027 05:30:17.020             9.412              Murmansk1           294.125
       249   04 Jun 2027 05:31:04.988   04 Jun 2027 05:31:34.063            29.075              Murmansk2           908.594
       250   04 Jun 2027 05:58:31.315   04 Jun 2027 06:00:44.757           133.442            RioGallegos          4170.062
       251   04 Jun 2027 06:01:46.177   04 Jun 2027 06:02:33.456            47.279            RioGallegos          1477.469
       252   04 Jun 2027 06:34:17.643   04 Jun 2027 06:37:50.671           213.028                Sumatra          6657.125
       253   04 Jun 2027 06:54:48.657   04 Jun 2027 06:55:30.660            42.003                Irkutsk          1312.594
       254   04 Jun 2027 06:56:11.723   04 Jun 2027 06:56:35.233            23.510                Irkutsk           734.687
       255   04 Jun 2027 06:56:48.753   04 Jun 2027 06:58:16.253            87.500                Novosib          2734.375
       256   04 Jun 2027 06:58:16.541   04 Jun 2027 06:58:20.497             3.956                Irkutsk           123.625
       257   04 Jun 2027 06:58:30.241   04 Jun 2027 06:58:46.792            16.551              Murmansk1           517.219
       258   04 Jun 2027 06:58:50.976   04 Jun 2027 07:01:16.134           145.158                Novosib          4536.187
       259   04 Jun 2027 07:01:29.734   04 Jun 2027 07:02:20.032            50.298              Murmansk1          1571.813
       260   04 Jun 2027 07:03:51.463   04 Jun 2027 07:04:01.339             9.876              Murmansk2           308.625
       261   04 Jun 2027 07:05:19.078   04 Jun 2027 07:05:37.452            18.374              Murmansk2           574.187
       262   04 Jun 2027 07:35:48.466   04 Jun 2027 07:36:12.260            23.794            RioGallegos           743.563
       263   04 Jun 2027 07:37:47.434   04 Jun 2027 07:38:31.114            43.680            RioGallegos          1365.000
       264   04 Jun 2027 08:10:00.911   04 Jun 2027 08:10:32.929            32.018                Sumatra          1000.563
       265   04 Jun 2027 08:11:43.037   04 Jun 2027 08:12:52.704            69.667                Sumatra          2177.094
       266   04 Jun 2027 08:13:30.672   04 Jun 2027 08:13:43.933            13.261                Sumatra           414.406
       267   04 Jun 2027 08:19:45.501   04 Jun 2027 08:21:47.950           122.449                  Delhi          3826.531
       268   04 Jun 2027 08:31:34.427   04 Jun 2027 08:31:53.536            19.109                Novosib           597.156
       269   04 Jun 2027 08:31:59.796   04 Jun 2027 08:32:32.924            33.128              Murmansk1          1035.250
       270   04 Jun 2027 08:32:32.924   04 Jun 2027 08:32:42.094             9.170              Murmansk2           286.563
       271   04 Jun 2027 08:32:45.417   04 Jun 2027 08:34:05.965            80.548                Irkutsk          2517.125
       272   04 Jun 2027 08:34:13.569   04 Jun 2027 08:34:42.743            29.174                Novosib           911.688
       273   04 Jun 2027 08:34:47.788   04 Jun 2027 08:36:02.389            74.601                 Moscow          2331.281
       274   04 Jun 2027 08:38:20.119   04 Jun 2027 08:38:21.344             1.225                 Moscow            38.281
       275   04 Jun 2027 08:39:08.983   04 Jun 2027 08:39:24.189            15.206              Murmansk2           475.187
       276   04 Jun 2027 09:55:03.509   04 Jun 2027 09:57:50.326           166.817                  Delhi          5213.031
       277   04 Jun 2027 10:07:09.122   04 Jun 2027 10:07:17.308             8.186              Murmansk1           255.812
       278   04 Jun 2027 10:07:45.967   04 Jun 2027 10:07:56.221            10.254                 Moscow           320.437
       279   04 Jun 2027 10:07:57.794   04 Jun 2027 10:08:07.906            10.112              Murmansk2           316.000
       280   04 Jun 2027 10:08:07.906   04 Jun 2027 10:08:47.213            39.307              Murmansk1          1228.344
       281   04 Jun 2027 10:09:41.570   04 Jun 2027 10:09:45.172             3.602              Murmansk2           112.562
       282   04 Jun 2027 10:09:58.771   04 Jun 2027 10:10:00.139             1.368              Murmansk2            42.750
       283   04 Jun 2027 10:10:00.139   04 Jun 2027 10:10:31.786            31.647              Murmansk1           988.969
       284   04 Jun 2027 10:11:00.593   04 Jun 2027 10:11:17.991            17.398                 Moscow           543.688
       285   04 Jun 2027 10:11:21.075   04 Jun 2027 10:11:22.025             0.950                Norilsk            29.687
       286   04 Jun 2027 10:11:45.924   04 Jun 2027 10:12:03.821            17.897              Murmansk2           559.281
       287   04 Jun 2027 10:14:32.173   04 Jun 2027 10:15:04.237            32.064              Murmansk2          1002.000
       288   04 Jun 2027 11:57:27.111   04 Jun 2027 12:02:55.030           327.919                Anadyr1         10247.469
       289   04 Jun 2027 13:19:44.893   04 Jun 2027 13:20:07.689            22.796              Murmansk2           712.375
       290   04 Jun 2027 13:21:20.706   04 Jun 2027 13:21:47.412            26.706              Murmansk2           834.563
       291   04 Jun 2027 13:23:17.379   04 Jun 2027 13:23:32.008            14.629              Murmansk2           457.156
       292   04 Jun 2027 13:25:45.017   04 Jun 2027 13:25:58.387            13.370              Murmansk1           417.813
       293   04 Jun 2027 13:27:11.988   04 Jun 2027 13:27:59.606            47.618              Murmansk1          1488.063
       294   04 Jun 2027 13:32:10.077   04 Jun 2027 13:33:45.964            95.887                Anadyr2          2996.469
       295   04 Jun 2027 13:34:23.571   04 Jun 2027 13:36:28.841           125.270                Anadyr1          3914.687
       296   04 Jun 2027 13:38:00.525   04 Jun 2027 13:38:41.769            41.244                Anadyr1          1288.875
       297   04 Jun 2027 13:39:06.464   04 Jun 2027 13:39:21.889            15.425                Anadyr1           482.031
       298   04 Jun 2027 15:00:48.389   04 Jun 2027 15:02:42.579           114.190              Murmansk2          3568.437
       299   04 Jun 2027 15:07:57.803   04 Jun 2027 15:10:17.801           139.998                Anadyr1          4374.937
       300   04 Jun 2027 15:10:38.681   04 Jun 2027 15:14:12.774           214.093               Magadan2          6690.406
       301   04 Jun 2027 15:14:12.774   04 Jun 2027 15:16:36.369           143.595               Magadan1          4487.344
       302   04 Jun 2027 15:18:53.562   04 Jun 2027 15:21:27.278           153.716               Magadan2          4803.625
       303   04 Jun 2027 16:46:09.878   04 Jun 2027 16:47:26.859            76.981               Magadan2          2405.656
       304   04 Jun 2027 17:38:43.504   04 Jun 2027 17:45:07.556           384.052            RioGallegos         12001.625
       305   04 Jun 2027 18:21:46.045   04 Jun 2027 18:25:08.234           202.189                Norilsk          6318.406
       306   04 Jun 2027 18:26:07.454   04 Jun 2027 18:27:13.392            65.938                Irkutsk          2060.562
       307   04 Jun 2027 18:28:10.329   04 Jun 2027 18:29:32.412            82.083                Irkutsk          2565.094
       308   04 Jun 2027 18:40:05.630   04 Jun 2027 18:41:38.121            92.491                Sumatra          2890.344
       309   04 Jun 2027 18:41:55.907   04 Jun 2027 18:43:49.224           113.317                Sumatra          3541.156
       310   04 Jun 2027 18:45:48.385   04 Jun 2027 18:46:43.289            54.904                Sumatra          1715.750
       311   04 Jun 2027 20:01:48.844   04 Jun 2027 20:03:11.820            82.976                Novosib          2593.000
       312   04 Jun 2027 20:10:01.483   04 Jun 2027 20:17:02.036           420.553                  Delhi         13142.281
       313   04 Jun 2027 21:36:09.920   04 Jun 2027 21:41:49.479           339.559              Murmansk1         10611.219
       314   04 Jun 2027 21:42:08.961   04 Jun 2027 21:43:57.173           108.212              Murmansk2          3381.625
       315   04 Jun 2027 23:14:22.573   04 Jun 2027 23:15:00.671            38.098              Murmansk2          1190.562
       316   04 Jun 2027 23:15:15.835   04 Jun 2027 23:15:16.838             1.003                 Moscow            31.344
       317   04 Jun 2027 23:16:30.454   04 Jun 2027 23:17:40.760            70.306                 Moscow          2197.063
       318   04 Jun 2027 23:21:43.128   04 Jun 2027 23:22:33.890            50.762                 Moscow          1586.313
       319   04 Jun 2027 23:40:00.919   04 Jun 2027 23:41:27.235            86.316               CapeTown          2697.375
       320   04 Jun 2027 23:43:27.348   04 Jun 2027 23:45:34.299           126.951               CapeTown          3967.219
       321   04 Jun 2027 23:45:58.983   04 Jun 2027 23:46:12.828            13.845               CapeTown           432.656
       322   05 Jun 2027 00:50:57.916   05 Jun 2027 00:52:07.946            70.030                 Moscow          2188.438
       323   05 Jun 2027 00:59:33.746   05 Jun 2027 00:59:49.089            15.343                 Moscow           479.469
       324   05 Jun 2027 01:01:28.132   05 Jun 2027 01:01:41.805            13.673                 Moscow           427.281
       325   05 Jun 2027 01:15:11.635   05 Jun 2027 01:16:11.570            59.935               CapeTown          1872.969
       326   05 Jun 2027 01:19:24.332   05 Jun 2027 01:19:38.566            14.234               CapeTown           444.813
       327   05 Jun 2027 01:21:19.960   05 Jun 2027 01:22:17.386            57.426               CapeTown          1794.562
       328   05 Jun 2027 02:11:52.779   05 Jun 2027 02:12:50.107            57.328                Anadyr2          1791.500
       329   05 Jun 2027 02:12:52.340   05 Jun 2027 02:13:56.993            64.653               Magadan2          2020.406
       330   05 Jun 2027 02:14:29.844   05 Jun 2027 02:14:33.243             3.399               Magadan2           106.219
       331   05 Jun 2027 02:15:48.336   05 Jun 2027 02:16:58.464            70.128               Magadan2          2191.500
       332   05 Jun 2027 02:23:39.064   05 Jun 2027 02:24:48.402            69.338              Murmansk1          2166.812
       333   05 Jun 2027 02:26:11.970   05 Jun 2027 02:26:18.640             6.670              Murmansk1           208.438
       334   05 Jun 2027 02:27:17.383   05 Jun 2027 02:27:55.930            38.547                 Moscow          1204.594
       335   05 Jun 2027 02:29:39.322   05 Jun 2027 02:30:37.248            57.926                 Moscow          1810.187
       336   05 Jun 2027 02:36:39.197   05 Jun 2027 02:36:57.296            18.099                 Moscow           565.594
       337   05 Jun 2027 03:54:32.800   05 Jun 2027 03:55:19.547            46.747                Anadyr2          1460.844
       338   05 Jun 2027 03:55:45.689   05 Jun 2027 04:00:05.879           260.190               Magadan1          8130.938
       339   05 Jun 2027 05:30:11.814   05 Jun 2027 05:30:40.011            28.197                Irkutsk           881.156
       340   05 Jun 2027 05:31:29.674   05 Jun 2027 05:32:35.707            66.033               Magadan1          2063.531
       341   05 Jun 2027 05:32:52.793   05 Jun 2027 05:35:23.437           150.644               Magadan1          4707.625
       342   05 Jun 2027 05:35:41.677   05 Jun 2027 05:39:06.697           205.020                Norilsk          6406.875
       343   05 Jun 2027 05:39:19.773   05 Jun 2027 05:40:00.536            40.763              Murmansk1          1273.844
       344   05 Jun 2027 05:40:31.951   05 Jun 2027 05:41:04.067            32.116              Murmansk1          1003.625
       345   05 Jun 2027 05:43:41.111   05 Jun 2027 05:44:11.602            30.491              Murmansk1           952.844
       346   05 Jun 2027 06:10:30.067   05 Jun 2027 06:12:26.636           116.569            RioGallegos          3642.781
       347   05 Jun 2027 06:14:42.437   05 Jun 2027 06:15:10.011            27.574            RioGallegos           861.688
       348   05 Jun 2027 06:15:51.886   05 Jun 2027 06:15:58.853             6.967            RioGallegos           217.719
       349   05 Jun 2027 06:18:40.158   05 Jun 2027 06:19:03.414            23.256            RioGallegos           726.750
       350   05 Jun 2027 06:45:55.558   05 Jun 2027 06:49:49.168           233.610                Sumatra          7300.313
       351   05 Jun 2027 06:59:05.901   05 Jun 2027 07:00:25.363            79.462                  Delhi          2483.188
       352   05 Jun 2027 07:02:57.766   05 Jun 2027 07:03:16.748            18.982                  Delhi           593.187
       353   05 Jun 2027 07:07:11.574   05 Jun 2027 07:07:21.519             9.945                Norilsk           310.781
       354   05 Jun 2027 07:07:28.454   05 Jun 2027 07:07:32.557             4.103                Irkutsk           128.219
       355   05 Jun 2027 07:07:37.012   05 Jun 2027 07:08:53.703            76.691                Novosib          2396.594
       356   05 Jun 2027 07:08:58.044   05 Jun 2027 07:13:03.503           245.459                Novosib          7670.594
       357   05 Jun 2027 08:23:15.342   05 Jun 2027 08:24:00.259            44.917                Sumatra          1403.656
       358   05 Jun 2027 08:29:42.775   05 Jun 2027 08:29:53.804            11.029                  Delhi           344.656
       359   05 Jun 2027 08:31:30.879   05 Jun 2027 08:32:20.014            49.135                  Delhi          1535.469
       360   05 Jun 2027 08:32:46.502   05 Jun 2027 08:32:58.062            11.560                  Delhi           361.250
       361   05 Jun 2027 08:37:07.207   05 Jun 2027 08:37:44.839            37.632                  Delhi          1176.000
       362   05 Jun 2027 08:43:42.257   05 Jun 2027 08:43:49.048             6.791                Novosib           212.219
       363   05 Jun 2027 08:44:01.399   05 Jun 2027 08:44:13.907            12.508              Murmansk1           390.875
       364   05 Jun 2027 08:44:30.822   05 Jun 2027 08:44:43.371            12.549              Murmansk2           392.156
       365   05 Jun 2027 08:44:55.036   05 Jun 2027 08:45:15.384            20.348                 Moscow           635.875
       366   05 Jun 2027 08:45:32.698   05 Jun 2027 08:45:45.786            13.088                Norilsk           409.000
       367   05 Jun 2027 08:46:03.885   05 Jun 2027 08:46:25.680            21.795              Murmansk1           681.094
       368   05 Jun 2027 08:46:31.477   05 Jun 2027 08:47:15.110            43.633              Murmansk1          1363.531
       369   05 Jun 2027 08:47:44.611   05 Jun 2027 08:47:56.385            11.774              Murmansk2           367.938
       370   05 Jun 2027 08:48:18.187   05 Jun 2027 08:48:37.435            19.248              Murmansk2           601.500
       371   05 Jun 2027 08:51:13.192   05 Jun 2027 08:51:57.477            44.285              Murmansk1          1383.906
       372   05 Jun 2027 10:07:51.641   05 Jun 2027 10:11:04.879           193.238                  Delhi          6038.688
       373   05 Jun 2027 10:19:08.977   05 Jun 2027 10:19:58.988            50.011              Murmansk2          1562.844
       374   05 Jun 2027 10:20:00.254   05 Jun 2027 10:20:09.554             9.300              Murmansk1           290.625
       375   05 Jun 2027 10:20:09.947   05 Jun 2027 10:20:57.850            47.903                 Moscow          1496.969
       376   05 Jun 2027 10:21:05.139   05 Jun 2027 10:21:43.811            38.672                 Moscow          1208.500
       377   05 Jun 2027 10:21:44.438   05 Jun 2027 10:21:51.773             7.335                Norilsk           229.219
       378   05 Jun 2027 10:21:59.001   05 Jun 2027 10:22:10.432            11.431                Novosib           357.219
       379   05 Jun 2027 10:22:12.045   05 Jun 2027 10:22:24.775            12.730              Murmansk2           397.812
       380   05 Jun 2027 10:22:24.775   05 Jun 2027 10:22:57.499            32.724              Murmansk1          1022.625
       381   05 Jun 2027 10:23:05.685   05 Jun 2027 10:23:35.774            30.089                Novosib           940.281
       382   05 Jun 2027 10:23:43.310   05 Jun 2027 10:24:22.867            39.557              Murmansk1          1236.156
       383   05 Jun 2027 10:25:18.522   05 Jun 2027 10:26:12.182            53.660                 Moscow          1676.875
       384   05 Jun 2027 11:31:11.827   05 Jun 2027 11:32:58.739           106.912               CapeTown          3341.000
       385   05 Jun 2027 11:34:43.554   05 Jun 2027 11:35:49.283            65.729               CapeTown          2054.031
       386   05 Jun 2027 12:09:07.342   05 Jun 2027 12:15:52.361           405.019                Anadyr1         12656.844
       387   05 Jun 2027 13:44:09.030   05 Jun 2027 13:45:38.458            89.428                Anadyr1          2794.625
       388   05 Jun 2027 13:46:05.586   05 Jun 2027 13:48:01.843           116.257                Anadyr2          3633.031
       389   05 Jun 2027 13:52:59.503   05 Jun 2027 13:53:43.130            43.627                Anadyr2          1363.344
       390   05 Jun 2027 15:14:03.546   05 Jun 2027 15:15:08.749            65.203              Murmansk2          2037.594
       391   05 Jun 2027 15:15:08.749   05 Jun 2027 15:15:11.514             2.765              Murmansk1            86.406
       392   05 Jun 2027 15:16:01.157   05 Jun 2027 15:16:42.082            40.925              Murmansk1          1278.906
       393   05 Jun 2027 15:19:59.072   05 Jun 2027 15:20:32.718            33.646                Anadyr1          1051.437
       394   05 Jun 2027 15:20:32.718   05 Jun 2027 15:21:51.378            78.660                Anadyr2          2458.125
       395   05 Jun 2027 15:22:33.557   05 Jun 2027 15:26:14.243           220.686               Magadan1          6896.437
       396   05 Jun 2027 15:26:14.243   05 Jun 2027 15:28:09.051           114.808               Magadan2          3587.750
       397   05 Jun 2027 15:33:50.463   05 Jun 2027 15:33:52.674             2.211               Magadan1            69.094
       398   05 Jun 2027 16:57:48.791   05 Jun 2027 16:58:21.745            32.954                Anadyr2          1029.812
       399   05 Jun 2027 16:59:21.821   05 Jun 2027 17:01:47.761           145.940                Norilsk          4560.625
       400   05 Jun 2027 17:50:28.081   05 Jun 2027 17:53:40.536           192.455            RioGallegos          6014.219
       401   05 Jun 2027 17:54:08.387   05 Jun 2027 17:56:33.637           145.250            RioGallegos          4539.062
       402   05 Jun 2027 18:35:08.170   05 Jun 2027 18:37:45.669           157.499                Norilsk          4921.844
       403   05 Jun 2027 18:37:59.336   05 Jun 2027 18:41:38.691           219.355                Irkutsk          6854.844
       404   05 Jun 2027 18:41:40.883   05 Jun 2027 18:44:27.277           166.394                Novosib          5199.812
       405   05 Jun 2027 18:53:22.439   05 Jun 2027 18:54:16.305            53.866                Sumatra          1683.312
       406   05 Jun 2027 18:55:41.616   05 Jun 2027 18:57:02.615            80.999                Sumatra          2531.219
       407   05 Jun 2027 20:20:18.926   05 Jun 2027 20:20:29.036            10.110                Novosib           315.938
       408   05 Jun 2027 20:21:38.123   05 Jun 2027 20:25:20.663           222.540                  Delhi          6954.375
       409   05 Jun 2027 20:26:19.348   05 Jun 2027 20:28:07.868           108.520                  Delhi          3391.250
       410   05 Jun 2027 21:48:05.865   05 Jun 2027 21:53:39.262           333.397              Murmansk2         10418.656
       411   05 Jun 2027 21:54:24.898   05 Jun 2027 21:56:35.690           130.792              Murmansk1          4087.250
       412   05 Jun 2027 21:58:06.994   05 Jun 2027 21:59:06.415            59.421                 Moscow          1856.906
       413   05 Jun 2027 23:23:48.869   05 Jun 2027 23:24:59.929            71.060              Murmansk1          2220.625
       414   05 Jun 2027 23:27:12.287   05 Jun 2027 23:28:12.798            60.511                 Moscow          1890.969
       415   05 Jun 2027 23:31:56.341   05 Jun 2027 23:33:51.789           115.448                 Moscow          3607.750
       416   05 Jun 2027 23:51:38.212   05 Jun 2027 23:53:24.167           105.955               CapeTown          3311.094
       417   05 Jun 2027 23:54:29.536   05 Jun 2027 23:55:22.008            52.472               CapeTown          1639.750
       418   05 Jun 2027 23:56:18.734   05 Jun 2027 23:56:28.028             9.294               CapeTown           290.438
       419   06 Jun 2027 00:59:46.799   06 Jun 2027 01:00:51.937            65.138              Murmansk1          2035.562
       420   06 Jun 2027 01:01:00.718   06 Jun 2027 01:02:15.030            74.312              Murmansk2          2322.250
       421   06 Jun 2027 01:06:16.057   06 Jun 2027 01:06:43.130            27.073                 Moscow           846.031
       422   06 Jun 2027 01:12:17.735   06 Jun 2027 01:12:26.820             9.085                 Moscow           283.906
       423   06 Jun 2027 01:27:31.723   06 Jun 2027 01:29:11.952           100.229               CapeTown          3132.156
       424   06 Jun 2027 02:23:44.068   06 Jun 2027 02:26:15.670           151.602               Magadan1          4737.562
       425   06 Jun 2027 02:27:45.012   06 Jun 2027 02:28:33.852            48.840               Magadan1          1526.250
       426   06 Jun 2027 02:34:14.972   06 Jun 2027 02:34:32.223            17.251                Norilsk           539.094
       427   06 Jun 2027 02:35:39.130   06 Jun 2027 02:36:49.697            70.567              Murmansk1          2205.219
       428   06 Jun 2027 02:38:05.718   06 Jun 2027 02:38:20.449            14.731              Murmansk1           460.344
       429   06 Jun 2027 02:39:24.192   06 Jun 2027 02:40:12.189            47.997                 Moscow          1499.906
       430   06 Jun 2027 02:42:26.208   06 Jun 2027 02:42:34.910             8.702                 Moscow           271.938
       431   06 Jun 2027 02:44:13.988   06 Jun 2027 02:44:30.440            16.452                 Moscow           514.125
       432   06 Jun 2027 02:47:21.534   06 Jun 2027 02:48:31.687            70.153                 Moscow          2192.281
       433   06 Jun 2027 03:17:42.528   06 Jun 2027 03:18:01.408            18.880            RioGallegos           590.000
       434   06 Jun 2027 03:19:00.971   06 Jun 2027 03:20:14.326            73.355            RioGallegos          2292.344
       435   06 Jun 2027 04:06:45.865   06 Jun 2027 04:09:53.479           187.614                Anadyr1          5862.938
       436   06 Jun 2027 04:09:57.603   06 Jun 2027 04:11:56.775           119.172                Anadyr2          3724.125
       437   06 Jun 2027 05:42:37.889   06 Jun 2027 05:43:06.619            28.730               Magadan2           897.812
       438   06 Jun 2027 05:43:13.602   06 Jun 2027 05:44:45.047            91.445               Magadan2          2857.656
       439   06 Jun 2027 05:44:55.746   06 Jun 2027 05:45:03.840             8.094               Magadan1           252.938
       440   06 Jun 2027 05:45:06.462   06 Jun 2027 05:47:49.235           162.773                Irkutsk          5086.656
       441   06 Jun 2027 06:22:32.102   06 Jun 2027 06:24:11.752            99.650            RioGallegos          3114.062
       442   06 Jun 2027 06:27:49.910   06 Jun 2027 06:27:53.363             3.453            RioGallegos           107.906
       443   06 Jun 2027 06:30:04.533   06 Jun 2027 06:30:18.649            14.116            RioGallegos           441.125
       444   06 Jun 2027 06:57:40.583   06 Jun 2027 06:59:11.966            91.383                Sumatra          2855.719
       445   06 Jun 2027 07:01:04.194   06 Jun 2027 07:01:53.256            49.062                Sumatra          1533.188
       446   06 Jun 2027 07:09:33.639   06 Jun 2027 07:11:22.378           108.739                  Delhi          3398.094
       447   06 Jun 2027 07:12:34.207   06 Jun 2027 07:13:51.212            77.005                  Delhi          2406.406
       448   06 Jun 2027 07:19:13.005   06 Jun 2027 07:20:20.774            67.769                Norilsk          2117.781
       449   06 Jun 2027 07:20:32.132   06 Jun 2027 07:22:12.352           100.220              Murmansk1          3131.875
       450   06 Jun 2027 07:22:20.522   06 Jun 2027 07:22:49.906            29.384                Norilsk           918.250
       451   06 Jun 2027 07:22:58.184   06 Jun 2027 07:23:44.418            46.234                Irkutsk          1444.812
       452   06 Jun 2027 07:23:45.276   06 Jun 2027 07:23:58.126            12.850                Novosib           401.562
       453   06 Jun 2027 07:24:04.595   06 Jun 2027 07:24:57.799            53.204              Murmansk1          1662.625
       454   06 Jun 2027 08:00:59.069   06 Jun 2027 08:01:59.799            60.730            RioGallegos          1897.813
       455   06 Jun 2027 08:03:38.860   06 Jun 2027 08:03:45.941             7.081            RioGallegos           221.281
       456   06 Jun 2027 08:35:16.657   06 Jun 2027 08:36:54.584            97.927                Sumatra          3060.219
       457   06 Jun 2027 08:41:38.560   06 Jun 2027 08:42:28.458            49.898                  Delhi          1559.312
       458   06 Jun 2027 08:49:18.019   06 Jun 2027 08:51:13.522           115.503                  Delhi          3609.469
       459   06 Jun 2027 08:55:47.683   06 Jun 2027 08:56:27.807            40.124                 Moscow          1253.875
       460   06 Jun 2027 08:56:30.811   06 Jun 2027 08:56:59.529            28.718              Murmansk1           897.438
       461   06 Jun 2027 08:57:00.821   06 Jun 2027 08:57:23.630            22.809                Novosib           712.781
       462   06 Jun 2027 08:57:56.166   06 Jun 2027 08:58:16.969            20.803              Murmansk1           650.094
       463   06 Jun 2027 08:58:18.942   06 Jun 2027 08:58:27.434             8.492              Murmansk1           265.375
       464   06 Jun 2027 08:58:28.192   06 Jun 2027 08:58:38.503            10.311                Norilsk           322.219
       465   06 Jun 2027 08:58:55.645   06 Jun 2027 09:00:05.746            70.101                 Moscow          2190.656
       466   06 Jun 2027 10:21:01.278   06 Jun 2027 10:23:05.949           124.671                  Delhi          3895.969
       467   06 Jun 2027 10:23:48.958   06 Jun 2027 10:24:11.323            22.365                  Delhi           698.906
       468   06 Jun 2027 10:29:18.725   06 Jun 2027 10:30:11.466            52.741                 Moscow          1648.156
       469   06 Jun 2027 10:30:14.910   06 Jun 2027 10:30:16.763             1.853                Novosib            57.906
       470   06 Jun 2027 10:30:23.041   06 Jun 2027 10:30:52.354            29.313              Murmansk1           916.031
       471   06 Jun 2027 10:31:01.635   06 Jun 2027 10:31:56.751            55.116              Murmansk1          1722.375
       472   06 Jun 2027 10:31:59.949   06 Jun 2027 10:32:49.325            49.376              Murmansk2          1543.000
       473   06 Jun 2027 10:33:00.591   06 Jun 2027 10:34:32.104            91.513                 Moscow          2859.781
       474   06 Jun 2027 10:34:53.555   06 Jun 2027 10:35:41.236            47.681              Murmansk1          1490.031
       475   06 Jun 2027 10:36:26.059   06 Jun 2027 10:36:27.216             1.157                Norilsk            36.156
       476   06 Jun 2027 10:36:40.615   06 Jun 2027 10:37:05.020            24.405                 Moscow           762.656
       477   06 Jun 2027 11:41:58.957   06 Jun 2027 11:44:38.748           159.791               CapeTown          4993.469
       478   06 Jun 2027 11:45:26.999   06 Jun 2027 11:48:32.587           185.588               CapeTown          5799.625
       479   06 Jun 2027 11:48:50.593   06 Jun 2027 11:49:19.186            28.593               CapeTown           893.531
       480   06 Jun 2027 12:20:54.022   06 Jun 2027 12:26:56.494           362.472                Anadyr1         11327.250
       481   06 Jun 2027 12:27:29.043   06 Jun 2027 12:28:40.747            71.704                Anadyr2          2240.750
       482   06 Jun 2027 13:56:08.539   06 Jun 2027 13:57:32.988            84.449                Anadyr2          2639.031
