uniorb/output/strategy_1/Drop/Drop_KinoSat_111602.txt

KinoSat_111602
-------------------------
    Access    *     Start Time (UTCG)     *     Stop Time (UTCG)  *   Duration (s)        *       Station  *  Data (Mbytes)
         1   01 Jun 2027 03:45:52.972   01 Jun 2027 03:46:47.696            54.724              Murmansk1          1710.125
         2   01 Jun 2027 03:46:54.921   01 Jun 2027 03:50:50.910           235.989                Novosib          7374.656
         3   01 Jun 2027 03:51:34.301   01 Jun 2027 03:51:51.240            16.939                 Moscow           529.344
         4   01 Jun 2027 04:07:48.044   01 Jun 2027 04:08:05.193            17.149               CapeTown           535.906
         5   01 Jun 2027 05:23:18.417   01 Jun 2027 05:23:51.861            33.444                Norilsk          1045.125
         6   01 Jun 2027 05:23:53.558   01 Jun 2027 05:24:51.436            57.878              Murmansk2          1808.688
         7   01 Jun 2027 05:24:51.436   01 Jun 2027 05:25:04.383            12.947              Murmansk1           404.594
         8   01 Jun 2027 05:25:22.234   01 Jun 2027 05:26:05.204            42.970              Murmansk1          1342.812
         9   01 Jun 2027 05:26:50.903   01 Jun 2027 05:27:11.355            20.452              Murmansk2           639.125
        10   01 Jun 2027 05:28:01.717   01 Jun 2027 05:28:03.373             1.656              Murmansk2            51.750
        11   01 Jun 2027 05:43:21.981   01 Jun 2027 05:44:28.950            66.969               CapeTown          2092.781
        12   01 Jun 2027 06:46:08.845   01 Jun 2027 06:50:10.825           241.980                Anadyr1          7561.875
        13   01 Jun 2027 06:52:42.413   01 Jun 2027 06:52:44.777             2.364              Murmansk2            73.875
        14   01 Jun 2027 08:23:23.748   01 Jun 2027 08:27:32.339           248.591                Anadyr2          7768.469
        15   01 Jun 2027 08:27:32.339   01 Jun 2027 08:27:39.037             6.698                Anadyr1           209.313
        16   01 Jun 2027 09:58:27.776   01 Jun 2027 09:58:36.528             8.752                Novosib           273.500
        17   01 Jun 2027 09:58:45.044   01 Jun 2027 10:03:01.925           256.881               Magadan1          8027.531
        18   01 Jun 2027 10:03:19.661   01 Jun 2027 10:03:49.921            30.260              Murmansk2           945.625
        19   01 Jun 2027 10:03:49.921   01 Jun 2027 10:05:30.275           100.354              Murmansk1          3136.063
        20   01 Jun 2027 10:38:02.001   01 Jun 2027 10:39:05.020            63.019            RioGallegos          1969.344
        21   01 Jun 2027 11:13:37.910   01 Jun 2027 11:14:51.614            73.704                Sumatra          2303.250
        22   01 Jun 2027 11:34:59.770   01 Jun 2027 11:35:16.014            16.244                Irkutsk           507.625
        23   01 Jun 2027 11:35:29.015   01 Jun 2027 11:36:40.669            71.654                Novosib          2239.187
        24   01 Jun 2027 11:36:44.663   01 Jun 2027 11:37:12.077            27.414                Norilsk           856.688
        25   01 Jun 2027 11:37:20.496   01 Jun 2027 11:37:38.308            17.812              Murmansk2           556.625
        26   01 Jun 2027 11:37:45.200   01 Jun 2027 11:42:13.706           268.506                Norilsk          8390.812
        27   01 Jun 2027 12:15:32.824   01 Jun 2027 12:16:30.308            57.484            RioGallegos          1796.375
        28   01 Jun 2027 12:17:48.994   01 Jun 2027 12:19:11.023            82.029            RioGallegos          2563.406
        29   01 Jun 2027 12:49:45.777   01 Jun 2027 12:53:10.013           204.236                Sumatra          6382.375
        30   01 Jun 2027 13:05:12.816   01 Jun 2027 13:09:31.197           258.381                Irkutsk          8074.406
        31   01 Jun 2027 14:34:54.640   01 Jun 2027 14:37:00.197           125.557                  Delhi          3923.656
        32   01 Jun 2027 14:38:10.104   01 Jun 2027 14:39:47.964            97.860                  Delhi          3058.125
        33   01 Jun 2027 14:43:24.106   01 Jun 2027 14:48:06.812           282.706                Novosib          8834.562
        34   01 Jun 2027 16:00:07.862   01 Jun 2027 16:00:34.720            26.858               CapeTown           839.312
        35   01 Jun 2027 16:17:46.680   01 Jun 2027 16:19:28.730           102.050                 Moscow          3189.063
        36   01 Jun 2027 16:21:16.443   01 Jun 2027 16:23:52.716           156.273              Murmansk1          4883.531
        37   01 Jun 2027 16:29:21.889   01 Jun 2027 16:30:18.921            57.032                Norilsk          1782.250
        38   01 Jun 2027 16:36:44.113   01 Jun 2027 16:37:43.205            59.092                Anadyr2          1846.625
        39   01 Jun 2027 16:40:56.021   01 Jun 2027 16:40:58.069             2.048                Anadyr2            64.000
        40   01 Jun 2027 16:41:03.766   01 Jun 2027 16:41:54.309            50.543                Anadyr2          1579.469
        41   01 Jun 2027 17:31:02.972   01 Jun 2027 17:32:51.827           108.855               CapeTown          3401.719
        42   01 Jun 2027 17:37:35.644   01 Jun 2027 17:37:55.356            19.712               CapeTown           616.000
        43   01 Jun 2027 17:39:06.943   01 Jun 2027 17:39:31.676            24.733               CapeTown           772.906
        44   01 Jun 2027 17:57:39.169   01 Jun 2027 18:01:40.819           241.650                 Moscow          7551.563
        45   01 Jun 2027 18:08:36.169   01 Jun 2027 18:09:29.800            53.631              Murmansk2          1675.969
        46   01 Jun 2027 18:19:52.637   01 Jun 2027 18:20:04.872            12.235                Anadyr1           382.344
        47   01 Jun 2027 18:20:21.564   01 Jun 2027 18:20:33.394            11.830                Anadyr1           369.688
        48   01 Jun 2027 18:22:04.696   01 Jun 2027 18:22:28.073            23.377                Anadyr2           730.531
        49   01 Jun 2027 18:22:42.996   01 Jun 2027 18:22:48.939             5.943                Anadyr2           185.719
        50   01 Jun 2027 19:07:49.792   01 Jun 2027 19:09:00.825            71.033               CapeTown          2219.781
        51   01 Jun 2027 19:10:50.495   01 Jun 2027 19:11:56.310            65.815               CapeTown          2056.719
        52   01 Jun 2027 19:40:43.410   01 Jun 2027 19:44:15.040           211.630              Murmansk1          6613.437
        53   01 Jun 2027 19:50:06.278   01 Jun 2027 19:51:58.314           112.036               Magadan1          3501.125
        54   01 Jun 2027 19:52:49.396   01 Jun 2027 19:53:17.585            28.189               Magadan2           880.906
        55   01 Jun 2027 19:58:14.929   01 Jun 2027 19:58:32.418            17.489               Magadan1           546.531
        56   01 Jun 2027 21:23:25.692   01 Jun 2027 21:27:08.454           222.762                Anadyr1          6961.312
        57   01 Jun 2027 21:27:16.258   01 Jun 2027 21:29:30.295           134.037               Magadan1          4188.656
        58   01 Jun 2027 21:29:30.295   01 Jun 2027 21:31:24.028           113.733               Magadan2          3554.156
        59   01 Jun 2027 21:32:54.421   01 Jun 2027 21:33:19.576            25.155               Magadan2           786.094
        60   01 Jun 2027 21:34:43.833   01 Jun 2027 21:35:23.900            40.067               Magadan2          1252.094
        61   01 Jun 2027 21:37:35.433   01 Jun 2027 21:37:38.397             2.964               Magadan2            92.625
        62   01 Jun 2027 21:38:03.700   01 Jun 2027 21:38:37.184            33.484               Magadan2          1046.375
        63   01 Jun 2027 22:18:05.627   01 Jun 2027 22:20:07.654           122.027            RioGallegos          3813.344
        64   01 Jun 2027 22:20:54.734   01 Jun 2027 22:21:21.641            26.907            RioGallegos           840.844
        65   01 Jun 2027 22:26:31.188   01 Jun 2027 22:27:29.342            58.154            RioGallegos          1817.312
        66   01 Jun 2027 22:59:06.270   01 Jun 2027 23:00:01.595            55.325                Anadyr1          1728.906
        67   01 Jun 2027 23:01:10.305   01 Jun 2027 23:01:19.783             9.478                Anadyr1           296.188
        68   01 Jun 2027 23:01:43.924   01 Jun 2027 23:02:39.578            55.654               Magadan1          1739.187
        69   01 Jun 2027 23:02:39.578   01 Jun 2027 23:03:23.013            43.435               Magadan2          1357.344
        70   01 Jun 2027 23:04:55.484   01 Jun 2027 23:06:01.111            65.627               Magadan2          2050.844
        71   01 Jun 2027 23:06:03.922   01 Jun 2027 23:06:46.636            42.714                Irkutsk          1334.813
        72   01 Jun 2027 23:08:37.424   01 Jun 2027 23:10:14.198            96.774                Novosib          3024.188
        73   01 Jun 2027 23:19:57.971   01 Jun 2027 23:20:24.041            26.070                Sumatra           814.687
        74   01 Jun 2027 23:21:00.534   01 Jun 2027 23:21:37.477            36.943                Sumatra          1154.469
        75   01 Jun 2027 23:22:43.608   01 Jun 2027 23:23:16.837            33.229                Sumatra          1038.406
        76   01 Jun 2027 23:26:55.505   01 Jun 2027 23:28:49.667           114.162                Sumatra          3567.563
        77   02 Jun 2027 00:33:59.193   02 Jun 2027 00:34:34.351            35.158                Anadyr2          1098.688
        78   02 Jun 2027 00:35:08.298   02 Jun 2027 00:35:39.435            31.137                Anadyr1           973.031
        79   02 Jun 2027 00:36:06.273   02 Jun 2027 00:36:26.007            19.734                Anadyr2           616.688
        80   02 Jun 2027 00:37:11.324   02 Jun 2027 00:38:54.529           103.205                Norilsk          3225.156
        81   02 Jun 2027 00:39:20.984   02 Jun 2027 00:39:39.422            18.438               Magadan1           576.188
        82   02 Jun 2027 00:40:36.863   02 Jun 2027 00:40:45.233             8.370               Magadan1           261.563
        83   02 Jun 2027 00:40:57.200   02 Jun 2027 00:41:48.502            51.302               Magadan1          1603.187
        84   02 Jun 2027 00:42:05.665   02 Jun 2027 00:43:14.389            68.724                Novosib          2147.625
        85   02 Jun 2027 00:43:39.728   02 Jun 2027 00:43:57.276            17.548                Novosib           548.375
        86   02 Jun 2027 00:45:59.777   02 Jun 2027 00:46:56.947            57.170                Novosib          1786.563
        87   02 Jun 2027 00:49:22.500   02 Jun 2027 00:50:01.805            39.305                  Delhi          1228.281
        88   02 Jun 2027 00:54:04.469   02 Jun 2027 00:54:37.389            32.920                  Delhi          1028.750
        89   02 Jun 2027 00:55:59.693   02 Jun 2027 00:55:59.952             0.259                  Delhi             8.094
        90   02 Jun 2027 00:56:32.244   02 Jun 2027 00:56:55.864            23.620                  Delhi           738.125
        91   02 Jun 2027 00:59:18.534   02 Jun 2027 00:59:40.197            21.663                  Delhi           676.969
        92   02 Jun 2027 01:01:10.575   02 Jun 2027 01:01:17.753             7.178                Sumatra           224.312
        93   02 Jun 2027 01:02:11.700   02 Jun 2027 01:02:40.528            28.828                Sumatra           900.875
        94   02 Jun 2027 01:05:45.785   02 Jun 2027 01:05:54.538             8.753                Sumatra           273.531
        95   02 Jun 2027 01:30:57.910   02 Jun 2027 01:31:09.598            11.688            RioGallegos           365.250
        96   02 Jun 2027 01:32:26.986   02 Jun 2027 01:32:54.358            27.372            RioGallegos           855.375
        97   02 Jun 2027 01:35:57.439   02 Jun 2027 01:36:09.475            12.036            RioGallegos           376.125
        98   02 Jun 2027 01:36:50.342   02 Jun 2027 01:37:19.899            29.557            RioGallegos           923.656
        99   02 Jun 2027 01:37:44.007   02 Jun 2027 01:37:44.267             0.260            RioGallegos             8.125
       100   02 Jun 2027 01:39:07.433   02 Jun 2027 01:39:51.969            44.536            RioGallegos          1391.750
       101   02 Jun 2027 02:08:44.259   02 Jun 2027 02:09:00.903            16.644                Anadyr2           520.125
       102   02 Jun 2027 02:09:32.601   02 Jun 2027 02:10:02.932            30.331                Anadyr1           947.844
       103   02 Jun 2027 02:12:55.375   02 Jun 2027 02:13:23.827            28.452                Anadyr2           889.125
       104   02 Jun 2027 02:13:33.371   02 Jun 2027 02:14:04.652            31.281               Magadan1           977.531
       105   02 Jun 2027 02:14:10.672   02 Jun 2027 02:14:28.248            17.576                Norilsk           549.250
       106   02 Jun 2027 02:14:36.309   02 Jun 2027 02:14:47.722            11.413                Norilsk           356.656
       107   02 Jun 2027 02:15:36.469   02 Jun 2027 02:16:22.492            46.023              Murmansk1          1438.219
       108   02 Jun 2027 02:16:40.051   02 Jun 2027 02:17:03.068            23.017              Murmansk2           719.281
       109   02 Jun 2027 02:17:16.391   02 Jun 2027 02:17:51.737            35.346                Novosib          1104.562
       110   02 Jun 2027 02:18:08.840   02 Jun 2027 02:19:37.954            89.114                Irkutsk          2784.813
       111   02 Jun 2027 02:27:41.473   02 Jun 2027 02:28:04.652            23.179                Novosib           724.344
       112   02 Jun 2027 02:29:41.519   02 Jun 2027 02:30:07.163            25.644                  Delhi           801.375
       113   02 Jun 2027 02:32:57.851   02 Jun 2027 02:33:17.048            19.197                  Delhi           599.906
       114   02 Jun 2027 02:35:55.649   02 Jun 2027 02:36:34.325            38.676                  Delhi          1208.625
       115   02 Jun 2027 03:51:52.612   02 Jun 2027 03:52:14.606            21.994                Anadyr1           687.312
       116   02 Jun 2027 03:57:53.833   02 Jun 2027 03:58:12.315            18.482                Norilsk           577.562
       117   02 Jun 2027 03:58:30.685   02 Jun 2027 03:58:35.717             5.032                Norilsk           157.250
       118   02 Jun 2027 03:58:36.350   02 Jun 2027 04:01:19.363           163.013                Norilsk          5094.156
       119   02 Jun 2027 04:01:22.254   02 Jun 2027 04:01:53.469            31.215                 Moscow           975.469
       120   02 Jun 2027 04:01:57.323   02 Jun 2027 04:02:44.208            46.885              Murmansk2          1465.156
       121   02 Jun 2027 04:02:56.732   02 Jun 2027 04:03:09.786            13.054              Murmansk2           407.938
       122   02 Jun 2027 04:03:58.648   02 Jun 2027 04:06:54.211           175.563                 Moscow          5486.344
       123   02 Jun 2027 04:19:21.910   02 Jun 2027 04:28:39.903           557.993               CapeTown         17437.281
       124   02 Jun 2027 05:35:00.491   02 Jun 2027 05:35:35.980            35.489              Murmansk1          1109.031
       125   02 Jun 2027 05:35:45.490   02 Jun 2027 05:36:53.383            67.893              Murmansk1          2121.656
       126   02 Jun 2027 05:36:54.249   02 Jun 2027 05:37:30.655            36.406              Murmansk1          1137.687
       127   02 Jun 2027 05:41:19.046   02 Jun 2027 05:41:53.079            34.033                 Moscow          1063.531
       128   02 Jun 2027 06:58:52.879   02 Jun 2027 07:00:03.512            70.633                Anadyr2          2207.281
       129   02 Jun 2027 07:00:11.934   02 Jun 2027 07:01:13.372            61.438                Anadyr2          1919.937
       130   02 Jun 2027 08:34:48.619   02 Jun 2027 08:35:54.267            65.648               Magadan2          2051.500
       131   02 Jun 2027 08:36:01.064   02 Jun 2027 08:36:37.621            36.557                Anadyr2          1142.406
       132   02 Jun 2027 08:37:21.096   02 Jun 2027 08:39:38.217           137.121               Magadan2          4285.031
       133   02 Jun 2027 08:45:02.163   02 Jun 2027 08:45:58.415            56.252              Murmansk2          1757.875
       134   02 Jun 2027 09:15:45.511   02 Jun 2027 09:16:57.644            72.133            RioGallegos          2254.156
       135   02 Jun 2027 10:08:38.967   02 Jun 2027 10:09:50.172            71.205               Magadan1          2225.156
       136   02 Jun 2027 10:10:27.173   02 Jun 2027 10:10:57.109            29.936               Magadan1           935.500
       137   02 Jun 2027 10:11:11.782   02 Jun 2027 10:14:53.003           221.221               Magadan2          6913.156
       138   02 Jun 2027 11:46:27.165   02 Jun 2027 11:49:00.677           153.512                Novosib          4797.250
       139   02 Jun 2027 11:49:12.205   02 Jun 2027 11:51:15.430           123.225                Norilsk          3850.781
       140   02 Jun 2027 11:51:21.919   02 Jun 2027 11:51:44.597            22.678                Novosib           708.687
       141   02 Jun 2027 11:52:15.460   02 Jun 2027 11:52:33.609            18.149                Norilsk           567.156
       142   02 Jun 2027 12:28:07.899   02 Jun 2027 12:28:30.089            22.190            RioGallegos           693.437
       143   02 Jun 2027 12:31:30.359   02 Jun 2027 12:33:06.647            96.288            RioGallegos          3009.000
       144   02 Jun 2027 13:02:23.009   02 Jun 2027 13:02:58.524            35.515                Sumatra          1109.844
       145   02 Jun 2027 13:05:10.196   02 Jun 2027 13:07:22.341           132.145                Sumatra          4129.531
       146   02 Jun 2027 13:18:04.314   02 Jun 2027 13:21:31.573           207.259                Irkutsk          6476.844
       147   02 Jun 2027 13:24:23.768   02 Jun 2027 13:24:33.422             9.654                Norilsk           301.687
       148   02 Jun 2027 13:25:18.338   02 Jun 2027 13:25:40.495            22.157                Irkutsk           692.406
       149   02 Jun 2027 14:47:51.231   02 Jun 2027 14:52:22.606           271.375                  Delhi          8480.469
       150   02 Jun 2027 14:56:22.004   02 Jun 2027 14:58:57.967           155.963                Novosib          4873.844
       151   02 Jun 2027 14:59:20.858   02 Jun 2027 15:00:44.123            83.265                Norilsk          2602.031
       152   02 Jun 2027 15:02:58.565   02 Jun 2027 15:04:26.113            87.548                Norilsk          2735.875
       153   02 Jun 2027 16:10:01.189   02 Jun 2027 16:11:36.473            95.284               CapeTown          2977.625
       154   02 Jun 2027 16:15:00.156   02 Jun 2027 16:15:43.758            43.602               CapeTown          1362.563
       155   02 Jun 2027 16:30:01.318   02 Jun 2027 16:30:36.720            35.402                 Moscow          1106.313
       156   02 Jun 2027 16:30:56.734   02 Jun 2027 16:31:30.762            34.028                 Moscow          1063.375
       157   02 Jun 2027 16:33:27.933   02 Jun 2027 16:34:13.108            45.175              Murmansk2          1411.719
       158   02 Jun 2027 16:35:50.954   02 Jun 2027 16:36:18.905            27.951              Murmansk1           873.469
       159   02 Jun 2027 16:36:54.046   02 Jun 2027 16:36:57.925             3.879              Murmansk2           121.219
       160   02 Jun 2027 16:37:57.346   02 Jun 2027 16:38:18.714            21.368              Murmansk1           667.750
       161   02 Jun 2027 16:39:30.602   02 Jun 2027 16:40:04.236            33.634              Murmansk1          1051.062
       162   02 Jun 2027 16:41:32.055   02 Jun 2027 16:42:12.297            40.242                 Moscow          1257.562
       163   02 Jun 2027 16:42:50.020   02 Jun 2027 16:43:12.715            22.695              Murmansk1           709.219
       164   02 Jun 2027 16:44:39.938   02 Jun 2027 16:45:23.216            43.278              Murmansk1          1352.437
       165   02 Jun 2027 16:48:28.861   02 Jun 2027 16:48:36.772             7.911                Anadyr1           247.219
       166   02 Jun 2027 16:48:36.772   02 Jun 2027 16:48:58.832            22.060                Anadyr2           689.375
       167   02 Jun 2027 16:49:27.160   02 Jun 2027 16:49:46.228            19.068                Anadyr2           595.875
       168   02 Jun 2027 16:50:54.305   02 Jun 2027 16:51:03.535             9.230                Anadyr1           288.437
       169   02 Jun 2027 16:51:03.535   02 Jun 2027 16:51:12.582             9.047                Anadyr2           282.719
       170   02 Jun 2027 16:51:50.291   02 Jun 2027 16:52:12.674            22.383                Anadyr1           699.469
       171   02 Jun 2027 16:52:37.311   02 Jun 2027 16:52:58.004            20.693                Anadyr2           646.656
       172   02 Jun 2027 16:53:55.510   02 Jun 2027 16:54:26.661            31.151                Anadyr2           973.469
       173   02 Jun 2027 16:54:47.324   02 Jun 2027 16:54:57.734            10.410                Anadyr1           325.312
       174   02 Jun 2027 16:55:15.204   02 Jun 2027 16:55:22.315             7.111                Anadyr1           222.219
       175   02 Jun 2027 16:55:29.265   02 Jun 2027 16:55:50.295            21.030                Anadyr2           657.187
       176   02 Jun 2027 17:47:12.124   02 Jun 2027 17:48:49.581            97.457               CapeTown          3045.531
       177   02 Jun 2027 17:52:34.836   02 Jun 2027 17:53:04.027            29.191               CapeTown           912.219
       178   02 Jun 2027 17:55:31.869   02 Jun 2027 17:55:48.628            16.759               CapeTown           523.719
       179   02 Jun 2027 18:10:51.178   02 Jun 2027 18:13:25.451           154.273                 Moscow          4821.031
       180   02 Jun 2027 18:13:56.159   02 Jun 2027 18:14:17.523            21.364              Murmansk1           667.625
       181   02 Jun 2027 18:14:27.244   02 Jun 2027 18:14:59.017            31.773                 Moscow           992.906
       182   02 Jun 2027 18:15:57.159   02 Jun 2027 18:16:05.327             8.168              Murmansk2           255.250
       183   02 Jun 2027 18:17:04.353   02 Jun 2027 18:18:04.520            60.167              Murmansk2          1880.219
       184   02 Jun 2027 18:20:01.705   02 Jun 2027 18:21:07.139            65.434              Murmansk2          2044.812
       185   02 Jun 2027 18:32:22.915   02 Jun 2027 18:33:13.963            51.048                Anadyr1          1595.250
       186   02 Jun 2027 18:34:09.166   02 Jun 2027 18:34:24.578            15.412                Anadyr1           481.625
       187   02 Jun 2027 18:35:11.383   02 Jun 2027 18:35:36.824            25.441                Anadyr2           795.031
       188   02 Jun 2027 19:22:47.385   02 Jun 2027 19:23:44.150            56.765               CapeTown          1773.906
       189   02 Jun 2027 19:25:56.611   02 Jun 2027 19:26:23.838            27.227               CapeTown           850.844
       190   02 Jun 2027 19:26:36.198   02 Jun 2027 19:27:17.868            41.670               CapeTown          1302.188
       191   02 Jun 2027 19:54:11.064   02 Jun 2027 19:55:59.845           108.781              Murmansk2          3399.406
       192   02 Jun 2027 20:01:55.726   02 Jun 2027 20:03:25.689            89.963                Anadyr1          2811.344
       193   02 Jun 2027 20:03:27.204   02 Jun 2027 20:03:35.812             8.608               Magadan1           269.000
       194   02 Jun 2027 20:03:42.802   02 Jun 2027 20:04:01.039            18.237               Magadan1           569.906
       195   02 Jun 2027 20:04:36.016   02 Jun 2027 20:04:41.623             5.607               Magadan2           175.219
       196   02 Jun 2027 20:04:46.513   02 Jun 2027 20:05:25.672            39.159               Magadan2          1223.719
       197   02 Jun 2027 20:07:24.488   02 Jun 2027 20:07:34.975            10.487                Anadyr1           327.719
       198   02 Jun 2027 20:08:01.074   02 Jun 2027 20:08:13.791            12.717               Magadan2           397.406
       199   02 Jun 2027 20:08:26.952   02 Jun 2027 20:08:51.069            24.117               Magadan2           753.656
       200   02 Jun 2027 20:08:51.248   02 Jun 2027 20:08:59.337             8.089               Magadan1           252.781
       201   02 Jun 2027 20:09:29.038   02 Jun 2027 20:09:49.112            20.074               Magadan2           627.312
       202   02 Jun 2027 20:10:16.829   02 Jun 2027 20:10:33.192            16.363               Magadan1           511.344
       203   02 Jun 2027 20:10:33.192   02 Jun 2027 20:10:48.078            14.886               Magadan2           465.188
       204   02 Jun 2027 20:11:16.174   02 Jun 2027 20:11:34.716            18.542               Magadan2           579.437
       205   02 Jun 2027 20:12:07.982   02 Jun 2027 20:12:27.572            19.590                Anadyr2           612.188
       206   02 Jun 2027 20:12:36.157   02 Jun 2027 20:13:35.773            59.616               Magadan2          1863.000
       207   02 Jun 2027 21:35:26.694   02 Jun 2027 21:39:17.779           231.085                Anadyr1          7221.406
       208   02 Jun 2027 21:39:28.115   02 Jun 2027 21:40:45.186            77.071                Norilsk          2408.469
       209   02 Jun 2027 21:40:56.821   02 Jun 2027 21:41:44.002            47.181                Norilsk          1474.406
       210   02 Jun 2027 21:43:23.017   02 Jun 2027 21:44:10.127            47.110               Magadan2          1472.188
       211   02 Jun 2027 21:46:10.082   02 Jun 2027 21:46:25.765            15.683                Anadyr2           490.094
       212   02 Jun 2027 21:46:52.642   02 Jun 2027 21:47:53.316            60.674               Magadan2          1896.063
       213   02 Jun 2027 22:29:58.691   02 Jun 2027 22:30:35.411            36.720            RioGallegos          1147.500
       214   02 Jun 2027 22:33:15.175   02 Jun 2027 22:33:28.961            13.786            RioGallegos           430.813
       215   02 Jun 2027 22:34:06.666   02 Jun 2027 22:34:40.273            33.607            RioGallegos          1050.219
       216   02 Jun 2027 22:35:22.471   02 Jun 2027 22:36:06.562            44.091            RioGallegos          1377.844
       217   02 Jun 2027 22:36:47.920   02 Jun 2027 22:37:14.351            26.431            RioGallegos           825.969
       218   02 Jun 2027 22:39:19.090   02 Jun 2027 22:39:35.635            16.545            RioGallegos           517.031
       219   02 Jun 2027 23:11:03.440   02 Jun 2027 23:13:14.665           131.225                Anadyr1          4100.781
       220   02 Jun 2027 23:13:14.665   02 Jun 2027 23:13:18.891             4.226                Anadyr2           132.062
       221   02 Jun 2027 23:13:21.689   02 Jun 2027 23:14:56.089            94.400                Norilsk          2950.000
       222   02 Jun 2027 23:14:56.446   02 Jun 2027 23:15:05.920             9.474               Magadan2           296.062
       223   02 Jun 2027 23:15:55.417   02 Jun 2027 23:16:06.515            11.098               Magadan1           346.813
       224   02 Jun 2027 23:16:28.620   02 Jun 2027 23:16:56.949            28.329                Norilsk           885.281
       225   02 Jun 2027 23:18:04.617   02 Jun 2027 23:18:40.249            35.632               Magadan2          1113.500
       226   02 Jun 2027 23:19:54.722   02 Jun 2027 23:20:31.014            36.292                Novosib          1134.125
       227   02 Jun 2027 23:22:05.006   02 Jun 2027 23:23:12.544            67.538                Novosib          2110.562
       228   02 Jun 2027 23:26:46.576   02 Jun 2027 23:26:57.621            11.045                Irkutsk           345.156
       229   02 Jun 2027 23:27:53.842   02 Jun 2027 23:27:59.832             5.990                Irkutsk           187.188
       230   02 Jun 2027 23:28:23.847   02 Jun 2027 23:29:01.716            37.869                Irkutsk          1183.406
       231   02 Jun 2027 23:37:08.443   02 Jun 2027 23:37:31.249            22.806                Sumatra           712.687
       232   02 Jun 2027 23:39:16.549   02 Jun 2027 23:40:39.753            83.204                Sumatra          2600.125
       233   02 Jun 2027 23:43:24.694   02 Jun 2027 23:43:38.451            13.757                Sumatra           429.906
       234   03 Jun 2027 00:14:13.465   03 Jun 2027 00:14:45.335            31.870            RioGallegos           995.937
       235   03 Jun 2027 00:16:05.352   03 Jun 2027 00:16:46.365            41.013            RioGallegos          1281.656
       236   03 Jun 2027 00:45:47.469   03 Jun 2027 00:46:32.355            44.886                Anadyr2          1402.687
       237   03 Jun 2027 00:47:19.917   03 Jun 2027 00:47:39.858            19.941                Anadyr1           623.156
       238   03 Jun 2027 00:48:01.755   03 Jun 2027 00:48:34.661            32.906                Anadyr1          1028.312
       239   03 Jun 2027 00:49:13.614   03 Jun 2027 00:50:56.345           102.731                Norilsk          3210.344
       240   03 Jun 2027 00:52:16.208   03 Jun 2027 00:52:31.929            15.721               Magadan2           491.281
       241   03 Jun 2027 00:52:47.711   03 Jun 2027 00:53:16.183            28.472               Magadan2           889.750
       242   03 Jun 2027 00:53:21.198   03 Jun 2027 00:53:45.770            24.572                Irkutsk           767.875
       243   03 Jun 2027 00:54:42.595   03 Jun 2027 00:55:01.424            18.829                Novosib           588.406
       244   03 Jun 2027 00:55:38.919   03 Jun 2027 00:55:45.185             6.266                Novosib           195.813
       245   03 Jun 2027 00:56:14.511   03 Jun 2027 00:56:48.466            33.955                Irkutsk          1061.094
       246   03 Jun 2027 00:58:50.626   03 Jun 2027 00:59:19.928            29.302                Novosib           915.688
       247   03 Jun 2027 01:01:37.084   03 Jun 2027 01:02:07.173            30.089                  Delhi           940.281
       248   03 Jun 2027 01:03:50.926   03 Jun 2027 01:04:02.774            11.848                Novosib           370.250
       249   03 Jun 2027 01:04:09.398   03 Jun 2027 01:04:11.592             2.194                Novosib            68.562
       250   03 Jun 2027 01:04:52.467   03 Jun 2027 01:05:12.112            19.645                Novosib           613.906
       251   03 Jun 2027 01:06:18.860   03 Jun 2027 01:06:56.831            37.971                  Delhi          1186.594
       252   03 Jun 2027 01:10:23.516   03 Jun 2027 01:10:40.397            16.881                  Delhi           527.531
       253   03 Jun 2027 01:11:40.429   03 Jun 2027 01:12:36.082            55.653                  Delhi          1739.156
       254   03 Jun 2027 01:43:14.538   03 Jun 2027 01:44:02.034            47.496            RioGallegos          1484.250
       255   03 Jun 2027 01:46:11.493   03 Jun 2027 01:47:13.392            61.899            RioGallegos          1934.344
       256   03 Jun 2027 01:51:32.902   03 Jun 2027 01:51:47.263            14.361            RioGallegos           448.781
       257   03 Jun 2027 02:20:45.638   03 Jun 2027 02:21:41.577            55.939                Anadyr2          1748.094
       258   03 Jun 2027 02:24:42.189   03 Jun 2027 02:24:56.576            14.387                Anadyr1           449.594
       259   03 Jun 2027 02:25:13.369   03 Jun 2027 02:25:46.580            33.211                Norilsk          1037.844
       260   03 Jun 2027 02:26:12.041   03 Jun 2027 02:26:32.301            20.260               Magadan2           633.125
       261   03 Jun 2027 02:27:33.772   03 Jun 2027 02:28:45.581            71.809              Murmansk2          2244.031
       262   03 Jun 2027 02:31:00.634   03 Jun 2027 02:31:16.706            16.072                Irkutsk           502.250
       263   03 Jun 2027 02:32:49.992   03 Jun 2027 02:32:52.274             2.282                Irkutsk            71.313
       264   03 Jun 2027 02:32:53.683   03 Jun 2027 02:33:30.369            36.686              Murmansk1          1146.437
       265   03 Jun 2027 02:35:19.233   03 Jun 2027 02:35:44.531            25.298              Murmansk1           790.563
       266   03 Jun 2027 02:37:05.239   03 Jun 2027 02:37:10.724             5.485                 Moscow           171.406
       267   03 Jun 2027 02:38:10.334   03 Jun 2027 02:38:28.308            17.974                Novosib           561.688
       268   03 Jun 2027 02:39:19.608   03 Jun 2027 02:39:50.899            31.291                Novosib           977.844
       269   03 Jun 2027 02:43:23.519   03 Jun 2027 02:44:13.233            49.714                  Delhi          1553.562
       270   03 Jun 2027 02:46:29.274   03 Jun 2027 02:47:06.782            37.508                  Delhi          1172.125
       271   03 Jun 2027 04:09:47.369   03 Jun 2027 04:12:44.014           176.645                Norilsk          5520.156
       272   03 Jun 2027 04:12:47.940   03 Jun 2027 04:14:49.647           121.707                Novosib          3803.344
       273   03 Jun 2027 04:14:54.668   03 Jun 2027 04:14:57.704             3.036              Murmansk2            94.875
       274   03 Jun 2027 04:15:13.110   03 Jun 2027 04:16:15.416            62.306                 Moscow          1947.063
       275   03 Jun 2027 04:17:11.827   03 Jun 2027 04:17:23.284            11.457                 Moscow           358.031
       276   03 Jun 2027 04:37:27.815   03 Jun 2027 04:38:00.065            32.250               CapeTown          1007.812
       277   03 Jun 2027 04:38:54.173   03 Jun 2027 04:40:24.373            90.200               CapeTown          2818.750
       278   03 Jun 2027 04:41:08.416   03 Jun 2027 04:42:13.028            64.612               CapeTown          2019.125
       279   03 Jun 2027 04:42:36.343   03 Jun 2027 04:43:07.799            31.456               CapeTown           983.000
       280   03 Jun 2027 05:37:47.479   03 Jun 2027 05:38:41.452            53.973               Magadan1          1686.656
       281   03 Jun 2027 05:46:20.669   03 Jun 2027 05:47:28.911            68.242                Norilsk          2132.562
       282   03 Jun 2027 05:47:38.178   03 Jun 2027 05:48:12.603            34.425              Murmansk1          1075.781
       283   03 Jun 2027 05:48:12.603   03 Jun 2027 05:49:19.282            66.679              Murmansk2          2083.719
       284   03 Jun 2027 05:49:51.989   03 Jun 2027 05:51:37.603           105.614              Murmansk1          3300.437
       285   03 Jun 2027 06:12:00.751   03 Jun 2027 06:12:26.111            25.360               CapeTown           792.500
       286   03 Jun 2027 06:14:14.579   03 Jun 2027 06:15:15.354            60.775               CapeTown          1899.219
       287   03 Jun 2027 07:10:09.446   03 Jun 2027 07:13:28.053           198.607                Anadyr2          6206.469
       288   03 Jun 2027 07:13:48.225   03 Jun 2027 07:14:14.633            26.408                Anadyr2           825.250
       289   03 Jun 2027 07:14:40.670   03 Jun 2027 07:14:51.552            10.882                Anadyr2           340.063
       290   03 Jun 2027 08:46:14.520   03 Jun 2027 08:50:07.094           232.574                Anadyr1          7267.938
       291   03 Jun 2027 08:50:07.094   03 Jun 2027 08:51:28.239            81.145                Anadyr2          2535.781
       292   03 Jun 2027 10:20:18.441   03 Jun 2027 10:21:50.878            92.437               Magadan1          2888.656
       293   03 Jun 2027 10:22:50.213   03 Jun 2027 10:23:00.277            10.064                Novosib           314.500
       294   03 Jun 2027 10:23:11.254   03 Jun 2027 10:24:33.704            82.450                Irkutsk          2576.563
       295   03 Jun 2027 10:24:50.554   03 Jun 2027 10:26:53.116           122.562                Novosib          3830.062
       296   03 Jun 2027 10:26:58.406   03 Jun 2027 10:27:07.159             8.753                Norilsk           273.531
       297   03 Jun 2027 10:27:39.375   03 Jun 2027 10:28:11.967            32.592              Murmansk2          1018.500
       298   03 Jun 2027 10:28:41.506   03 Jun 2027 10:28:44.621             3.115                Norilsk            97.344
       299   03 Jun 2027 10:31:27.630   03 Jun 2027 10:31:46.643            19.013              Murmansk1           594.156
       300   03 Jun 2027 10:34:13.980   03 Jun 2027 10:34:18.167             4.187              Murmansk2           130.844
       301   03 Jun 2027 11:02:06.255   03 Jun 2027 11:04:18.600           132.345            RioGallegos          4135.781
       302   03 Jun 2027 11:37:47.192   03 Jun 2027 11:39:39.805           112.613                Sumatra          3519.156
       303   03 Jun 2027 11:57:16.467   03 Jun 2027 11:57:29.462            12.995                Irkutsk           406.094
       304   03 Jun 2027 11:57:55.083   03 Jun 2027 11:58:32.397            37.314                Norilsk          1166.062
       305   03 Jun 2027 11:58:36.245   03 Jun 2027 11:59:05.992            29.747                Novosib           929.594
       306   03 Jun 2027 11:59:22.254   03 Jun 2027 11:59:34.544            12.290                Norilsk           384.063
       307   03 Jun 2027 11:59:35.088   03 Jun 2027 12:00:36.245            61.157                Novosib          1911.156
       308   03 Jun 2027 12:01:05.077   03 Jun 2027 12:02:46.403           101.326                Novosib          3166.438
       309   03 Jun 2027 12:03:39.979   03 Jun 2027 12:04:55.521            75.542                Novosib          2360.687
       310   03 Jun 2027 12:07:01.814   03 Jun 2027 12:07:28.577            26.763                Norilsk           836.344
       311   03 Jun 2027 12:08:05.493   03 Jun 2027 12:08:24.100            18.607              Murmansk1           581.469
       312   03 Jun 2027 12:09:04.679   03 Jun 2027 12:09:34.011            29.332              Murmansk1           916.625
       313   03 Jun 2027 12:09:43.208   03 Jun 2027 12:09:49.462             6.254              Murmansk1           195.438
       314   03 Jun 2027 12:10:24.592   03 Jun 2027 12:10:39.781            15.189              Murmansk2           474.656
       315   03 Jun 2027 12:45:08.024   03 Jun 2027 12:46:06.604            58.580            RioGallegos          1830.625
       316   03 Jun 2027 12:46:30.833   03 Jun 2027 12:47:04.365            33.532            RioGallegos          1047.875
       317   03 Jun 2027 13:15:17.782   03 Jun 2027 13:16:56.884            99.102                Sumatra          3096.938
       318   03 Jun 2027 13:19:44.764   03 Jun 2027 13:20:41.151            56.387                Sumatra          1762.094
       319   03 Jun 2027 13:31:10.925   03 Jun 2027 13:34:29.301           198.376                Irkutsk          6199.250
       320   03 Jun 2027 13:35:07.537   03 Jun 2027 13:35:26.390            18.853                Irkutsk           589.156
       321   03 Jun 2027 15:01:18.984   03 Jun 2027 15:04:41.673           202.689                  Delhi          6334.031
       322   03 Jun 2027 15:05:06.044   03 Jun 2027 15:05:09.634             3.590                  Delhi           112.188
       323   03 Jun 2027 15:09:39.590   03 Jun 2027 15:13:02.360           202.770                Novosib          6336.563
       324   03 Jun 2027 15:16:16.538   03 Jun 2027 15:16:21.682             5.144                Norilsk           160.750
       325   03 Jun 2027 15:16:31.637   03 Jun 2027 15:17:03.111            31.474                Norilsk           983.562
       326   03 Jun 2027 16:21:43.678   03 Jun 2027 16:23:16.102            92.424               CapeTown          2888.250
       327   03 Jun 2027 16:28:35.629   03 Jun 2027 16:28:41.551             5.922               CapeTown           185.063
       328   03 Jun 2027 16:42:19.656   03 Jun 2027 16:42:59.288            39.632                 Moscow          1238.500
       329   03 Jun 2027 16:45:00.710   03 Jun 2027 16:46:40.052            99.342                 Moscow          3104.437
       330   03 Jun 2027 16:51:22.732   03 Jun 2027 16:52:08.987            46.255                 Moscow          1445.469
       331   03 Jun 2027 17:00:18.364   03 Jun 2027 17:00:37.383            19.019                Anadyr1           594.344
       332   03 Jun 2027 17:00:51.389   03 Jun 2027 17:01:26.209            34.820                Anadyr2          1088.125
       333   03 Jun 2027 17:02:20.783   03 Jun 2027 17:02:55.736            34.953                Anadyr1          1092.281
       334   03 Jun 2027 17:03:57.180   03 Jun 2027 17:04:08.241            11.061                Anadyr1           345.656
       335   03 Jun 2027 17:04:57.554   03 Jun 2027 17:05:00.807             3.253                Anadyr1           101.656
       336   03 Jun 2027 17:06:33.446   03 Jun 2027 17:06:40.338             6.892                Anadyr2           215.375
       337   03 Jun 2027 17:08:32.696   03 Jun 2027 17:08:35.560             2.864                Anadyr1            89.500
       338   03 Jun 2027 17:55:00.830   03 Jun 2027 17:55:25.735            24.905               CapeTown           778.281
       339   03 Jun 2027 17:57:25.007   03 Jun 2027 17:57:41.311            16.304               CapeTown           509.500
       340   03 Jun 2027 17:58:18.071   03 Jun 2027 17:58:53.303            35.232               CapeTown          1101.000
       341   03 Jun 2027 18:03:02.253   03 Jun 2027 18:03:36.753            34.500               CapeTown          1078.125
       342   03 Jun 2027 18:07:07.573   03 Jun 2027 18:07:38.216            30.643               CapeTown           957.594
       343   03 Jun 2027 18:24:27.925   03 Jun 2027 18:28:07.542           219.617              Murmansk2          6863.031
       344   03 Jun 2027 18:38:06.120   03 Jun 2027 18:38:29.919            23.799                Anadyr1           743.719
       345   03 Jun 2027 18:39:46.646   03 Jun 2027 18:40:27.798            41.152               Magadan1          1286.000
       346   03 Jun 2027 18:40:50.374   03 Jun 2027 18:40:57.240             6.866               Magadan1           214.563
       347   03 Jun 2027 18:41:08.575   03 Jun 2027 18:42:34.356            85.781               Magadan2          2680.656
       348   03 Jun 2027 19:35:53.446   03 Jun 2027 19:37:53.508           120.062               CapeTown          3751.937
       349   03 Jun 2027 20:11:33.352   03 Jun 2027 20:12:22.073            48.721                Anadyr1          1522.531
       350   03 Jun 2027 20:12:51.312   03 Jun 2027 20:14:56.144           124.832                Anadyr2          3901.000
       351   03 Jun 2027 20:15:02.346   03 Jun 2027 20:16:03.765            61.419               Magadan2          1919.344
       352   03 Jun 2027 20:16:36.090   03 Jun 2027 20:17:05.160            29.070               Magadan2           908.437
       353   03 Jun 2027 20:22:46.473   03 Jun 2027 20:23:18.041            31.568               Magadan1           986.500
       354   03 Jun 2027 20:25:40.438   03 Jun 2027 20:25:54.011            13.573               Magadan2           424.156
       355   03 Jun 2027 21:47:27.431   03 Jun 2027 21:51:08.547           221.116                Anadyr2          6909.875
       356   03 Jun 2027 21:51:18.510   03 Jun 2027 21:53:17.848           119.338                Norilsk          3729.312
       357   03 Jun 2027 21:53:35.505   03 Jun 2027 21:54:28.725            53.220               Magadan2          1663.125
       358   03 Jun 2027 21:55:47.297   03 Jun 2027 21:56:06.862            19.565               Magadan1           611.406
       359   03 Jun 2027 21:56:06.862   03 Jun 2027 21:56:35.113            28.251               Magadan2           882.844
       360   03 Jun 2027 21:56:50.244   03 Jun 2027 21:58:02.460            72.216                Irkutsk          2256.750
       361   03 Jun 2027 22:41:43.015   03 Jun 2027 22:43:07.978            84.963            RioGallegos          2655.094
       362   03 Jun 2027 22:44:13.867   03 Jun 2027 22:44:53.421            39.554            RioGallegos          1236.062
       363   03 Jun 2027 22:50:02.911   03 Jun 2027 22:50:39.522            36.611            RioGallegos          1144.094
       364   03 Jun 2027 23:22:59.774   03 Jun 2027 23:23:41.225            41.451                Anadyr1          1295.344
       365   03 Jun 2027 23:25:15.845   03 Jun 2027 23:25:21.082             5.237                Anadyr1           163.656
       366   03 Jun 2027 23:25:33.091   03 Jun 2027 23:26:58.176            85.085                Norilsk          2658.906
       367   03 Jun 2027 23:27:26.354   03 Jun 2027 23:28:09.168            42.814               Magadan2          1337.937
       368   03 Jun 2027 23:28:26.320   03 Jun 2027 23:28:51.756            25.436               Magadan2           794.875
       369   03 Jun 2027 23:29:22.477   03 Jun 2027 23:30:16.948            54.471                Irkutsk          1702.219
       370   03 Jun 2027 23:30:46.524   03 Jun 2027 23:32:03.601            77.077                Novosib          2408.656
       371   03 Jun 2027 23:37:04.365   03 Jun 2027 23:37:33.103            28.738                Irkutsk           898.062
       372   03 Jun 2027 23:39:29.064   03 Jun 2027 23:39:57.710            28.646                Irkutsk           895.188
       373   03 Jun 2027 23:43:04.138   03 Jun 2027 23:43:40.559            36.421                Sumatra          1138.156
       374   03 Jun 2027 23:49:12.438   03 Jun 2027 23:49:49.440            37.002                Sumatra          1156.313
       375   03 Jun 2027 23:50:47.175   03 Jun 2027 23:51:02.648            15.473                Sumatra           483.531
       376   03 Jun 2027 23:51:38.390   03 Jun 2027 23:52:35.731            57.341                Sumatra          1791.906
       377   04 Jun 2027 00:27:02.107   04 Jun 2027 00:27:40.367            38.260            RioGallegos          1195.625
       378   04 Jun 2027 00:57:34.440   04 Jun 2027 00:58:00.369            25.929                Anadyr1           810.281
       379   04 Jun 2027 00:58:00.369   04 Jun 2027 00:58:30.957            30.588                Anadyr2           955.875
       380   04 Jun 2027 00:59:13.977   04 Jun 2027 00:59:39.942            25.965                Anadyr1           811.406
       381   04 Jun 2027 00:59:39.942   04 Jun 2027 00:59:50.043            10.101                Anadyr2           315.656
       382   04 Jun 2027 01:00:08.902   04 Jun 2027 01:00:17.190             8.288                Anadyr2           259.000
       383   04 Jun 2027 01:01:15.927   04 Jun 2027 01:03:06.839           110.912                Norilsk          3466.000
       384   04 Jun 2027 01:04:44.179   04 Jun 2027 01:05:36.751            52.572               Magadan1          1642.875
       385   04 Jun 2027 01:06:07.483   04 Jun 2027 01:07:15.015            67.532                Novosib          2110.375
       386   04 Jun 2027 01:07:55.984   04 Jun 2027 01:08:13.950            17.966                Novosib           561.437
       387   04 Jun 2027 01:08:58.891   04 Jun 2027 01:09:57.483            58.592                Novosib          1831.000
       388   04 Jun 2027 01:16:12.078   04 Jun 2027 01:16:32.147            20.069                  Delhi           627.156
       389   04 Jun 2027 01:19:56.285   04 Jun 2027 01:20:15.216            18.931                  Delhi           591.594
       390   04 Jun 2027 01:21:57.148   04 Jun 2027 01:22:52.589            55.441                Sumatra          1732.531
       391   04 Jun 2027 01:25:50.349   04 Jun 2027 01:26:13.007            22.658                Sumatra           708.063
       392   04 Jun 2027 01:54:07.009   04 Jun 2027 01:54:22.732            15.723            RioGallegos           491.344
       393   04 Jun 2027 01:54:59.694   04 Jun 2027 01:55:20.377            20.683            RioGallegos           646.344
       394   04 Jun 2027 01:56:08.673   04 Jun 2027 01:56:29.186            20.513            RioGallegos           641.031
       395   04 Jun 2027 01:57:42.000   04 Jun 2027 01:57:58.025            16.025            RioGallegos           500.781
       396   04 Jun 2027 02:31:00.808   04 Jun 2027 02:31:09.700             8.892                Anadyr2           277.875
       397   04 Jun 2027 02:32:26.760   04 Jun 2027 02:33:42.765            76.005                Anadyr2          2375.156
       398   04 Jun 2027 02:37:12.870   04 Jun 2027 02:37:52.379            39.509               Magadan1          1234.656
       399   04 Jun 2027 02:38:09.137   04 Jun 2027 02:38:47.313            38.176                Norilsk          1193.000
       400   04 Jun 2027 02:39:32.228   04 Jun 2027 02:40:49.485            77.257              Murmansk2          2414.281
       401   04 Jun 2027 02:41:04.565   04 Jun 2027 02:41:35.345            30.780                Novosib           961.875
       402   04 Jun 2027 02:41:54.559   04 Jun 2027 02:42:05.921            11.362                Irkutsk           355.063
       403   04 Jun 2027 02:44:16.294   04 Jun 2027 02:44:40.000            23.706                Irkutsk           740.813
       404   04 Jun 2027 02:47:21.776   04 Jun 2027 02:47:28.857             7.081                Irkutsk           221.281
       405   04 Jun 2027 02:48:56.019   04 Jun 2027 02:49:11.070            15.051                  Delhi           470.344
       406   04 Jun 2027 02:49:35.157   04 Jun 2027 02:50:34.569            59.412                  Delhi          1856.625
       407   04 Jun 2027 04:22:04.650   04 Jun 2027 04:23:42.195            97.545                Norilsk          3048.281
       408   04 Jun 2027 04:23:49.165   04 Jun 2027 04:24:09.857            20.692                 Moscow           646.625
       409   04 Jun 2027 04:24:12.988   04 Jun 2027 04:25:43.023            90.035              Murmansk2          2813.594
       410   04 Jun 2027 04:25:43.023   04 Jun 2027 04:26:18.462            35.439              Murmansk1          1107.469
       411   04 Jun 2027 04:26:39.799   04 Jun 2027 04:27:41.358            61.559              Murmansk1          1923.719
       412   04 Jun 2027 04:28:08.049   04 Jun 2027 04:29:52.996           104.947                 Moscow          3279.594
       413   04 Jun 2027 04:42:47.521   04 Jun 2027 04:46:14.830           207.309               CapeTown          6478.406
       414   04 Jun 2027 05:45:51.961   04 Jun 2027 05:46:55.472            63.511               Magadan1          1984.719
       415   04 Jun 2027 06:02:03.949   04 Jun 2027 06:02:31.737            27.788              Murmansk1           868.375
       416   04 Jun 2027 07:22:53.481   04 Jun 2027 07:25:20.221           146.740                Norilsk          4585.625
       417   04 Jun 2027 07:25:30.118   04 Jun 2027 07:26:16.498            46.380                Anadyr1          1449.375
       418   04 Jun 2027 07:26:23.665   04 Jun 2027 07:27:46.585            82.920               Magadan1          2591.250
       419   04 Jun 2027 07:34:09.517   04 Jun 2027 07:34:24.266            14.749                 Moscow           460.906
       420   04 Jun 2027 07:36:50.073   04 Jun 2027 07:37:12.728            22.655                 Moscow           707.969
       421   04 Jun 2027 08:09:35.315   04 Jun 2027 08:09:54.206            18.891            RioGallegos           590.344
       422   04 Jun 2027 08:55:28.640   04 Jun 2027 08:56:17.890            49.250                Anadyr1          1539.063
       423   04 Jun 2027 08:56:20.169   04 Jun 2027 08:56:39.963            19.794                Irkutsk           618.562
       424   04 Jun 2027 08:56:50.226   04 Jun 2027 08:57:41.199            50.973               Magadan1          1592.906
       425   04 Jun 2027 08:57:41.199   04 Jun 2027 08:58:20.266            39.067               Magadan2          1220.844
       426   04 Jun 2027 08:58:35.196   04 Jun 2027 08:59:56.102            80.906               Magadan1          2528.313
       427   04 Jun 2027 08:59:56.102   04 Jun 2027 09:00:21.991            25.889               Magadan2           809.031
       428   04 Jun 2027 09:00:31.146   04 Jun 2027 09:01:05.902            34.756               Magadan2          1086.125
       429   04 Jun 2027 09:01:09.189   04 Jun 2027 09:01:25.337            16.148                Irkutsk           504.625
       430   04 Jun 2027 09:01:40.321   04 Jun 2027 09:02:31.092            50.771                Norilsk          1586.594
       431   04 Jun 2027 09:03:00.191   04 Jun 2027 09:03:06.158             5.967              Murmansk2           186.469
       432   04 Jun 2027 09:03:09.561   04 Jun 2027 09:03:45.275            35.714              Murmansk2          1116.063
       433   04 Jun 2027 09:09:44.276   04 Jun 2027 09:10:21.800            37.524              Murmansk2          1172.625
       434   04 Jun 2027 09:39:19.833   04 Jun 2027 09:39:48.960            29.127            RioGallegos           910.219
       435   04 Jun 2027 09:42:44.538   04 Jun 2027 09:42:47.806             3.268            RioGallegos           102.125
       436   04 Jun 2027 09:45:27.455   04 Jun 2027 09:45:41.014            13.559            RioGallegos           423.719
       437   04 Jun 2027 10:31:46.618   04 Jun 2027 10:33:51.043           124.425               Magadan2          3888.281
       438   04 Jun 2027 10:34:06.971   04 Jun 2027 10:35:07.720            60.749                Irkutsk          1898.406
       439   04 Jun 2027 10:35:14.612   04 Jun 2027 10:35:36.100            21.488               Magadan2           671.500
       440   04 Jun 2027 10:35:37.743   04 Jun 2027 10:37:33.904           116.161               Magadan2          3630.031
       441   04 Jun 2027 10:37:46.675   04 Jun 2027 10:38:30.637            43.962                Norilsk          1373.812
       442   04 Jun 2027 10:38:36.220   04 Jun 2027 10:38:58.799            22.579                Norilsk           705.594
       443   04 Jun 2027 10:38:59.500   04 Jun 2027 10:39:17.449            17.949              Murmansk1           560.906
       444   04 Jun 2027 10:39:25.170   04 Jun 2027 10:39:36.344            11.174                Novosib           349.187
       445   04 Jun 2027 10:40:23.996   04 Jun 2027 10:40:35.595            11.599              Murmansk2           362.469
       446   04 Jun 2027 10:42:26.107   04 Jun 2027 10:42:32.120             6.013              Murmansk2           187.906
       447   04 Jun 2027 11:14:13.588   04 Jun 2027 11:15:25.967            72.379            RioGallegos          2261.844
       448   04 Jun 2027 11:49:02.004   04 Jun 2027 11:50:22.697            80.693                Sumatra          2521.656
       449   04 Jun 2027 12:05:13.510   04 Jun 2027 12:05:36.549            23.039                Novosib           719.969
       450   04 Jun 2027 12:06:34.004   04 Jun 2027 12:06:57.953            23.949                Novosib           748.406
       451   04 Jun 2027 12:08:44.150   04 Jun 2027 12:08:58.061            13.911                Norilsk           434.719
       452   04 Jun 2027 12:09:27.863   04 Jun 2027 12:10:01.462            33.599                Norilsk          1049.969
       453   04 Jun 2027 12:12:37.401   04 Jun 2027 12:12:48.791            11.390                Norilsk           355.937
       454   04 Jun 2027 12:13:14.427   04 Jun 2027 12:13:42.363            27.936                Novosib           873.000
       455   04 Jun 2027 12:16:19.059   04 Jun 2027 12:16:37.386            18.327                Norilsk           572.719
       456   04 Jun 2027 12:19:04.056   04 Jun 2027 12:20:06.864            62.808              Murmansk2          1962.750
       457   04 Jun 2027 12:53:43.951   04 Jun 2027 12:54:58.827            74.876            RioGallegos          2339.875
       458   04 Jun 2027 13:00:54.676   04 Jun 2027 13:01:10.577            15.901            RioGallegos           496.906
       459   04 Jun 2027 13:28:55.018   04 Jun 2027 13:31:54.402           179.384                Sumatra          5605.750
       460   04 Jun 2027 13:43:24.739   04 Jun 2027 13:43:59.003            34.264                Novosib          1070.750
       461   04 Jun 2027 13:44:53.466   04 Jun 2027 13:45:29.070            35.604                Irkutsk          1112.625
       462   04 Jun 2027 13:46:08.104   04 Jun 2027 13:47:32.848            84.744                Irkutsk          2648.250
       463   04 Jun 2027 15:17:38.655   04 Jun 2027 15:21:22.016           223.361                 Moscow          6980.031
       464   04 Jun 2027 15:24:23.831   04 Jun 2027 15:26:04.949           101.118              Murmansk1          3159.938
       465   04 Jun 2027 15:26:07.576   04 Jun 2027 15:26:35.442            27.866                Norilsk           870.813
       466   04 Jun 2027 15:28:18.891   04 Jun 2027 15:29:27.445            68.554                Norilsk          2142.312
       467   04 Jun 2027 16:32:30.667   04 Jun 2027 16:33:29.641            58.974               CapeTown          1842.937
       468   04 Jun 2027 16:37:11.862   04 Jun 2027 16:38:10.438            58.576               CapeTown          1830.500
       469   04 Jun 2027 16:54:42.021   04 Jun 2027 16:54:44.378             2.357                 Moscow            73.656
       470   04 Jun 2027 16:55:01.272   04 Jun 2027 16:55:43.954            42.682                 Moscow          1333.812
       471   04 Jun 2027 16:57:56.696   04 Jun 2027 16:58:15.403            18.707              Murmansk2           584.594
       472   04 Jun 2027 16:59:15.175   04 Jun 2027 16:59:43.618            28.443              Murmansk2           888.844
       473   04 Jun 2027 17:00:48.677   04 Jun 2027 17:01:50.477            61.800              Murmansk2          1931.250
       474   04 Jun 2027 17:12:10.910   04 Jun 2027 17:13:25.839            74.929                Anadyr2          2341.531
       475   04 Jun 2027 17:13:54.267   04 Jun 2027 17:14:31.020            36.753                Anadyr1          1148.531
       476   04 Jun 2027 17:16:56.660   04 Jun 2027 17:17:10.629            13.969                Anadyr2           436.531
       477   04 Jun 2027 17:20:12.988   04 Jun 2027 17:20:41.956            28.968                Anadyr1           905.250
       478   04 Jun 2027 18:07:03.983   04 Jun 2027 18:07:09.608             5.625               CapeTown           175.781
       479   04 Jun 2027 18:09:24.256   04 Jun 2027 18:10:10.575            46.319               CapeTown          1447.469
       480   04 Jun 2027 18:16:14.903   04 Jun 2027 18:16:42.779            27.876               CapeTown           871.125
       481   04 Jun 2027 18:37:02.658   04 Jun 2027 18:42:05.213           302.555              Murmansk1          9454.844
       482   04 Jun 2027 18:51:17.902   04 Jun 2027 18:52:19.094            61.192               Magadan2          1912.250
