uniorb/output/strategy_1/Drop/Drop_KinoSat_111007.txt

KinoSat_111007
-------------------------
    Access    *     Start Time (UTCG)     *     Stop Time (UTCG)  *   Duration (s)        *       Station  *  Data (Mbytes)
         1   01 Jun 2027 03:09:22.741   01 Jun 2027 03:10:21.471            58.730                Anadyr1          1835.312
         2   01 Jun 2027 03:21:46.557   01 Jun 2027 03:22:12.552            25.995              Murmansk1           812.344
         3   01 Jun 2027 03:23:45.783   01 Jun 2027 03:23:49.250             3.467              Murmansk2           108.344
         4   01 Jun 2027 03:24:38.181   01 Jun 2027 03:25:08.315            30.134              Murmansk1           941.688
         5   01 Jun 2027 03:25:47.702   01 Jun 2027 03:25:57.846            10.144              Murmansk1           317.000
         6   01 Jun 2027 04:43:09.770   01 Jun 2027 04:43:24.691            14.921                Anadyr1           466.281
         7   01 Jun 2027 04:43:29.503   01 Jun 2027 04:46:59.583           210.080                Anadyr2          6565.000
         8   01 Jun 2027 04:47:06.286   01 Jun 2027 04:48:26.589            80.303                Anadyr1          2509.469
         9   01 Jun 2027 04:48:29.389   01 Jun 2027 04:48:42.422            13.033               Magadan1           407.281
        10   01 Jun 2027 04:49:04.545   01 Jun 2027 04:49:54.573            50.028               Magadan2          1563.375
        11   01 Jun 2027 04:49:54.573   01 Jun 2027 04:50:07.172            12.599               Magadan1           393.719
        12   01 Jun 2027 06:18:33.198   01 Jun 2027 06:19:20.342            47.144                Irkutsk          1473.250
        13   01 Jun 2027 06:20:44.539   01 Jun 2027 06:21:18.826            34.287               Magadan1          1071.469
        14   01 Jun 2027 06:21:18.826   01 Jun 2027 06:22:36.700            77.874               Magadan2          2433.562
        15   01 Jun 2027 06:22:37.101   01 Jun 2027 06:23:58.587            81.486                Anadyr1          2546.438
        16   01 Jun 2027 06:24:17.249   01 Jun 2027 06:24:48.857            31.608                Anadyr2           987.750
        17   01 Jun 2027 07:02:30.543   01 Jun 2027 07:02:44.507            13.964            RioGallegos           436.375
        18   01 Jun 2027 07:56:53.852   01 Jun 2027 07:57:50.428            56.576                Novosib          1768.000
        19   01 Jun 2027 07:57:51.624   01 Jun 2027 07:58:00.238             8.614               Magadan1           269.188
        20   01 Jun 2027 07:58:00.238   01 Jun 2027 07:58:04.778             4.540               Magadan2           141.875
        21   01 Jun 2027 07:58:22.954   01 Jun 2027 08:01:58.432           215.478                Norilsk          6733.688
        22   01 Jun 2027 08:02:09.963   01 Jun 2027 08:04:45.035           155.072              Murmansk2          4846.000
        23   01 Jun 2027 08:05:47.904   01 Jun 2027 08:06:38.852            50.948              Murmansk1          1592.125
        24   01 Jun 2027 08:36:59.245   01 Jun 2027 08:38:05.246            66.001            RioGallegos          2062.531
        25   01 Jun 2027 08:39:45.593   01 Jun 2027 08:39:59.296            13.703            RioGallegos           428.219
        26   01 Jun 2027 08:40:10.771   01 Jun 2027 08:40:55.243            44.472            RioGallegos          1389.750
        27   01 Jun 2027 09:11:53.843   01 Jun 2027 09:12:48.783            54.940                Sumatra          1716.875
        28   01 Jun 2027 09:14:11.258   01 Jun 2027 09:14:55.647            44.389                Sumatra          1387.156
        29   01 Jun 2027 09:23:54.602   01 Jun 2027 09:24:42.777            48.175                  Delhi          1505.469
        30   01 Jun 2027 09:33:13.341   01 Jun 2027 09:33:27.159            13.818                Novosib           431.813
        31   01 Jun 2027 09:34:11.268   01 Jun 2027 09:35:07.209            55.941                Novosib          1748.156
        32   01 Jun 2027 09:35:09.680   01 Jun 2027 09:36:10.707            61.027                Novosib          1907.094
        33   01 Jun 2027 09:36:16.333   01 Jun 2027 09:38:03.363           107.030                Irkutsk          3344.688
        34   01 Jun 2027 09:38:07.328   01 Jun 2027 09:40:20.292           132.964              Murmansk2          4155.125
        35   01 Jun 2027 10:16:06.960   01 Jun 2027 10:16:43.852            36.892            RioGallegos          1152.875
        36   01 Jun 2027 10:17:41.623   01 Jun 2027 10:18:11.773            30.150            RioGallegos           942.187
        37   01 Jun 2027 10:23:51.024   01 Jun 2027 10:24:12.097            21.073            RioGallegos           658.531
        38   01 Jun 2027 10:50:46.368   01 Jun 2027 10:51:44.642            58.274                Sumatra          1821.062
        39   01 Jun 2027 10:54:42.842   01 Jun 2027 10:54:45.068             2.226                Sumatra            69.563
        40   01 Jun 2027 10:55:14.296   01 Jun 2027 10:55:15.852             1.556                Sumatra            48.625
        41   01 Jun 2027 10:58:30.938   01 Jun 2027 10:58:59.698            28.760                  Delhi           898.750
        42   01 Jun 2027 11:11:07.685   01 Jun 2027 11:11:22.392            14.707                Irkutsk           459.594
        43   01 Jun 2027 11:12:19.149   01 Jun 2027 11:13:04.607            45.458              Murmansk2          1420.563
        44   01 Jun 2027 11:13:12.466   01 Jun 2027 11:15:16.356           123.890              Murmansk2          3871.562
        45   01 Jun 2027 11:15:16.356   01 Jun 2027 11:15:47.198            30.842              Murmansk1           963.813
        46   01 Jun 2027 11:17:07.629   01 Jun 2027 11:17:19.720            12.091              Murmansk1           377.844
        47   01 Jun 2027 11:17:28.045   01 Jun 2027 11:17:34.907             6.862                Norilsk           214.438
        48   01 Jun 2027 11:17:38.900   01 Jun 2027 11:17:52.906            14.006                Norilsk           437.687
        49   01 Jun 2027 12:37:36.714   01 Jun 2027 12:39:41.153           124.439                  Delhi          3888.719
        50   01 Jun 2027 12:41:28.367   01 Jun 2027 12:42:09.306            40.939                 Moscow          1279.344
        51   01 Jun 2027 12:43:10.831   01 Jun 2027 12:43:58.320            47.489                 Moscow          1484.031
        52   01 Jun 2027 12:44:25.846   01 Jun 2027 12:47:18.812           172.966              Murmansk1          5405.188
        53   01 Jun 2027 12:47:42.892   01 Jun 2027 12:48:35.774            52.882                Norilsk          1652.562
        54   01 Jun 2027 12:51:30.373   01 Jun 2027 12:51:58.094            27.721                Norilsk           866.281
        55   01 Jun 2027 13:55:37.794   01 Jun 2027 13:58:29.883           172.089               CapeTown          5377.781
        56   01 Jun 2027 14:20:38.900   01 Jun 2027 14:23:10.771           151.871              Murmansk1          4745.969
        57   01 Jun 2027 14:23:10.771   01 Jun 2027 14:23:39.994            29.223              Murmansk2           913.219
        58   01 Jun 2027 14:35:06.006   01 Jun 2027 14:37:14.698           128.692                Anadyr2          4021.625
        59   01 Jun 2027 14:37:20.336   01 Jun 2027 14:38:29.794            69.458                Anadyr1          2170.562
        60   01 Jun 2027 15:32:25.416   01 Jun 2027 15:33:03.637            38.221               CapeTown          1194.406
        61   01 Jun 2027 15:59:36.158   01 Jun 2027 16:01:53.321           137.163              Murmansk2          4286.344
        62   01 Jun 2027 16:10:30.208   01 Jun 2027 16:12:29.756           119.548                Anadyr2          3735.875
        63   01 Jun 2027 16:12:55.289   01 Jun 2027 16:13:16.218            20.929                Anadyr1           654.031
        64   01 Jun 2027 16:13:28.852   01 Jun 2027 16:14:27.629            58.777                Anadyr1          1836.781
        65   01 Jun 2027 16:14:30.410   01 Jun 2027 16:15:34.122            63.712               Magadan2          1991.000
        66   01 Jun 2027 16:16:36.123   01 Jun 2027 16:17:43.407            67.284               Magadan1          2102.625
        67   01 Jun 2027 16:18:57.627   01 Jun 2027 16:20:35.131            97.504               Magadan1          3047.000
        68   01 Jun 2027 17:46:23.685   01 Jun 2027 17:49:42.592           198.907                Anadyr2          6215.844
        69   01 Jun 2027 17:50:11.938   01 Jun 2027 17:52:50.920           158.982               Magadan2          4968.188
        70   01 Jun 2027 17:53:06.345   01 Jun 2027 17:54:17.916            71.571               Magadan2          2236.594
        71   01 Jun 2027 19:22:16.401   01 Jun 2027 19:26:10.759           234.358                Anadyr1          7323.688
        72   01 Jun 2027 19:26:11.969   01 Jun 2027 19:26:27.138            15.169               Magadan2           474.031
        73   01 Jun 2027 19:26:36.842   01 Jun 2027 19:27:50.851            74.009               Magadan1          2312.781
        74   01 Jun 2027 19:30:37.533   01 Jun 2027 19:32:13.855            96.322                Irkutsk          3010.063
        75   01 Jun 2027 19:33:08.336   01 Jun 2027 19:33:10.185             1.849                Irkutsk            57.781
        76   01 Jun 2027 19:34:23.491   01 Jun 2027 19:34:59.278            35.787                Irkutsk          1118.344
        77   01 Jun 2027 20:16:29.634   01 Jun 2027 20:17:48.080            78.446            RioGallegos          2451.438
        78   01 Jun 2027 20:57:45.565   01 Jun 2027 20:58:23.574            38.009                Anadyr2          1187.781
        79   01 Jun 2027 20:59:03.251   01 Jun 2027 20:59:55.514            52.263                Anadyr1          1633.219
        80   01 Jun 2027 21:00:08.446   01 Jun 2027 21:01:01.971            53.525                Norilsk          1672.656
        81   01 Jun 2027 21:01:13.835   01 Jun 2027 21:01:31.275            17.440                Norilsk           545.000
        82   01 Jun 2027 21:01:59.983   01 Jun 2027 21:02:50.897            50.914                Norilsk          1591.062
        83   01 Jun 2027 21:03:26.384   01 Jun 2027 21:04:07.892            41.508                Norilsk          1297.125
        84   01 Jun 2027 21:05:21.638   01 Jun 2027 21:05:33.456            11.818                Norilsk           369.312
        85   01 Jun 2027 21:05:34.967   01 Jun 2027 21:06:45.624            70.657                Novosib          2208.031
        86   01 Jun 2027 21:07:38.166   01 Jun 2027 21:08:01.639            23.473                Irkutsk           733.531
        87   01 Jun 2027 21:08:56.379   01 Jun 2027 21:10:23.356            86.977                Novosib          2718.031
        88   01 Jun 2027 21:17:51.586   01 Jun 2027 21:19:21.518            89.932                Sumatra          2810.375
        89   01 Jun 2027 21:26:24.735   01 Jun 2027 21:27:05.641            40.906                Sumatra          1278.312
        90   01 Jun 2027 22:33:28.828   01 Jun 2027 22:34:04.226            35.398                Anadyr1          1106.188
        91   01 Jun 2027 22:36:07.040   01 Jun 2027 22:36:40.629            33.589                Norilsk          1049.656
        92   01 Jun 2027 22:36:43.789   01 Jun 2027 22:37:50.063            66.274               Magadan2          2071.062
        93   01 Jun 2027 22:40:00.609   01 Jun 2027 22:41:41.640           101.031                Novosib          3157.219
        94   01 Jun 2027 22:42:03.673   01 Jun 2027 22:42:14.656            10.983                Novosib           343.219
        95   01 Jun 2027 22:47:31.487   01 Jun 2027 22:51:02.685           211.198                  Delhi          6599.938
        96   02 Jun 2027 00:07:19.520   02 Jun 2027 00:08:07.626            48.106                Anadyr2          1503.312
        97   02 Jun 2027 00:11:48.688   02 Jun 2027 00:12:48.904            60.216               Magadan1          1881.750
        98   02 Jun 2027 00:13:38.606   02 Jun 2027 00:14:21.144            42.538               Magadan2          1329.313
        99   02 Jun 2027 00:14:23.017   02 Jun 2027 00:18:18.148           235.131              Murmansk1          7347.844
       100   02 Jun 2027 00:18:39.906   02 Jun 2027 00:19:09.970            30.064                 Moscow           939.500
       101   02 Jun 2027 00:19:18.875   02 Jun 2027 00:20:02.090            43.215                 Moscow          1350.469
       102   02 Jun 2027 00:24:15.993   02 Jun 2027 00:25:08.057            52.064                 Moscow          1627.000
       103   02 Jun 2027 00:46:59.687   02 Jun 2027 00:47:52.895            53.208               CapeTown          1662.750
       104   02 Jun 2027 00:49:35.200   02 Jun 2027 00:49:56.364            21.164               CapeTown           661.375
       105   02 Jun 2027 01:39:12.712   02 Jun 2027 01:39:29.909            17.197                Anadyr1           537.406
       106   02 Jun 2027 01:41:51.001   02 Jun 2027 01:42:19.233            28.232                Anadyr1           882.250
       107   02 Jun 2027 01:43:49.024   02 Jun 2027 01:45:59.830           130.806               Magadan1          4087.688
       108   02 Jun 2027 01:50:13.441   02 Jun 2027 01:53:22.181           188.740              Murmansk2          5898.125
       109   02 Jun 2027 02:17:31.669   02 Jun 2027 02:18:51.406            79.737               CapeTown          2491.781
       110   02 Jun 2027 03:16:45.143   02 Jun 2027 03:16:55.814            10.671               Magadan2           333.469
       111   02 Jun 2027 03:17:38.639   02 Jun 2027 03:18:07.177            28.538                Anadyr2           891.813
       112   02 Jun 2027 03:20:41.743   02 Jun 2027 03:26:32.537           350.794               Magadan2         10962.312
       113   02 Jun 2027 04:55:11.070   02 Jun 2027 04:57:10.788           119.718                Anadyr2          3741.188
       114   02 Jun 2027 04:57:13.706   02 Jun 2027 04:57:34.882            21.176                Anadyr2           661.750
       115   02 Jun 2027 04:57:40.391   02 Jun 2027 04:58:40.536            60.145                Anadyr2          1879.531
       116   02 Jun 2027 04:58:44.129   02 Jun 2027 04:58:45.827             1.698               Magadan1            53.062
       117   02 Jun 2027 04:58:51.237   02 Jun 2027 04:59:22.677            31.440               Magadan1           982.500
       118   02 Jun 2027 04:59:39.976   02 Jun 2027 05:02:19.455           159.479               Magadan1          4983.719
       119   02 Jun 2027 05:02:25.350   02 Jun 2027 05:02:51.565            26.215                Anadyr2           819.219
       120   02 Jun 2027 06:30:31.324   02 Jun 2027 06:30:48.573            17.249               Magadan2           539.031
       121   02 Jun 2027 06:30:54.933   02 Jun 2027 06:31:30.176            35.243                Anadyr1          1101.344
       122   02 Jun 2027 06:31:34.531   02 Jun 2027 06:32:32.703            58.172               Magadan1          1817.875
       123   02 Jun 2027 06:32:36.304   02 Jun 2027 06:34:36.912           120.608               Magadan1          3769.000
       124   02 Jun 2027 06:34:36.912   02 Jun 2027 06:35:46.967            70.055               Magadan2          2189.219
       125   02 Jun 2027 06:36:09.149   02 Jun 2027 06:38:00.349           111.200                Anadyr2          3475.000
       126   02 Jun 2027 07:13:45.160   02 Jun 2027 07:15:00.567            75.407            RioGallegos          2356.469
       127   02 Jun 2027 08:08:42.233   02 Jun 2027 08:08:59.421            17.188               Magadan2           537.125
       128   02 Jun 2027 08:08:59.421   02 Jun 2027 08:09:45.264            45.843               Magadan1          1432.594
       129   02 Jun 2027 08:10:05.030   02 Jun 2027 08:10:38.355            33.325                Novosib          1041.406
       130   02 Jun 2027 08:10:51.556   02 Jun 2027 08:11:24.134            32.578                Norilsk          1018.062
       131   02 Jun 2027 08:11:25.422   02 Jun 2027 08:12:13.673            48.251                Novosib          1507.844
       132   02 Jun 2027 08:12:19.823   02 Jun 2027 08:12:59.401            39.578               Magadan1          1236.812
       133   02 Jun 2027 08:13:03.963   02 Jun 2027 08:14:38.814            94.851              Murmansk1          2964.094
       134   02 Jun 2027 08:14:38.814   02 Jun 2027 08:15:34.153            55.339              Murmansk2          1729.344
       135   02 Jun 2027 08:15:34.153   02 Jun 2027 08:15:47.741            13.588              Murmansk1           424.625
       136   02 Jun 2027 08:16:33.117   02 Jun 2027 08:17:26.582            53.465              Murmansk1          1670.781
       137   02 Jun 2027 08:49:08.216   02 Jun 2027 08:49:09.130             0.914            RioGallegos            28.563
       138   02 Jun 2027 08:50:06.443   02 Jun 2027 08:50:50.497            44.054            RioGallegos          1376.688
       139   02 Jun 2027 09:23:50.734   02 Jun 2027 09:24:23.723            32.989                Sumatra          1030.906
       140   02 Jun 2027 09:24:44.370   02 Jun 2027 09:25:58.295            73.925                Sumatra          2310.156
       141   02 Jun 2027 09:34:09.478   02 Jun 2027 09:34:49.626            40.148                  Delhi          1254.625
       142   02 Jun 2027 09:45:41.458   02 Jun 2027 09:47:50.451           128.993                Novosib          4031.031
       143   02 Jun 2027 09:47:52.926   02 Jun 2027 09:48:44.348            51.422              Murmansk1          1606.937
       144   02 Jun 2027 09:48:47.533   02 Jun 2027 09:49:10.320            22.787                Irkutsk           712.094
       145   02 Jun 2027 09:49:22.928   02 Jun 2027 09:51:10.535           107.607              Murmansk1          3362.719
       146   02 Jun 2027 09:51:10.535   02 Jun 2027 09:51:39.763            29.228              Murmansk2           913.375
       147   02 Jun 2027 10:29:35.018   02 Jun 2027 10:30:17.169            42.151            RioGallegos          1317.219
       148   02 Jun 2027 10:31:51.320   02 Jun 2027 10:32:53.782            62.462            RioGallegos          1951.937
       149   02 Jun 2027 11:08:07.908   02 Jun 2027 11:08:34.619            26.711                  Delhi           834.719
       150   02 Jun 2027 11:10:14.240   02 Jun 2027 11:11:10.491            56.251                  Delhi          1757.844
       151   02 Jun 2027 11:23:30.084   02 Jun 2027 11:24:09.021            38.937              Murmansk1          1216.781
       152   02 Jun 2027 11:24:13.024   02 Jun 2027 11:24:40.096            27.072              Murmansk2           846.000
       153   02 Jun 2027 11:24:44.297   02 Jun 2027 11:25:44.913            60.616                Novosib          1894.250
       154   02 Jun 2027 11:25:51.210   02 Jun 2027 11:26:51.684            60.474              Murmansk2          1889.812
       155   02 Jun 2027 11:27:05.145   02 Jun 2027 11:27:18.650            13.505              Murmansk2           422.031
       156   02 Jun 2027 11:27:34.078   02 Jun 2027 11:28:35.387            61.309                 Moscow          1915.906
       157   02 Jun 2027 12:52:27.197   02 Jun 2027 12:56:30.583           243.386                 Moscow          7605.813
       158   02 Jun 2027 12:56:37.715   02 Jun 2027 12:59:14.050           156.335              Murmansk1          4885.469
       159   02 Jun 2027 12:59:48.858   02 Jun 2027 13:00:48.283            59.425                Norilsk          1857.031
       160   02 Jun 2027 13:01:39.125   02 Jun 2027 13:02:16.725            37.600                Norilsk          1175.000
       161   02 Jun 2027 14:07:07.514   02 Jun 2027 14:08:38.377            90.863               CapeTown          2839.469
       162   02 Jun 2027 14:08:45.534   02 Jun 2027 14:08:58.187            12.653               CapeTown           395.406
       163   02 Jun 2027 14:09:04.718   02 Jun 2027 14:10:17.205            72.487               CapeTown          2265.219
       164   02 Jun 2027 14:12:36.325   02 Jun 2027 14:13:20.762            44.437               CapeTown          1388.656
       165   02 Jun 2027 14:32:55.069   02 Jun 2027 14:33:56.171            61.102              Murmansk2          1909.437
       166   02 Jun 2027 14:35:00.736   02 Jun 2027 14:35:18.422            17.686              Murmansk1           552.688
       167   02 Jun 2027 14:35:40.451   02 Jun 2027 14:35:41.816             1.365              Murmansk1            42.656
       168   02 Jun 2027 14:37:25.270   02 Jun 2027 14:38:11.268            45.998              Murmansk2          1437.437
       169   02 Jun 2027 14:46:59.224   02 Jun 2027 14:49:14.917           135.693                Anadyr1          4240.406
       170   02 Jun 2027 14:50:43.607   02 Jun 2027 14:51:40.488            56.881                Anadyr1          1777.531
       171   02 Jun 2027 15:41:55.722   02 Jun 2027 15:43:19.239            83.517               CapeTown          2609.906
       172   02 Jun 2027 16:12:12.382   02 Jun 2027 16:14:40.246           147.864              Murmansk1          4620.750
       173   02 Jun 2027 16:16:44.426   02 Jun 2027 16:17:07.005            22.579              Murmansk1           705.594
       174   02 Jun 2027 16:22:30.626   02 Jun 2027 16:24:37.825           127.199                Anadyr2          3974.969
       175   02 Jun 2027 16:25:59.488   02 Jun 2027 16:29:16.985           197.497               Magadan1          6171.781
       176   02 Jun 2027 16:29:51.276   02 Jun 2027 16:31:00.357            69.081               Magadan1          2158.781
       177   02 Jun 2027 17:58:25.112   02 Jun 2027 18:01:00.429           155.317                Anadyr2          4853.656
       178   02 Jun 2027 18:01:15.563   02 Jun 2027 18:01:37.916            22.353                Anadyr1           698.531
       179   02 Jun 2027 18:01:45.686   02 Jun 2027 18:02:57.826            72.140               Magadan2          2254.375
       180   02 Jun 2027 18:03:23.024   02 Jun 2027 18:03:45.675            22.651               Magadan1           707.844
       181   02 Jun 2027 18:07:51.017   02 Jun 2027 18:08:31.292            40.275               Magadan2          1258.594
       182   02 Jun 2027 19:34:16.331   02 Jun 2027 19:36:11.173           114.842                Anadyr2          3588.812
       183   02 Jun 2027 19:36:11.271   02 Jun 2027 19:38:09.429           118.158                Anadyr1          3692.437
       184   02 Jun 2027 19:38:37.771   02 Jun 2027 19:40:23.195           105.424               Magadan2          3294.500
       185   02 Jun 2027 19:41:00.864   02 Jun 2027 19:42:24.697            83.833                Norilsk          2619.781
       186   02 Jun 2027 19:42:53.192   02 Jun 2027 19:44:54.541           121.349                Irkutsk          3792.156
       187   02 Jun 2027 19:46:34.393   02 Jun 2027 19:47:03.923            29.530                Irkutsk           922.812
       188   02 Jun 2027 19:57:53.949   02 Jun 2027 19:59:14.563            80.614                Sumatra          2519.188
       189   02 Jun 2027 19:59:44.694   02 Jun 2027 20:02:14.201           149.507                Sumatra          4672.094
       190   02 Jun 2027 21:12:09.630   02 Jun 2027 21:12:50.032            40.402                Norilsk          1262.562
       191   02 Jun 2027 21:13:17.002   02 Jun 2027 21:13:26.929             9.927                Norilsk           310.219
       192   02 Jun 2027 21:13:31.104   02 Jun 2027 21:14:01.334            30.230                Norilsk           944.688
       193   02 Jun 2027 21:16:08.041   02 Jun 2027 21:17:46.209            98.168                Irkutsk          3067.750
       194   02 Jun 2027 21:18:34.507   02 Jun 2027 21:20:29.762           115.255                Novosib          3601.719
       195   02 Jun 2027 21:29:51.272   02 Jun 2027 21:30:14.591            23.319                Sumatra           728.719
       196   02 Jun 2027 21:35:39.243   02 Jun 2027 21:36:32.155            52.912                Sumatra          1653.500
       197   02 Jun 2027 22:44:00.064   02 Jun 2027 22:44:36.097            36.033                Anadyr1          1126.031
       198   02 Jun 2027 22:44:40.582   02 Jun 2027 22:45:17.840            37.258                Anadyr2          1164.312
       199   02 Jun 2027 22:48:09.017   02 Jun 2027 22:48:14.157             5.140                Norilsk           160.625
       200   02 Jun 2027 22:48:44.631   02 Jun 2027 22:48:44.686             0.055               Magadan2             1.719
       201   02 Jun 2027 22:48:46.281   02 Jun 2027 22:49:16.558            30.277                Anadyr2           946.156
       202   02 Jun 2027 22:49:46.824   02 Jun 2027 22:50:18.603            31.779               Magadan1           993.094
       203   02 Jun 2027 22:50:42.870   02 Jun 2027 22:51:01.715            18.845               Magadan1           588.906
       204   02 Jun 2027 22:51:37.929   02 Jun 2027 22:54:50.245           192.316              Murmansk2          6009.875
       205   02 Jun 2027 22:59:23.897   02 Jun 2027 23:00:41.852            77.955                  Delhi          2436.094
       206   02 Jun 2027 23:02:19.804   02 Jun 2027 23:02:27.117             7.313                  Delhi           228.531
       207   02 Jun 2027 23:04:59.757   02 Jun 2027 23:05:23.729            23.972                  Delhi           749.125
       208   02 Jun 2027 23:07:33.546   02 Jun 2027 23:08:54.998            81.452                  Delhi          2545.375
       209   03 Jun 2027 00:17:20.705   03 Jun 2027 00:17:30.246             9.541                Anadyr1           298.156
       210   03 Jun 2027 00:19:20.802   03 Jun 2027 00:20:05.781            44.979                Anadyr1          1405.594
       211   03 Jun 2027 00:21:44.162   03 Jun 2027 00:22:13.838            29.676                Anadyr1           927.375
       212   03 Jun 2027 00:23:29.457   03 Jun 2027 00:24:43.142            73.685               Magadan2          2302.656
       213   03 Jun 2027 00:24:51.369   03 Jun 2027 00:25:07.520            16.151               Magadan1           504.719
       214   03 Jun 2027 00:25:26.630   03 Jun 2027 00:25:49.791            23.161               Magadan1           723.781
       215   03 Jun 2027 00:26:22.296   03 Jun 2027 00:29:36.627           194.331              Murmansk1          6072.844
       216   03 Jun 2027 00:30:24.312   03 Jun 2027 00:31:15.824            51.512                 Moscow          1609.750
       217   03 Jun 2027 00:32:08.587   03 Jun 2027 00:32:14.345             5.758                 Moscow           179.937
       218   03 Jun 2027 00:36:01.577   03 Jun 2027 00:36:25.121            23.544                 Moscow           735.750
       219   03 Jun 2027 00:36:30.079   03 Jun 2027 00:36:56.567            26.488                 Moscow           827.750
       220   03 Jun 2027 00:42:37.955   03 Jun 2027 00:42:51.395            13.440                  Delhi           420.000
       221   03 Jun 2027 00:57:30.931   03 Jun 2027 00:59:13.416           102.485               CapeTown          3202.656
       222   03 Jun 2027 01:02:02.684   03 Jun 2027 01:02:58.240            55.556               CapeTown          1736.125
       223   03 Jun 2027 01:51:00.733   03 Jun 2027 01:51:19.433            18.700                Anadyr1           584.375
       224   03 Jun 2027 01:53:31.632   03 Jun 2027 01:53:56.699            25.067                Anadyr2           783.344
       225   03 Jun 2027 01:55:15.016   03 Jun 2027 01:55:28.192            13.176                Anadyr2           411.750
       226   03 Jun 2027 01:55:42.332   03 Jun 2027 01:57:42.928           120.596               Magadan2          3768.625
       227   03 Jun 2027 02:02:15.127   03 Jun 2027 02:02:32.289            17.162              Murmansk2           536.313
       228   03 Jun 2027 02:02:51.475   03 Jun 2027 02:05:05.160           133.685              Murmansk1          4177.656
       229   03 Jun 2027 02:07:41.231   03 Jun 2027 02:08:15.937            34.706                 Moscow          1084.562
       230   03 Jun 2027 02:13:33.660   03 Jun 2027 02:14:32.185            58.525              Murmansk2          1828.906
       231   03 Jun 2027 02:30:11.858   03 Jun 2027 02:30:42.634            30.776               CapeTown           961.750
       232   03 Jun 2027 02:34:48.226   03 Jun 2027 02:35:23.980            35.754               CapeTown          1117.312
       233   03 Jun 2027 02:38:18.018   03 Jun 2027 02:38:57.489            39.471               CapeTown          1233.469
       234   03 Jun 2027 03:32:42.694   03 Jun 2027 03:34:37.067           114.373               Magadan1          3574.156
       235   03 Jun 2027 03:34:37.067   03 Jun 2027 03:38:05.188           208.121               Magadan2          6503.781
       236   03 Jun 2027 03:38:05.188   03 Jun 2027 03:38:34.365            29.177               Magadan1           911.781
       237   03 Jun 2027 05:08:14.304   03 Jun 2027 05:10:55.708           161.404                Anadyr1          5043.875
       238   03 Jun 2027 05:10:55.708   03 Jun 2027 05:11:21.298            25.590                Anadyr2           799.688
       239   03 Jun 2027 05:11:38.063   03 Jun 2027 05:14:39.142           181.079               Magadan1          5658.719
       240   03 Jun 2027 05:16:17.121   03 Jun 2027 05:16:51.979            34.858                Norilsk          1089.312
       241   03 Jun 2027 05:18:13.202   03 Jun 2027 05:18:23.863            10.661                 Moscow           333.156
       242   03 Jun 2027 05:18:38.843   03 Jun 2027 05:19:13.262            34.419                Norilsk          1075.594
       243   03 Jun 2027 05:19:33.635   03 Jun 2027 05:19:40.868             7.233                Norilsk           226.031
       244   03 Jun 2027 05:53:16.091   03 Jun 2027 05:54:54.941            98.850            RioGallegos          3089.062
       245   03 Jun 2027 05:55:33.746   03 Jun 2027 05:55:58.393            24.647            RioGallegos           770.219
       246   03 Jun 2027 06:42:31.365   03 Jun 2027 06:43:27.979            56.614                Irkutsk          1769.188
       247   03 Jun 2027 06:43:30.864   03 Jun 2027 06:44:36.871            66.007               Magadan1          2062.719
       248   03 Jun 2027 06:44:52.211   03 Jun 2027 06:47:30.857           158.646               Magadan2          4957.688
       249   03 Jun 2027 06:47:33.849   03 Jun 2027 06:48:27.868            54.019                Norilsk          1688.094
       250   03 Jun 2027 06:48:38.306   03 Jun 2027 06:50:23.190           104.884               Magadan2          3277.625
       251   03 Jun 2027 06:50:29.244   03 Jun 2027 06:50:43.534            14.290                Novosib           446.563
       252   03 Jun 2027 06:52:13.283   03 Jun 2027 06:53:01.944            48.661              Murmansk2          1520.656
       253   03 Jun 2027 07:25:31.165   03 Jun 2027 07:26:47.812            76.647            RioGallegos          2395.219
       254   03 Jun 2027 08:03:09.929   03 Jun 2027 08:03:53.067            43.138                Sumatra          1348.063
       255   03 Jun 2027 08:06:05.030   03 Jun 2027 08:07:30.400            85.370                Sumatra          2667.813
       256   03 Jun 2027 08:21:02.376   03 Jun 2027 08:23:18.818           136.442               Magadan2          4263.813
       257   03 Jun 2027 08:23:32.762   03 Jun 2027 08:24:06.745            33.983                Novosib          1061.969
       258   03 Jun 2027 08:24:08.952   03 Jun 2027 08:25:21.694            72.742              Murmansk2          2273.188
       259   03 Jun 2027 08:25:27.964   03 Jun 2027 08:26:21.168            53.204                Irkutsk          1662.625
       260   03 Jun 2027 09:01:20.948   03 Jun 2027 09:01:45.689            24.741            RioGallegos           773.156
       261   03 Jun 2027 09:04:03.777   03 Jun 2027 09:04:07.471             3.694            RioGallegos           115.437
       262   03 Jun 2027 09:04:19.283   03 Jun 2027 09:04:52.765            33.482            RioGallegos          1046.313
       263   03 Jun 2027 09:35:53.220   03 Jun 2027 09:36:00.655             7.435                Sumatra           232.344
       264   03 Jun 2027 09:38:19.110   03 Jun 2027 09:38:39.243            20.133                Sumatra           629.156
       265   03 Jun 2027 09:40:19.200   03 Jun 2027 09:40:25.587             6.387                Sumatra           199.594
       266   03 Jun 2027 09:45:33.466   03 Jun 2027 09:46:59.933            86.467                  Delhi          2702.094
       267   03 Jun 2027 09:57:02.489   03 Jun 2027 09:58:26.570            84.081                Irkutsk          2627.531
       268   03 Jun 2027 09:58:39.560   03 Jun 2027 09:59:08.965            29.405              Murmansk1           918.906
       269   03 Jun 2027 09:59:24.031   03 Jun 2027 09:59:29.510             5.479                Norilsk           171.219
       270   03 Jun 2027 09:59:30.171   03 Jun 2027 10:01:42.713           132.542                Novosib          4141.938
       271   03 Jun 2027 10:01:57.152   03 Jun 2027 10:03:20.734            83.582                Norilsk          2611.937
       272   03 Jun 2027 10:04:02.075   03 Jun 2027 10:04:26.175            24.100                 Moscow           753.125
       273   03 Jun 2027 10:42:33.717   03 Jun 2027 10:43:57.972            84.255            RioGallegos          2632.969
       274   03 Jun 2027 11:20:20.126   03 Jun 2027 11:21:36.254            76.128                  Delhi          2379.000
       275   03 Jun 2027 11:23:37.595   03 Jun 2027 11:25:02.994            85.399                  Delhi          2668.719
       276   03 Jun 2027 11:33:39.933   03 Jun 2027 11:33:56.439            16.506                Norilsk           515.812
       277   03 Jun 2027 11:34:03.731   03 Jun 2027 11:34:33.628            29.897                Novosib           934.281
       278   03 Jun 2027 11:34:39.661   03 Jun 2027 11:34:55.949            16.288              Murmansk2           509.000
       279   03 Jun 2027 11:34:55.949   03 Jun 2027 11:35:20.099            24.150              Murmansk1           754.687
       280   03 Jun 2027 11:35:22.313   03 Jun 2027 11:36:00.680            38.367              Murmansk1          1198.969
       281   03 Jun 2027 11:36:04.208   03 Jun 2027 11:36:13.734             9.526                Novosib           297.687
       282   03 Jun 2027 11:36:37.752   03 Jun 2027 11:36:44.315             6.563                Novosib           205.094
       283   03 Jun 2027 11:37:07.842   03 Jun 2027 11:37:59.358            51.516              Murmansk2          1609.875
       284   03 Jun 2027 13:04:27.619   03 Jun 2027 13:08:39.063           251.444                 Moscow          7857.625
       285   03 Jun 2027 13:08:51.471   03 Jun 2027 13:09:48.260            56.789              Murmansk1          1774.656
       286   03 Jun 2027 13:10:09.955   03 Jun 2027 13:11:51.819           101.864              Murmansk2          3183.250
       287   03 Jun 2027 13:12:33.974   03 Jun 2027 13:12:44.606            10.632                Norilsk           332.250
       288   03 Jun 2027 13:13:29.874   03 Jun 2027 13:13:41.244            11.370                Norilsk           355.313
       289   03 Jun 2027 13:15:08.577   03 Jun 2027 13:15:34.955            26.378                Norilsk           824.313
       290   03 Jun 2027 14:18:45.635   03 Jun 2027 14:21:32.772           167.137               CapeTown          5223.031
       291   03 Jun 2027 14:23:36.853   03 Jun 2027 14:24:02.293            25.440               CapeTown           795.000
       292   03 Jun 2027 14:42:13.857   03 Jun 2027 14:42:37.048            23.191                 Moscow           724.719
       293   03 Jun 2027 14:45:13.309   03 Jun 2027 14:47:13.665           120.356              Murmansk1          3761.125
       294   03 Jun 2027 14:49:26.073   03 Jun 2027 14:49:39.241            13.168              Murmansk2           411.500
       295   03 Jun 2027 14:54:51.227   03 Jun 2027 14:55:03.876            12.649              Murmansk2           395.281
       296   03 Jun 2027 14:58:54.305   03 Jun 2027 15:01:28.377           154.072                Anadyr1          4814.750
       297   03 Jun 2027 15:04:08.183   03 Jun 2027 15:04:52.592            44.409                Anadyr1          1387.781
       298   03 Jun 2027 15:54:02.692   03 Jun 2027 15:54:29.804            27.112               CapeTown           847.250
       299   03 Jun 2027 16:03:44.911   03 Jun 2027 16:03:45.109             0.198               CapeTown             6.187
       300   03 Jun 2027 16:24:52.220   03 Jun 2027 16:27:03.493           131.273              Murmansk2          4102.281
       301   03 Jun 2027 16:27:03.493   03 Jun 2027 16:27:17.033            13.540              Murmansk1           423.125
       302   03 Jun 2027 16:28:43.198   03 Jun 2027 16:29:27.463            44.265              Murmansk1          1383.281
       303   03 Jun 2027 16:34:31.338   03 Jun 2027 16:35:17.311            45.973                Anadyr2          1436.656
       304   03 Jun 2027 16:35:33.867   03 Jun 2027 16:36:19.733            45.866                Anadyr1          1433.312
       305   03 Jun 2027 16:37:30.172   03 Jun 2027 16:37:52.308            22.136                Anadyr2           691.750
       306   03 Jun 2027 16:37:55.284   03 Jun 2027 16:39:30.802            95.518               Magadan1          2984.937
       307   03 Jun 2027 16:40:04.796   03 Jun 2027 16:41:51.548           106.752               Magadan2          3336.000
       308   03 Jun 2027 18:10:26.493   03 Jun 2027 18:14:45.335           258.842                Anadyr1          8088.813
       309   03 Jun 2027 18:14:47.593   03 Jun 2027 18:15:37.564            49.971               Magadan2          1561.594
       310   03 Jun 2027 18:15:37.564   03 Jun 2027 18:15:47.181             9.617               Magadan1           300.531
       311   03 Jun 2027 18:16:04.011   03 Jun 2027 18:16:18.732            14.721               Magadan1           460.031
       312   03 Jun 2027 18:19:03.547   03 Jun 2027 18:19:12.560             9.013               Magadan1           281.656
       313   03 Jun 2027 18:19:32.778   03 Jun 2027 18:19:57.903            25.125               Magadan1           785.156
       314   03 Jun 2027 18:22:29.489   03 Jun 2027 18:23:39.961            70.472               Magadan1          2202.250
       315   03 Jun 2027 19:06:57.865   03 Jun 2027 19:09:21.625           143.760            RioGallegos          4492.500
       316   03 Jun 2027 19:46:15.854   03 Jun 2027 19:46:31.225            15.371                Anadyr1           480.344
       317   03 Jun 2027 19:48:27.662   03 Jun 2027 19:52:18.360           230.698                Norilsk          7209.312
       318   03 Jun 2027 19:53:28.206   03 Jun 2027 19:54:00.468            32.262                Irkutsk          1008.187
       319   03 Jun 2027 19:54:19.190   03 Jun 2027 19:54:37.630            18.440                Norilsk           576.250
       320   03 Jun 2027 19:54:51.148   03 Jun 2027 19:56:42.824           111.676                Irkutsk          3489.875
       321   03 Jun 2027 19:56:59.068   03 Jun 2027 19:57:07.002             7.934                Irkutsk           247.937
       322   03 Jun 2027 19:57:35.661   03 Jun 2027 19:58:40.083            64.422                Irkutsk          2013.188
       323   03 Jun 2027 19:59:29.270   03 Jun 2027 20:00:08.991            39.721                Irkutsk          1241.281
       324   03 Jun 2027 20:08:35.883   03 Jun 2027 20:10:45.507           129.624                Sumatra          4050.750
       325   03 Jun 2027 20:15:10.230   03 Jun 2027 20:16:44.741            94.511                Sumatra          2953.469
       326   03 Jun 2027 21:28:50.887   03 Jun 2027 21:29:46.337            55.450                Novosib          1732.812
       327   03 Jun 2027 21:30:52.861   03 Jun 2027 21:32:22.951            90.090                Novosib          2815.312
       328   03 Jun 2027 21:39:17.755   03 Jun 2027 21:40:42.971            85.216                  Delhi          2663.000
       329   03 Jun 2027 23:00:10.946   03 Jun 2027 23:00:30.139            19.193                Norilsk           599.781
       330   03 Jun 2027 23:00:44.667   03 Jun 2027 23:01:29.058            44.391               Magadan1          1387.219
       331   03 Jun 2027 23:01:47.702   03 Jun 2027 23:01:58.964            11.262                Norilsk           351.938
       332   03 Jun 2027 23:02:06.388   03 Jun 2027 23:02:25.568            19.180               Magadan1           599.375
       333   03 Jun 2027 23:03:14.256   03 Jun 2027 23:05:06.769           112.513              Murmansk1          3516.031
       334   03 Jun 2027 23:05:33.537   03 Jun 2027 23:05:46.718            13.181                Novosib           411.906
       335   03 Jun 2027 23:06:39.896   03 Jun 2027 23:06:43.558             3.662              Murmansk2           114.437
       336   03 Jun 2027 23:06:52.890   03 Jun 2027 23:07:06.483            13.593              Murmansk1           424.781
       337   03 Jun 2027 23:08:31.258   03 Jun 2027 23:09:08.807            37.549                Novosib          1173.406
       338   03 Jun 2027 23:11:15.055   03 Jun 2027 23:12:02.113            47.058                Novosib          1470.563
       339   03 Jun 2027 23:12:18.873   03 Jun 2027 23:12:57.564            38.691                  Delhi          1209.094
       340   03 Jun 2027 23:14:45.355   03 Jun 2027 23:14:54.710             9.355                  Delhi           292.344
       341   03 Jun 2027 23:15:21.768   03 Jun 2027 23:15:25.513             3.745                  Delhi           117.031
       342   03 Jun 2027 23:18:20.964   03 Jun 2027 23:19:36.689            75.725                  Delhi          2366.406
       343   04 Jun 2027 00:29:02.261   04 Jun 2027 00:29:20.347            18.086                Anadyr1           565.188
       344   04 Jun 2027 00:30:42.077   04 Jun 2027 00:31:22.124            40.047                Anadyr2          1251.469
       345   04 Jun 2027 00:31:37.066   04 Jun 2027 00:31:50.333            13.267                Anadyr2           414.594
       346   04 Jun 2027 00:32:06.575   04 Jun 2027 00:32:16.494             9.919                Anadyr2           309.969
       347   04 Jun 2027 00:33:40.705   04 Jun 2027 00:34:48.902            68.197                Anadyr2          2131.156
       348   04 Jun 2027 00:35:06.100   04 Jun 2027 00:36:00.690            54.590               Magadan1          1705.938
       349   04 Jun 2027 00:36:24.028   04 Jun 2027 00:36:53.462            29.434               Magadan2           919.813
       350   04 Jun 2027 00:37:02.780   04 Jun 2027 00:37:16.767            13.987               Magadan1           437.094
       351   04 Jun 2027 00:38:22.188   04 Jun 2027 00:41:00.664           158.476              Murmansk1          4952.375
       352   04 Jun 2027 00:41:24.844   04 Jun 2027 00:42:39.640            74.796              Murmansk1          2337.375
       353   04 Jun 2027 00:51:40.007   04 Jun 2027 00:51:45.618             5.611                 Moscow           175.344
       354   04 Jun 2027 01:08:30.377   04 Jun 2027 01:09:06.479            36.102               CapeTown          1128.188
       355   04 Jun 2027 01:09:36.453   04 Jun 2027 01:10:42.041            65.588               CapeTown          2049.625
       356   04 Jun 2027 01:15:26.102   04 Jun 2027 01:16:19.055            52.953               CapeTown          1654.781
       357   04 Jun 2027 02:04:42.574   04 Jun 2027 02:04:51.447             8.873                Anadyr1           277.281
       358   04 Jun 2027 02:05:24.558   04 Jun 2027 02:05:32.386             7.828                Anadyr2           244.625
       359   04 Jun 2027 02:06:46.877   04 Jun 2027 02:08:57.170           130.293               Magadan1          4071.656
       360   04 Jun 2027 02:13:59.907   04 Jun 2027 02:14:17.179            17.272                Norilsk           539.750
       361   04 Jun 2027 02:14:24.131   04 Jun 2027 02:14:30.604             6.473              Murmansk1           202.281
       362   04 Jun 2027 02:14:47.247   04 Jun 2027 02:16:06.394            79.147              Murmansk2          2473.344
       363   04 Jun 2027 02:16:08.198   04 Jun 2027 02:16:55.555            47.357              Murmansk1          1479.906
       364   04 Jun 2027 02:20:20.263   04 Jun 2027 02:20:38.124            17.861                 Moscow           558.156
       365   04 Jun 2027 02:21:22.624   04 Jun 2027 02:21:23.430             0.806                Novosib            25.187
       366   04 Jun 2027 02:21:56.810   04 Jun 2027 02:22:03.828             7.018                 Moscow           219.313
       367   04 Jun 2027 02:23:13.777   04 Jun 2027 02:24:43.995            90.218                 Moscow          2819.312
       368   04 Jun 2027 02:50:14.054   04 Jun 2027 02:50:35.325            21.271               CapeTown           664.719
       369   04 Jun 2027 03:44:44.277   04 Jun 2027 03:46:23.230            98.953               Magadan2          3092.281
       370   04 Jun 2027 03:46:59.410   04 Jun 2027 03:51:03.071           243.661                Anadyr1          7614.406
       371   04 Jun 2027 05:22:45.075   04 Jun 2027 05:26:33.575           228.500                Anadyr2          7140.625
       372   04 Jun 2027 05:26:38.137   04 Jun 2027 05:26:40.644             2.507               Magadan1            78.344
       373   04 Jun 2027 06:04:35.674   04 Jun 2027 06:06:08.824            93.150            RioGallegos          2910.938
       374   04 Jun 2027 06:06:59.606   04 Jun 2027 06:07:05.126             5.520            RioGallegos           172.500
       375   04 Jun 2027 06:55:30.660   04 Jun 2027 06:56:11.723            41.063                Irkutsk          1283.219
       376   04 Jun 2027 06:56:30.876   04 Jun 2027 07:01:25.532           294.656               Magadan1          9208.000
       377   04 Jun 2027 07:01:37.609   04 Jun 2027 07:02:00.962            23.353                Irkutsk           729.781
       378   04 Jun 2027 07:02:03.226   04 Jun 2027 07:02:18.989            15.763               Magadan2           492.594
       379   04 Jun 2027 07:02:28.343   04 Jun 2027 07:02:40.062            11.719              Murmansk1           366.219
       380   04 Jun 2027 07:03:13.003   04 Jun 2027 07:03:48.786            35.783                Norilsk          1118.219
       381   04 Jun 2027 07:37:20.357   04 Jun 2027 07:37:47.434            27.077            RioGallegos           846.156
       382   04 Jun 2027 07:38:48.054   04 Jun 2027 07:40:16.300            88.246            RioGallegos          2757.688
       383   04 Jun 2027 08:14:08.162   04 Jun 2027 08:14:42.395            34.233                Sumatra          1069.781
       384   04 Jun 2027 08:18:32.633   04 Jun 2027 08:19:59.374            86.741                Sumatra          2710.656
       385   04 Jun 2027 08:32:59.656   04 Jun 2027 08:32:59.823             0.167                Novosib             5.219
       386   04 Jun 2027 08:33:11.713   04 Jun 2027 08:33:22.513            10.800                Norilsk           337.500
       387   04 Jun 2027 08:33:39.511   04 Jun 2027 08:35:17.738            98.227               Magadan1          3069.594
       388   04 Jun 2027 08:35:35.367   04 Jun 2027 08:35:39.263             3.896                Norilsk           121.750
       389   04 Jun 2027 08:35:40.759   04 Jun 2027 08:36:45.543            64.784              Murmansk1          2024.500
       390   04 Jun 2027 08:36:50.047   04 Jun 2027 08:38:15.302            85.255              Murmansk2          2664.219
       391   04 Jun 2027 09:13:37.720   04 Jun 2027 09:14:30.482            52.762            RioGallegos          1648.813
       392   04 Jun 2027 09:22:55.740   04 Jun 2027 09:23:13.061            17.321            RioGallegos           541.281
       393   04 Jun 2027 09:48:01.455   04 Jun 2027 09:49:00.770            59.315                Sumatra          1853.594
       394   04 Jun 2027 09:52:38.171   04 Jun 2027 09:52:53.478            15.307                Sumatra           478.344
       395   04 Jun 2027 09:57:50.326   04 Jun 2027 09:58:49.494            59.168                  Delhi          1849.000
       396   04 Jun 2027 10:08:28.447   04 Jun 2027 10:08:36.610             8.163                  Delhi           255.094
       397   04 Jun 2027 10:09:05.511   04 Jun 2027 10:09:13.216             7.705                Irkutsk           240.781
       398   04 Jun 2027 10:09:21.300   04 Jun 2027 10:09:42.441            21.141                Norilsk           660.656
       399   04 Jun 2027 10:09:45.172   04 Jun 2027 10:09:58.771            13.599              Murmansk1           424.969
       400   04 Jun 2027 10:10:00.139   04 Jun 2027 10:10:31.786            31.647              Murmansk2           988.969
       401   04 Jun 2027 10:11:02.660   04 Jun 2027 10:11:45.924            43.264              Murmansk1          1352.000
       402   04 Jun 2027 10:11:55.806   04 Jun 2027 10:11:56.957             1.151                 Moscow            35.969
       403   04 Jun 2027 10:12:02.395   04 Jun 2027 10:12:09.877             7.482                Norilsk           233.812
       404   04 Jun 2027 10:12:21.730   04 Jun 2027 10:12:48.853            27.123                Irkutsk           847.594
       405   04 Jun 2027 10:12:57.435   04 Jun 2027 10:13:10.320            12.885              Murmansk2           402.656
       406   04 Jun 2027 10:13:10.320   04 Jun 2027 10:13:11.303             0.983              Murmansk1            30.719
       407   04 Jun 2027 10:13:17.127   04 Jun 2027 10:14:00.258            43.131              Murmansk2          1347.844
       408   04 Jun 2027 10:14:06.144   04 Jun 2027 10:14:36.867            30.723                Novosib           960.094
       409   04 Jun 2027 10:14:49.669   04 Jun 2027 10:16:21.305            91.636                 Moscow          2863.625
       410   04 Jun 2027 11:32:38.749   04 Jun 2027 11:33:57.664            78.915                  Delhi          2466.094
       411   04 Jun 2027 11:45:26.301   04 Jun 2027 11:45:43.323            17.022                Novosib           531.938
       412   04 Jun 2027 11:45:46.118   04 Jun 2027 11:45:56.153            10.035                Norilsk           313.594
       413   04 Jun 2027 11:46:05.449   04 Jun 2027 11:47:20.562            75.113                Novosib          2347.281
       414   04 Jun 2027 11:47:31.911   04 Jun 2027 11:47:47.174            15.263                 Moscow           476.969
       415   04 Jun 2027 11:47:50.121   04 Jun 2027 11:48:15.677            25.556                Norilsk           798.625
       416   04 Jun 2027 11:48:16.904   04 Jun 2027 11:49:48.691            91.787                Novosib          2868.344
       417   04 Jun 2027 13:16:30.953   04 Jun 2027 13:19:34.046           183.093                 Moscow          5721.656
       418   04 Jun 2027 13:20:01.952   04 Jun 2027 13:21:47.113           105.161              Murmansk1          3286.281
       419   04 Jun 2027 13:21:47.412   04 Jun 2027 13:23:17.379            89.967              Murmansk2          2811.469
       420   04 Jun 2027 13:25:24.524   04 Jun 2027 13:26:33.452            68.928                Norilsk          2154.000
       421   04 Jun 2027 14:30:29.724   04 Jun 2027 14:31:41.314            71.590               CapeTown          2237.188
       422   04 Jun 2027 14:32:24.431   04 Jun 2027 14:32:53.268            28.837               CapeTown           901.156
       423   04 Jun 2027 14:34:03.248   04 Jun 2027 14:34:31.962            28.714               CapeTown           897.313
       424   04 Jun 2027 14:37:59.398   04 Jun 2027 14:38:18.110            18.712               CapeTown           584.750
       425   04 Jun 2027 14:39:32.326   04 Jun 2027 14:41:13.428           101.102               CapeTown          3159.438
       426   04 Jun 2027 14:57:33.711   04 Jun 2027 14:58:18.025            44.314              Murmansk1          1384.812
       427   04 Jun 2027 14:59:37.465   04 Jun 2027 15:01:05.503            88.038              Murmansk1          2751.188
       428   04 Jun 2027 15:10:50.765   04 Jun 2027 15:13:14.092           143.327                Anadyr2          4478.969
       429   04 Jun 2027 15:16:21.255   04 Jun 2027 15:16:41.349            20.094                Anadyr1           627.937
       430   04 Jun 2027 15:16:53.703   04 Jun 2027 15:18:10.488            76.785                Anadyr2          2399.531
       431   04 Jun 2027 16:37:36.342   04 Jun 2027 16:39:54.734           138.392              Murmansk2          4324.750
       432   04 Jun 2027 16:40:41.008   04 Jun 2027 16:41:11.115            30.107              Murmansk2           940.844
       433   04 Jun 2027 16:46:32.288   04 Jun 2027 16:48:01.164            88.876                Anadyr2          2777.375
       434   04 Jun 2027 16:49:30.929   04 Jun 2027 16:53:10.867           219.938               Magadan1          6873.062
       435   04 Jun 2027 18:22:27.788   04 Jun 2027 18:24:18.518           110.730                Anadyr1          3460.313
       436   04 Jun 2027 18:24:45.880   04 Jun 2027 18:27:49.145           183.265               Magadan2          5727.031
       437   04 Jun 2027 18:27:59.734   04 Jun 2027 18:28:34.840            35.106               Magadan2          1097.063
       438   04 Jun 2027 19:18:10.435   04 Jun 2027 19:21:04.766           174.331            RioGallegos          5447.844
       439   04 Jun 2027 19:23:11.224   04 Jun 2027 19:23:31.984            20.760            RioGallegos           648.750
       440   04 Jun 2027 19:24:37.899   04 Jun 2027 19:25:06.639            28.740            RioGallegos           898.125
       441   04 Jun 2027 19:59:39.888   04 Jun 2027 19:59:48.427             8.539                Anadyr2           266.844
       442   04 Jun 2027 20:00:10.716   04 Jun 2027 20:00:12.855             2.139                Anadyr2            66.844
       443   04 Jun 2027 20:00:24.821   04 Jun 2027 20:02:56.596           151.775                Norilsk          4742.969
       444   04 Jun 2027 20:03:05.026   04 Jun 2027 20:04:18.053            73.027                Norilsk          2282.094
       445   04 Jun 2027 20:06:00.519   04 Jun 2027 20:06:50.217            49.698                Irkutsk          1553.062
       446   04 Jun 2027 20:08:20.777   04 Jun 2027 20:08:34.010            13.233                Irkutsk           413.531
       447   04 Jun 2027 20:10:02.116   04 Jun 2027 20:10:46.649            44.533                Irkutsk          1391.656
       448   04 Jun 2027 20:11:06.823   04 Jun 2027 20:11:31.524            24.701                Irkutsk           771.906
       449   04 Jun 2027 20:19:45.009   04 Jun 2027 20:20:47.778            62.769                Sumatra          1961.531
       450   04 Jun 2027 20:22:24.840   04 Jun 2027 20:24:43.123           138.283                Sumatra          4321.344
       451   04 Jun 2027 21:37:17.195   04 Jun 2027 21:37:39.745            22.550               Magadan2           704.688
       452   04 Jun 2027 21:38:30.349   04 Jun 2027 21:39:27.222            56.873               Magadan2          1777.281
       453   04 Jun 2027 21:40:05.943   04 Jun 2027 21:41:27.363            81.420                Irkutsk          2544.375
       454   04 Jun 2027 21:41:52.982   04 Jun 2027 21:42:06.451            13.469                Novosib           420.906
       455   04 Jun 2027 21:43:21.204   04 Jun 2027 21:44:40.650            79.446                Novosib          2482.688
       456   04 Jun 2027 21:49:57.652   04 Jun 2027 21:52:17.142           139.490                  Delhi          4359.062
       457   04 Jun 2027 21:57:09.995   04 Jun 2027 21:57:17.965             7.970                  Delhi           249.062
       458   04 Jun 2027 23:11:47.324   04 Jun 2027 23:12:44.234            56.910                Anadyr1          1778.437
       459   04 Jun 2027 23:12:46.285   04 Jun 2027 23:13:30.811            44.526               Magadan1          1391.438
       460   04 Jun 2027 23:13:39.378   04 Jun 2027 23:14:00.881            21.503                Norilsk           671.969
       461   04 Jun 2027 23:15:00.671   04 Jun 2027 23:17:06.894           126.223              Murmansk2          3944.469
       462   04 Jun 2027 23:18:06.913   04 Jun 2027 23:18:46.991            40.078              Murmansk1          1252.438
       463   04 Jun 2027 23:19:09.936   04 Jun 2027 23:20:33.714            83.778              Murmansk2          2618.062
       464   04 Jun 2027 23:30:00.506   04 Jun 2027 23:32:06.389           125.883                  Delhi          3933.844
       465   05 Jun 2027 00:40:44.338   05 Jun 2027 00:41:09.126            24.788                Anadyr1           774.625
       466   05 Jun 2027 00:43:23.463   05 Jun 2027 00:43:31.567             8.104                Anadyr1           253.250
       467   05 Jun 2027 00:45:42.124   05 Jun 2027 00:46:03.204            21.080                Anadyr2           658.750
       468   05 Jun 2027 00:46:39.328   05 Jun 2027 00:48:45.496           126.168               Magadan1          3942.750
       469   05 Jun 2027 00:50:22.560   05 Jun 2027 00:53:02.341           159.781              Murmansk1          4993.156
       470   05 Jun 2027 00:54:03.952   05 Jun 2027 00:55:06.745            62.793                 Moscow          1962.281
       471   05 Jun 2027 01:06:19.120   05 Jun 2027 01:07:36.755            77.635                  Delhi          2426.094
       472   05 Jun 2027 01:23:51.079   05 Jun 2027 01:24:16.381            25.302               CapeTown           790.688
       473   05 Jun 2027 01:27:16.937   05 Jun 2027 01:28:43.870            86.933               CapeTown          2716.656
       474   05 Jun 2027 02:16:53.784   05 Jun 2027 02:16:55.736             1.952                Anadyr2            61.000
       475   05 Jun 2027 02:16:59.527   05 Jun 2027 02:17:13.311            13.784                Anadyr1           430.750
       476   05 Jun 2027 02:18:17.206   05 Jun 2027 02:18:32.509            15.303               Magadan2           478.219
       477   05 Jun 2027 02:18:32.509   05 Jun 2027 02:19:34.022            61.513               Magadan1          1922.281
       478   05 Jun 2027 02:21:14.784   05 Jun 2027 02:21:18.890             4.106               Magadan1           128.313
       479   05 Jun 2027 02:23:41.197   05 Jun 2027 02:24:14.041            32.844                Norilsk          1026.375
       480   05 Jun 2027 02:26:18.640   05 Jun 2027 02:28:07.913           109.273              Murmansk1          3414.781
       481   05 Jun 2027 02:28:57.566   05 Jun 2027 02:29:32.319            34.753                Novosib          1086.031
       482   05 Jun 2027 02:32:46.469   05 Jun 2027 02:33:22.202            35.733                Novosib          1116.656
