uniorb/output/strategy_1/Drop/Drop_KinoSat_110408.txt

KinoSat_110408
-------------------------
    Access    *     Start Time (UTCG)     *     Stop Time (UTCG)  *   Duration (s)        *       Station  *  Data (Mbytes)
         1   01 Jun 2027 03:22:01.289   01 Jun 2027 03:22:22.246            20.957               Magadan1          2619.625
         2   01 Jun 2027 03:22:41.546   01 Jun 2027 03:22:51.670            10.124               Magadan1          1265.500
         3   01 Jun 2027 03:22:51.670   01 Jun 2027 03:23:07.097            15.427               Magadan2          1928.375
         4   01 Jun 2027 03:23:12.009   01 Jun 2027 03:23:21.523             9.514                Anadyr1          1189.250
         5   01 Jun 2027 03:23:24.962   01 Jun 2027 03:24:34.543            69.581                Anadyr1          8697.625
         6   01 Jun 2027 03:24:47.173   01 Jun 2027 03:25:19.721            32.548                Anadyr2          4068.500
         7   01 Jun 2027 03:25:45.065   01 Jun 2027 03:26:55.288            70.223               Magadan2          8777.875
         8   01 Jun 2027 03:26:58.066   01 Jun 2027 03:27:01.975             3.909                Anadyr2           488.625
         9   01 Jun 2027 03:27:10.338   01 Jun 2027 03:28:29.002            78.664                Anadyr1          9833.000
        10   01 Jun 2027 03:29:11.646   01 Jun 2027 03:29:44.832            33.186               Magadan1          4148.250
        11   01 Jun 2027 03:29:48.046   01 Jun 2027 03:29:51.274             3.228                Anadyr2           403.500
        12   01 Jun 2027 03:30:05.910   01 Jun 2027 03:30:23.975            18.065               Magadan2          2258.125
        13   01 Jun 2027 04:43:49.323   01 Jun 2027 04:44:56.291            66.968                Sumatra          8371.000
        14   01 Jun 2027 04:46:56.786   01 Jun 2027 04:47:19.223            22.437                Sumatra          2804.625
        15   01 Jun 2027 05:00:51.928   01 Jun 2027 05:01:29.944            38.016               Magadan1          4752.000
        16   01 Jun 2027 05:01:39.642   01 Jun 2027 05:02:27.677            48.035                Irkutsk          6004.375
        17   01 Jun 2027 05:02:36.806   01 Jun 2027 05:02:59.051            22.245                Norilsk          2780.625
        18   01 Jun 2027 05:03:07.768   01 Jun 2027 05:05:14.206           126.438                Irkutsk         15804.750
        19   01 Jun 2027 05:05:45.840   01 Jun 2027 05:06:08.098            22.258                Novosib          2782.250
        20   01 Jun 2027 05:06:18.207   01 Jun 2027 05:06:40.084            21.877                Novosib          2734.625
        21   01 Jun 2027 05:06:53.263   01 Jun 2027 05:06:56.192             2.929              Murmansk1           366.125
        22   01 Jun 2027 05:41:14.629   01 Jun 2027 05:41:47.555            32.926            RioGallegos          4115.750
        23   01 Jun 2027 06:15:51.264   01 Jun 2027 06:17:58.630           127.366                Sumatra         15920.750
        24   01 Jun 2027 06:25:48.503   01 Jun 2027 06:26:17.439            28.936                  Delhi          3617.000
        25   01 Jun 2027 06:27:06.892   01 Jun 2027 06:29:00.984           114.092                  Delhi         14261.500
        26   01 Jun 2027 06:38:35.736   01 Jun 2027 06:39:06.559            30.823                Irkutsk          3852.875
        27   01 Jun 2027 06:39:14.647   01 Jun 2027 06:39:49.941            35.294                Novosib          4411.750
        28   01 Jun 2027 06:39:50.941   01 Jun 2027 06:40:50.456            59.515              Murmansk1          7439.375
        29   01 Jun 2027 06:41:09.728   01 Jun 2027 06:41:35.902            26.174              Murmansk1          3271.750
        30   01 Jun 2027 06:41:51.929   01 Jun 2027 06:42:42.281            50.352                Norilsk          6294.000
        31   01 Jun 2027 06:42:59.617   01 Jun 2027 06:43:23.875            24.258                 Moscow          3032.250
        32   01 Jun 2027 06:43:26.026   01 Jun 2027 06:43:46.745            20.719                 Moscow          2589.875
        33   01 Jun 2027 08:00:13.707   01 Jun 2027 08:01:24.227            70.520                  Delhi          8815.000
        34   01 Jun 2027 08:15:54.875   01 Jun 2027 08:17:10.491            75.616                Novosib          9452.000
        35   01 Jun 2027 08:17:16.778   01 Jun 2027 08:18:28.059            71.281                Novosib          8910.125
        36   01 Jun 2027 09:51:30.249   01 Jun 2027 09:52:10.778            40.529                 Moscow          5066.125
        37   01 Jun 2027 09:52:20.070   01 Jun 2027 09:52:47.768            27.698                 Moscow          3462.250
        38   01 Jun 2027 09:52:48.355   01 Jun 2027 09:52:52.373             4.018              Murmansk1           502.250
        39   01 Jun 2027 09:52:57.906   01 Jun 2027 09:53:07.610             9.704              Murmansk1          1213.000
        40   01 Jun 2027 09:53:26.620   01 Jun 2027 09:54:20.872            54.252              Murmansk1          6781.500
        41   01 Jun 2027 09:54:20.872   01 Jun 2027 09:54:36.941            16.069              Murmansk2          2008.625
        42   01 Jun 2027 10:58:54.912   01 Jun 2027 11:05:35.078           400.166               CapeTown         50020.750
        43   01 Jun 2027 11:38:56.747   01 Jun 2027 11:41:33.607           156.860                Anadyr1         19607.500
        44   01 Jun 2027 11:41:51.283   01 Jun 2027 11:43:20.165            88.882                Anadyr2         11110.250
        45   01 Jun 2027 11:44:09.729   01 Jun 2027 11:44:24.799            15.070                Anadyr1          1883.750
        46   01 Jun 2027 11:44:56.927   01 Jun 2027 11:46:27.669            90.742                Anadyr2         11342.750
        47   01 Jun 2027 11:47:59.206   01 Jun 2027 11:48:39.535            40.329                Anadyr2          5041.125
        48   01 Jun 2027 13:17:50.381   01 Jun 2027 13:21:26.071           215.690               Magadan2         26961.250
        49   01 Jun 2027 13:22:44.089   01 Jun 2027 13:24:17.032            92.943               Magadan1         11617.875
        50   01 Jun 2027 15:47:35.991   01 Jun 2027 15:49:51.324           135.333            RioGallegos         16916.625
        51   01 Jun 2027 16:33:39.873   01 Jun 2027 16:37:16.452           216.579                Irkutsk         27072.375
        52   01 Jun 2027 16:40:04.276   01 Jun 2027 16:41:34.463            90.187                Irkutsk         11273.375
        53   01 Jun 2027 16:53:09.528   01 Jun 2027 16:55:19.588           130.060                Sumatra         16257.500
        54   01 Jun 2027 18:10:30.186   01 Jun 2027 18:12:40.737           130.551                Novosib         16318.875
        55   01 Jun 2027 18:20:43.377   01 Jun 2027 18:21:08.044            24.667                  Delhi          3083.375
        56   01 Jun 2027 21:18:34.344   01 Jun 2027 21:19:28.180            53.836              Murmansk2          6729.500
        57   01 Jun 2027 21:25:06.929   01 Jun 2027 21:28:37.076           210.147                 Moscow         13068.251
        58   02 Jun 2027 03:39:06.556   02 Jun 2027 03:39:39.730            33.174               Magadan2          4146.750
        59   02 Jun 2027 03:40:12.299   02 Jun 2027 03:42:06.351           114.052               Magadan1         14256.500
        60   02 Jun 2027 05:13:44.103   02 Jun 2027 05:14:28.122            44.019                Norilsk          5502.375
        61   02 Jun 2027 05:14:40.194   02 Jun 2027 05:15:55.085            74.891                Novosib          9361.375
        62   02 Jun 2027 05:16:01.385   02 Jun 2027 05:18:22.137           140.752                Irkutsk         17594.000
        63   02 Jun 2027 06:37:17.123   02 Jun 2027 06:38:40.878            83.755                  Delhi         10469.375
        64   02 Jun 2027 06:50:38.724   02 Jun 2027 06:52:34.336           115.612                Irkutsk         14451.500
        65   02 Jun 2027 06:53:18.014   02 Jun 2027 06:54:22.776            64.762                 Moscow          8095.250
        66   02 Jun 2027 08:12:29.224   02 Jun 2027 08:13:06.777            37.553                  Delhi          4694.125
        67   02 Jun 2027 08:15:44.355   02 Jun 2027 08:17:08.584            84.229                  Delhi         10528.625
        68   02 Jun 2027 08:27:49.995   02 Jun 2027 08:28:26.530            36.535                 Moscow          4566.875
        69   02 Jun 2027 08:28:37.251   02 Jun 2027 08:28:41.605             4.354                 Moscow           544.250
        70   02 Jun 2027 08:28:43.508   02 Jun 2027 08:29:21.364            37.856                Norilsk          4732.000
        71   02 Jun 2027 08:29:30.364   02 Jun 2027 08:29:36.668             6.304                Norilsk           788.000
        72   02 Jun 2027 08:29:45.949   02 Jun 2027 08:30:34.628            48.679              Murmansk2          6084.875
        73   02 Jun 2027 08:30:35.906   02 Jun 2027 08:30:45.665             9.759                Novosib          1219.875
        74   02 Jun 2027 08:33:14.867   02 Jun 2027 08:33:16.696             1.829                 Moscow           228.625
        75   02 Jun 2027 10:03:13.615   02 Jun 2027 10:03:43.090            29.475                 Moscow          3684.375
        76   02 Jun 2027 10:03:55.958   02 Jun 2027 10:04:55.264            59.306              Murmansk1          7413.250
        77   02 Jun 2027 11:10:36.391   02 Jun 2027 11:14:39.670           243.279               CapeTown         30409.875
        78   02 Jun 2027 11:15:19.417   02 Jun 2027 11:16:49.240            89.823               CapeTown         11227.875
        79   02 Jun 2027 11:50:52.487   02 Jun 2027 11:56:14.940           322.453                Anadyr1         40306.625
        80   02 Jun 2027 11:57:37.227   02 Jun 2027 12:01:10.457           213.230                Anadyr2         26653.750
        81   02 Jun 2027 13:29:36.356   02 Jun 2027 13:35:12.193           335.837               Magadan2         41979.625
        82   02 Jun 2027 15:58:29.593   02 Jun 2027 16:00:53.300           143.707            RioGallegos         17963.375
        83   02 Jun 2027 16:45:29.113   02 Jun 2027 16:48:47.638           198.525                Irkutsk         24815.625
        84   02 Jun 2027 17:00:05.909   02 Jun 2027 17:02:55.554           169.645                Sumatra         21205.625
        85   02 Jun 2027 17:05:28.877   02 Jun 2027 17:09:05.702           216.825                Sumatra         27103.125
        86   02 Jun 2027 18:30:28.065   02 Jun 2027 18:32:08.591           100.526                  Delhi         12565.750
        87   02 Jun 2027 21:31:55.380   02 Jun 2027 21:33:23.279            87.899              Murmansk1         10987.375
        88   02 Jun 2027 21:38:14.869   02 Jun 2027 21:38:22.191             7.322                 Moscow           915.250
        89   02 Jun 2027 22:00:03.342   02 Jun 2027 22:02:28.794           145.452               CapeTown         18181.500
        90   02 Jun 2027 22:02:45.848   02 Jun 2027 22:05:00.320           134.472               CapeTown         16809.000
        91   03 Jun 2027 03:52:48.724   03 Jun 2027 03:52:59.863            11.139               Magadan1          1392.375
        92   03 Jun 2027 03:53:11.636   03 Jun 2027 03:53:18.027             6.391               Magadan2           798.875
        93   03 Jun 2027 03:53:18.027   03 Jun 2027 03:53:35.864            17.837               Magadan1          2229.625
        94   03 Jun 2027 03:53:50.514   03 Jun 2027 03:54:16.981            26.467               Magadan2          3308.375
        95   03 Jun 2027 04:36:59.245   03 Jun 2027 04:37:13.761            14.516            RioGallegos          1814.500
        96   03 Jun 2027 04:37:22.088   03 Jun 2027 04:38:17.956            55.868            RioGallegos          6983.500
        97   03 Jun 2027 05:05:43.095   03 Jun 2027 05:08:49.328           186.233                Sumatra         23279.125
        98   03 Jun 2027 05:26:51.937   03 Jun 2027 05:27:40.578            48.641                Norilsk          6080.125
        99   03 Jun 2027 05:27:50.824   03 Jun 2027 05:28:31.170            40.346              Murmansk2          5043.250
       100   03 Jun 2027 05:28:59.855   03 Jun 2027 05:30:28.232            88.377                Norilsk         11047.125
       101   03 Jun 2027 05:31:44.329   03 Jun 2027 05:31:46.826             2.497                Novosib           312.125
       102   03 Jun 2027 05:34:30.569   03 Jun 2027 05:34:41.250            10.681              Murmansk1          1335.125
       103   03 Jun 2027 05:36:18.224   03 Jun 2027 05:36:50.047            31.823              Murmansk2          3977.875
       104   03 Jun 2027 06:07:42.587   03 Jun 2027 06:08:00.646            18.059            RioGallegos          2257.375
       105   03 Jun 2027 06:08:28.344   03 Jun 2027 06:08:56.429            28.085            RioGallegos          3510.625
       106   03 Jun 2027 06:40:08.169   03 Jun 2027 06:41:12.591            64.422                Sumatra          8052.750
       107   03 Jun 2027 06:50:57.243   03 Jun 2027 06:52:48.724           111.481                  Delhi         13935.125
       108   03 Jun 2027 07:03:07.005   03 Jun 2027 07:03:26.585            19.580                 Moscow          2447.500
       109   03 Jun 2027 07:03:40.313   03 Jun 2027 07:04:32.644            52.331                 Moscow          6541.375
       110   03 Jun 2027 07:04:46.242   03 Jun 2027 07:04:58.479            12.237              Murmansk1          1529.625
       111   03 Jun 2027 07:05:09.448   03 Jun 2027 07:05:44.080            34.632                Norilsk          4329.000
       112   03 Jun 2027 07:06:15.782   03 Jun 2027 07:07:08.624            52.842                Novosib          6605.250
       113   03 Jun 2027 08:24:51.627   03 Jun 2027 08:24:55.038             3.411                  Delhi           426.375
       114   03 Jun 2027 08:26:46.455   03 Jun 2027 08:27:22.732            36.277                  Delhi          4534.625
       115   03 Jun 2027 08:39:25.969   03 Jun 2027 08:40:14.007            48.038                 Moscow          6004.750
       116   03 Jun 2027 08:40:25.284   03 Jun 2027 08:40:29.417             4.133                 Moscow           516.625
       117   03 Jun 2027 08:40:37.209   03 Jun 2027 08:41:59.001            81.792                 Moscow         10224.000
       118   03 Jun 2027 10:29:06.073   03 Jun 2027 10:31:29.586           143.513                Anadyr2         17939.125
       119   03 Jun 2027 11:22:23.005   03 Jun 2027 11:24:37.290           134.285               CapeTown         16785.625
       120   03 Jun 2027 11:26:38.671   03 Jun 2027 11:27:16.913            38.242               CapeTown          4780.250
       121   03 Jun 2027 12:02:49.439   03 Jun 2027 12:08:07.783           318.344                Anadyr1         39793.000
       122   03 Jun 2027 13:41:25.974   03 Jun 2027 13:47:09.673           343.699               Magadan2         42962.375
       123   03 Jun 2027 16:09:53.407   03 Jun 2027 16:14:35.398           281.991            RioGallegos         35248.875
       124   03 Jun 2027 16:16:11.609   03 Jun 2027 16:17:38.561            86.952            RioGallegos         10869.000
       125   03 Jun 2027 16:59:31.606   03 Jun 2027 17:01:02.922            91.316                Irkutsk         11414.500
       126   03 Jun 2027 17:11:23.759   03 Jun 2027 17:14:44.623           200.864                Sumatra         25108.000
       127   03 Jun 2027 17:16:10.064   03 Jun 2027 17:17:41.311            91.247                Sumatra         11405.875
       128   03 Jun 2027 18:41:28.023   03 Jun 2027 18:42:03.908            35.885                Novosib          4485.625
       129   03 Jun 2027 18:42:23.709   03 Jun 2027 18:44:29.624           125.915                  Delhi         15739.375
       130   03 Jun 2027 18:46:36.956   03 Jun 2027 18:48:47.868           130.912                  Delhi         16364.000
       131   03 Jun 2027 21:44:55.244   03 Jun 2027 21:47:00.731           125.487              Murmansk1         15685.875
       132   03 Jun 2027 21:48:41.757   03 Jun 2027 21:50:17.496            95.739                 Moscow         11967.375
       133   03 Jun 2027 22:12:30.810   03 Jun 2027 22:14:29.594           118.784               CapeTown         14848.000
       134   04 Jun 2027 04:05:29.599   04 Jun 2027 04:06:11.488            41.889               Magadan2          5236.125
       135   04 Jun 2027 04:41:09.558   04 Jun 2027 04:41:34.010            24.452            RioGallegos          3056.500
       136   04 Jun 2027 04:45:35.681   04 Jun 2027 04:45:48.917            13.236            RioGallegos          1654.500
       137   04 Jun 2027 04:48:45.794   04 Jun 2027 04:48:59.010            13.216            RioGallegos          1652.000
       138   04 Jun 2027 05:17:07.302   04 Jun 2027 05:18:04.370            57.068                Sumatra          7133.500
       139   04 Jun 2027 05:18:45.043   04 Jun 2027 05:20:20.267            95.224                Sumatra         11903.000
       140   04 Jun 2027 05:38:51.838   04 Jun 2027 05:39:08.978            17.140                Irkutsk          2142.500
       141   04 Jun 2027 05:39:21.226   04 Jun 2027 05:40:24.116            62.890              Murmansk2          7861.250
       142   04 Jun 2027 05:40:27.018   04 Jun 2027 05:40:50.023            23.005                Norilsk          2875.625
       143   04 Jun 2027 05:41:03.650   04 Jun 2027 05:42:09.996            66.346                Novosib          8293.250
       144   04 Jun 2027 05:43:45.036   04 Jun 2027 05:43:50.937             5.901                Novosib           737.625
       145   04 Jun 2027 06:23:27.325   04 Jun 2027 06:23:40.534            13.209            RioGallegos          1651.125
       146   04 Jun 2027 06:28:13.460   04 Jun 2027 06:28:50.308            36.848            RioGallegos          4606.000
       147   04 Jun 2027 06:52:26.344   04 Jun 2027 06:52:54.897            28.553                Sumatra          3569.125
       148   04 Jun 2027 07:00:35.181   04 Jun 2027 07:00:35.390             0.209                  Delhi            26.125
       149   04 Jun 2027 07:02:46.553   04 Jun 2027 07:04:50.551           123.998                  Delhi         15499.750
       150   04 Jun 2027 07:16:29.444   04 Jun 2027 07:17:03.874            34.430                Norilsk          4303.750
       151   04 Jun 2027 07:17:08.217   04 Jun 2027 07:17:33.371            25.154                Norilsk          3144.250
       152   04 Jun 2027 07:17:43.284   04 Jun 2027 07:18:51.077            67.793                Novosib          8474.125
       153   04 Jun 2027 07:18:59.016   04 Jun 2027 07:19:50.632            51.616                Novosib          6452.000
       154   04 Jun 2027 08:37:22.325   04 Jun 2027 08:38:22.827            60.502                  Delhi          7562.750
       155   04 Jun 2027 08:50:21.318   04 Jun 2027 08:51:04.329            43.011                Norilsk          5376.375
       156   04 Jun 2027 08:51:11.421   04 Jun 2027 08:51:32.535            21.114              Murmansk2          2639.250
       157   04 Jun 2027 08:51:41.253   04 Jun 2027 08:52:11.164            29.911              Murmansk2          3738.875
       158   04 Jun 2027 08:52:22.738   04 Jun 2027 08:53:02.988            40.250                 Moscow          5031.250
       159   04 Jun 2027 08:53:16.881   04 Jun 2027 08:54:16.950            60.069                Novosib          7508.625
       160   04 Jun 2027 08:54:18.459   04 Jun 2027 08:54:45.853            27.394              Murmansk1          3424.250
       161   04 Jun 2027 10:40:16.648   04 Jun 2027 10:43:25.302           188.654                Anadyr1         23581.750
       162   04 Jun 2027 10:43:25.302   04 Jun 2027 10:45:00.281            94.979                Anadyr2         11872.375
       163   04 Jun 2027 11:36:56.249   04 Jun 2027 11:37:31.934            35.685               CapeTown          4460.625
       164   04 Jun 2027 12:14:47.337   04 Jun 2027 12:16:07.887            80.550                Anadyr1         10068.750
       165   04 Jun 2027 12:16:08.485   04 Jun 2027 12:19:17.364           188.879                Anadyr2         23609.875
       166   04 Jun 2027 13:53:18.169   04 Jun 2027 13:57:10.132           231.963               Magadan1         28995.375
       167   04 Jun 2027 16:21:28.958   04 Jun 2027 16:25:17.064           228.106            RioGallegos         28513.250
       168   04 Jun 2027 16:27:03.677   04 Jun 2027 16:28:12.082            68.405            RioGallegos          8550.625
       169   04 Jun 2027 17:11:14.562   04 Jun 2027 17:12:58.835           104.273                Irkutsk         13034.125
       170   04 Jun 2027 17:22:53.288   04 Jun 2027 17:24:20.104            86.816                Sumatra         10852.000
       171   04 Jun 2027 17:26:39.542   04 Jun 2027 17:29:49.546           190.004                Sumatra         23750.500
       172   04 Jun 2027 18:45:59.322   04 Jun 2027 18:47:11.736            72.414                Novosib          9051.750
       173   04 Jun 2027 18:52:51.758   04 Jun 2027 18:56:18.457           206.699                  Delhi         25837.375
       174   04 Jun 2027 18:58:57.059   04 Jun 2027 19:00:38.550           101.491                  Delhi         12686.375
       175   04 Jun 2027 20:26:03.855   04 Jun 2027 20:26:26.717            22.862                 Moscow          2857.750
       176   04 Jun 2027 21:54:23.781   04 Jun 2027 21:55:13.202            49.421              Murmansk1          6177.625
       177   04 Jun 2027 21:59:49.988   04 Jun 2027 22:00:44.185            54.197                 Moscow          6774.625
       178   04 Jun 2027 22:22:50.156   04 Jun 2027 22:24:01.589            71.433               CapeTown          8929.125
       179   04 Jun 2027 22:26:18.556   04 Jun 2027 22:27:16.585            58.029               CapeTown          7253.625
       180   05 Jun 2027 04:13:30.326   05 Jun 2027 04:13:49.291            18.965                Irkutsk          2370.625
       181   05 Jun 2027 04:17:06.512   05 Jun 2027 04:17:56.206            49.694               Magadan2          6211.750
       182   05 Jun 2027 04:18:02.492   05 Jun 2027 04:18:04.151             1.659               Magadan2           207.375
       183   05 Jun 2027 04:18:18.055   05 Jun 2027 04:18:18.407             0.352                Irkutsk            44.000
       184   05 Jun 2027 04:53:06.801   05 Jun 2027 04:53:55.723            48.922            RioGallegos          6115.250
       185   05 Jun 2027 04:55:51.399   05 Jun 2027 04:56:23.805            32.406            RioGallegos          4050.750
       186   05 Jun 2027 05:28:41.418   05 Jun 2027 05:30:31.495           110.077                Sumatra         13759.625
       187   05 Jun 2027 05:43:06.533   05 Jun 2027 05:44:07.995            61.462                  Delhi          7682.750
       188   05 Jun 2027 05:50:30.872   05 Jun 2027 05:51:47.926            77.054                Irkutsk          9631.750
       189   05 Jun 2027 05:52:08.901   05 Jun 2027 05:52:29.239            20.338                Irkutsk          2542.250
       190   05 Jun 2027 05:52:41.000   05 Jun 2027 05:53:34.216            53.216                Novosib          6652.000
       191   05 Jun 2027 07:12:23.097   05 Jun 2027 07:13:02.399            39.302                  Delhi          4912.750
       192   05 Jun 2027 07:13:50.177   05 Jun 2027 07:14:31.045            40.868                  Delhi          5108.500
       193   05 Jun 2027 07:27:58.288   05 Jun 2027 07:29:05.146            66.858                Irkutsk          8357.250
       194   05 Jun 2027 07:29:16.796   05 Jun 2027 07:29:27.838            11.042              Murmansk2          1380.250
       195   05 Jun 2027 07:29:37.366   05 Jun 2027 07:30:37.855            60.489              Murmansk1          7561.125
       196   05 Jun 2027 08:50:03.868   05 Jun 2027 08:51:09.767            65.899                  Delhi          8237.375
       197   05 Jun 2027 09:02:16.579   05 Jun 2027 09:03:42.730            86.151                 Moscow         10768.875
       198   05 Jun 2027 09:04:03.299   05 Jun 2027 09:05:02.141            58.842              Murmansk2          7355.250
       199   05 Jun 2027 09:05:12.372   05 Jun 2027 09:05:42.175            29.803                 Moscow          3725.375
       200   05 Jun 2027 09:05:46.610   05 Jun 2027 09:06:03.590            16.980                Novosib          2122.500
       201   05 Jun 2027 09:06:06.049   05 Jun 2027 09:06:14.263             8.214                 Moscow          1026.750
       202   05 Jun 2027 09:06:18.282   05 Jun 2027 09:06:25.496             7.214                Novosib           901.750
       203   05 Jun 2027 09:06:28.694   05 Jun 2027 09:07:40.746            72.052                 Moscow          9006.500
       204   05 Jun 2027 10:14:58.329   05 Jun 2027 10:15:52.078            53.749               CapeTown          6718.625
       205   05 Jun 2027 10:51:52.011   05 Jun 2027 10:55:47.125           235.114                Anadyr1         29389.250
       206   05 Jun 2027 10:57:42.170   05 Jun 2027 10:58:03.644            21.474                Anadyr2          2684.250
       207   05 Jun 2027 12:26:45.990   05 Jun 2027 12:28:32.140           106.150                Anadyr1         13268.750
       208   05 Jun 2027 12:31:18.770   05 Jun 2027 12:31:58.749            39.979                Anadyr1          4997.375
       209   05 Jun 2027 14:05:12.301   05 Jun 2027 14:07:23.873           131.572               Magadan2         16446.500
       210   05 Jun 2027 14:07:52.576   05 Jun 2027 14:09:56.657           124.081               Magadan1         15510.125
       211   05 Jun 2027 14:12:55.781   05 Jun 2027 14:14:15.034            79.253               Magadan2          9906.625
       212   05 Jun 2027 16:33:11.247   05 Jun 2027 16:35:15.239           123.992            RioGallegos         15499.000
       213   05 Jun 2027 16:35:29.934   05 Jun 2027 16:39:22.319           232.385            RioGallegos         29048.125
       214   05 Jun 2027 17:22:05.943   05 Jun 2027 17:23:50.423           104.480                Irkutsk         13060.000
       215   05 Jun 2027 17:24:43.514   05 Jun 2027 17:25:51.654            68.140                Novosib          8517.500
       216   05 Jun 2027 17:34:31.475   05 Jun 2027 17:36:22.213           110.738                Sumatra         13842.250
       217   05 Jun 2027 17:38:21.796   05 Jun 2027 17:40:23.104           121.308                Sumatra         15163.500
       218   05 Jun 2027 18:56:22.733   05 Jun 2027 18:58:23.252           120.519                Novosib         15064.875
       219   05 Jun 2027 19:07:29.227   05 Jun 2027 19:08:11.405            42.178                  Delhi          5272.250
       220   05 Jun 2027 19:11:10.592   05 Jun 2027 19:11:11.521             0.929                  Delhi           116.125
       221   05 Jun 2027 20:34:50.984   05 Jun 2027 20:35:08.608            17.624              Murmansk2          2203.000
       222   05 Jun 2027 20:36:09.537   05 Jun 2027 20:41:05.980           296.443                 Moscow         37055.375
       223   05 Jun 2027 22:34:24.581   05 Jun 2027 22:36:18.419           113.838               CapeTown         14229.750
       224   06 Jun 2027 04:25:39.249   06 Jun 2027 04:26:36.370            57.121                Irkutsk          7140.125
       225   06 Jun 2027 04:30:18.053   06 Jun 2027 04:30:23.625             5.572                Irkutsk           696.500
       226   06 Jun 2027 04:30:29.038   06 Jun 2027 04:31:29.050            60.012                Norilsk          7501.500
       227   06 Jun 2027 05:05:07.294   06 Jun 2027 05:06:22.467            75.173            RioGallegos          9396.625
       228   06 Jun 2027 05:40:23.287   06 Jun 2027 05:40:34.719            11.432                Sumatra          1429.000
       229   06 Jun 2027 05:42:11.072   06 Jun 2027 05:43:32.326            81.254                Sumatra         10156.750
       230   06 Jun 2027 05:52:47.082   06 Jun 2027 05:53:03.347            16.265                  Delhi          2033.125
       231   06 Jun 2027 06:02:37.003   06 Jun 2027 06:05:07.915           150.912                Irkutsk         18864.000
       232   06 Jun 2027 06:05:48.985   06 Jun 2027 06:06:43.466            54.481              Murmansk2          6810.125
       233   06 Jun 2027 06:43:33.911   06 Jun 2027 06:44:57.257            83.346            RioGallegos         10418.250
       234   06 Jun 2027 07:24:16.418   06 Jun 2027 07:25:38.987            82.569                  Delhi         10321.125
       235   06 Jun 2027 07:40:16.739   06 Jun 2027 07:42:28.139           131.400                Novosib         16425.000
       236   06 Jun 2027 09:14:16.941   06 Jun 2027 09:16:08.519           111.578                Novosib         13947.250
       237   06 Jun 2027 09:16:34.948   06 Jun 2027 09:18:26.770           111.822                 Moscow         13977.750
       238   06 Jun 2027 09:18:35.930   06 Jun 2027 09:19:01.625            25.695              Murmansk1          3211.875
       239   06 Jun 2027 10:25:03.622   06 Jun 2027 10:27:31.204           147.582               CapeTown         18447.750
       240   06 Jun 2027 11:03:36.162   06 Jun 2027 11:06:43.098           186.936                Anadyr1         23367.000
       241   06 Jun 2027 11:06:43.098   06 Jun 2027 11:07:47.496            64.398                Anadyr2          8049.750
       242   06 Jun 2027 12:43:48.662   06 Jun 2027 12:46:29.567           160.905               Magadan1         20113.125
       243   06 Jun 2027 14:17:07.938   06 Jun 2027 14:19:58.297           170.359               Magadan2         21294.875
       244   06 Jun 2027 14:25:58.770   06 Jun 2027 14:26:16.001            17.231               Magadan1          2153.875
       245   06 Jun 2027 16:44:58.027   06 Jun 2027 16:50:51.211           353.184            RioGallegos         44148.000
       246   06 Jun 2027 17:34:28.509   06 Jun 2027 17:39:52.478           323.969                Novosib         40496.125
       247   06 Jun 2027 17:46:16.729   06 Jun 2027 17:47:57.869           101.140                Sumatra         12642.500
       248   06 Jun 2027 17:49:00.793   06 Jun 2027 17:50:46.218           105.425                Sumatra         13178.125
       249   06 Jun 2027 19:16:04.945   06 Jun 2027 19:17:47.363           102.418                  Delhi         12802.250
       250   06 Jun 2027 20:43:29.192   06 Jun 2027 20:44:41.078            71.886              Murmansk2          8985.750
       251   06 Jun 2027 20:47:29.377   06 Jun 2027 20:50:24.962           175.585                 Moscow         21948.125
       252   07 Jun 2027 03:03:53.905   07 Jun 2027 03:04:07.011            13.106               Magadan1          1638.250
       253   07 Jun 2027 03:04:19.252   07 Jun 2027 03:05:30.167            70.915               Magadan1          8864.375
       254   07 Jun 2027 03:43:17.472   07 Jun 2027 03:43:46.523            29.051            RioGallegos          3631.375
       255   07 Jun 2027 03:44:12.244   07 Jun 2027 03:44:18.873             6.629            RioGallegos           828.625
       256   07 Jun 2027 03:44:53.221   07 Jun 2027 03:45:25.618            32.397            RioGallegos          4049.625
       257   07 Jun 2027 04:36:48.776   07 Jun 2027 04:37:06.456            17.680               Magadan1          2210.000
       258   07 Jun 2027 04:37:06.456   07 Jun 2027 04:37:47.008            40.552               Magadan2          5069.000
       259   07 Jun 2027 04:38:07.898   07 Jun 2027 04:39:26.596            78.698               Magadan2          9837.250
       260   07 Jun 2027 04:39:37.029   07 Jun 2027 04:39:57.580            20.551                Irkutsk          2568.875
       261   07 Jun 2027 04:40:04.658   07 Jun 2027 04:40:23.478            18.820               Magadan2          2352.500
       262   07 Jun 2027 04:40:26.479   07 Jun 2027 04:41:01.227            34.748               Magadan2          4343.500
       263   07 Jun 2027 04:41:11.017   07 Jun 2027 04:41:41.387            30.370               Magadan2          3796.250
       264   07 Jun 2027 04:41:58.834   07 Jun 2027 04:42:33.096            34.262                Norilsk          4282.750
       265   07 Jun 2027 05:17:11.139   07 Jun 2027 05:18:14.048            62.909            RioGallegos          7863.625
       266   07 Jun 2027 05:52:11.707   07 Jun 2027 05:53:07.148            55.441                Sumatra          6930.125
       267   07 Jun 2027 05:55:06.527   07 Jun 2027 05:56:29.210            82.683                Sumatra         10335.375
       268   07 Jun 2027 06:03:35.071   07 Jun 2027 06:05:15.802           100.731                  Delhi         12591.375
       269   07 Jun 2027 06:15:04.364   07 Jun 2027 06:16:20.334            75.970                Novosib          9496.250
       270   07 Jun 2027 06:16:32.795   07 Jun 2027 06:17:17.417            44.622              Murmansk1          5577.750
       271   07 Jun 2027 06:17:26.340   07 Jun 2027 06:17:45.346            19.006              Murmansk2          2375.750
       272   07 Jun 2027 06:17:50.475   07 Jun 2027 06:18:31.274            40.799              Murmansk1          5099.875
       273   07 Jun 2027 07:30:25.942   07 Jun 2027 07:31:00.592            34.650                Sumatra          4331.250
       274   07 Jun 2027 07:36:15.028   07 Jun 2027 07:37:11.091            56.063                  Delhi          7007.875
       275   07 Jun 2027 07:52:09.091   07 Jun 2027 07:53:06.900            57.809                Norilsk          7226.125
       276   07 Jun 2027 07:53:17.898   07 Jun 2027 07:54:04.877            46.979                Novosib          5872.375
       277   07 Jun 2027 07:54:21.296   07 Jun 2027 07:54:30.181             8.885              Murmansk1          1110.625
       278   07 Jun 2027 07:55:20.083   07 Jun 2027 07:55:26.768             6.685                 Moscow           835.625
       279   07 Jun 2027 09:16:33.548   07 Jun 2027 09:18:08.367            94.819                  Delhi         11852.375
       280   07 Jun 2027 09:23:38.893   07 Jun 2027 09:24:20.890            41.997                 Moscow          5249.625
       281   07 Jun 2027 09:24:47.489   07 Jun 2027 09:26:31.950           104.461                 Moscow         13057.625
       282   07 Jun 2027 09:26:37.306   07 Jun 2027 09:27:11.130            33.824                Novosib          4228.000
       283   07 Jun 2027 09:27:26.553   07 Jun 2027 09:28:09.439            42.886              Murmansk1          5360.750
       284   07 Jun 2027 09:28:16.241   07 Jun 2027 09:28:55.961            39.720                 Moscow          4965.000
       285   07 Jun 2027 09:29:02.385   07 Jun 2027 09:29:09.469             7.084                Novosib           885.500
       286   07 Jun 2027 09:29:15.915   07 Jun 2027 09:29:47.796            31.881              Murmansk2          3985.125
       287   07 Jun 2027 09:30:07.589   07 Jun 2027 09:30:25.713            18.124              Murmansk1          2265.500
       288   07 Jun 2027 09:30:42.790   07 Jun 2027 09:31:49.511            66.721                 Moscow          8340.125
       289   07 Jun 2027 10:36:10.032   07 Jun 2027 10:39:16.016           185.984               CapeTown         23248.000
       290   07 Jun 2027 10:43:33.598   07 Jun 2027 10:44:29.341            55.743               CapeTown          6967.875
       291   07 Jun 2027 11:15:25.114   07 Jun 2027 11:19:38.875           253.761                Anadyr2         31720.125
       292   07 Jun 2027 12:54:53.613   07 Jun 2027 12:57:41.203           167.590               Magadan2         20948.750
       293   07 Jun 2027 14:30:57.849   07 Jun 2027 14:33:34.178           156.329               Magadan1         19541.125
       294   07 Jun 2027 16:11:22.804   07 Jun 2027 16:15:20.540           237.736                Irkutsk         29717.000
       295   07 Jun 2027 16:59:25.652   07 Jun 2027 17:00:15.698            50.046            RioGallegos          6255.750
       296   07 Jun 2027 17:44:27.369   07 Jun 2027 17:46:25.073           117.704                Irkutsk         14713.000
       297   07 Jun 2027 17:46:30.495   07 Jun 2027 17:49:26.992           176.497                Novosib         22062.125
       298   07 Jun 2027 19:27:50.910   07 Jun 2027 19:30:11.963           141.053                  Delhi         17631.625
       299   07 Jun 2027 19:32:07.969   07 Jun 2027 19:33:07.561            59.592                  Delhi          7449.000
       300   07 Jun 2027 20:54:38.760   07 Jun 2027 20:54:42.607             3.847              Murmansk2           480.875
       301   07 Jun 2027 20:55:14.809   07 Jun 2027 20:56:10.206            55.397              Murmansk1          6924.625
       302   07 Jun 2027 20:59:03.799   07 Jun 2027 21:02:25.259           201.460                 Moscow         25182.500
       303   07 Jun 2027 23:00:40.548   07 Jun 2027 23:01:38.030            57.482               CapeTown          7185.250
       304   08 Jun 2027 03:13:31.791   08 Jun 2027 03:14:04.399            32.608               Magadan2          4076.000
       305   08 Jun 2027 03:14:15.125   08 Jun 2027 03:14:28.078            12.953               Magadan1          1619.125
       306   08 Jun 2027 03:14:35.239   08 Jun 2027 03:14:39.408             4.169                Anadyr1           521.125
       307   08 Jun 2027 03:14:47.884   08 Jun 2027 03:16:44.825           116.941                Anadyr2         14617.625
       308   08 Jun 2027 03:17:43.503   08 Jun 2027 03:18:07.637            24.134                Anadyr2          3016.750
       309   08 Jun 2027 04:49:05.508   08 Jun 2027 04:49:40.555            35.047               Magadan2          4380.875
       310   08 Jun 2027 04:49:48.741   08 Jun 2027 04:53:52.747           244.006                Irkutsk         30500.750
       311   08 Jun 2027 06:04:06.020   08 Jun 2027 06:05:02.622            56.602                Sumatra          7075.250
       312   08 Jun 2027 06:14:42.867   08 Jun 2027 06:17:29.754           166.887                  Delhi         20860.875
       313   08 Jun 2027 06:26:54.024   08 Jun 2027 06:27:52.072            58.048                Irkutsk          7256.000
       314   08 Jun 2027 06:27:58.919   08 Jun 2027 06:28:14.040            15.121                Irkutsk          1890.125
       315   08 Jun 2027 06:28:19.918   08 Jun 2027 06:29:11.527            51.609              Murmansk1          6451.125
       316   08 Jun 2027 06:29:25.629   08 Jun 2027 06:30:05.768            40.139                 Moscow          5017.375
       317   08 Jun 2027 06:30:32.362   08 Jun 2027 06:31:16.853            44.491              Murmansk1          5561.375
       318   08 Jun 2027 06:31:31.867   08 Jun 2027 06:31:56.561            24.694                 Moscow          3086.750
       319   08 Jun 2027 07:48:18.973   08 Jun 2027 07:50:02.228           103.255                  Delhi         12906.875
       320   08 Jun 2027 08:03:25.069   08 Jun 2027 08:03:33.553             8.484                Norilsk          1060.500
       321   08 Jun 2027 08:03:37.149   08 Jun 2027 08:04:06.495            29.346              Murmansk1          3668.250
       322   08 Jun 2027 08:04:09.801   08 Jun 2027 08:04:28.709            18.908                 Moscow          2363.500
       323   08 Jun 2027 08:04:34.079   08 Jun 2027 08:04:57.407            23.328                 Moscow          2916.000
       324   08 Jun 2027 08:05:07.144   08 Jun 2027 08:05:45.788            38.644                Norilsk          4830.500
       325   08 Jun 2027 08:06:03.576   08 Jun 2027 08:07:33.181            89.605                 Moscow         11200.625
       326   08 Jun 2027 09:35:58.811   08 Jun 2027 09:37:05.504            66.693                 Moscow          8336.625
       327   08 Jun 2027 09:37:17.127   08 Jun 2027 09:38:13.612            56.485              Murmansk1          7060.625
       328   08 Jun 2027 09:38:42.627   08 Jun 2027 09:40:58.342           135.715              Murmansk1         16964.375
       329   08 Jun 2027 09:41:13.533   08 Jun 2027 09:41:26.838            13.305              Murmansk2          1663.125
       330   08 Jun 2027 09:41:34.274   08 Jun 2027 09:42:16.068            41.794                 Moscow          5224.250
       331   08 Jun 2027 09:42:18.182   08 Jun 2027 09:43:02.620            44.438                 Moscow          5554.750
       332   08 Jun 2027 10:47:34.580   08 Jun 2027 10:51:05.275           210.695               CapeTown         26336.875
       333   08 Jun 2027 10:53:28.199   08 Jun 2027 10:55:08.023            99.824               CapeTown         12478.000
       334   08 Jun 2027 11:29:16.096   08 Jun 2027 11:31:27.318           131.222                Anadyr1         16402.750
       335   08 Jun 2027 13:06:24.301   08 Jun 2027 13:10:09.290           224.989               Magadan2         28123.625
       336   08 Jun 2027 14:45:34.375   08 Jun 2027 14:46:18.056            43.681               Magadan1          5460.125
       337   08 Jun 2027 16:22:26.800   08 Jun 2027 16:28:15.207           348.407                Irkutsk         43550.875
       338   08 Jun 2027 16:39:04.085   08 Jun 2027 16:39:52.235            48.150                Sumatra          6018.750
       339   08 Jun 2027 16:41:41.184   08 Jun 2027 16:42:55.487            74.303                Sumatra          9287.875
       340   08 Jun 2027 17:57:28.793   08 Jun 2027 18:00:54.654           205.861                Novosib         25732.625
       341   08 Jun 2027 21:06:37.587   08 Jun 2027 21:07:53.300            75.713              Murmansk1          9464.125
       342   08 Jun 2027 21:10:45.725   08 Jun 2027 21:14:26.224           220.499                 Moscow         27562.375
       343   08 Jun 2027 21:17:45.176   08 Jun 2027 21:19:13.875            88.699                 Moscow         11087.375
       344   08 Jun 2027 21:38:18.787   08 Jun 2027 21:38:21.398             2.611               CapeTown           326.375
       345   08 Jun 2027 21:40:42.275   08 Jun 2027 21:41:31.388            49.113               CapeTown          6139.125
       346   09 Jun 2027 03:24:49.789   09 Jun 2027 03:25:34.863            45.074                Anadyr1          5634.250
       347   09 Jun 2027 03:25:59.796   09 Jun 2027 03:26:45.287            45.491               Magadan2          5686.375
       348   09 Jun 2027 03:26:45.826   09 Jun 2027 03:27:13.441            27.615                Anadyr1          3451.875
       349   09 Jun 2027 03:27:25.048   09 Jun 2027 03:28:45.327            80.279                Anadyr2         10034.875
       350   09 Jun 2027 03:29:26.180   09 Jun 2027 03:30:22.620            56.440               Magadan2          7055.000
       351   09 Jun 2027 03:30:25.351   09 Jun 2027 03:30:38.583            13.232               Magadan2          1654.000
       352   09 Jun 2027 04:44:02.719   09 Jun 2027 04:45:11.656            68.937                Sumatra          8617.125
       353   09 Jun 2027 05:01:31.985   09 Jun 2027 05:01:44.683            12.698               Magadan2          1587.250
       354   09 Jun 2027 05:01:54.320   09 Jun 2027 05:02:41.900            47.580                Irkutsk          5947.500
       355   09 Jun 2027 05:02:51.981   09 Jun 2027 05:03:13.771            21.790                Norilsk          2723.750
       356   09 Jun 2027 05:03:23.366   09 Jun 2027 05:03:57.777            34.411                Novosib          4301.375
       357   09 Jun 2027 05:04:10.683   09 Jun 2027 05:04:26.378            15.695               Magadan1          1961.875
       358   09 Jun 2027 05:04:39.415   09 Jun 2027 05:06:21.805           102.390                Norilsk         12798.750
       359   09 Jun 2027 05:06:55.675   09 Jun 2027 05:07:51.818            56.143                Novosib          7017.875
       360   09 Jun 2027 05:41:29.426   09 Jun 2027 05:42:02.105            32.679            RioGallegos          4084.875
       361   09 Jun 2027 06:16:05.940   09 Jun 2027 06:18:13.887           127.947                Sumatra         15993.375
       362   09 Jun 2027 06:26:02.702   09 Jun 2027 06:26:32.417            29.715                  Delhi          3714.375
       363   09 Jun 2027 06:38:17.185   09 Jun 2027 06:39:00.645            43.460              Murmansk2          5432.500
       364   09 Jun 2027 06:39:13.454   09 Jun 2027 06:39:31.525            18.071              Murmansk1          2258.875
       365   09 Jun 2027 06:39:32.083   09 Jun 2027 06:39:36.444             4.361                Norilsk           545.125
       366   09 Jun 2027 06:39:41.041   09 Jun 2027 06:40:03.924            22.883              Murmansk1          2860.375
       367   09 Jun 2027 06:40:05.529   09 Jun 2027 06:41:06.815            61.286              Murmansk1          7660.750
       368   09 Jun 2027 06:41:26.812   09 Jun 2027 06:41:52.837            26.025              Murmansk2          3253.125
       369   09 Jun 2027 06:42:07.477   09 Jun 2027 06:42:51.030            43.553                Norilsk          5444.125
       370   09 Jun 2027 06:42:52.249   09 Jun 2027 06:43:20.508            28.259              Murmansk2          3532.375
       371   09 Jun 2027 08:00:28.507   09 Jun 2027 08:01:38.608            70.101                  Delhi          8762.625
       372   09 Jun 2027 08:14:46.531   09 Jun 2027 08:15:21.317            34.786                Novosib          4348.250
       373   09 Jun 2027 08:15:21.584   09 Jun 2027 08:15:36.921            15.337              Murmansk1          1917.125
       374   09 Jun 2027 08:15:46.267   09 Jun 2027 08:16:16.186            29.919                Norilsk          3739.875
       375   09 Jun 2027 08:16:21.437   09 Jun 2027 08:17:25.220            63.783                Novosib          7972.875
       376   09 Jun 2027 08:17:44.924   09 Jun 2027 08:18:30.233            45.309                Norilsk          5663.625
       377   09 Jun 2027 08:18:35.174   09 Jun 2027 08:19:37.483            62.309                 Moscow          7788.625
       378   09 Jun 2027 09:50:03.048   09 Jun 2027 09:50:29.868            26.820              Murmansk2          3352.500
       379   09 Jun 2027 09:50:47.220   09 Jun 2027 09:51:33.198            45.978              Murmansk1          5747.250
       380   09 Jun 2027 09:51:35.581   09 Jun 2027 09:52:09.952            34.371              Murmansk2          4296.375
       381   09 Jun 2027 09:52:17.828   09 Jun 2027 09:52:31.299            13.471                 Moscow          1683.875
       382   09 Jun 2027 09:52:34.765   09 Jun 2027 09:53:02.420            27.655                 Moscow          3456.875
       383   09 Jun 2027 09:53:15.841   09 Jun 2027 09:54:02.259            46.418                Norilsk          5802.250
       384   09 Jun 2027 10:59:09.280   09 Jun 2027 11:01:12.108           122.828               CapeTown         15353.500
       385   09 Jun 2027 11:02:09.453   09 Jun 2027 11:05:07.415           177.962               CapeTown         22245.250
       386   09 Jun 2027 11:39:11.321   09 Jun 2027 11:41:14.559           123.238                Anadyr1         15404.750
       387   09 Jun 2027 11:41:14.559   09 Jun 2027 11:41:47.351            32.792                Anadyr2          4099.000
       388   09 Jun 2027 11:46:42.785   09 Jun 2027 11:48:14.029            91.244                Anadyr2         11405.500
       389   09 Jun 2027 13:18:04.813   09 Jun 2027 13:21:41.059           216.246               Magadan2         27030.750
       390   09 Jun 2027 15:47:49.314   09 Jun 2027 15:50:05.787           136.473            RioGallegos         17059.125
       391   09 Jun 2027 16:33:54.177   09 Jun 2027 16:37:31.025           216.848                Irkutsk         27106.000
       392   09 Jun 2027 16:38:43.208   09 Jun 2027 16:40:19.311            96.103                Irkutsk         12012.875
       393   09 Jun 2027 16:49:20.229   09 Jun 2027 16:51:27.361           127.132                Sumatra         15891.500
       394   09 Jun 2027 16:55:34.443   09 Jun 2027 16:56:32.393            57.950                Sumatra          7243.750
       395   09 Jun 2027 18:12:55.750   09 Jun 2027 18:13:13.020            17.270                Novosib          2158.750
       396   09 Jun 2027 18:15:03.562   09 Jun 2027 18:15:21.123            17.561                Novosib          2195.125
       397   09 Jun 2027 18:20:53.356   09 Jun 2027 18:22:31.517            98.161                  Delhi         12270.125
       398   09 Jun 2027 21:18:50.520   09 Jun 2027 21:21:02.700           132.180              Murmansk1         16522.500
       399   09 Jun 2027 21:22:32.378   09 Jun 2027 21:24:42.835           130.457                 Moscow         16307.125
       400   09 Jun 2027 21:28:52.083   09 Jun 2027 21:29:44.957            52.874                 Moscow          6609.250
       401   09 Jun 2027 21:49:09.177   09 Jun 2027 21:50:29.972            80.795               CapeTown         10099.375
       402   09 Jun 2027 21:53:28.092   09 Jun 2027 21:55:08.450           100.358               CapeTown         12544.750
       403   10 Jun 2027 03:38:42.077   10 Jun 2027 03:39:12.342            30.265                Anadyr2          3783.125
       404   10 Jun 2027 03:39:17.221   10 Jun 2027 03:40:46.123            88.902                Anadyr2         11112.750
       405   10 Jun 2027 03:41:14.825   10 Jun 2027 03:41:45.071            30.246                Anadyr1          3780.750
       406   10 Jun 2027 03:41:57.818   10 Jun 2027 03:42:35.649            37.831               Magadan1          4728.875
       407   10 Jun 2027 04:54:47.062   10 Jun 2027 04:57:17.850           150.788                Sumatra         18848.500
       408   10 Jun 2027 05:13:59.097   10 Jun 2027 05:15:19.623            80.526                Irkutsk         10065.750
       409   10 Jun 2027 05:15:39.170   10 Jun 2027 05:16:39.628            60.458                Novosib          7557.250
       410   10 Jun 2027 05:17:04.185   10 Jun 2027 05:17:49.888            45.703              Murmansk1          5712.875
       411   10 Jun 2027 05:17:58.656   10 Jun 2027 05:18:16.524            17.868              Murmansk1          2233.500
       412   10 Jun 2027 05:18:36.839   10 Jun 2027 05:18:42.289             5.450                Norilsk           681.250
       413   10 Jun 2027 05:18:55.265   10 Jun 2027 05:19:13.058            17.793              Murmansk2          2224.125
       414   10 Jun 2027 05:53:44.298   10 Jun 2027 05:53:56.392            12.094            RioGallegos          1511.750
       415   10 Jun 2027 05:54:36.235   10 Jun 2027 05:56:16.500           100.265            RioGallegos         12533.125
       416   10 Jun 2027 06:28:11.477   10 Jun 2027 06:28:27.259            15.782                Sumatra          1972.750
       417   10 Jun 2027 06:37:31.414   10 Jun 2027 06:38:55.769            84.355                  Delhi         10544.375
       418   10 Jun 2027 06:50:08.144   10 Jun 2027 06:50:46.116            37.972                Irkutsk          4746.500
       419   10 Jun 2027 06:51:40.575   10 Jun 2027 06:52:09.533            28.958                Norilsk          3619.750
       420   10 Jun 2027 06:52:17.504   10 Jun 2027 06:52:33.553            16.049                 Moscow          2006.125
       421   10 Jun 2027 06:52:36.244   10 Jun 2027 06:53:26.299            50.055                Norilsk          6256.875
       422   10 Jun 2027 06:53:41.523   10 Jun 2027 06:54:11.677            30.154                Norilsk          3769.250
       423   10 Jun 2027 06:54:15.261   10 Jun 2027 06:54:39.556            24.295              Murmansk1          3036.875
       424   10 Jun 2027 08:12:44.100   10 Jun 2027 08:13:21.237            37.137                  Delhi          4642.125
       425   10 Jun 2027 08:14:46.698   10 Jun 2027 08:15:13.607            26.909                  Delhi          3363.625
       426   10 Jun 2027 08:15:59.135   10 Jun 2027 08:17:23.239            84.104                  Delhi         10513.000
       427   10 Jun 2027 08:26:09.324   10 Jun 2027 08:26:32.292            22.968                Norilsk          2871.000
       428   10 Jun 2027 08:26:55.874   10 Jun 2027 08:29:33.453           157.579                Novosib         19697.375
       429   10 Jun 2027 08:30:00.462   10 Jun 2027 08:30:51.700            51.238              Murmansk1          6404.750
       430   10 Jun 2027 08:30:51.700   10 Jun 2027 08:31:26.680            34.980              Murmansk2          4372.500
       431   10 Jun 2027 10:00:34.615   10 Jun 2027 10:00:58.422            23.807                 Moscow          2975.875
       432   10 Jun 2027 10:02:17.237   10 Jun 2027 10:02:37.475            20.238              Murmansk2          2529.750
       433   10 Jun 2027 10:02:44.641   10 Jun 2027 10:03:21.145            36.504              Murmansk2          4563.000
       434   10 Jun 2027 10:03:28.219   10 Jun 2027 10:03:57.528            29.309                 Moscow          3663.625
       435   10 Jun 2027 10:04:10.613   10 Jun 2027 10:05:11.874            61.261              Murmansk1          7657.625
       436   10 Jun 2027 11:10:50.833   10 Jun 2027 11:14:54.345           243.512               CapeTown         30439.000
       437   10 Jun 2027 11:15:34.838   10 Jun 2027 11:16:40.483            65.645               CapeTown          8205.625
       438   10 Jun 2027 11:51:07.079   10 Jun 2027 11:54:54.248           227.169                Anadyr1         28396.125
       439   10 Jun 2027 13:29:50.846   10 Jun 2027 13:33:41.713           230.867               Magadan1         28858.375
       440   10 Jun 2027 15:58:43.661   10 Jun 2027 16:01:51.052           187.391            RioGallegos         23423.875
       441   10 Jun 2027 16:04:22.885   10 Jun 2027 16:04:49.411            26.526            RioGallegos          3315.750
       442   10 Jun 2027 16:45:46.421   10 Jun 2027 16:49:23.278           216.857                Irkutsk         27107.125
       443   10 Jun 2027 16:51:10.997   10 Jun 2027 16:52:05.750            54.753                Irkutsk          6844.125
       444   10 Jun 2027 17:00:19.925   10 Jun 2027 17:03:10.063           170.138                Sumatra         21267.250
       445   10 Jun 2027 17:05:43.807   10 Jun 2027 17:09:19.865           216.058                Sumatra         27007.250
       446   10 Jun 2027 18:30:41.767   10 Jun 2027 18:32:23.740           101.973                  Delhi         12746.625
       447   10 Jun 2027 21:32:11.011   10 Jun 2027 21:33:50.171            99.160              Murmansk2         12395.000
       448   10 Jun 2027 21:38:24.163   10 Jun 2027 21:39:52.432            88.269                 Moscow         11033.625
       449   10 Jun 2027 22:00:17.411   10 Jun 2027 22:02:44.130           146.719               CapeTown         18339.875
       450   11 Jun 2027 03:51:13.387   11 Jun 2027 03:51:22.112             8.725               Magadan2          1090.625
       451   11 Jun 2027 03:51:23.481   11 Jun 2027 03:52:02.268            38.787                Anadyr2          4848.375
       452   11 Jun 2027 03:52:20.170   11 Jun 2027 03:53:14.847            54.677               Magadan2          6834.625
       453   11 Jun 2027 03:53:26.391   11 Jun 2027 03:54:31.562            65.171               Magadan2          8146.375
       454   11 Jun 2027 05:05:57.209   11 Jun 2027 05:07:07.281            70.072                Sumatra          8759.000
       455   11 Jun 2027 05:26:03.101   11 Jun 2027 05:26:30.515            27.414                Irkutsk          3426.750
       456   11 Jun 2027 05:27:08.478   11 Jun 2027 05:27:54.593            46.115                Norilsk          5764.375
       457   11 Jun 2027 05:27:57.573   11 Jun 2027 05:28:08.705            11.132              Murmansk2          1391.500
       458   11 Jun 2027 05:28:08.705   11 Jun 2027 05:28:46.624            37.919              Murmansk1          4739.875
       459   11 Jun 2027 05:28:49.809   11 Jun 2027 05:29:59.779            69.970                Irkutsk          8746.250
       460   11 Jun 2027 05:30:39.722   11 Jun 2027 05:31:12.140            32.418              Murmansk1          4052.250
       461   11 Jun 2027 06:06:18.025   11 Jun 2027 06:07:57.109            99.084            RioGallegos         12385.500
       462   11 Jun 2027 06:51:11.925   11 Jun 2027 06:53:03.424           111.499                  Delhi         13937.375
       463   11 Jun 2027 07:03:25.172   11 Jun 2027 07:03:57.388            32.216                 Moscow          4027.000
       464   11 Jun 2027 07:03:58.514   11 Jun 2027 07:04:26.000            27.486                Norilsk          3435.750
       465   11 Jun 2027 07:04:47.690   11 Jun 2027 07:06:38.862           111.172                 Moscow         13896.500
       466   11 Jun 2027 08:25:06.595   11 Jun 2027 08:25:09.568             2.973                  Delhi           371.625
       467   11 Jun 2027 08:27:00.906   11 Jun 2027 08:27:38.305            37.399                  Delhi          4674.875
       468   11 Jun 2027 08:38:02.140   11 Jun 2027 08:39:10.693            68.553              Murmansk2          8569.125
       469   11 Jun 2027 08:39:24.632   11 Jun 2027 08:39:37.397            12.765              Murmansk1          1595.625
       470   11 Jun 2027 08:39:40.311   11 Jun 2027 08:39:45.604             5.293                 Moscow           661.625
       471   11 Jun 2027 08:39:59.128   11 Jun 2027 08:41:23.362            84.234              Murmansk1         10529.250
       472   11 Jun 2027 08:41:38.819   11 Jun 2027 08:42:29.091            50.272                Norilsk          6284.000
       473   11 Jun 2027 10:15:39.867   11 Jun 2027 10:16:30.303            50.436                 Moscow          6304.500
       474   11 Jun 2027 10:29:19.657   11 Jun 2027 10:31:45.810           146.153                Anadyr2         18269.125
       475   11 Jun 2027 11:22:37.509   11 Jun 2027 11:24:52.204           134.695               CapeTown         16836.875
       476   11 Jun 2027 12:03:04.046   11 Jun 2027 12:03:56.707            52.661                Anadyr1          6582.625
       477   11 Jun 2027 12:03:56.707   11 Jun 2027 12:04:37.788            41.081                Anadyr2          5135.125
       478   11 Jun 2027 12:05:40.369   11 Jun 2027 12:07:30.988           110.619                Anadyr1         13827.375
       479   11 Jun 2027 13:41:40.499   11 Jun 2027 13:47:51.308           370.809               Magadan1         46351.125
       480   11 Jun 2027 16:10:07.681   11 Jun 2027 16:13:39.982           212.301            RioGallegos         26537.625
       481   11 Jun 2027 16:16:26.636   11 Jun 2027 16:17:53.903            87.267            RioGallegos         10908.375
       482   11 Jun 2027 16:59:47.219   11 Jun 2027 17:01:17.559            90.340                Irkutsk         11292.500
