uniorb/output/strategy_1/Drop/Drop_KinoSat_110704.txt

KinoSat_110704
-------------------------
    Access    *     Start Time (UTCG)     *     Stop Time (UTCG)  *   Duration (s)        *       Station  *  Data (Mbytes)
         1   01 Jun 2027 03:50:49.847   01 Jun 2027 03:51:00.027            10.180               Magadan2           318.125
         2   01 Jun 2027 03:51:08.349   01 Jun 2027 03:51:24.088            15.739                Anadyr1           491.844
         3   01 Jun 2027 03:51:24.088   01 Jun 2027 03:51:54.597            30.509                Anadyr2           953.406
         4   01 Jun 2027 03:52:00.395   01 Jun 2027 03:54:12.533           132.138                Anadyr1          4129.312
         5   01 Jun 2027 03:54:22.028   01 Jun 2027 03:55:11.665            49.637                Anadyr1          1551.156
         6   01 Jun 2027 05:24:59.593   01 Jun 2027 05:25:39.051            39.458               Magadan1          1233.063
         7   01 Jun 2027 05:25:40.504   01 Jun 2027 05:27:19.929            99.425                Anadyr2          3107.031
         8   01 Jun 2027 05:27:19.929   01 Jun 2027 05:28:24.151            64.222                Anadyr1          2006.938
         9   01 Jun 2027 05:28:25.867   01 Jun 2027 05:29:34.787            68.920                Anadyr2          2153.750
        10   01 Jun 2027 05:29:44.999   01 Jun 2027 05:30:45.352            60.353               Magadan1          1886.031
        11   01 Jun 2027 05:30:54.886   01 Jun 2027 05:31:22.350            27.464               Magadan1           858.250
        12   01 Jun 2027 06:06:23.693   01 Jun 2027 06:07:07.431            43.738            RioGallegos          1366.812
        13   01 Jun 2027 06:08:26.772   01 Jun 2027 06:09:18.073            51.301            RioGallegos          1603.156
        14   01 Jun 2027 06:43:16.646   01 Jun 2027 06:44:58.105           101.459                Sumatra          3170.594
        15   01 Jun 2027 07:00:39.866   01 Jun 2027 07:00:50.615            10.749                Novosib           335.906
        16   01 Jun 2027 07:02:20.829   01 Jun 2027 07:03:34.982            74.153                Novosib          2317.281
        17   01 Jun 2027 07:03:41.125   01 Jun 2027 07:04:22.722            41.597                Novosib          1299.906
        18   01 Jun 2027 07:04:44.148   01 Jun 2027 07:08:33.550           229.402              Murmansk2          7168.812
        19   01 Jun 2027 07:09:29.268   01 Jun 2027 07:09:46.135            16.867              Murmansk2           527.094
        20   01 Jun 2027 07:10:13.551   01 Jun 2027 07:10:28.778            15.227              Murmansk2           475.844
        21   01 Jun 2027 07:42:37.889   01 Jun 2027 07:42:38.862             0.973            RioGallegos            30.406
        22   01 Jun 2027 07:43:00.881   01 Jun 2027 07:43:20.570            19.689            RioGallegos           615.281
        23   01 Jun 2027 07:44:06.522   01 Jun 2027 07:44:50.589            44.067            RioGallegos          1377.094
        24   01 Jun 2027 08:17:02.414   01 Jun 2027 08:18:48.428           106.014                Sumatra          3312.938
        25   01 Jun 2027 08:20:54.877   01 Jun 2027 08:22:20.822            85.945                Sumatra          2685.781
        26   01 Jun 2027 08:26:10.708   01 Jun 2027 08:26:59.205            48.497                  Delhi          1515.531
        27   01 Jun 2027 08:27:28.599   01 Jun 2027 08:29:35.492           126.893                  Delhi          3965.406
        28   01 Jun 2027 08:39:29.122   01 Jun 2027 08:40:34.416            65.294                Novosib          2040.437
        29   01 Jun 2027 08:40:36.702   01 Jun 2027 08:41:24.094            47.392              Murmansk1          1481.000
        30   01 Jun 2027 08:41:39.821   01 Jun 2027 08:42:27.127            47.306              Murmansk1          1478.312
        31   01 Jun 2027 08:42:37.928   01 Jun 2027 08:44:22.662           104.734              Murmansk1          3272.937
        32   01 Jun 2027 08:44:28.014   01 Jun 2027 08:45:25.257            57.243                Norilsk          1788.844
        33   01 Jun 2027 10:01:38.481   01 Jun 2027 10:03:57.856           139.375                  Delhi          4355.469
        34   01 Jun 2027 10:04:17.218   01 Jun 2027 10:05:36.251            79.033                  Delhi          2469.781
        35   01 Jun 2027 10:16:01.604   01 Jun 2027 10:17:40.833            99.229                Norilsk          3100.906
        36   01 Jun 2027 10:17:53.442   01 Jun 2027 10:18:52.428            58.986              Murmansk1          1843.313
        37   01 Jun 2027 10:18:52.428   01 Jun 2027 10:19:51.564            59.136              Murmansk2          1848.000
        38   01 Jun 2027 10:19:58.250   01 Jun 2027 10:20:09.846            11.596                Novosib           362.375
        39   01 Jun 2027 10:20:50.743   01 Jun 2027 10:22:13.461            82.718                 Moscow          2584.938
        40   01 Jun 2027 11:53:01.009   01 Jun 2027 11:54:02.797            61.788                 Moscow          1930.875
        41   01 Jun 2027 11:54:14.291   01 Jun 2027 11:55:11.721            57.430                 Moscow          1794.687
        42   01 Jun 2027 11:55:37.420   01 Jun 2027 11:56:36.312            58.892                 Moscow          1840.375
        43   01 Jun 2027 12:59:33.823   01 Jun 2027 13:03:22.417           228.594               CapeTown          7143.562
        44   01 Jun 2027 13:26:33.650   01 Jun 2027 13:26:40.155             6.505              Murmansk1           203.281
        45   01 Jun 2027 13:27:14.647   01 Jun 2027 13:28:39.179            84.532              Murmansk2          2641.625
        46   01 Jun 2027 13:29:05.408   01 Jun 2027 13:29:29.582            24.174              Murmansk2           755.438
        47   01 Jun 2027 13:29:57.300   01 Jun 2027 13:30:15.843            18.543              Murmansk2           579.469
        48   01 Jun 2027 13:31:16.190   01 Jun 2027 13:33:39.518           143.328              Murmansk2          4479.000
        49   01 Jun 2027 13:33:41.477   01 Jun 2027 13:33:55.124            13.647              Murmansk1           426.469
        50   01 Jun 2027 13:34:45.017   01 Jun 2027 13:35:06.961            21.944              Murmansk2           685.750
        51   01 Jun 2027 13:35:11.504   01 Jun 2027 13:35:22.207            10.703              Murmansk2           334.469
        52   01 Jun 2027 13:35:22.207   01 Jun 2027 13:35:55.017            32.810              Murmansk1          1025.312
        53   01 Jun 2027 13:36:25.820   01 Jun 2027 13:36:47.118            21.298              Murmansk1           665.563
        54   01 Jun 2027 13:37:00.975   01 Jun 2027 13:37:33.597            32.622              Murmansk2          1019.438
        55   01 Jun 2027 13:39:53.779   01 Jun 2027 13:41:59.306           125.527                Anadyr1          3922.719
        56   01 Jun 2027 13:43:04.564   01 Jun 2027 13:45:58.132           173.568                Anadyr2          5424.000
        57   01 Jun 2027 13:46:11.388   01 Jun 2027 13:46:30.431            19.043                Anadyr1           595.094
        58   01 Jun 2027 13:47:54.340   01 Jun 2027 13:50:22.657           148.317                Anadyr1          4634.906
        59   01 Jun 2027 15:09:48.445   01 Jun 2027 15:10:02.954            14.509              Murmansk2           453.406
        60   01 Jun 2027 15:10:31.958   01 Jun 2027 15:11:08.122            36.164              Murmansk1          1130.125
        61   01 Jun 2027 15:11:48.489   01 Jun 2027 15:12:24.634            36.145              Murmansk1          1129.531
        62   01 Jun 2027 15:12:24.634   01 Jun 2027 15:13:19.796            55.162              Murmansk2          1723.813
        63   01 Jun 2027 15:16:59.474   01 Jun 2027 15:17:16.254            16.780                Anadyr1           524.375
        64   01 Jun 2027 15:17:58.244   01 Jun 2027 15:18:34.974            36.730                Anadyr1          1147.812
        65   01 Jun 2027 15:18:51.587   01 Jun 2027 15:24:35.612           344.025               Magadan1         10750.781
        66   01 Jun 2027 15:24:40.679   01 Jun 2027 15:27:57.711           197.032               Magadan2          6157.250
        67   01 Jun 2027 16:56:45.444   01 Jun 2027 16:57:24.340            38.896               Magadan1          1215.500
        68   01 Jun 2027 16:58:03.506   01 Jun 2027 16:59:17.448            73.942               Magadan1          2310.687
        69   01 Jun 2027 17:01:25.055   01 Jun 2027 17:01:48.029            22.974               Magadan2           717.938
        70   01 Jun 2027 17:02:19.643   01 Jun 2027 17:02:29.074             9.431               Magadan1           294.719
        71   01 Jun 2027 17:03:22.803   01 Jun 2027 17:04:19.444            56.641               Magadan1          1770.031
        72   01 Jun 2027 17:05:37.744   01 Jun 2027 17:06:32.086            54.342               Magadan1          1698.188
        73   01 Jun 2027 17:47:17.857   01 Jun 2027 17:50:20.839           182.982            RioGallegos          5718.188
        74   01 Jun 2027 17:52:03.020   01 Jun 2027 17:53:33.161            90.141            RioGallegos          2816.906
        75   01 Jun 2027 18:30:50.864   01 Jun 2027 18:32:49.413           118.549                Norilsk          3704.656
        76   01 Jun 2027 18:34:13.670   01 Jun 2027 18:35:10.461            56.791                Irkutsk          1774.719
        77   01 Jun 2027 18:36:38.256   01 Jun 2027 18:37:52.055            73.799                Irkutsk          2306.219
        78   01 Jun 2027 18:41:31.309   01 Jun 2027 18:43:36.012           124.703                Irkutsk          3896.969
        79   01 Jun 2027 18:48:52.522   01 Jun 2027 18:51:40.027           167.505                Sumatra          5234.531
        80   01 Jun 2027 18:53:15.236   01 Jun 2027 18:54:08.878            53.642                Sumatra          1676.312
        81   01 Jun 2027 18:55:34.726   01 Jun 2027 18:56:56.329            81.603                Sumatra          2550.094
        82   01 Jun 2027 20:12:43.001   01 Jun 2027 20:13:36.917            53.916                Novosib          1684.875
        83   01 Jun 2027 20:19:07.501   01 Jun 2027 20:21:30.920           143.419                  Delhi          4481.844
        84   01 Jun 2027 20:23:13.571   01 Jun 2027 20:25:13.386           119.815                  Delhi          3744.219
        85   01 Jun 2027 21:44:05.236   01 Jun 2027 21:49:59.799           354.563              Murmansk1         11080.094
        86   01 Jun 2027 23:17:36.454   01 Jun 2027 23:18:22.148            45.694               Magadan1          1427.938
        87   01 Jun 2027 23:18:26.938   01 Jun 2027 23:18:36.443             9.505               Magadan1           297.031
        88   01 Jun 2027 23:19:25.077   01 Jun 2027 23:21:28.542           123.465              Murmansk2          3858.281
        89   01 Jun 2027 23:22:51.957   01 Jun 2027 23:23:26.865            34.908              Murmansk2          1090.875
        90   01 Jun 2027 23:23:31.882   01 Jun 2027 23:24:56.894            85.012              Murmansk1          2656.625
        91   01 Jun 2027 23:28:05.548   01 Jun 2027 23:28:58.354            52.806                 Moscow          1650.188
        92   01 Jun 2027 23:30:59.282   01 Jun 2027 23:31:17.234            17.952                 Moscow           561.000
        93   01 Jun 2027 23:31:28.017   01 Jun 2027 23:31:48.045            20.028                 Moscow           625.875
        94   01 Jun 2027 23:32:36.307   01 Jun 2027 23:33:44.514            68.207                 Moscow          2131.469
        95   01 Jun 2027 23:48:50.992   01 Jun 2027 23:50:35.981           104.989               CapeTown          3280.906
        96   01 Jun 2027 23:53:16.874   01 Jun 2027 23:54:21.136            64.262               CapeTown          2008.187
        97   01 Jun 2027 23:55:14.717   01 Jun 2027 23:56:11.122            56.405               CapeTown          1762.656
        98   02 Jun 2027 00:55:20.779   02 Jun 2027 00:56:49.098            88.319              Murmansk1          2759.969
        99   02 Jun 2027 00:58:33.328   02 Jun 2027 00:58:55.684            22.356                 Moscow           698.625
       100   02 Jun 2027 01:01:52.238   02 Jun 2027 01:02:14.640            22.402                 Moscow           700.063
       101   02 Jun 2027 01:03:41.896   02 Jun 2027 01:05:49.857           127.961                 Moscow          3998.781
       102   02 Jun 2027 01:29:32.839   02 Jun 2027 01:31:00.037            87.198               CapeTown          2724.938
       103   02 Jun 2027 02:19:14.916   02 Jun 2027 02:19:51.466            36.550                Anadyr1          1142.187
       104   02 Jun 2027 02:20:03.175   02 Jun 2027 02:20:29.645            26.470               Magadan2           827.188
       105   02 Jun 2027 02:20:50.539   02 Jun 2027 02:21:18.804            28.265               Magadan1           883.281
       106   02 Jun 2027 02:22:06.349   02 Jun 2027 02:22:11.514             5.165               Magadan1           161.406
       107   02 Jun 2027 02:22:32.913   02 Jun 2027 02:23:18.998            46.085               Magadan2          1440.156
       108   02 Jun 2027 02:25:50.683   02 Jun 2027 02:25:53.628             2.945               Magadan2            92.031
       109   02 Jun 2027 02:27:00.219   02 Jun 2027 02:27:14.981            14.762               Magadan1           461.312
       110   02 Jun 2027 02:27:43.206   02 Jun 2027 02:28:04.565            21.359                Norilsk           667.469
       111   02 Jun 2027 02:28:52.984   02 Jun 2027 02:29:41.522            48.538               Magadan1          1516.812
       112   02 Jun 2027 02:31:17.067   02 Jun 2027 02:31:45.443            28.376              Murmansk2           886.750
       113   02 Jun 2027 02:32:50.375   02 Jun 2027 02:33:07.429            17.054              Murmansk2           532.937
       114   02 Jun 2027 02:33:37.527   02 Jun 2027 02:33:53.409            15.882              Murmansk2           496.312
       115   02 Jun 2027 02:34:44.198   02 Jun 2027 02:34:50.183             5.985                 Moscow           187.031
       116   02 Jun 2027 02:35:08.305   02 Jun 2027 02:35:50.731            42.426                 Moscow          1325.813
       117   02 Jun 2027 02:39:49.842   02 Jun 2027 02:40:02.671            12.829              Murmansk1           400.906
       118   02 Jun 2027 02:41:25.179   02 Jun 2027 02:41:53.558            28.379                 Moscow           886.844
       119   02 Jun 2027 02:43:41.212   02 Jun 2027 02:44:06.612            25.400                 Moscow           793.750
       120   02 Jun 2027 03:03:37.836   02 Jun 2027 03:04:20.136            42.300               CapeTown          1321.875
       121   02 Jun 2027 04:02:12.691   02 Jun 2027 04:05:31.823           199.132                Anadyr2          6222.875
       122   02 Jun 2027 04:05:31.823   02 Jun 2027 04:05:59.441            27.618                Anadyr1           863.062
       123   02 Jun 2027 04:07:25.471   02 Jun 2027 04:07:43.894            18.423               Magadan1           575.719
       124   02 Jun 2027 05:37:32.973   02 Jun 2027 05:38:33.463            60.490                Irkutsk          1890.313
       125   02 Jun 2027 05:38:50.070   02 Jun 2027 05:43:10.301           260.231                Irkutsk          8132.219
       126   02 Jun 2027 05:43:43.725   02 Jun 2027 05:44:11.646            27.921                Novosib           872.531
       127   02 Jun 2027 05:46:29.018   02 Jun 2027 05:47:09.627            40.609                Norilsk          1269.031
       128   02 Jun 2027 06:27:16.456   02 Jun 2027 06:27:42.153            25.697            RioGallegos           803.031
       129   02 Jun 2027 06:54:32.147   02 Jun 2027 06:54:41.285             9.138                Sumatra           285.563
       130   02 Jun 2027 06:55:16.756   02 Jun 2027 06:57:12.032           115.276                Sumatra          3602.375
       131   02 Jun 2027 07:00:57.440   02 Jun 2027 07:01:45.905            48.465                Sumatra          1514.531
       132   02 Jun 2027 07:14:47.892   02 Jun 2027 07:15:29.558            41.666                Norilsk          1302.062
       133   02 Jun 2027 07:15:33.297   02 Jun 2027 07:16:22.045            48.748                Irkutsk          1523.375
       134   02 Jun 2027 07:16:28.822   02 Jun 2027 07:19:26.213           177.391                Novosib          5543.469
       135   02 Jun 2027 07:19:55.072   02 Jun 2027 07:20:24.825            29.753              Murmansk1           929.781
       136   02 Jun 2027 07:54:58.477   02 Jun 2027 07:55:22.219            23.742            RioGallegos           741.937
       137   02 Jun 2027 07:56:00.688   02 Jun 2027 07:57:01.219            60.531            RioGallegos          1891.594
       138   02 Jun 2027 08:29:16.029   02 Jun 2027 08:30:32.655            76.626                Sumatra          2394.563
       139   02 Jun 2027 08:32:10.660   02 Jun 2027 08:33:12.574            61.914                Sumatra          1934.812
       140   02 Jun 2027 08:37:48.804   02 Jun 2027 08:40:05.653           136.849                  Delhi          4276.531
       141   02 Jun 2027 08:50:33.084   02 Jun 2027 08:50:54.220            21.136                Irkutsk           660.500
       142   02 Jun 2027 08:52:00.492   02 Jun 2027 08:52:42.189            41.697                Irkutsk          1303.031
       143   02 Jun 2027 08:53:05.328   02 Jun 2027 08:53:39.551            34.223                 Moscow          1069.469
       144   02 Jun 2027 08:53:59.849   02 Jun 2027 08:57:28.301           208.452                 Moscow          6514.125
       145   02 Jun 2027 08:57:34.314   02 Jun 2027 08:57:50.444            16.130                 Moscow           504.063
       146   02 Jun 2027 10:14:03.508   02 Jun 2027 10:16:34.799           151.291                  Delhi          4727.844
       147   02 Jun 2027 10:18:39.490   02 Jun 2027 10:18:45.780             6.290                  Delhi           196.562
       148   02 Jun 2027 10:28:11.809   02 Jun 2027 10:28:25.440            13.631              Murmansk1           425.969
       149   02 Jun 2027 10:28:26.154   02 Jun 2027 10:29:32.293            66.139                Norilsk          2066.844
       150   02 Jun 2027 10:29:42.820   02 Jun 2027 10:32:11.872           149.052                Norilsk          4657.875
       151   02 Jun 2027 10:32:33.609   02 Jun 2027 10:33:31.191            57.582              Murmansk2          1799.438
       152   02 Jun 2027 10:33:38.800   02 Jun 2027 10:33:44.428             5.628                Norilsk           175.875
       153   02 Jun 2027 12:09:42.091   02 Jun 2027 12:11:24.970           102.879                Norilsk          3214.969
       154   02 Jun 2027 12:11:47.466   02 Jun 2027 12:12:53.852            66.386              Murmansk1          2074.562
       155   02 Jun 2027 12:17:45.869   02 Jun 2027 12:20:46.763           180.894                Anadyr2          5652.938
       156   02 Jun 2027 12:21:01.828   02 Jun 2027 12:21:09.056             7.228                Anadyr1           225.875
       157   02 Jun 2027 13:22:00.940   02 Jun 2027 13:22:19.372            18.432               CapeTown           576.000
       158   02 Jun 2027 13:22:36.035   02 Jun 2027 13:23:35.420            59.385               CapeTown          1855.781
       159   02 Jun 2027 13:54:53.241   02 Jun 2027 13:55:17.882            24.641                Anadyr1           770.031
       160   02 Jun 2027 13:56:01.216   02 Jun 2027 13:58:04.927           123.711                Anadyr1          3865.969
       161   02 Jun 2027 13:59:54.748   02 Jun 2027 13:59:55.592             0.844                Anadyr1            26.375
       162   02 Jun 2027 13:59:56.392   02 Jun 2027 14:01:24.117            87.725                Anadyr2          2741.406
       163   02 Jun 2027 15:30:25.533   02 Jun 2027 15:33:37.331           191.798               Magadan1          5993.687
       164   02 Jun 2027 15:34:22.478   02 Jun 2027 15:36:06.565           104.087               Magadan2          3252.719
       165   02 Jun 2027 15:36:15.320   02 Jun 2027 15:38:08.617           113.297               Magadan1          3540.531
       166   02 Jun 2027 17:09:38.729   02 Jun 2027 17:10:04.796            26.067               Magadan2           814.594
       167   02 Jun 2027 17:10:38.083   02 Jun 2027 17:10:51.956            13.873                Anadyr1           433.531
       168   02 Jun 2027 17:11:09.407   02 Jun 2027 17:11:16.076             6.669                Anadyr2           208.406
       169   02 Jun 2027 17:11:16.222   02 Jun 2027 17:11:55.578            39.356               Magadan1          1229.875
       170   02 Jun 2027 17:11:55.578   02 Jun 2027 17:12:21.740            26.162               Magadan2           817.562
       171   02 Jun 2027 17:12:46.331   02 Jun 2027 17:13:07.714            21.383               Magadan1           668.219
       172   02 Jun 2027 17:13:24.098   02 Jun 2027 17:13:56.260            32.162               Magadan1          1005.062
       173   02 Jun 2027 17:14:46.922   02 Jun 2027 17:15:03.509            16.587                Anadyr1           518.344
       174   02 Jun 2027 17:15:53.004   02 Jun 2027 17:16:52.827            59.823               Magadan1          1869.469
       175   02 Jun 2027 17:58:46.583   02 Jun 2027 18:00:54.491           127.908            RioGallegos          3997.125
       176   02 Jun 2027 18:02:09.243   02 Jun 2027 18:05:35.842           206.599            RioGallegos          6456.219
       177   02 Jun 2027 18:46:13.017   02 Jun 2027 18:46:54.336            41.319                Irkutsk          1291.219
       178   02 Jun 2027 18:47:23.494   02 Jun 2027 18:48:50.791            87.297                Irkutsk          2728.031
       179   02 Jun 2027 18:51:58.045   02 Jun 2027 18:53:35.279            97.234                Irkutsk          3038.563
       180   02 Jun 2027 18:55:24.209   02 Jun 2027 18:56:16.411            52.202                Irkutsk          1631.313
       181   02 Jun 2027 19:04:20.411   02 Jun 2027 19:06:07.501           107.090                Sumatra          3346.563
       182   02 Jun 2027 19:06:22.233   02 Jun 2027 19:07:24.002            61.769                Sumatra          1930.281
       183   02 Jun 2027 19:10:45.056   02 Jun 2027 19:11:01.010            15.954                Sumatra           498.563
       184   02 Jun 2027 20:25:33.620   02 Jun 2027 20:26:30.805            57.185                Novosib          1787.031
       185   02 Jun 2027 20:28:02.357   02 Jun 2027 20:28:08.454             6.097                Novosib           190.531
       186   02 Jun 2027 20:29:29.248   02 Jun 2027 20:29:50.193            20.945                Novosib           654.531
       187   02 Jun 2027 20:29:58.876   02 Jun 2027 20:31:04.265            65.389                Novosib          2043.406
       188   02 Jun 2027 20:32:11.163   02 Jun 2027 20:35:01.353           170.190                  Delhi          5318.438
       189   02 Jun 2027 20:37:10.424   02 Jun 2027 20:38:25.523            75.099                  Delhi          2346.844
       190   02 Jun 2027 21:55:55.824   02 Jun 2027 21:59:55.887           240.063              Murmansk2          7501.969
       191   02 Jun 2027 22:00:57.785   02 Jun 2027 22:02:48.106           110.321              Murmansk1          3447.531
       192   02 Jun 2027 23:27:14.703   02 Jun 2027 23:27:33.300            18.597               Magadan1           581.156
       193   02 Jun 2027 23:28:07.449   02 Jun 2027 23:29:10.179            62.730               Magadan1          1960.312
       194   02 Jun 2027 23:31:22.088   02 Jun 2027 23:31:40.296            18.208               Magadan2           569.000
       195   02 Jun 2027 23:31:54.855   02 Jun 2027 23:34:52.725           177.870              Murmansk2          5558.437
       196   02 Jun 2027 23:35:00.542   02 Jun 2027 23:36:07.685            67.143                 Moscow          2098.219
       197   02 Jun 2027 23:39:45.274   02 Jun 2027 23:40:45.656            60.382                 Moscow          1886.937
       198   02 Jun 2027 23:42:46.287   02 Jun 2027 23:43:03.065            16.778                 Moscow           524.313
       199   02 Jun 2027 23:43:21.347   02 Jun 2027 23:43:36.174            14.827                 Moscow           463.344
       200   03 Jun 2027 00:00:13.271   03 Jun 2027 00:01:14.882            61.611               CapeTown          1925.344
       201   03 Jun 2027 00:03:13.965   03 Jun 2027 00:05:05.385           111.420               CapeTown          3481.875
       202   03 Jun 2027 00:07:14.289   03 Jun 2027 00:07:15.288             0.999               CapeTown            31.219
       203   03 Jun 2027 00:08:47.054   03 Jun 2027 00:09:23.314            36.260               CapeTown          1133.125
       204   03 Jun 2027 01:05:24.732   03 Jun 2027 01:06:31.234            66.502               Magadan1          2078.187
       205   03 Jun 2027 01:09:48.524   03 Jun 2027 01:10:16.524            28.000              Murmansk1           875.000
       206   03 Jun 2027 01:10:54.871   03 Jun 2027 01:12:00.640            65.769                 Moscow          2055.281
       207   03 Jun 2027 01:15:27.129   03 Jun 2027 01:15:59.818            32.689                 Moscow          1021.531
       208   03 Jun 2027 01:17:48.921   03 Jun 2027 01:18:01.761            12.840                 Moscow           401.250
       209   03 Jun 2027 01:19:21.346   03 Jun 2027 01:20:04.786            43.440              Murmansk2          1357.500
       210   03 Jun 2027 01:38:48.663   03 Jun 2027 01:39:06.125            17.462               CapeTown           545.687
       211   03 Jun 2027 01:39:22.401   03 Jun 2027 01:39:51.520            29.119               CapeTown           909.969
       212   03 Jun 2027 01:45:37.878   03 Jun 2027 01:47:06.096            88.218               CapeTown          2756.812
       213   03 Jun 2027 02:31:21.665   03 Jun 2027 02:31:52.629            30.964                Anadyr1           967.625
       214   03 Jun 2027 02:32:04.126   03 Jun 2027 02:32:49.737            45.611               Magadan1          1425.344
       215   03 Jun 2027 02:33:08.016   03 Jun 2027 02:33:11.577             3.561               Magadan1           111.281
       216   03 Jun 2027 02:34:08.966   03 Jun 2027 02:34:38.487            29.521               Magadan2           922.531
       217   03 Jun 2027 02:36:58.516   03 Jun 2027 02:37:19.427            20.911               Magadan2           653.469
       218   03 Jun 2027 02:38:30.051   03 Jun 2027 02:38:36.171             6.120               Magadan1           191.250
       219   03 Jun 2027 02:38:58.321   03 Jun 2027 02:39:17.638            19.317               Magadan1           603.656
       220   03 Jun 2027 02:39:53.696   03 Jun 2027 02:40:03.222             9.526                Norilsk           297.688
       221   03 Jun 2027 02:40:55.401   03 Jun 2027 02:41:14.401            19.000               Magadan2           593.750
       222   03 Jun 2027 02:41:44.769   03 Jun 2027 02:42:14.660            29.891                Norilsk           934.094
       223   03 Jun 2027 02:43:17.727   03 Jun 2027 02:43:52.832            35.105              Murmansk1          1097.031
       224   03 Jun 2027 02:46:26.907   03 Jun 2027 02:46:34.147             7.240              Murmansk1           226.250
       225   03 Jun 2027 02:47:07.688   03 Jun 2027 02:47:53.785            46.097                 Moscow          1440.531
       226   03 Jun 2027 02:51:17.436   03 Jun 2027 02:51:25.438             8.002              Murmansk1           250.063
       227   03 Jun 2027 02:51:48.246   03 Jun 2027 02:52:01.470            13.224              Murmansk1           413.250
       228   03 Jun 2027 02:52:19.005   03 Jun 2027 02:53:31.992            72.987              Murmansk1          2280.844
       229   03 Jun 2027 04:14:13.519   03 Jun 2027 04:17:23.409           189.890                Anadyr2          5934.063
       230   03 Jun 2027 04:18:37.721   03 Jun 2027 04:19:44.643            66.922               Magadan1          2091.313
       231   03 Jun 2027 04:56:34.335   03 Jun 2027 04:56:51.169            16.834            RioGallegos           526.063
       232   03 Jun 2027 05:50:46.807   03 Jun 2027 05:51:10.239            23.432                Irkutsk           732.250
       233   03 Jun 2027 05:51:35.743   03 Jun 2027 05:53:38.804           123.061                Norilsk          3845.656
       234   03 Jun 2027 05:53:43.090   03 Jun 2027 05:55:45.797           122.707                Novosib          3834.594
       235   03 Jun 2027 05:58:24.217   03 Jun 2027 05:59:11.433            47.216                Norilsk          1475.500
       236   03 Jun 2027 06:30:10.780   03 Jun 2027 06:32:21.980           131.200            RioGallegos          4100.000
       237   03 Jun 2027 07:07:12.806   03 Jun 2027 07:08:33.106            80.300                Sumatra          2509.375
       238   03 Jun 2027 07:26:14.449   03 Jun 2027 07:26:28.282            13.833                Irkutsk           432.281
       239   03 Jun 2027 07:27:16.208   03 Jun 2027 07:28:13.469            57.261                Irkutsk          1789.406
       240   03 Jun 2027 07:28:43.634   03 Jun 2027 07:28:56.924            13.290                Norilsk           415.312
       241   03 Jun 2027 07:29:33.402   03 Jun 2027 07:34:20.158           286.756              Murmansk1          8961.125
       242   03 Jun 2027 07:34:20.158   03 Jun 2027 07:35:54.981            94.823              Murmansk2          2963.219
       243   03 Jun 2027 07:35:54.981   03 Jun 2027 07:36:27.268            32.287              Murmansk1          1008.969
       244   03 Jun 2027 08:07:23.934   03 Jun 2027 08:09:18.325           114.391            RioGallegos          3574.719
       245   03 Jun 2027 08:10:39.487   03 Jun 2027 08:12:02.270            82.783            RioGallegos          2586.969
       246   03 Jun 2027 08:41:36.800   03 Jun 2027 08:43:25.002           108.202                Sumatra          3381.312
       247   03 Jun 2027 08:45:18.068   03 Jun 2027 08:45:25.070             7.002                Sumatra           218.812
       248   03 Jun 2027 08:49:32.982   03 Jun 2027 08:52:17.116           164.134                  Delhi          5129.188
       249   03 Jun 2027 09:04:42.194   03 Jun 2027 09:05:43.732            61.538                Irkutsk          1923.063
       250   03 Jun 2027 09:05:58.971   03 Jun 2027 09:07:09.197            70.226                 Moscow          2194.563
       251   03 Jun 2027 09:07:20.158   03 Jun 2027 09:08:18.122            57.964              Murmansk1          1811.375
       252   03 Jun 2027 09:08:43.423   03 Jun 2027 09:09:26.820            43.397              Murmansk1          1356.156
       253   03 Jun 2027 09:11:11.203   03 Jun 2027 09:11:25.716            14.513              Murmansk1           453.531
       254   03 Jun 2027 09:12:15.959   03 Jun 2027 09:12:46.809            30.850              Murmansk1           964.063
       255   03 Jun 2027 10:26:37.526   03 Jun 2027 10:29:21.249           163.723                  Delhi          5116.344
       256   03 Jun 2027 10:39:46.514   03 Jun 2027 10:40:11.511            24.997                Novosib           781.156
       257   03 Jun 2027 10:40:11.608   03 Jun 2027 10:40:28.622            17.014                 Moscow           531.688
       258   03 Jun 2027 10:40:31.790   03 Jun 2027 10:41:13.831            42.041                 Moscow          1313.781
       259   03 Jun 2027 10:41:15.724   03 Jun 2027 10:41:24.001             8.277                Norilsk           258.656
       260   03 Jun 2027 10:41:29.853   03 Jun 2027 10:42:07.948            38.095                Novosib          1190.469
       261   03 Jun 2027 10:42:09.066   03 Jun 2027 10:42:23.343            14.277                 Moscow           446.156
       262   03 Jun 2027 10:42:26.762   03 Jun 2027 10:42:55.129            28.367                Norilsk           886.469
       263   03 Jun 2027 10:43:17.113   03 Jun 2027 10:43:32.477            15.364                 Moscow           480.125
       264   03 Jun 2027 10:43:46.162   03 Jun 2027 10:44:05.552            19.390              Murmansk2           605.937
       265   03 Jun 2027 10:44:18.946   03 Jun 2027 10:45:40.756            81.810                Norilsk          2556.562
       266   03 Jun 2027 12:09:47.696   03 Jun 2027 12:11:43.807           116.111                 Moscow          3628.469
       267   03 Jun 2027 12:12:20.089   03 Jun 2027 12:12:49.121            29.032                 Moscow           907.250
       268   03 Jun 2027 12:13:18.614   03 Jun 2027 12:15:16.917           118.303              Murmansk2          3696.969
       269   03 Jun 2027 12:16:01.308   03 Jun 2027 12:16:16.260            14.952              Murmansk2           467.250
       270   03 Jun 2027 12:17:41.075   03 Jun 2027 12:18:10.088            29.013              Murmansk1           906.656
       271   03 Jun 2027 12:19:13.985   03 Jun 2027 12:19:24.323            10.338              Murmansk2           323.063
       272   03 Jun 2027 12:21:34.938   03 Jun 2027 12:21:44.330             9.392                Norilsk           293.500
       273   03 Jun 2027 12:24:27.369   03 Jun 2027 12:24:41.070            13.701              Murmansk2           428.156
       274   03 Jun 2027 12:29:09.222   03 Jun 2027 12:34:26.135           316.913                Anadyr1          9903.531
       275   03 Jun 2027 13:51:20.653   03 Jun 2027 13:51:59.508            38.855              Murmansk2          1214.219
       276   03 Jun 2027 13:54:56.504   03 Jun 2027 13:55:19.656            23.152              Murmansk1           723.500
       277   03 Jun 2027 13:59:15.035   03 Jun 2027 13:59:23.265             8.230              Murmansk1           257.188
       278   03 Jun 2027 14:00:37.661   03 Jun 2027 14:01:04.246            26.585              Murmansk2           830.781
       279   03 Jun 2027 14:03:49.287   03 Jun 2027 14:07:06.761           197.474                Anadyr2          6171.062
       280   03 Jun 2027 14:07:19.143   03 Jun 2027 14:08:01.162            42.019                Anadyr2          1313.094
       281   03 Jun 2027 15:32:19.362   03 Jun 2027 15:34:01.695           102.333              Murmansk2          3197.906
       282   03 Jun 2027 15:39:36.720   03 Jun 2027 15:40:58.959            82.239                Anadyr1          2569.969
       283   03 Jun 2027 15:41:50.385   03 Jun 2027 15:42:49.564            59.179                Anadyr2          1849.344
       284   03 Jun 2027 15:43:04.659   03 Jun 2027 15:46:19.788           195.129               Magadan1          6097.781
       285   03 Jun 2027 15:48:36.270   03 Jun 2027 15:50:10.584            94.314               Magadan1          2947.313
       286   03 Jun 2027 17:15:31.854   03 Jun 2027 17:16:11.846            39.992                Anadyr2          1249.750
       287   03 Jun 2027 17:17:48.850   03 Jun 2027 17:19:54.942           126.092               Magadan2          3940.375
       288   03 Jun 2027 17:21:29.349   03 Jun 2027 17:21:32.012             2.663               Magadan2            83.219
       289   03 Jun 2027 17:23:41.175   03 Jun 2027 17:23:50.815             9.640               Magadan2           301.250
       290   03 Jun 2027 17:26:15.756   03 Jun 2027 17:26:27.392            11.636               Magadan2           363.625
       291   03 Jun 2027 17:26:33.435   03 Jun 2027 17:27:06.875            33.440               Magadan2          1045.000
       292   03 Jun 2027 18:10:24.799   03 Jun 2027 18:14:00.518           215.719            RioGallegos          6741.219
       293   03 Jun 2027 18:15:00.320   03 Jun 2027 18:16:51.660           111.340            RioGallegos          3479.375
       294   03 Jun 2027 18:53:25.120   03 Jun 2027 18:55:27.818           122.698                Norilsk          3834.312
       295   03 Jun 2027 18:57:47.679   03 Jun 2027 19:00:52.757           185.078                Irkutsk          5783.687
       296   03 Jun 2027 19:07:15.312   03 Jun 2027 19:08:07.605            52.293                Irkutsk          1634.156
       297   03 Jun 2027 19:11:47.529   03 Jun 2027 19:13:08.691            81.162                Sumatra          2536.313
       298   03 Jun 2027 19:15:22.267   03 Jun 2027 19:16:09.369            47.102                Sumatra          1471.938
       299   03 Jun 2027 19:16:20.517   03 Jun 2027 19:17:35.477            74.960                Sumatra          2342.500
       300   03 Jun 2027 20:33:09.620   03 Jun 2027 20:34:11.032            61.412                Irkutsk          1919.125
       301   03 Jun 2027 20:34:34.437   03 Jun 2027 20:35:10.716            36.279                Novosib          1133.719
       302   03 Jun 2027 20:35:31.487   03 Jun 2027 20:36:47.622            76.135                Novosib          2379.219
       303   03 Jun 2027 20:41:44.033   03 Jun 2027 20:42:47.641            63.608                  Delhi          1987.750
       304   03 Jun 2027 20:44:20.497   03 Jun 2027 20:45:02.170            41.673                  Delhi          1302.281
       305   03 Jun 2027 20:46:53.618   03 Jun 2027 20:47:36.888            43.270                  Delhi          1352.188
       306   03 Jun 2027 22:07:49.531   03 Jun 2027 22:14:14.262           384.731              Murmansk2         12022.844
       307   03 Jun 2027 22:14:32.650   03 Jun 2027 22:16:57.220           144.570                 Moscow          4517.812
       308   03 Jun 2027 23:42:16.393   03 Jun 2027 23:42:18.359             1.966               Magadan2            61.437
       309   03 Jun 2027 23:43:26.607   03 Jun 2027 23:44:52.023            85.416              Murmansk1          2669.250
       310   03 Jun 2027 23:46:53.250   03 Jun 2027 23:46:57.653             4.403              Murmansk2           137.594
       311   03 Jun 2027 23:47:06.856   03 Jun 2027 23:47:15.127             8.271              Murmansk1           258.469
       312   03 Jun 2027 23:47:30.372   03 Jun 2027 23:49:00.186            89.814                 Moscow          2806.687
       313   03 Jun 2027 23:50:20.434   03 Jun 2027 23:50:52.118            31.684                 Moscow           990.125
       314   03 Jun 2027 23:51:22.339   03 Jun 2027 23:52:36.095            73.756                 Moscow          2304.875
       315   04 Jun 2027 00:11:43.298   04 Jun 2027 00:14:50.290           186.992               CapeTown          5843.500
       316   04 Jun 2027 01:15:38.838   04 Jun 2027 01:15:59.808            20.970               Magadan2           655.312
       317   04 Jun 2027 01:19:24.102   04 Jun 2027 01:20:52.205            88.103              Murmansk1          2753.219
       318   04 Jun 2027 01:22:29.680   04 Jun 2027 01:22:41.098            11.418              Murmansk2           356.813
       319   04 Jun 2027 01:22:49.121   04 Jun 2027 01:23:09.967            20.846                Novosib           651.438
       320   04 Jun 2027 01:23:14.008   04 Jun 2027 01:23:19.186             5.178              Murmansk2           161.813
       321   04 Jun 2027 01:23:42.786   04 Jun 2027 01:23:48.032             5.246              Murmansk1           163.938
       322   04 Jun 2027 01:25:49.866   04 Jun 2027 01:26:34.674            44.808                 Moscow          1400.250
       323   04 Jun 2027 01:30:57.932   04 Jun 2027 01:31:19.313            21.381                 Moscow           668.156
       324   04 Jun 2027 01:46:48.641   04 Jun 2027 01:48:01.292            72.651               CapeTown          2270.344
       325   04 Jun 2027 01:56:24.604   04 Jun 2027 01:56:38.033            13.429               CapeTown           419.656
       326   04 Jun 2027 02:43:30.573   04 Jun 2027 02:44:33.049            62.476                Anadyr2          1952.375
       327   04 Jun 2027 02:44:40.739   04 Jun 2027 02:46:34.209           113.470               Magadan1          3545.937
       328   04 Jun 2027 02:47:14.074   04 Jun 2027 02:47:24.368            10.294               Magadan1           321.687
       329   04 Jun 2027 02:49:00.570   04 Jun 2027 02:49:13.692            13.122               Magadan1           410.062
       330   04 Jun 2027 02:51:38.135   04 Jun 2027 02:51:50.634            12.499               Magadan1           390.594
       331   04 Jun 2027 02:52:12.673   04 Jun 2027 02:52:40.308            27.635                Norilsk           863.594
       332   04 Jun 2027 02:55:18.131   04 Jun 2027 02:56:32.546            74.415              Murmansk1          2325.469
       333   04 Jun 2027 02:58:30.583   04 Jun 2027 02:58:34.768             4.185              Murmansk2           130.781
       334   04 Jun 2027 02:58:55.715   04 Jun 2027 02:59:57.313            61.598                 Moscow          1924.937
       335   04 Jun 2027 04:26:58.263   04 Jun 2027 04:28:32.713            94.450               Magadan1          2951.563
       336   04 Jun 2027 04:28:32.713   04 Jun 2027 04:29:21.351            48.638               Magadan2          1519.937
       337   04 Jun 2027 04:29:24.190   04 Jun 2027 04:29:59.269            35.079                Anadyr2          1096.219
       338   04 Jun 2027 04:30:04.510   04 Jun 2027 04:30:12.323             7.813                Irkutsk           244.156
       339   04 Jun 2027 04:30:53.281   04 Jun 2027 04:31:35.480            42.199              Murmansk2          1318.719
       340   04 Jun 2027 05:08:06.458   04 Jun 2027 05:09:52.017           105.559            RioGallegos          3298.719
       341   04 Jun 2027 06:02:33.121   04 Jun 2027 06:03:00.527            27.406                Norilsk           856.438
       342   04 Jun 2027 06:03:04.636   04 Jun 2027 06:03:50.353            45.717               Magadan1          1428.656
       343   04 Jun 2027 06:03:50.353   04 Jun 2027 06:05:05.501            75.148               Magadan2          2348.375
       344   04 Jun 2027 06:05:27.334   04 Jun 2027 06:08:08.956           161.622                Norilsk          5050.687
       345   04 Jun 2027 06:08:17.832   04 Jun 2027 06:08:40.839            23.007              Murmansk2           718.969
       346   04 Jun 2027 06:42:09.129   04 Jun 2027 06:44:15.361           126.232            RioGallegos          3944.750
       347   04 Jun 2027 06:46:07.202   04 Jun 2027 06:46:34.889            27.687            RioGallegos           865.219
       348   04 Jun 2027 07:17:36.991   04 Jun 2027 07:21:21.418           224.427                Sumatra          7013.344
       349   04 Jun 2027 07:38:57.408   04 Jun 2027 07:39:42.977            45.569                Novosib          1424.031
       350   04 Jun 2027 07:39:48.286   04 Jun 2027 07:40:38.954            50.668                Norilsk          1583.375
       351   04 Jun 2027 07:40:43.382   04 Jun 2027 07:41:45.349            61.967              Murmansk2          1936.469
       352   04 Jun 2027 07:41:48.045   04 Jun 2027 07:42:04.494            16.449                Novosib           514.031
       353   04 Jun 2027 07:42:06.353   04 Jun 2027 07:42:07.868             1.515                Novosib            47.344
       354   04 Jun 2027 07:42:19.596   04 Jun 2027 07:42:29.807            10.211                Norilsk           319.094
       355   04 Jun 2027 07:42:33.001   04 Jun 2027 07:42:51.008            18.007                Norilsk           562.719
       356   04 Jun 2027 07:42:55.974   04 Jun 2027 07:44:07.486            71.512                Novosib          2234.750
       357   04 Jun 2027 07:44:21.887   04 Jun 2027 07:45:51.078            89.191              Murmansk1          2787.219
       358   04 Jun 2027 08:19:55.005   04 Jun 2027 08:20:26.184            31.179            RioGallegos           974.344
       359   04 Jun 2027 08:23:25.085   04 Jun 2027 08:23:55.427            30.342            RioGallegos           948.187
       360   04 Jun 2027 08:54:06.570   04 Jun 2027 08:54:19.472            12.902                Sumatra           403.188
       361   04 Jun 2027 08:54:58.439   04 Jun 2027 08:55:28.899            30.460                Sumatra           951.875
       362   04 Jun 2027 09:01:13.526   04 Jun 2027 09:02:23.825            70.299                Sumatra          2196.844
       363   04 Jun 2027 09:03:03.670   04 Jun 2027 09:03:39.819            36.149                  Delhi          1129.656
       364   04 Jun 2027 09:15:16.477   04 Jun 2027 09:16:23.556            67.079                 Moscow          2096.219
       365   04 Jun 2027 09:16:31.325   04 Jun 2027 09:16:45.891            14.566              Murmansk2           455.187
       366   04 Jun 2027 09:16:45.891   04 Jun 2027 09:17:00.054            14.163              Murmansk1           442.594
       367   04 Jun 2027 09:17:01.170   04 Jun 2027 09:17:33.251            32.081                 Moscow          1002.531
       368   04 Jun 2027 09:17:47.835   04 Jun 2027 09:18:21.911            34.076                Norilsk          1064.875
       369   04 Jun 2027 09:18:22.131   04 Jun 2027 09:19:11.782            49.651              Murmansk2          1551.594
       370   04 Jun 2027 10:39:23.752   04 Jun 2027 10:41:39.543           135.791                  Delhi          4243.469
       371   04 Jun 2027 10:43:11.460   04 Jun 2027 10:43:26.197            14.737                  Delhi           460.531
       372   04 Jun 2027 10:50:59.165   04 Jun 2027 10:51:34.398            35.233              Murmansk1          1101.031
       373   04 Jun 2027 10:51:44.634   04 Jun 2027 10:52:02.434            17.800                Novosib           556.250
       374   04 Jun 2027 10:52:02.650   04 Jun 2027 10:52:26.103            23.453                 Moscow           732.906
       375   04 Jun 2027 10:52:45.804   04 Jun 2027 10:52:47.864             2.060                Novosib            64.375
       376   04 Jun 2027 10:52:55.278   04 Jun 2027 10:54:06.766            71.488                Novosib          2234.000
       377   04 Jun 2027 10:54:12.953   04 Jun 2027 10:55:09.491            56.538                Novosib          1766.813
       378   04 Jun 2027 10:55:12.749   04 Jun 2027 10:55:32.717            19.968              Murmansk2           624.000
       379   04 Jun 2027 10:55:43.814   04 Jun 2027 10:55:53.450             9.636              Murmansk1           301.125
       380   04 Jun 2027 10:56:04.435   04 Jun 2027 10:56:38.898            34.463                 Moscow          1076.969
       381   04 Jun 2027 10:57:38.088   04 Jun 2027 10:58:04.711            26.623                 Moscow           831.969
       382   04 Jun 2027 12:03:04.811   04 Jun 2027 12:04:38.098            93.287               CapeTown          2915.219
       383   04 Jun 2027 12:22:00.060   04 Jun 2027 12:22:55.972            55.912                 Moscow          1747.250
       384   04 Jun 2027 12:25:28.783   04 Jun 2027 12:28:24.398           175.615              Murmansk2          5487.969
       385   04 Jun 2027 12:29:46.874   04 Jun 2027 12:29:58.610            11.736              Murmansk2           366.750
       386   04 Jun 2027 12:33:14.904   04 Jun 2027 12:33:27.186            12.282              Murmansk2           383.812
       387   04 Jun 2027 12:35:18.756   04 Jun 2027 12:35:42.558            23.802              Murmansk2           743.813
       388   04 Jun 2027 12:40:48.352   04 Jun 2027 12:44:30.378           222.026                Anadyr2          6938.313
       389   04 Jun 2027 12:45:43.980   04 Jun 2027 12:47:22.427            98.447                Anadyr1          3076.469
       390   04 Jun 2027 14:03:47.821   04 Jun 2027 14:03:59.005            11.184              Murmansk2           349.500
       391   04 Jun 2027 14:04:02.547   04 Jun 2027 14:04:18.106            15.559              Murmansk2           486.219
       392   04 Jun 2027 14:05:32.597   04 Jun 2027 14:05:40.725             8.128              Murmansk2           254.000
       393   04 Jun 2027 14:06:06.611   04 Jun 2027 14:06:17.296            10.685              Murmansk2           333.906
       394   04 Jun 2027 14:11:16.752   04 Jun 2027 14:11:54.495            37.743              Murmansk2          1179.469
       395   04 Jun 2027 14:15:48.178   04 Jun 2027 14:17:28.703           100.525                Anadyr1          3141.406
       396   04 Jun 2027 14:17:35.050   04 Jun 2027 14:19:07.608            92.558                Anadyr2          2892.437
       397   04 Jun 2027 14:22:41.172   04 Jun 2027 14:23:22.850            41.678                Anadyr1          1302.438
       398   04 Jun 2027 15:45:31.030   04 Jun 2027 15:47:08.392            97.362              Murmansk1          3042.563
       399   04 Jun 2027 15:51:37.989   04 Jun 2027 15:53:43.944           125.955                Anadyr2          3936.094
       400   04 Jun 2027 15:54:13.164   04 Jun 2027 15:57:25.727           192.563               Magadan2          6017.594
       401   04 Jun 2027 15:57:25.727   04 Jun 2027 15:58:17.992            52.265               Magadan1          1633.281
       402   04 Jun 2027 15:59:41.568   04 Jun 2027 15:59:54.212            12.644               Magadan1           395.125
       403   04 Jun 2027 16:00:51.593   04 Jun 2027 16:02:12.753            81.160               Magadan2          2536.250
       404   04 Jun 2027 17:27:32.596   04 Jun 2027 17:27:42.509             9.913                Anadyr1           309.781
       405   04 Jun 2027 17:28:14.959   04 Jun 2027 17:28:52.120            37.161                Anadyr2          1161.281
       406   04 Jun 2027 17:29:49.781   04 Jun 2027 17:31:16.033            86.252               Magadan2          2695.375
       407   04 Jun 2027 17:33:09.259   04 Jun 2027 17:33:31.576            22.317               Magadan1           697.406
       408   04 Jun 2027 17:33:35.256   04 Jun 2027 17:33:49.360            14.104               Magadan1           440.750
       409   04 Jun 2027 18:22:08.814   04 Jun 2027 18:28:18.211           369.397            RioGallegos         11543.656
       410   04 Jun 2027 19:05:24.867   04 Jun 2027 19:06:35.157            70.290                Norilsk          2196.562
       411   04 Jun 2027 19:07:27.087   04 Jun 2027 19:10:53.594           206.507                Norilsk          6453.344
       412   04 Jun 2027 19:11:17.821   04 Jun 2027 19:12:55.504            97.683                Irkutsk          3052.594
       413   04 Jun 2027 19:13:01.273   04 Jun 2027 19:15:34.892           153.619                Novosib          4800.594
       414   04 Jun 2027 19:24:55.905   04 Jun 2027 19:25:53.237            57.332                Sumatra          1791.625
       415   04 Jun 2027 19:27:21.958   04 Jun 2027 19:28:33.346            71.388                Sumatra          2230.875
       416   04 Jun 2027 20:52:34.184   04 Jun 2027 20:53:37.498            63.314                Novosib          1978.562
       417   04 Jun 2027 20:54:28.933   04 Jun 2027 20:56:33.791           124.858                  Delhi          3901.812
       418   04 Jun 2027 20:58:07.031   04 Jun 2027 20:59:52.046           105.015                  Delhi          3281.719
       419   04 Jun 2027 22:19:45.289   04 Jun 2027 22:22:10.948           145.659              Murmansk2          4551.844
       420   04 Jun 2027 22:23:00.326   04 Jun 2027 22:23:53.422            53.096              Murmansk1          1659.250
       421   04 Jun 2027 22:24:55.786   04 Jun 2027 22:30:36.251           340.465                 Moscow         10639.531
       422   04 Jun 2027 23:55:27.767   04 Jun 2027 23:55:28.479             0.712              Murmansk2            22.250
       423   04 Jun 2027 23:56:39.187   04 Jun 2027 23:57:01.502            22.315              Murmansk1           697.344
       424   04 Jun 2027 23:58:51.727   04 Jun 2027 23:59:39.037            47.310                 Moscow          1478.438
       425   05 Jun 2027 00:00:19.634   05 Jun 2027 00:02:23.444           123.810                 Moscow          3869.062
       426   05 Jun 2027 00:23:19.838   05 Jun 2027 00:25:25.682           125.844               CapeTown          3932.625
       427   05 Jun 2027 00:26:55.427   05 Jun 2027 00:27:17.060            21.633               CapeTown           676.031
       428   05 Jun 2027 01:22:37.047   05 Jun 2027 01:22:53.787            16.740               Magadan1           523.125
       429   05 Jun 2027 01:25:04.663   05 Jun 2027 01:25:17.170            12.507               Magadan2           390.844
       430   05 Jun 2027 01:25:45.665   05 Jun 2027 01:25:57.399            11.734               Magadan2           366.688
       431   05 Jun 2027 01:26:29.652   05 Jun 2027 01:27:08.293            38.641               Magadan2          1207.531
       432   05 Jun 2027 01:31:25.692   05 Jun 2027 01:32:43.676            77.984              Murmansk1          2437.000
       433   05 Jun 2027 01:34:39.217   05 Jun 2027 01:35:24.637            45.420                 Moscow          1419.375
       434   05 Jun 2027 01:36:18.007   05 Jun 2027 01:37:48.332            90.325              Murmansk2          2822.656
       435   05 Jun 2027 01:59:07.915   05 Jun 2027 01:59:53.985            46.070               CapeTown          1439.688
       436   05 Jun 2027 02:05:50.929   05 Jun 2027 02:07:04.153            73.224               CapeTown          2288.250
       437   05 Jun 2027 02:55:24.385   05 Jun 2027 02:58:05.143           160.758               Magadan2          5023.688
       438   05 Jun 2027 03:01:39.027   05 Jun 2027 03:01:50.082            11.055               Magadan2           345.469
       439   05 Jun 2027 03:02:09.910   05 Jun 2027 03:04:43.811           153.901                Anadyr2          4809.406
       440   05 Jun 2027 03:04:43.811   05 Jun 2027 03:07:01.962           138.151                Anadyr1          4317.219
       441   05 Jun 2027 03:07:01.962   05 Jun 2027 03:07:21.988            20.026                Anadyr2           625.813
       442   05 Jun 2027 04:38:42.361   05 Jun 2027 04:39:02.320            19.959                Irkutsk           623.719
       443   05 Jun 2027 04:39:17.185   05 Jun 2027 04:41:01.041           103.856               Magadan2          3245.500
       444   05 Jun 2027 04:41:06.757   05 Jun 2027 04:41:39.185            32.428               Magadan2          1013.375
       445   05 Jun 2027 04:41:49.297   05 Jun 2027 04:42:52.301            63.004               Magadan2          1968.875
       446   05 Jun 2027 04:43:17.641   05 Jun 2027 04:43:32.434            14.793                Anadyr1           462.281
       447   05 Jun 2027 05:19:42.185   05 Jun 2027 05:20:37.993            55.808            RioGallegos          1744.000
       448   05 Jun 2027 05:21:09.766   05 Jun 2027 05:21:57.218            47.452            RioGallegos          1482.875
       449   05 Jun 2027 06:13:49.068   05 Jun 2027 06:14:52.452            63.384                Novosib          1980.750
       450   05 Jun 2027 06:15:00.120   05 Jun 2027 06:15:59.689            59.569                Norilsk          1861.531
       451   05 Jun 2027 06:16:04.759   05 Jun 2027 06:16:30.960            26.201                Novosib           818.781
       452   05 Jun 2027 06:16:38.485   05 Jun 2027 06:19:27.736           169.251                Irkutsk          5289.094
       453   05 Jun 2027 06:19:38.223   05 Jun 2027 06:20:56.163            77.940              Murmansk2          2435.625
       454   05 Jun 2027 06:20:56.163   05 Jun 2027 06:21:11.216            15.053              Murmansk1           470.406
       455   05 Jun 2027 06:22:25.226   05 Jun 2027 06:22:33.929             8.703              Murmansk1           271.969
       456   05 Jun 2027 06:54:10.754   05 Jun 2027 06:54:27.516            16.762            RioGallegos           523.812
       457   05 Jun 2027 06:54:58.256   05 Jun 2027 06:56:01.039            62.783            RioGallegos          1961.969
       458   05 Jun 2027 06:58:40.322   05 Jun 2027 06:58:51.878            11.556            RioGallegos           361.125
       459   05 Jun 2027 07:29:21.194   05 Jun 2027 07:33:07.678           226.484                Sumatra          7077.625
       460   05 Jun 2027 07:50:38.566   05 Jun 2027 07:50:56.860            18.294                Irkutsk           571.688
       461   05 Jun 2027 07:51:19.190   05 Jun 2027 07:52:33.356            74.166                Irkutsk          2317.687
       462   05 Jun 2027 07:52:43.068   05 Jun 2027 07:53:20.639            37.571              Murmansk1          1174.094
       463   05 Jun 2027 07:53:20.639   05 Jun 2027 07:53:36.289            15.650              Murmansk2           489.062
       464   05 Jun 2027 07:53:37.691   05 Jun 2027 07:53:55.500            17.809                Novosib           556.531
       465   05 Jun 2027 07:54:00.056   05 Jun 2027 07:54:19.173            19.117                Norilsk           597.406
       466   05 Jun 2027 07:54:29.208   05 Jun 2027 07:56:04.608            95.400              Murmansk1          2981.250
       467   05 Jun 2027 07:56:06.577   05 Jun 2027 07:56:24.924            18.347                 Moscow           573.344
       468   05 Jun 2027 07:57:59.777   05 Jun 2027 07:58:18.332            18.555              Murmansk2           579.844
       469   05 Jun 2027 08:32:32.821   05 Jun 2027 08:33:08.945            36.124            RioGallegos          1128.875
       470   05 Jun 2027 08:34:36.338   05 Jun 2027 08:34:55.945            19.607            RioGallegos           612.719
       471   05 Jun 2027 09:06:49.168   05 Jun 2027 09:08:45.946           116.778                Sumatra          3649.313
       472   05 Jun 2027 09:13:17.893   05 Jun 2027 09:14:15.816            57.923                  Delhi          1810.094
       473   05 Jun 2027 09:27:25.625   05 Jun 2027 09:28:21.516            55.891                 Moscow          1746.594
       474   05 Jun 2027 09:28:36.610   05 Jun 2027 09:29:00.977            24.367                Norilsk           761.469
       475   05 Jun 2027 09:29:11.395   05 Jun 2027 09:29:53.156            41.761              Murmansk2          1305.031
       476   05 Jun 2027 09:29:55.606   05 Jun 2027 09:30:55.360            59.754                 Moscow          1867.313
       477   05 Jun 2027 09:31:33.426   05 Jun 2027 09:31:47.471            14.045              Murmansk2           438.906
       478   05 Jun 2027 09:31:54.749   05 Jun 2027 09:32:00.710             5.961              Murmansk1           186.281
       479   05 Jun 2027 09:32:06.831   05 Jun 2027 09:32:40.496            33.665                 Moscow          1052.031
       480   05 Jun 2027 09:32:46.848   05 Jun 2027 09:32:49.895             3.047                 Moscow            95.219
       481   05 Jun 2027 10:52:29.785   05 Jun 2027 10:54:22.565           112.780                  Delhi          3524.375
       482   05 Jun 2027 10:58:38.409   05 Jun 2027 10:59:06.555            28.146                  Delhi           879.563
