uniorb/output/strategy_1/Drop/Drop_KinoSat_110906.txt

KinoSat_110906
-------------------------
    Access    *     Start Time (UTCG)     *     Stop Time (UTCG)  *   Duration (s)        *       Station  *  Data (Mbytes)
         1   01 Jun 2027 03:22:38.003   01 Jun 2027 03:23:14.376            36.373                Anadyr2          1136.656
         2   01 Jun 2027 03:23:21.523   01 Jun 2027 03:24:47.173            85.650                Anadyr2          2676.562
         3   01 Jun 2027 03:24:47.173   01 Jun 2027 03:25:47.414            60.241                Anadyr1          1882.531
         4   01 Jun 2027 03:25:47.414   01 Jun 2027 03:25:57.192             9.778                Anadyr2           305.563
         5   01 Jun 2027 03:26:24.921   01 Jun 2027 03:26:29.602             4.681                Anadyr2           146.281
         6   01 Jun 2027 04:59:45.748   01 Jun 2027 05:00:53.479            67.731                Anadyr1          2116.594
         7   01 Jun 2027 05:01:02.720   01 Jun 2027 05:02:20.634            77.914                Anadyr1          2434.813
         8   01 Jun 2027 05:02:20.634   01 Jun 2027 05:03:29.125            68.491                Anadyr2          2140.344
         9   01 Jun 2027 05:03:29.125   01 Jun 2027 05:04:18.701            49.576                Anadyr1          1549.250
        10   01 Jun 2027 06:33:30.428   01 Jun 2027 06:34:20.227            49.799               Magadan1          1556.219
        11   01 Jun 2027 06:34:20.227   01 Jun 2027 06:34:41.608            21.381               Magadan2           668.156
        12   01 Jun 2027 06:34:50.094   01 Jun 2027 06:37:59.755           189.661                Anadyr2          5926.906
        13   01 Jun 2027 06:38:02.262   01 Jun 2027 06:38:29.649            27.387                Anadyr1           855.844
        14   01 Jun 2027 06:38:38.341   01 Jun 2027 06:38:54.661            16.320              Murmansk1           510.000
        15   01 Jun 2027 06:39:06.559   01 Jun 2027 06:39:35.042            28.483                Irkutsk           890.094
        16   01 Jun 2027 06:39:40.047   01 Jun 2027 06:41:51.929           131.882                Norilsk          4121.313
        17   01 Jun 2027 06:42:37.194   01 Jun 2027 06:43:19.336            42.142              Murmansk1          1316.937
        18   01 Jun 2027 07:14:46.354   01 Jun 2027 07:17:40.521           174.167            RioGallegos          5442.719
        19   01 Jun 2027 07:51:15.862   01 Jun 2027 07:52:41.605            85.743                Sumatra          2679.469
        20   01 Jun 2027 08:11:15.303   01 Jun 2027 08:11:30.379            15.076                Norilsk           471.125
        21   01 Jun 2027 08:11:38.722   01 Jun 2027 08:15:53.806           255.084                Irkutsk          7971.375
        22   01 Jun 2027 08:16:22.947   01 Jun 2027 08:16:41.528            18.581              Murmansk1           580.656
        23   01 Jun 2027 08:17:10.491   01 Jun 2027 08:17:16.778             6.287                Novosib           196.469
        24   01 Jun 2027 08:21:54.856   01 Jun 2027 08:22:10.366            15.510              Murmansk2           484.687
        25   01 Jun 2027 08:22:49.429   01 Jun 2027 08:23:10.781            21.352              Murmansk1           667.250
        26   01 Jun 2027 08:51:37.444   01 Jun 2027 08:52:11.926            34.482            RioGallegos          1077.562
        27   01 Jun 2027 08:52:42.980   01 Jun 2027 08:52:53.865            10.885            RioGallegos           340.156
        28   01 Jun 2027 08:55:56.055   01 Jun 2027 08:56:24.272            28.217            RioGallegos           881.781
        29   01 Jun 2027 09:25:37.718   01 Jun 2027 09:27:20.423           102.705                Sumatra          3209.531
        30   01 Jun 2027 09:34:24.628   01 Jun 2027 09:36:27.689           123.061                  Delhi          3845.656
        31   01 Jun 2027 09:47:34.275   01 Jun 2027 09:48:37.534            63.259                Irkutsk          1976.844
        32   01 Jun 2027 09:48:53.022   01 Jun 2027 09:50:00.511            67.489                Norilsk          2109.031
        33   01 Jun 2027 09:50:08.963   01 Jun 2027 09:51:30.249            81.286                 Moscow          2540.187
        34   01 Jun 2027 11:10:20.446   01 Jun 2027 11:11:18.442            57.996                  Delhi          1812.375
        35   01 Jun 2027 11:14:13.838   01 Jun 2027 11:14:30.245            16.407                  Delhi           512.719
        36   01 Jun 2027 11:15:10.345   01 Jun 2027 11:15:23.407            13.062                  Delhi           408.187
        37   01 Jun 2027 11:24:52.740   01 Jun 2027 11:25:04.811            12.071              Murmansk2           377.219
        38   01 Jun 2027 11:25:12.729   01 Jun 2027 11:26:06.282            53.553                 Moscow          1673.531
        39   01 Jun 2027 11:26:20.331   01 Jun 2027 11:30:47.510           267.179                 Moscow          8349.344
        40   01 Jun 2027 11:32:10.224   01 Jun 2027 11:32:16.286             6.062              Murmansk2           189.438
        41   01 Jun 2027 11:33:07.796   01 Jun 2027 11:33:15.759             7.963              Murmansk2           248.844
        42   01 Jun 2027 11:33:55.317   01 Jun 2027 11:34:18.932            23.615              Murmansk1           737.969
        43   01 Jun 2027 12:54:03.751   01 Jun 2027 12:55:52.672           108.921                 Moscow          3403.781
        44   01 Jun 2027 12:56:08.464   01 Jun 2027 12:56:47.609            39.145                 Moscow          1223.281
        45   01 Jun 2027 12:57:35.207   01 Jun 2027 13:02:02.658           267.451              Murmansk2          8357.844
        46   01 Jun 2027 13:14:39.624   01 Jun 2027 13:16:54.137           134.513                Anadyr2          4203.531
        47   01 Jun 2027 14:07:53.919   01 Jun 2027 14:10:52.454           178.535               CapeTown          5579.219
        48   01 Jun 2027 14:11:37.126   01 Jun 2027 14:11:38.206             1.080               CapeTown            33.750
        49   01 Jun 2027 14:35:14.562   01 Jun 2027 14:37:07.356           112.794              Murmansk2          3524.813
        50   01 Jun 2027 14:38:27.269   01 Jun 2027 14:39:07.325            40.056              Murmansk1          1251.750
        51   01 Jun 2027 14:48:19.703   01 Jun 2027 14:51:05.272           165.569                Anadyr2          5174.031
        52   01 Jun 2027 14:53:38.454   01 Jun 2027 14:53:48.822            10.368                Anadyr1           324.000
        53   01 Jun 2027 15:43:48.815   01 Jun 2027 15:44:42.716            53.901               CapeTown          1684.406
        54   01 Jun 2027 16:15:29.945   01 Jun 2027 16:18:04.932           154.987              Murmansk2          4843.344
        55   01 Jun 2027 16:24:02.944   01 Jun 2027 16:27:00.602           177.658                Anadyr1          5551.813
        56   01 Jun 2027 16:27:25.465   01 Jun 2027 16:30:18.580           173.115               Magadan1          5409.844
        57   01 Jun 2027 17:59:58.419   01 Jun 2027 18:01:40.296           101.877                Anadyr1          3183.656
        58   01 Jun 2027 18:02:06.241   01 Jun 2027 18:03:48.590           102.349                Anadyr2          3198.406
        59   01 Jun 2027 18:04:09.307   01 Jun 2027 18:05:35.178            85.871               Magadan2          2683.469
        60   01 Jun 2027 18:05:35.178   01 Jun 2027 18:06:37.053            61.875               Magadan1          1933.594
        61   01 Jun 2027 18:14:51.460   01 Jun 2027 18:15:04.437            12.977               Magadan1           405.531
        62   01 Jun 2027 18:55:25.032   01 Jun 2027 18:58:32.286           187.254            RioGallegos          5851.687
        63   01 Jun 2027 19:02:15.258   01 Jun 2027 19:02:38.265            23.007            RioGallegos           718.969
        64   01 Jun 2027 19:35:44.245   01 Jun 2027 19:35:50.723             6.478                Anadyr2           202.437
        65   01 Jun 2027 19:36:08.377   01 Jun 2027 19:37:34.263            85.886                Anadyr2          2683.938
        66   01 Jun 2027 19:37:54.230   01 Jun 2027 19:41:53.873           239.643                Norilsk          7488.844
        67   01 Jun 2027 19:42:31.840   01 Jun 2027 19:43:12.682            40.842                Irkutsk          1276.312
        68   01 Jun 2027 19:44:07.885   01 Jun 2027 19:44:44.285            36.400                Irkutsk          1137.500
        69   01 Jun 2027 19:45:00.912   01 Jun 2027 19:46:05.392            64.480                Irkutsk          2015.000
        70   01 Jun 2027 19:56:56.163   01 Jun 2027 19:57:13.462            17.299                Sumatra           540.594
        71   01 Jun 2027 19:57:18.994   01 Jun 2027 19:59:51.216           152.222                Sumatra          4756.937
        72   01 Jun 2027 20:02:29.083   01 Jun 2027 20:03:45.498            76.415                Sumatra          2387.969
        73   01 Jun 2027 21:14:41.468   01 Jun 2027 21:15:25.423            43.955                Norilsk          1373.594
        74   01 Jun 2027 21:18:05.891   01 Jun 2027 21:21:11.619           185.728                Novosib          5804.000
        75   01 Jun 2027 21:27:02.748   01 Jun 2027 21:29:40.556           157.808                  Delhi          4931.500
        76   01 Jun 2027 21:33:15.784   01 Jun 2027 21:34:45.488            89.704                  Delhi          2803.250
        77   01 Jun 2027 22:52:26.453   01 Jun 2027 22:56:12.855           226.402              Murmansk1          7075.062
        78   01 Jun 2027 22:56:17.499   01 Jun 2027 22:58:57.956           160.457              Murmansk2          5014.281
        79   02 Jun 2027 00:18:05.895   02 Jun 2027 00:18:16.001            10.106                Anadyr2           315.812
        80   02 Jun 2027 00:21:00.678   02 Jun 2027 00:21:11.345            10.667                Anadyr1           333.344
        81   02 Jun 2027 00:23:55.035   02 Jun 2027 00:25:57.723           122.688               Magadan1          3834.000
        82   02 Jun 2027 00:26:28.245   02 Jun 2027 00:27:16.258            48.013               Magadan2          1500.406
        83   02 Jun 2027 00:27:53.095   02 Jun 2027 00:30:13.333           140.238              Murmansk1          4382.437
        84   02 Jun 2027 00:31:30.750   02 Jun 2027 00:33:11.788           101.038                 Moscow          3157.437
        85   02 Jun 2027 00:33:58.604   02 Jun 2027 00:34:18.597            19.993                 Moscow           624.781
        86   02 Jun 2027 00:38:28.677   02 Jun 2027 00:39:02.624            33.947                 Moscow          1060.844
        87   02 Jun 2027 00:56:55.182   02 Jun 2027 00:58:02.823            67.641               CapeTown          2113.781
        88   02 Jun 2027 00:58:43.367   02 Jun 2027 00:59:40.739            57.372               CapeTown          1792.875
        89   02 Jun 2027 01:53:44.235   02 Jun 2027 01:54:16.980            32.745                Anadyr2          1023.281
        90   02 Jun 2027 01:55:33.205   02 Jun 2027 01:56:12.113            38.908               Magadan2          1215.875
        91   02 Jun 2027 01:56:45.903   02 Jun 2027 01:57:38.283            52.380               Magadan2          1636.875
        92   02 Jun 2027 02:00:04.962   02 Jun 2027 02:00:25.270            20.308               Magadan1           634.625
        93   02 Jun 2027 02:01:41.570   02 Jun 2027 02:01:48.499             6.929               Magadan1           216.531
        94   02 Jun 2027 02:03:13.907   02 Jun 2027 02:03:52.701            38.794                Norilsk          1212.312
        95   02 Jun 2027 02:04:29.512   02 Jun 2027 02:05:51.809            82.297              Murmansk2          2571.781
        96   02 Jun 2027 02:06:34.543   02 Jun 2027 02:06:51.882            17.339                Novosib           541.844
        97   02 Jun 2027 02:07:01.999   02 Jun 2027 02:07:52.853            50.854                 Moscow          1589.188
        98   02 Jun 2027 02:14:15.869   02 Jun 2027 02:14:32.408            16.539                 Moscow           516.844
        99   02 Jun 2027 02:16:18.842   02 Jun 2027 02:16:54.901            36.059                 Moscow          1126.844
       100   02 Jun 2027 02:30:59.673   02 Jun 2027 02:31:16.721            17.048               CapeTown           532.750
       101   02 Jun 2027 02:32:57.670   02 Jun 2027 02:33:01.239             3.569               CapeTown           111.531
       102   02 Jun 2027 02:35:30.083   02 Jun 2027 02:35:39.066             8.983               CapeTown           280.719
       103   02 Jun 2027 02:37:44.573   02 Jun 2027 02:39:20.511            95.938               CapeTown          2998.062
       104   02 Jun 2027 03:33:39.289   02 Jun 2027 03:36:08.687           149.398               Magadan1          4668.687
       105   02 Jun 2027 03:36:35.953   02 Jun 2027 03:37:13.803            37.850                Anadyr2          1182.813
       106   02 Jun 2027 03:39:39.730   02 Jun 2027 03:39:52.294            12.564               Magadan2           392.625
       107   02 Jun 2027 05:12:25.554   02 Jun 2027 05:12:40.202            14.648                Anadyr1           457.750
       108   02 Jun 2027 05:12:52.566   02 Jun 2027 05:16:16.170           203.604                Anadyr2          6362.625
       109   02 Jun 2027 05:53:14.501   02 Jun 2027 05:53:27.476            12.975            RioGallegos           405.469
       110   02 Jun 2027 05:56:54.273   02 Jun 2027 05:57:10.776            16.503            RioGallegos           515.719
       111   02 Jun 2027 06:46:39.817   02 Jun 2027 06:46:48.296             8.479               Magadan2           264.969
       112   02 Jun 2027 06:46:57.518   02 Jun 2027 06:47:13.683            16.165                Norilsk           505.156
       113   02 Jun 2027 06:47:19.788   02 Jun 2027 06:50:10.128           170.340                Norilsk          5323.125
       114   02 Jun 2027 06:50:15.659   02 Jun 2027 06:51:21.856            66.197               Magadan1          2068.656
       115   02 Jun 2027 06:51:21.856   02 Jun 2027 06:51:32.984            11.128               Magadan2           347.750
       116   02 Jun 2027 06:51:39.930   02 Jun 2027 06:53:07.936            88.006              Murmansk2          2750.188
       117   02 Jun 2027 06:53:59.470   02 Jun 2027 06:55:02.926            63.456              Murmansk2          1983.000
       118   02 Jun 2027 06:56:12.969   02 Jun 2027 06:56:40.710            27.741              Murmansk1           866.906
       119   02 Jun 2027 07:26:40.242   02 Jun 2027 07:28:19.097            98.855            RioGallegos          3089.219
       120   02 Jun 2027 08:02:39.403   02 Jun 2027 08:03:19.142            39.739                Sumatra          1241.844
       121   02 Jun 2027 08:08:35.596   02 Jun 2027 08:09:20.215            44.619                Sumatra          1394.344
       122   02 Jun 2027 08:23:55.164   02 Jun 2027 08:27:54.430           239.266                Irkutsk          7477.062
       123   02 Jun 2027 09:04:03.720   02 Jun 2027 09:04:17.437            13.717            RioGallegos           428.656
       124   02 Jun 2027 09:05:25.213   02 Jun 2027 09:05:33.303             8.090            RioGallegos           252.813
       125   02 Jun 2027 09:08:54.338   02 Jun 2027 09:09:19.399            25.061            RioGallegos           783.156
       126   02 Jun 2027 09:13:10.346   02 Jun 2027 09:13:15.005             4.659            RioGallegos           145.594
       127   02 Jun 2027 09:13:38.015   02 Jun 2027 09:13:58.834            20.819            RioGallegos           650.594
       128   02 Jun 2027 09:37:55.554   02 Jun 2027 09:39:11.733            76.179                Sumatra          2380.594
       129   02 Jun 2027 09:48:40.675   02 Jun 2027 09:49:46.483            65.808                  Delhi          2056.500
       130   02 Jun 2027 10:00:27.676   02 Jun 2027 10:02:50.257           142.581                Irkutsk          4455.656
       131   02 Jun 2027 10:03:15.190   02 Jun 2027 10:03:55.958            40.768              Murmansk2          1274.000
       132   02 Jun 2027 10:04:18.373   02 Jun 2027 10:04:32.505            14.132                 Moscow           441.625
       133   02 Jun 2027 10:04:50.264   02 Jun 2027 10:05:30.574            40.310                 Moscow          1259.687
       134   02 Jun 2027 11:22:50.673   02 Jun 2027 11:23:19.593            28.920                  Delhi           903.750
       135   02 Jun 2027 11:23:40.664   02 Jun 2027 11:24:00.324            19.660                  Delhi           614.375
       136   02 Jun 2027 11:25:52.159   02 Jun 2027 11:26:24.475            32.316                  Delhi          1009.875
       137   02 Jun 2027 11:36:44.865   02 Jun 2027 11:37:14.000            29.135                Novosib           910.469
       138   02 Jun 2027 11:37:14.007   02 Jun 2027 11:37:36.688            22.681              Murmansk1           708.781
       139   02 Jun 2027 11:37:43.858   02 Jun 2027 11:40:11.452           147.594              Murmansk1          4612.312
       140   02 Jun 2027 11:40:31.636   02 Jun 2027 11:41:40.054            68.418                 Moscow          2138.062
       141   02 Jun 2027 13:06:11.592   02 Jun 2027 13:08:56.393           164.801                 Moscow          5150.031
       142   02 Jun 2027 13:09:42.936   02 Jun 2027 13:13:39.387           236.451              Murmansk2          7389.094
       143   02 Jun 2027 13:14:30.609   02 Jun 2027 13:15:47.874            77.265              Murmansk2          2414.531
       144   02 Jun 2027 13:16:28.018   02 Jun 2027 13:16:54.601            26.583                Norilsk           830.719
       145   02 Jun 2027 13:18:57.502   02 Jun 2027 13:19:38.705            41.203                Norilsk          1287.594
       146   02 Jun 2027 13:25:47.978   02 Jun 2027 13:28:58.767           190.789                Anadyr1          5962.156
       147   02 Jun 2027 13:29:34.069   02 Jun 2027 13:30:27.344            53.275                Anadyr2          1664.844
       148   02 Jun 2027 14:47:38.326   02 Jun 2027 14:47:57.235            18.909              Murmansk1           590.906
       149   02 Jun 2027 14:48:38.931   02 Jun 2027 14:50:28.950           110.019              Murmansk2          3438.094
       150   02 Jun 2027 15:00:17.628   02 Jun 2027 15:03:06.393           168.765                Anadyr1          5273.906
       151   02 Jun 2027 15:56:04.212   02 Jun 2027 15:57:01.535            57.323               CapeTown          1791.344
       152   02 Jun 2027 16:28:23.002   02 Jun 2027 16:31:05.027           162.025              Murmansk1          5063.281
       153   02 Jun 2027 16:32:07.051   02 Jun 2027 16:32:18.233            11.182              Murmansk1           349.437
       154   02 Jun 2027 16:36:04.115   02 Jun 2027 16:37:57.580           113.465                Anadyr2          3545.781
       155   02 Jun 2027 16:38:14.859   02 Jun 2027 16:38:49.826            34.967                Anadyr2          1092.719
       156   02 Jun 2027 16:39:19.850   02 Jun 2027 16:41:40.279           140.429               Magadan2          4388.406
       157   02 Jun 2027 16:44:37.628   02 Jun 2027 16:44:48.049            10.421               Magadan2           325.656
       158   02 Jun 2027 16:45:42.879   02 Jun 2027 16:46:39.425            56.546               Magadan2          1767.062
       159   02 Jun 2027 18:11:59.482   02 Jun 2027 18:17:00.603           301.121                Anadyr1          9410.031
       160   02 Jun 2027 18:17:12.149   02 Jun 2027 18:18:28.068            75.919               Magadan2          2372.469
       161   02 Jun 2027 18:21:15.713   02 Jun 2027 18:21:39.399            23.686               Magadan1           740.188
       162   02 Jun 2027 18:24:35.396   02 Jun 2027 18:25:33.532            58.136               Magadan1          1816.750
       163   02 Jun 2027 19:07:00.207   02 Jun 2027 19:10:21.689           201.482            RioGallegos          6296.312
       164   02 Jun 2027 19:11:57.365   02 Jun 2027 19:13:08.991            71.626            RioGallegos          2238.312
       165   02 Jun 2027 19:50:15.828   02 Jun 2027 19:51:48.619            92.791               Magadan2          2899.719
       166   02 Jun 2027 19:51:59.857   02 Jun 2027 19:53:54.382           114.525                Norilsk          3578.906
       167   02 Jun 2027 19:54:19.430   02 Jun 2027 19:56:39.223           139.793                Irkutsk          4368.531
       168   02 Jun 2027 20:08:25.143   02 Jun 2027 20:11:41.258           196.115                Sumatra          6128.594
       169   02 Jun 2027 20:14:40.541   02 Jun 2027 20:15:12.420            31.879                Sumatra           996.219
       170   02 Jun 2027 21:28:47.739   02 Jun 2027 21:29:28.453            40.714                Norilsk          1272.313
       171   02 Jun 2027 21:29:50.353   02 Jun 2027 21:30:55.502            65.149                Irkutsk          2035.906
       172   02 Jun 2027 21:31:27.127   02 Jun 2027 21:32:28.925            61.798                Novosib          1931.188
       173   02 Jun 2027 21:35:51.757   02 Jun 2027 21:35:52.959             1.202                Novosib            37.563
       174   02 Jun 2027 21:36:59.275   02 Jun 2027 21:37:26.422            27.147                Novosib           848.344
       175   02 Jun 2027 21:38:23.802   02 Jun 2027 21:39:28.280            64.478                  Delhi          2014.937
       176   02 Jun 2027 21:39:57.751   02 Jun 2027 21:41:25.345            87.594                  Delhi          2737.312
       177   02 Jun 2027 21:42:58.235   02 Jun 2027 21:43:38.472            40.237                  Delhi          1257.406
       178   02 Jun 2027 21:44:59.923   02 Jun 2027 21:45:12.806            12.883                  Delhi           402.594
       179   02 Jun 2027 22:57:20.273   02 Jun 2027 22:57:32.802            12.529                Anadyr2           391.531
       180   02 Jun 2027 22:59:48.224   02 Jun 2027 22:59:56.968             8.744                Anadyr1           273.250
       181   02 Jun 2027 23:00:21.155   02 Jun 2027 23:01:47.043            85.888                Anadyr1          2684.000
       182   02 Jun 2027 23:02:01.383   02 Jun 2027 23:02:48.533            47.150                Norilsk          1473.438
       183   02 Jun 2027 23:02:58.066   02 Jun 2027 23:03:08.669            10.603               Magadan1           331.344
       184   02 Jun 2027 23:03:28.527   02 Jun 2027 23:04:12.314            43.787               Magadan1          1368.344
       185   02 Jun 2027 23:04:19.203   02 Jun 2027 23:08:39.764           260.561              Murmansk1          8142.531
       186   02 Jun 2027 23:09:21.497   02 Jun 2027 23:10:56.025            94.528              Murmansk1          2954.000
       187   03 Jun 2027 00:29:49.026   03 Jun 2027 00:30:10.019            20.993                Anadyr2           656.031
       188   03 Jun 2027 00:31:01.584   03 Jun 2027 00:31:11.033             9.449                Anadyr2           295.281
       189   03 Jun 2027 00:31:11.033   03 Jun 2027 00:31:17.604             6.571                Anadyr1           205.344
       190   03 Jun 2027 00:31:46.940   03 Jun 2027 00:32:25.591            38.651                Anadyr1          1207.844
       191   03 Jun 2027 00:32:43.235   03 Jun 2027 00:33:03.723            20.488                Anadyr2           640.250
       192   03 Jun 2027 00:35:16.290   03 Jun 2027 00:35:17.410             1.120                Anadyr1            35.000
       193   03 Jun 2027 00:35:24.930   03 Jun 2027 00:37:45.774           140.844               Magadan1          4401.375
       194   03 Jun 2027 00:38:03.357   03 Jun 2027 00:38:50.980            47.623               Magadan2          1488.219
       195   03 Jun 2027 00:39:53.958   03 Jun 2027 00:41:29.544            95.586              Murmansk1          2987.063
       196   03 Jun 2027 00:42:53.652   03 Jun 2027 00:43:57.290            63.638              Murmansk1          1988.688
       197   03 Jun 2027 00:48:42.178   03 Jun 2027 00:49:44.555            62.377              Murmansk1          1949.281
       198   03 Jun 2027 00:54:19.102   03 Jun 2027 00:54:40.304            21.202                 Moscow           662.563
       199   03 Jun 2027 01:08:22.312   03 Jun 2027 01:08:54.608            32.296               CapeTown          1009.250
       200   03 Jun 2027 01:13:02.050   03 Jun 2027 01:13:46.769            44.719               CapeTown          1397.469
       201   03 Jun 2027 01:15:16.645   03 Jun 2027 01:15:59.714            43.069               CapeTown          1345.906
       202   03 Jun 2027 01:18:29.258   03 Jun 2027 01:19:19.321            50.063               CapeTown          1564.469
       203   03 Jun 2027 02:05:45.556   03 Jun 2027 02:05:59.534            13.978                Anadyr2           436.813
       204   03 Jun 2027 02:06:20.345   03 Jun 2027 02:06:30.546            10.201                Anadyr2           318.781
       205   03 Jun 2027 02:07:05.391   03 Jun 2027 02:08:12.146            66.755               Magadan1          2086.094
       206   03 Jun 2027 02:09:49.811   03 Jun 2027 02:09:56.067             6.256               Magadan1           195.500
       207   03 Jun 2027 02:10:43.467   03 Jun 2027 02:10:59.401            15.934               Magadan2           497.938
       208   03 Jun 2027 02:12:26.647   03 Jun 2027 02:12:58.261            31.614               Magadan1           987.938
       209   03 Jun 2027 02:15:02.593   03 Jun 2027 02:15:06.591             3.998                Norilsk           124.937
       210   03 Jun 2027 02:15:09.797   03 Jun 2027 02:15:37.712            27.915                Norilsk           872.344
       211   03 Jun 2027 02:15:51.332   03 Jun 2027 02:17:10.904            79.572              Murmansk2          2486.625
       212   03 Jun 2027 02:17:56.732   03 Jun 2027 02:18:33.721            36.989              Murmansk2          1155.906
       213   03 Jun 2027 02:22:37.374   03 Jun 2027 02:22:51.149            13.775                Novosib           430.469
       214   03 Jun 2027 02:24:06.183   03 Jun 2027 02:24:31.268            25.085              Murmansk2           783.906
       215   03 Jun 2027 02:26:00.149   03 Jun 2027 02:27:08.739            68.590                 Moscow          2143.438
       216   03 Jun 2027 02:48:54.059   03 Jun 2027 02:49:28.972            34.913               CapeTown          1091.031
       217   03 Jun 2027 02:52:04.199   03 Jun 2027 02:52:58.055            53.856               CapeTown          1683.000
       218   03 Jun 2027 03:45:40.054   03 Jun 2027 03:46:46.168            66.114               Magadan1          2066.063
       219   03 Jun 2027 03:46:58.041   03 Jun 2027 03:47:01.415             3.374               Magadan2           105.437
       220   03 Jun 2027 03:47:01.415   03 Jun 2027 03:47:39.097            37.682               Magadan1          1177.563
       221   03 Jun 2027 03:47:39.097   03 Jun 2027 03:48:09.128            30.031               Magadan2           938.469
       222   03 Jun 2027 03:48:12.048   03 Jun 2027 03:48:42.146            30.098               Magadan1           940.562
       223   03 Jun 2027 03:48:47.695   03 Jun 2027 03:49:26.240            38.545                Anadyr2          1204.531
       224   03 Jun 2027 03:49:59.493   03 Jun 2027 03:50:24.576            25.083               Magadan2           783.844
       225   03 Jun 2027 03:50:58.651   03 Jun 2027 03:51:54.174            55.523               Magadan2          1735.094
       226   03 Jun 2027 03:52:14.661   03 Jun 2027 03:52:14.851             0.190               Magadan1             5.938
       227   03 Jun 2027 05:24:26.609   03 Jun 2027 05:26:40.187           133.578               Magadan2          4174.313
       228   03 Jun 2027 05:26:40.187   03 Jun 2027 05:27:00.055            19.868               Magadan1           620.875
       229   03 Jun 2027 05:27:20.234   03 Jun 2027 05:28:12.868            52.634               Magadan1          1644.813
       230   03 Jun 2027 06:58:57.699   03 Jun 2027 06:59:27.106            29.407               Magadan2           918.969
       231   03 Jun 2027 06:59:55.131   03 Jun 2027 07:00:08.482            13.351               Magadan2           417.219
       232   03 Jun 2027 07:00:14.351   03 Jun 2027 07:00:48.400            34.049                Norilsk          1064.031
       233   03 Jun 2027 07:01:14.917   03 Jun 2027 07:03:48.388           153.471                Irkutsk          4795.969
       234   03 Jun 2027 07:03:50.144   03 Jun 2027 07:05:33.583           103.439              Murmansk2          3232.469
       235   03 Jun 2027 07:05:33.583   03 Jun 2027 07:08:05.058           151.475              Murmansk1          4733.594
       236   03 Jun 2027 07:12:48.959   03 Jun 2027 07:12:52.878             3.919              Murmansk2           122.469
       237   03 Jun 2027 07:38:37.330   03 Jun 2027 07:41:02.914           145.584            RioGallegos          4549.500
       238   03 Jun 2027 07:42:17.813   03 Jun 2027 07:42:48.024            30.211            RioGallegos           944.094
       239   03 Jun 2027 08:14:13.056   03 Jun 2027 08:16:02.310           109.254                Sumatra          3414.188
       240   03 Jun 2027 08:29:05.333   03 Jun 2027 08:29:14.411             9.078                  Delhi           283.688
       241   03 Jun 2027 08:35:13.690   03 Jun 2027 08:35:52.162            38.472                Irkutsk          1202.250
       242   03 Jun 2027 08:36:29.657   03 Jun 2027 08:40:14.088           224.431                Novosib          7013.469
       243   03 Jun 2027 09:16:09.800   03 Jun 2027 09:16:26.521            16.721            RioGallegos           522.531
       244   03 Jun 2027 09:17:38.441   03 Jun 2027 09:18:06.305            27.864            RioGallegos           870.750
       245   03 Jun 2027 09:50:21.532   03 Jun 2027 09:51:08.796            47.264                Sumatra          1477.000
       246   03 Jun 2027 09:53:30.496   03 Jun 2027 09:54:02.874            32.378                Sumatra          1011.812
       247   03 Jun 2027 09:59:18.611   03 Jun 2027 10:00:05.687            47.076                  Delhi          1471.125
       248   03 Jun 2027 10:01:26.631   03 Jun 2027 10:01:49.184            22.553                  Delhi           704.781
       249   03 Jun 2027 10:11:58.290   03 Jun 2027 10:12:05.683             7.393                Irkutsk           231.031
       250   03 Jun 2027 10:12:21.797   03 Jun 2027 10:13:10.781            48.984                Novosib          1530.750
       251   03 Jun 2027 10:13:11.506   03 Jun 2027 10:13:38.664            27.158                Irkutsk           848.687
       252   03 Jun 2027 10:13:47.655   03 Jun 2027 10:14:37.178            49.523                Irkutsk          1547.594
       253   03 Jun 2027 10:14:48.444   03 Jun 2027 10:14:52.813             4.369                Novosib           136.531
       254   03 Jun 2027 10:14:53.154   03 Jun 2027 10:15:21.367            28.213                Norilsk           881.656
       255   03 Jun 2027 10:15:23.399   03 Jun 2027 10:16:52.590            89.191                Norilsk          2787.219
       256   03 Jun 2027 10:17:05.645   03 Jun 2027 10:17:20.116            14.471                Novosib           452.219
       257   03 Jun 2027 11:35:31.564   03 Jun 2027 11:37:36.603           125.039                  Delhi          3907.469
       258   03 Jun 2027 11:38:28.497   03 Jun 2027 11:39:58.733            90.236                  Delhi          2819.875
       259   03 Jun 2027 11:47:23.133   03 Jun 2027 11:47:30.657             7.524                Novosib           235.125
       260   03 Jun 2027 11:47:35.154   03 Jun 2027 11:48:11.709            36.555              Murmansk1          1142.344
       261   03 Jun 2027 11:48:19.342   03 Jun 2027 11:48:27.297             7.955                Novosib           248.594
       262   03 Jun 2027 11:48:36.331   03 Jun 2027 11:49:29.970            53.639                 Moscow          1676.219
       263   03 Jun 2027 11:49:33.600   03 Jun 2027 11:50:02.383            28.783                 Moscow           899.469
       264   03 Jun 2027 11:50:25.668   03 Jun 2027 11:50:49.761            24.093                 Moscow           752.906
       265   03 Jun 2027 11:50:52.275   03 Jun 2027 11:51:59.671            67.396                 Moscow          2106.125
       266   03 Jun 2027 13:00:43.655   03 Jun 2027 13:01:13.352            29.697               CapeTown           928.031
       267   03 Jun 2027 13:01:42.278   03 Jun 2027 13:02:21.334            39.056               CapeTown          1220.500
       268   03 Jun 2027 13:18:22.653   03 Jun 2027 13:19:45.255            82.602                 Moscow          2581.312
       269   03 Jun 2027 13:21:52.428   03 Jun 2027 13:25:34.717           222.289              Murmansk1          6946.531
       270   03 Jun 2027 13:26:58.812   03 Jun 2027 13:27:48.066            49.254              Murmansk1          1539.188
       271   03 Jun 2027 13:28:30.105   03 Jun 2027 13:28:57.351            27.246              Murmansk1           851.437
       272   03 Jun 2027 13:30:07.118   03 Jun 2027 13:30:27.375            20.257              Murmansk1           633.031
       273   03 Jun 2027 13:30:39.128   03 Jun 2027 13:31:26.560            47.432              Murmansk1          1482.250
       274   03 Jun 2027 13:37:22.890   03 Jun 2027 13:41:06.030           223.140                Anadyr2          6973.125
       275   03 Jun 2027 14:40:09.196   03 Jun 2027 14:41:09.443            60.247               CapeTown          1882.719
       276   03 Jun 2027 15:00:04.527   03 Jun 2027 15:00:40.797            36.270              Murmansk2          1133.438
       277   03 Jun 2027 15:00:46.291   03 Jun 2027 15:01:01.578            15.287              Murmansk2           477.719
       278   03 Jun 2027 15:02:46.470   03 Jun 2027 15:04:27.154           100.684              Murmansk1          3146.375
       279   03 Jun 2027 15:12:16.319   03 Jun 2027 15:13:53.859            97.540                Anadyr2          3048.125
       280   03 Jun 2027 15:14:09.483   03 Jun 2027 15:14:16.917             7.434                Anadyr2           232.313
       281   03 Jun 2027 15:15:48.220   03 Jun 2027 15:17:09.308            81.088                Anadyr2          2534.000
       282   03 Jun 2027 15:23:43.191   03 Jun 2027 15:23:47.402             4.211                Anadyr1           131.594
       283   03 Jun 2027 16:41:26.817   03 Jun 2027 16:44:34.103           187.286              Murmansk1          5852.688
       284   03 Jun 2027 16:48:05.396   03 Jun 2027 16:49:52.819           107.423                Anadyr1          3356.969
       285   03 Jun 2027 16:50:13.548   03 Jun 2027 16:50:52.074            38.526                Anadyr1          1203.937
       286   03 Jun 2027 16:51:24.595   03 Jun 2027 16:53:16.074           111.479               Magadan2          3483.719
       287   03 Jun 2027 16:57:26.030   03 Jun 2027 16:57:44.679            18.649               Magadan2           582.781
       288   03 Jun 2027 16:59:11.257   03 Jun 2027 17:00:52.231           100.974               Magadan2          3155.438
       289   03 Jun 2027 18:24:00.363   03 Jun 2027 18:26:40.348           159.985                Anadyr1          4999.531
       290   03 Jun 2027 18:27:13.074   03 Jun 2027 18:29:44.497           151.423                Norilsk          4731.969
       291   03 Jun 2027 19:18:42.283   03 Jun 2027 19:22:13.743           211.460            RioGallegos          6608.125
       292   03 Jun 2027 19:24:02.591   03 Jun 2027 19:25:00.410            57.819            RioGallegos          1806.844
       293   03 Jun 2027 20:02:18.438   03 Jun 2027 20:03:22.059            63.621               Magadan1          1988.156
       294   03 Jun 2027 20:05:46.251   03 Jun 2027 20:06:10.927            24.676               Magadan1           771.125
       295   03 Jun 2027 20:06:26.489   03 Jun 2027 20:09:12.273           165.784                Irkutsk          5180.750
       296   03 Jun 2027 20:09:19.930   03 Jun 2027 20:11:24.429           124.499                Novosib          3890.594
       297   03 Jun 2027 20:20:02.924   03 Jun 2027 20:21:11.186            68.262                Sumatra          2133.188
       298   03 Jun 2027 20:22:13.618   03 Jun 2027 20:23:37.098            83.480                Sumatra          2608.750
       299   03 Jun 2027 21:38:55.939   03 Jun 2027 21:39:27.589            31.650                Norilsk           989.062
       300   03 Jun 2027 21:41:38.659   03 Jun 2027 21:42:39.570            60.911                Irkutsk          1903.469
       301   03 Jun 2027 21:43:06.918   03 Jun 2027 21:44:39.603            92.685                Novosib          2896.406
       302   03 Jun 2027 21:49:56.209   03 Jun 2027 21:53:14.898           198.689                  Delhi          6209.031
       303   03 Jun 2027 23:10:18.888   03 Jun 2027 23:10:29.216            10.328                Anadyr1           322.750
       304   03 Jun 2027 23:10:41.190   03 Jun 2027 23:10:53.355            12.165                Anadyr1           380.156
       305   03 Jun 2027 23:14:02.797   03 Jun 2027 23:15:40.315            97.518               Magadan2          3047.438
       306   03 Jun 2027 23:15:40.315   03 Jun 2027 23:16:03.140            22.825               Magadan1           713.281
       307   03 Jun 2027 23:16:14.327   03 Jun 2027 23:20:59.784           285.457              Murmansk1          8920.531
       308   03 Jun 2027 23:21:42.213   03 Jun 2027 23:22:22.632            40.419                 Moscow          1263.094
       309   04 Jun 2027 00:41:33.035   04 Jun 2027 00:41:38.528             5.493                Anadyr2           171.656
       310   04 Jun 2027 00:42:56.520   04 Jun 2027 00:43:16.744            20.224                Anadyr1           632.000
       311   04 Jun 2027 00:43:16.744   04 Jun 2027 00:43:32.948            16.204                Anadyr2           506.375
       312   04 Jun 2027 00:45:09.765   04 Jun 2027 00:45:29.092            19.327                Anadyr1           603.969
       313   04 Jun 2027 00:46:53.571   04 Jun 2027 00:48:30.230            96.659               Magadan2          3020.594
       314   04 Jun 2027 00:48:54.361   04 Jun 2027 00:49:24.450            30.089               Magadan2           940.281
       315   04 Jun 2027 00:49:48.011   04 Jun 2027 00:50:10.655            22.644               Magadan2           707.625
       316   04 Jun 2027 00:50:39.325   04 Jun 2027 00:51:14.909            35.584               Magadan1          1112.000
       317   04 Jun 2027 00:51:55.089   04 Jun 2027 00:53:40.171           105.082              Murmansk1          3283.812
       318   04 Jun 2027 00:53:51.709   04 Jun 2027 00:54:55.249            63.540              Murmansk2          1985.625
       319   04 Jun 2027 01:01:55.217   04 Jun 2027 01:02:05.148             9.931                 Moscow           310.344
       320   04 Jun 2027 01:02:22.001   04 Jun 2027 01:02:35.399            13.398                 Moscow           418.687
       321   04 Jun 2027 01:05:02.613   04 Jun 2027 01:05:10.839             8.226                 Moscow           257.062
       322   04 Jun 2027 01:07:06.903   04 Jun 2027 01:07:21.620            14.717                 Moscow           459.906
       323   04 Jun 2027 01:19:56.376   04 Jun 2027 01:20:55.676            59.300               CapeTown          1853.125
       324   04 Jun 2027 01:21:47.936   04 Jun 2027 01:22:31.910            43.974               CapeTown          1374.188
       325   04 Jun 2027 01:30:29.060   04 Jun 2027 01:31:32.534            63.474               CapeTown          1983.563
       326   04 Jun 2027 02:16:49.831   04 Jun 2027 02:17:01.818            11.987                Anadyr1           374.594
       327   04 Jun 2027 02:17:46.816   04 Jun 2027 02:18:11.934            25.118                Anadyr1           784.938
       328   04 Jun 2027 02:18:39.010   04 Jun 2027 02:18:57.148            18.138               Magadan1           566.813
       329   04 Jun 2027 02:19:42.153   04 Jun 2027 02:20:07.452            25.299               Magadan2           790.594
       330   04 Jun 2027 02:21:06.714   04 Jun 2027 02:21:21.792            15.078               Magadan1           471.187
       331   04 Jun 2027 02:22:15.065   04 Jun 2027 02:22:43.179            28.114               Magadan2           878.562
       332   04 Jun 2027 02:25:01.290   04 Jun 2027 02:25:46.831            45.541                Norilsk          1423.156
       333   04 Jun 2027 02:27:53.000   04 Jun 2027 02:29:04.515            71.515              Murmansk2          2234.844
       334   04 Jun 2027 02:29:48.653   04 Jun 2027 02:29:59.063            10.410              Murmansk1           325.312
       335   04 Jun 2027 02:31:06.169   04 Jun 2027 02:31:23.609            17.440                 Moscow           545.000
       336   04 Jun 2027 02:32:35.558   04 Jun 2027 02:33:25.343            49.785                Novosib          1555.781
       337   04 Jun 2027 02:39:59.437   04 Jun 2027 02:40:42.909            43.472                 Moscow          1358.500
       338   04 Jun 2027 02:57:27.444   04 Jun 2027 02:57:52.890            25.446               CapeTown           795.188
       339   04 Jun 2027 03:03:44.006   04 Jun 2027 03:04:47.315            63.309               CapeTown          1978.406
       340   04 Jun 2027 03:58:30.759   04 Jun 2027 03:58:48.212            17.453               Magadan2           545.406
       341   04 Jun 2027 03:59:03.248   04 Jun 2027 04:01:22.482           139.234                Anadyr2          4351.063
       342   04 Jun 2027 04:01:22.482   04 Jun 2027 04:01:26.387             3.905                Anadyr1           122.031
       343   04 Jun 2027 04:01:30.850   04 Jun 2027 04:02:58.267            87.417                Anadyr2          2731.781
       344   04 Jun 2027 04:03:07.059   04 Jun 2027 04:04:30.263            83.204                Anadyr2          2600.125
       345   04 Jun 2027 05:36:22.529   04 Jun 2027 05:39:15.074           172.545                Anadyr1          5392.031
       346   04 Jun 2027 05:39:15.074   04 Jun 2027 05:40:07.555            52.481                Anadyr2          1640.031
       347   04 Jun 2027 07:10:42.746   04 Jun 2027 07:11:42.947            60.201                Novosib          1881.281
       348   04 Jun 2027 07:11:50.847   04 Jun 2027 07:12:46.141            55.294               Magadan2          1727.938
       349   04 Jun 2027 07:13:13.631   04 Jun 2027 07:13:51.284            37.653                Novosib          1176.656
       350   04 Jun 2027 07:13:58.560   04 Jun 2027 07:15:25.921            87.361               Magadan2          2730.031
       351   04 Jun 2027 07:15:29.569   04 Jun 2027 07:15:37.997             8.428                Norilsk           263.375
       352   04 Jun 2027 07:15:38.747   04 Jun 2027 07:16:29.444            50.697                Norilsk          1584.281
       353   04 Jun 2027 07:16:45.443   04 Jun 2027 07:17:24.719            39.276              Murmansk2          1227.375
       354   04 Jun 2027 07:19:35.184   04 Jun 2027 07:19:39.295             4.111                Norilsk           128.469
       355   04 Jun 2027 07:20:06.269   04 Jun 2027 07:20:11.103             4.834              Murmansk2           151.062
       356   04 Jun 2027 07:20:16.357   04 Jun 2027 07:20:53.789            37.432                Norilsk          1169.750
       357   04 Jun 2027 07:23:48.272   04 Jun 2027 07:24:07.768            19.496              Murmansk1           609.250
       358   04 Jun 2027 07:50:37.673   04 Jun 2027 07:51:28.008            50.335            RioGallegos          1572.969
       359   04 Jun 2027 07:52:19.903   04 Jun 2027 07:52:55.226            35.323            RioGallegos          1103.844
       360   04 Jun 2027 07:53:23.354   04 Jun 2027 07:53:40.049            16.695            RioGallegos           521.719
       361   04 Jun 2027 07:53:55.576   04 Jun 2027 07:54:58.136            62.560            RioGallegos          1955.000
       362   04 Jun 2027 08:25:54.567   04 Jun 2027 08:27:05.612            71.045                Sumatra          2220.156
       363   04 Jun 2027 08:28:22.964   04 Jun 2027 08:29:37.112            74.148                Sumatra          2317.125
       364   04 Jun 2027 08:41:25.945   04 Jun 2027 08:42:32.675            66.730                  Delhi          2085.313
       365   04 Jun 2027 08:45:47.511   04 Jun 2027 08:45:51.730             4.219                Irkutsk           131.844
       366   04 Jun 2027 08:46:12.076   04 Jun 2027 08:47:19.363            67.287                Norilsk          2102.719
       367   04 Jun 2027 08:47:24.272   04 Jun 2027 08:47:41.949            17.677                Norilsk           552.406
       368   04 Jun 2027 08:47:58.494   04 Jun 2027 08:48:29.510            31.016                Irkutsk           969.250
       369   04 Jun 2027 08:48:33.158   04 Jun 2027 08:49:32.292            59.134              Murmansk2          1847.937
       370   04 Jun 2027 08:49:37.473   04 Jun 2027 08:49:50.723            13.250              Murmansk2           414.063
       371   04 Jun 2027 08:49:50.723   04 Jun 2027 08:50:47.395            56.672              Murmansk1          1771.000
       372   04 Jun 2027 08:50:54.702   04 Jun 2027 08:50:55.348             0.646                Novosib            20.187
       373   04 Jun 2027 08:51:04.329   04 Jun 2027 08:51:25.288            20.959                Norilsk           654.969
       374   04 Jun 2027 08:51:28.864   04 Jun 2027 08:51:52.755            23.891                Irkutsk           746.594
       375   04 Jun 2027 08:52:10.357   04 Jun 2027 08:52:48.661            38.304                Norilsk          1197.000
       376   04 Jun 2027 09:28:44.816   04 Jun 2027 09:29:05.406            20.590            RioGallegos           643.438
       377   04 Jun 2027 09:29:42.697   04 Jun 2027 09:30:13.334            30.637            RioGallegos           957.406
       378   04 Jun 2027 09:31:25.570   04 Jun 2027 09:31:33.351             7.781            RioGallegos           243.156
       379   04 Jun 2027 09:32:07.842   04 Jun 2027 09:32:43.939            36.097            RioGallegos          1128.031
       380   04 Jun 2027 10:02:58.470   04 Jun 2027 10:03:06.237             7.767                Sumatra           242.719
       381   04 Jun 2027 10:06:17.145   04 Jun 2027 10:06:46.273            29.128                Sumatra           910.250
       382   04 Jun 2027 10:12:55.817   04 Jun 2027 10:13:47.367            51.550                  Delhi          1610.938
       383   04 Jun 2027 10:23:46.880   04 Jun 2027 10:23:55.571             8.691                 Moscow           271.594
       384   04 Jun 2027 10:24:06.460   04 Jun 2027 10:24:11.326             4.866                Novosib           152.062
       385   04 Jun 2027 10:24:13.066   04 Jun 2027 10:25:09.158            56.092              Murmansk2          1752.875
       386   04 Jun 2027 10:25:15.303   04 Jun 2027 10:25:30.365            15.062              Murmansk1           470.687
       387   04 Jun 2027 10:25:36.218   04 Jun 2027 10:25:54.545            18.327                Irkutsk           572.719
       388   04 Jun 2027 10:26:04.287   04 Jun 2027 10:27:03.967            59.680              Murmansk2          1865.000
       389   04 Jun 2027 10:27:08.628   04 Jun 2027 10:27:19.625            10.997              Murmansk1           343.656
       390   04 Jun 2027 10:27:19.625   04 Jun 2027 10:27:57.914            38.289              Murmansk2          1196.531
       391   04 Jun 2027 11:48:28.325   04 Jun 2027 11:50:49.260           140.935                  Delhi          4404.219
       392   04 Jun 2027 11:59:15.666   04 Jun 2027 12:00:04.830            49.164              Murmansk2          1536.375
       393   04 Jun 2027 12:00:31.751   04 Jun 2027 12:00:45.727            13.976                Novosib           436.750
       394   04 Jun 2027 12:01:31.759   04 Jun 2027 12:01:54.561            22.802                 Moscow           712.562
       395   04 Jun 2027 12:02:32.847   04 Jun 2027 12:02:56.486            23.639                 Moscow           738.719
       396   04 Jun 2027 12:03:01.102   04 Jun 2027 12:03:29.949            28.847                Novosib           901.469
       397   04 Jun 2027 12:04:31.290   04 Jun 2027 12:05:37.050            65.760                 Moscow          2055.000
       398   04 Jun 2027 12:06:43.267   04 Jun 2027 12:07:01.536            18.269                Norilsk           570.906
       399   04 Jun 2027 12:07:47.325   04 Jun 2027 12:08:20.533            33.208              Murmansk2          1037.750
       400   04 Jun 2027 13:10:37.540   04 Jun 2027 13:12:46.086           128.546               CapeTown          4017.062
       401   04 Jun 2027 13:16:09.211   04 Jun 2027 13:16:45.916            36.705               CapeTown          1147.031
       402   04 Jun 2027 13:30:37.142   04 Jun 2027 13:30:54.923            17.781                 Moscow           555.656
       403   04 Jun 2027 13:31:12.920   04 Jun 2027 13:31:15.764             2.844                 Moscow            88.875
       404   04 Jun 2027 13:31:26.455   04 Jun 2027 13:31:45.769            19.314                 Moscow           603.562
       405   04 Jun 2027 13:34:03.732   04 Jun 2027 13:36:46.910           163.178              Murmansk2          5099.312
       406   04 Jun 2027 13:38:33.846   04 Jun 2027 13:38:35.578             1.732              Murmansk1            54.125
       407   04 Jun 2027 13:38:58.247   04 Jun 2027 13:39:05.749             7.502              Murmansk1           234.437
       408   04 Jun 2027 13:40:58.766   04 Jun 2027 13:41:54.379            55.613              Murmansk2          1737.906
       409   04 Jun 2027 13:45:56.046   04 Jun 2027 13:46:21.993            25.947              Murmansk2           810.844
       410   04 Jun 2027 13:49:06.861   04 Jun 2027 13:51:17.745           130.884                Anadyr1          4090.125
       411   04 Jun 2027 13:52:15.813   04 Jun 2027 13:53:24.118            68.305                Anadyr2          2134.531
       412   04 Jun 2027 15:11:31.624   04 Jun 2027 15:11:45.088            13.464                 Moscow           420.750
       413   04 Jun 2027 15:12:33.311   04 Jun 2027 15:13:01.741            28.430              Murmansk2           888.437
       414   04 Jun 2027 15:13:01.741   04 Jun 2027 15:13:33.207            31.466              Murmansk1           983.313
       415   04 Jun 2027 15:16:29.058   04 Jun 2027 15:16:42.530            13.472              Murmansk1           421.000
       416   04 Jun 2027 15:16:50.637   04 Jun 2027 15:18:11.413            80.776              Murmansk1          2524.250
       417   04 Jun 2027 15:24:15.624   04 Jun 2027 15:25:12.984            57.360                Anadyr1          1792.500
       418   04 Jun 2027 15:26:02.534   04 Jun 2027 15:26:13.185            10.651                Anadyr1           332.844
       419   04 Jun 2027 15:26:20.250   04 Jun 2027 15:26:29.012             8.762                Anadyr1           273.812
       420   04 Jun 2027 15:29:04.592   04 Jun 2027 15:29:56.209            51.617                Anadyr1          1613.031
       421   04 Jun 2027 15:31:22.412   04 Jun 2027 15:32:10.680            48.268               Magadan2          1508.375
       422   04 Jun 2027 16:55:06.891   04 Jun 2027 16:56:14.534            67.643              Murmansk2          2113.844
       423   04 Jun 2027 17:00:06.763   04 Jun 2027 17:02:42.306           155.543                Anadyr1          4860.719
       424   04 Jun 2027 17:03:02.941   04 Jun 2027 17:03:51.691            48.750                Anadyr2          1523.437
       425   04 Jun 2027 17:04:12.327   04 Jun 2027 17:05:00.441            48.114               Magadan2          1503.562
       426   04 Jun 2027 17:07:17.110   04 Jun 2027 17:07:36.225            19.115               Magadan2           597.344
       427   04 Jun 2027 17:07:50.155   04 Jun 2027 17:08:26.697            36.542               Magadan2          1141.937
       428   04 Jun 2027 17:09:14.151   04 Jun 2027 17:09:28.728            14.577               Magadan1           455.531
       429   04 Jun 2027 17:09:46.703   04 Jun 2027 17:10:52.527            65.824               Magadan1          2057.000
       430   04 Jun 2027 18:36:01.021   04 Jun 2027 18:39:42.231           221.210                Anadyr2          6912.813
       431   04 Jun 2027 18:39:48.138   04 Jun 2027 18:41:38.296           110.158               Magadan1          3442.437
       432   04 Jun 2027 18:42:36.729   04 Jun 2027 18:42:57.433            20.704                Norilsk           647.000
       433   04 Jun 2027 18:50:08.847   04 Jun 2027 18:50:27.776            18.929               Magadan2           591.531
       434   04 Jun 2027 19:30:28.936   04 Jun 2027 19:34:07.904           218.968            RioGallegos          6842.750
       435   04 Jun 2027 20:13:20.306   04 Jun 2027 20:13:32.835            12.529                Anadyr2           391.531
       436   04 Jun 2027 20:13:52.720   04 Jun 2027 20:14:37.417            44.697                Norilsk          1396.781
       437   04 Jun 2027 20:14:37.977   04 Jun 2027 20:14:50.131            12.154                Norilsk           379.813
       438   04 Jun 2027 20:14:58.888   04 Jun 2027 20:15:23.955            25.067               Magadan1           783.344
       439   04 Jun 2027 20:16:00.726   04 Jun 2027 20:16:51.687            50.961                Norilsk          1592.531
       440   04 Jun 2027 20:17:44.105   04 Jun 2027 20:18:45.073            60.968                Norilsk          1905.250
       441   04 Jun 2027 20:19:20.408   04 Jun 2027 20:19:31.597            11.189                Norilsk           349.656
       442   04 Jun 2027 20:20:00.878   04 Jun 2027 20:21:49.221           108.343                Novosib          3385.719
       443   04 Jun 2027 20:21:54.746   04 Jun 2027 20:22:46.875            52.129                Novosib          1629.031
       444   04 Jun 2027 20:31:47.857   04 Jun 2027 20:33:36.625           108.768                Sumatra          3399.000
       445   04 Jun 2027 20:34:30.549   04 Jun 2027 20:35:38.527            67.978                Sumatra          2124.313
       446   04 Jun 2027 21:50:26.409   04 Jun 2027 21:51:30.834            64.425               Magadan2          2013.281
       447   04 Jun 2027 21:53:41.128   04 Jun 2027 21:55:24.500           103.372                Irkutsk          3230.375
       448   04 Jun 2027 21:59:44.194   04 Jun 2027 22:00:07.383            23.189                Novosib           724.656
       449   04 Jun 2027 22:01:36.248   04 Jun 2027 22:05:08.477           212.229                  Delhi          6632.156
       450   04 Jun 2027 23:22:11.042   04 Jun 2027 23:22:46.870            35.828                Anadyr2          1119.625
       451   04 Jun 2027 23:25:53.815   04 Jun 2027 23:26:44.711            50.896               Magadan1          1590.500
       452   04 Jun 2027 23:26:44.711   04 Jun 2027 23:27:56.522            71.811               Magadan2          2244.094
       453   04 Jun 2027 23:28:11.104   04 Jun 2027 23:30:31.324           140.220              Murmansk2          4381.875
       454   04 Jun 2027 23:30:58.730   04 Jun 2027 23:32:08.685            69.955              Murmansk1          2186.094
       455   04 Jun 2027 23:33:01.062   04 Jun 2027 23:34:19.809            78.747                 Moscow          2460.844
       456   04 Jun 2027 23:35:55.170   04 Jun 2027 23:36:48.539            53.369                 Moscow          1667.781
       457   04 Jun 2027 23:38:37.496   04 Jun 2027 23:38:49.344            11.848                 Moscow           370.250
       458   05 Jun 2027 00:53:18.058   05 Jun 2027 00:53:23.034             4.976                Anadyr2           155.500
       459   05 Jun 2027 00:56:05.336   05 Jun 2027 00:56:06.599             1.263                Anadyr2            39.469
       460   05 Jun 2027 00:58:21.620   05 Jun 2027 00:59:28.642            67.022               Magadan1          2094.437
       461   05 Jun 2027 00:59:36.164   05 Jun 2027 01:00:19.193            43.029               Magadan2          1344.656
       462   05 Jun 2027 01:00:24.345   05 Jun 2027 01:00:53.268            28.923               Magadan2           903.844
       463   05 Jun 2027 01:01:35.622   05 Jun 2027 01:01:37.938             2.316                Norilsk            72.375
       464   05 Jun 2027 01:01:48.019   05 Jun 2027 01:02:54.907            66.888               Magadan2          2090.250
       465   05 Jun 2027 01:03:56.424   05 Jun 2027 01:04:17.467            21.043              Murmansk1           657.594
       466   05 Jun 2027 01:05:05.440   05 Jun 2027 01:06:12.305            66.865              Murmansk2          2089.531
       467   05 Jun 2027 01:07:17.976   05 Jun 2027 01:07:25.064             7.088                 Moscow           221.500
       468   05 Jun 2027 01:08:00.738   05 Jun 2027 01:09:09.130            68.392                 Moscow          2137.250
       469   05 Jun 2027 01:31:36.477   05 Jun 2027 01:32:53.954            77.477               CapeTown          2421.156
       470   05 Jun 2027 01:39:31.031   05 Jun 2027 01:39:36.356             5.325               CapeTown           166.406
       471   05 Jun 2027 01:41:52.124   05 Jun 2027 01:42:24.989            32.865               CapeTown          1027.031
       472   05 Jun 2027 02:27:51.504   05 Jun 2027 02:28:49.404            57.900                Anadyr2          1809.375
       473   05 Jun 2027 02:29:27.408   05 Jun 2027 02:29:47.969            20.561                Anadyr2           642.531
       474   05 Jun 2027 02:29:47.969   05 Jun 2027 02:29:59.331            11.362                Anadyr1           355.063
       475   05 Jun 2027 02:30:14.174   05 Jun 2027 02:31:13.433            59.259               Magadan2          1851.844
       476   05 Jun 2027 02:32:37.720   05 Jun 2027 02:32:52.419            14.699               Magadan2           459.344
       477   05 Jun 2027 02:35:05.138   05 Jun 2027 02:35:23.621            18.483               Magadan1           577.594
       478   05 Jun 2027 02:36:52.217   05 Jun 2027 02:37:40.167            47.950               Magadan1          1498.438
       479   05 Jun 2027 02:39:54.589   05 Jun 2027 02:40:57.373            62.784              Murmansk2          1962.000
       480   05 Jun 2027 02:41:09.462   05 Jun 2027 02:41:32.195            22.733              Murmansk1           710.406
       481   05 Jun 2027 02:43:23.564   05 Jun 2027 02:43:27.215             3.651                 Moscow           114.094
       482   05 Jun 2027 02:43:54.076   05 Jun 2027 02:44:28.736            34.660                 Moscow          1083.125
