uniorb/output/strategy_1/Drop/Drop_KinoSat_110405.txt

KinoSat_110405
-------------------------
    Access    *     Start Time (UTCG)     *     Stop Time (UTCG)  *   Duration (s)        *       Station  *  Data (Mbytes)
         1   01 Jun 2027 03:52:50.263   01 Jun 2027 03:53:35.042            44.779               Magadan2          5597.375
         2   01 Jun 2027 03:53:35.042   01 Jun 2027 03:54:12.440            37.398               Magadan1          4674.750
         3   01 Jun 2027 03:54:36.146   01 Jun 2027 03:55:05.690            29.544               Magadan1          3693.000
         4   01 Jun 2027 03:55:11.665   01 Jun 2027 03:55:41.456            29.791                Anadyr2          3723.875
         5   01 Jun 2027 03:55:41.780   01 Jun 2027 03:57:17.941            96.161                Irkutsk         12020.125
         6   01 Jun 2027 03:57:52.722   01 Jun 2027 03:58:07.571            14.849               Magadan1          1856.125
         7   01 Jun 2027 03:58:34.989   01 Jun 2027 03:58:58.603            23.614               Magadan1          2951.750
         8   01 Jun 2027 03:59:12.608   01 Jun 2027 03:59:14.867             2.259                Norilsk           282.375
         9   01 Jun 2027 03:59:48.571   01 Jun 2027 03:59:56.175             7.604                Norilsk           950.500
        10   01 Jun 2027 04:00:07.273   01 Jun 2027 04:00:38.103            30.830                Norilsk          3853.750
        11   01 Jun 2027 04:33:56.379   01 Jun 2027 04:34:06.624            10.245            RioGallegos          1280.625
        12   01 Jun 2027 04:39:09.675   01 Jun 2027 04:39:31.510            21.835            RioGallegos          2729.375
        13   01 Jun 2027 04:42:11.190   01 Jun 2027 04:42:47.490            36.300            RioGallegos          4537.500
        14   01 Jun 2027 05:10:11.126   01 Jun 2027 05:13:29.068           197.942                Sumatra         24742.750
        15   01 Jun 2027 05:31:02.602   01 Jun 2027 05:33:12.766           130.164                Irkutsk         16270.500
        16   01 Jun 2027 05:33:52.519   01 Jun 2027 05:34:27.300            34.781              Murmansk1          4347.625
        17   01 Jun 2027 05:34:46.938   01 Jun 2027 05:36:28.235           101.297                Novosib         12662.125
        18   01 Jun 2027 06:44:58.105   01 Jun 2027 06:45:48.354            50.249                Sumatra          6281.125
        19   01 Jun 2027 06:55:37.092   01 Jun 2027 06:57:32.395           115.303                  Delhi         14412.875
        20   01 Jun 2027 07:07:59.987   01 Jun 2027 07:08:27.017            27.030              Murmansk1          3378.750
        21   01 Jun 2027 07:08:33.550   01 Jun 2027 07:09:29.268            55.718              Murmansk2          6964.750
        22   01 Jun 2027 07:09:41.309   01 Jun 2027 07:09:47.460             6.151                Irkutsk           768.875
        23   01 Jun 2027 07:10:06.574   01 Jun 2027 07:10:15.749             9.175                Irkutsk          1146.875
        24   01 Jun 2027 07:10:22.778   01 Jun 2027 07:10:48.629            25.851                Norilsk          3231.375
        25   01 Jun 2027 07:10:50.011   01 Jun 2027 07:11:36.794            46.783              Murmansk2          5847.875
        26   01 Jun 2027 08:32:39.147   01 Jun 2027 08:32:51.026            11.879                  Delhi          1484.875
        27   01 Jun 2027 08:43:41.774   01 Jun 2027 08:44:53.295            71.521                Novosib          8940.125
        28   01 Jun 2027 08:45:38.166   01 Jun 2027 08:45:55.440            17.274                Norilsk          2159.250
        29   01 Jun 2027 08:45:56.269   01 Jun 2027 08:46:24.089            27.820              Murmansk1          3477.500
        30   01 Jun 2027 08:46:44.587   01 Jun 2027 08:47:29.031            44.444                 Moscow          5555.500
        31   01 Jun 2027 08:47:36.584   01 Jun 2027 08:48:29.926            53.342              Murmansk1          6667.750
        32   01 Jun 2027 10:33:24.245   01 Jun 2027 10:36:55.292           211.047                Anadyr1         26380.875
        33   01 Jun 2027 11:29:19.412   01 Jun 2027 11:29:29.184             9.772               CapeTown          1221.500
        34   01 Jun 2027 12:07:32.112   01 Jun 2027 12:09:00.111            87.999                Anadyr2         10999.875
        35   01 Jun 2027 12:10:12.927   01 Jun 2027 12:12:49.120           156.193                Anadyr1         19524.125
        36   01 Jun 2027 12:18:23.094   01 Jun 2027 12:18:23.616             0.522                Anadyr2            65.250
        37   01 Jun 2027 13:46:06.224   01 Jun 2027 13:51:45.719           339.495               Magadan1         42436.875
        38   01 Jun 2027 13:52:28.375   01 Jun 2027 13:55:35.035           186.660               Magadan2         23332.500
        39   01 Jun 2027 16:14:26.300   01 Jun 2027 16:19:30.851           304.551            RioGallegos         38068.875
        40   01 Jun 2027 16:20:55.696   01 Jun 2027 16:22:00.733            65.037            RioGallegos          8129.625
        41   01 Jun 2027 17:04:46.013   01 Jun 2027 17:05:44.716            58.703                Irkutsk          7337.875
        42   01 Jun 2027 17:17:29.657   01 Jun 2027 17:21:12.584           222.927                Sumatra         27865.875
        43   01 Jun 2027 17:22:28.111   01 Jun 2027 17:23:17.315            49.204                Sumatra          6150.500
        44   01 Jun 2027 18:38:25.795   01 Jun 2027 18:39:52.753            86.958                Novosib         10869.750
        45   01 Jun 2027 18:45:56.743   01 Jun 2027 18:49:06.748           190.005                  Delhi         18956.375
        46   02 Jun 2027 04:10:26.280   02 Jun 2027 04:10:52.441            26.161               Magadan2          3270.125
        47   02 Jun 2027 04:45:51.684   02 Jun 2027 04:46:25.580            33.896            RioGallegos          4237.000
        48   02 Jun 2027 04:52:44.840   02 Jun 2027 04:53:17.781            32.941            RioGallegos          4117.625
        49   02 Jun 2027 04:57:11.005   02 Jun 2027 04:58:08.159            57.154            RioGallegos          7144.250
        50   02 Jun 2027 05:21:39.619   02 Jun 2027 05:23:00.668            81.049                Sumatra         10131.125
        51   02 Jun 2027 05:43:10.301   02 Jun 2027 05:43:54.739            44.438                Irkutsk          5554.750
        52   02 Jun 2027 05:44:11.646   02 Jun 2027 05:45:15.075            63.429                Novosib          7928.625
        53   02 Jun 2027 05:45:36.507   02 Jun 2027 05:47:07.538            91.031                Irkutsk         11378.875
        54   02 Jun 2027 05:47:58.852   02 Jun 2027 05:48:28.679            29.827                Novosib          3728.375
        55   02 Jun 2027 07:07:24.610   02 Jun 2027 07:07:58.760            34.150                  Delhi          4268.750
        56   02 Jun 2027 07:20:36.461   02 Jun 2027 07:20:58.730            22.269                 Moscow          2783.625
        57   02 Jun 2027 07:21:12.972   02 Jun 2027 07:21:57.218            44.246                Irkutsk          5530.750
        58   02 Jun 2027 07:22:05.053   02 Jun 2027 07:22:17.934            12.881              Murmansk2          1610.125
        59   02 Jun 2027 07:22:31.687   02 Jun 2027 07:23:55.335            83.648                 Moscow         10456.000
        60   02 Jun 2027 08:42:20.891   02 Jun 2027 08:43:03.289            42.398                  Delhi          5299.750
        61   02 Jun 2027 08:55:41.266   02 Jun 2027 08:56:53.463            72.197                Novosib          9024.625
        62   02 Jun 2027 08:58:05.307   02 Jun 2027 08:58:35.512            30.205                Novosib          3775.625
        63   02 Jun 2027 08:58:51.871   02 Jun 2027 08:59:17.797            25.926                 Moscow          3240.750
        64   02 Jun 2027 08:59:23.968   02 Jun 2027 08:59:36.925            12.957              Murmansk1          1619.625
        65   02 Jun 2027 10:44:48.979   02 Jun 2027 10:47:31.753           162.774                Anadyr2         20346.750
        66   02 Jun 2027 10:47:31.753   02 Jun 2027 10:50:10.809           159.056                Anadyr1         19882.000
        67   02 Jun 2027 12:24:01.422   02 Jun 2027 12:24:44.504            43.082                Anadyr1          5385.250
        68   02 Jun 2027 13:57:59.249   02 Jun 2027 14:03:30.538           331.289               Magadan2         41411.125
        69   02 Jun 2027 14:04:50.851   02 Jun 2027 14:06:58.194           127.343               Magadan1         15917.875
        70   02 Jun 2027 16:26:04.897   02 Jun 2027 16:32:32.848           387.951            RioGallegos         48493.875
        71   02 Jun 2027 17:16:00.023   02 Jun 2027 17:17:37.477            97.454                Irkutsk         12181.750
        72   02 Jun 2027 17:19:02.714   02 Jun 2027 17:19:13.360            10.646                Irkutsk          1330.750
        73   02 Jun 2027 17:27:27.324   02 Jun 2027 17:29:14.366           107.042                Sumatra         13380.250
        74   02 Jun 2027 17:31:22.670   02 Jun 2027 17:34:09.879           167.209                Sumatra         20901.125
        75   02 Jun 2027 18:50:53.218   02 Jun 2027 18:53:31.928           158.710                Novosib         19838.750
        76   02 Jun 2027 18:57:23.545   02 Jun 2027 18:57:27.074             3.529                  Delhi           441.125
        77   02 Jun 2027 18:58:00.681   02 Jun 2027 19:00:58.791           178.110                  Delhi         22263.750
        78   02 Jun 2027 20:29:35.455   02 Jun 2027 20:31:07.028            91.573                 Moscow         11446.625
        79   02 Jun 2027 22:02:48.106   02 Jun 2027 22:03:46.462            58.356              Murmansk1          7294.500
        80   02 Jun 2027 22:27:22.866   02 Jun 2027 22:28:52.416            89.550               CapeTown         11193.750
        81   03 Jun 2027 04:18:43.410   03 Jun 2027 04:18:47.551             4.141                Irkutsk           517.625
        82   03 Jun 2027 04:23:01.237   03 Jun 2027 04:23:04.181             2.944                Irkutsk           368.000
        83   03 Jun 2027 05:33:16.997   03 Jun 2027 05:37:13.960           236.963                Sumatra         29620.375
        84   03 Jun 2027 05:46:34.975   03 Jun 2027 05:47:20.077            45.102                  Delhi          5637.750
        85   03 Jun 2027 05:55:58.537   03 Jun 2027 05:57:45.027           106.490                Novosib         13311.250
        86   03 Jun 2027 05:58:12.652   03 Jun 2027 05:58:45.135            32.483              Murmansk2          4060.375
        87   03 Jun 2027 05:59:07.270   03 Jun 2027 05:59:13.403             6.133                Novosib           766.625
        88   03 Jun 2027 06:39:34.416   03 Jun 2027 06:39:43.729             9.313            RioGallegos          1164.125
        89   03 Jun 2027 07:09:49.661   03 Jun 2027 07:10:37.715            48.054                Sumatra          6006.750
        90   03 Jun 2027 07:17:59.104   03 Jun 2027 07:18:54.044            54.940                  Delhi          6867.500
        91   03 Jun 2027 07:20:06.274   03 Jun 2027 07:20:25.434            19.160                  Delhi          2395.000
        92   03 Jun 2027 07:33:04.633   03 Jun 2027 07:33:34.719            30.086                Irkutsk          3760.750
        93   03 Jun 2027 07:33:50.631   03 Jun 2027 07:34:02.086            11.455                Norilsk          1431.875
        94   03 Jun 2027 07:34:20.158   03 Jun 2027 07:35:17.895            57.737              Murmansk1          7217.125
        95   03 Jun 2027 07:35:23.641   03 Jun 2027 07:36:15.267            51.626                Novosib          6453.250
        96   03 Jun 2027 08:55:07.955   03 Jun 2027 08:55:42.366            34.411                  Delhi          4301.375
        97   03 Jun 2027 09:08:28.700   03 Jun 2027 09:09:00.610            31.910                 Moscow          3988.750
        98   03 Jun 2027 09:09:17.828   03 Jun 2027 09:09:59.312            41.484                 Moscow          5185.500
        99   03 Jun 2027 09:10:06.042   03 Jun 2027 09:10:47.946            41.904              Murmansk1          5238.000
       100   03 Jun 2027 09:10:55.659   03 Jun 2027 09:10:59.139             3.480                Novosib           435.000
       101   03 Jun 2027 09:11:07.913   03 Jun 2027 09:12:20.613            72.700                Norilsk          9087.500
       102   03 Jun 2027 10:18:39.403   03 Jun 2027 10:20:26.613           107.210               CapeTown         13401.250
       103   03 Jun 2027 10:22:40.659   03 Jun 2027 10:23:00.764            20.105               CapeTown          2513.125
       104   03 Jun 2027 10:56:28.597   03 Jun 2027 11:03:08.925           400.328                Anadyr2         50041.000
       105   03 Jun 2027 14:09:54.020   03 Jun 2027 14:12:38.701           164.681               Magadan2         20585.125
       106   03 Jun 2027 14:12:38.701   03 Jun 2027 14:14:15.000            96.299               Magadan1         12037.375
       107   03 Jun 2027 14:14:56.668   03 Jun 2027 14:15:19.370            22.702               Magadan1          2837.750
       108   03 Jun 2027 14:18:06.277   03 Jun 2027 14:19:25.378            79.101               Magadan2          9887.625
       109   03 Jun 2027 16:37:49.160   03 Jun 2027 16:40:01.954           132.794            RioGallegos         16599.250
       110   03 Jun 2027 16:40:46.720   03 Jun 2027 16:43:52.089           185.369            RioGallegos         23171.125
       111   03 Jun 2027 17:25:19.979   03 Jun 2027 17:27:00.380           100.401                Irkutsk         12550.125
       112   03 Jun 2027 17:27:47.205   03 Jun 2027 17:31:40.064           232.859                Novosib         29107.375
       113   03 Jun 2027 17:40:57.129   03 Jun 2027 17:41:35.306            38.177                Sumatra          4772.125
       114   03 Jun 2027 17:42:27.892   03 Jun 2027 17:45:24.040           176.148                Sumatra         22018.500
       115   03 Jun 2027 19:08:59.659   03 Jun 2027 19:10:11.977            72.318                  Delhi          9039.750
       116   03 Jun 2027 19:11:04.135   03 Jun 2027 19:12:53.228           109.093                  Delhi         13636.625
       117   03 Jun 2027 20:39:22.756   03 Jun 2027 20:39:52.756            30.000              Murmansk2          3750.000
       118   03 Jun 2027 20:40:34.584   03 Jun 2027 20:43:08.648           154.064                 Moscow         19258.000
       119   03 Jun 2027 22:38:59.745   03 Jun 2027 22:41:07.528           127.783               CapeTown         15972.875
       120   04 Jun 2027 04:34:15.646   04 Jun 2027 04:35:01.337            45.691                Irkutsk          5711.375
       121   04 Jun 2027 05:09:52.017   04 Jun 2027 05:11:15.444            83.427            RioGallegos         10428.375
       122   04 Jun 2027 05:45:01.569   04 Jun 2027 05:47:43.012           161.443                Sumatra         20180.375
       123   04 Jun 2027 05:56:58.826   04 Jun 2027 05:57:51.039            52.213                  Delhi          6526.625
       124   04 Jun 2027 06:07:34.179   04 Jun 2027 06:08:17.832            43.653              Murmansk2          5456.625
       125   04 Jun 2027 06:08:24.240   04 Jun 2027 06:09:43.634            79.394                Irkutsk          9924.250
       126   04 Jun 2027 06:10:05.029   04 Jun 2027 06:10:32.513            27.484              Murmansk1          3435.500
       127   04 Jun 2027 06:11:06.408   04 Jun 2027 06:11:35.692            29.284                Norilsk          3660.500
       128   04 Jun 2027 06:11:46.325   04 Jun 2027 06:12:33.370            47.045              Murmansk1          5880.625
       129   04 Jun 2027 07:22:33.159   04 Jun 2027 07:23:47.469            74.310                Sumatra          9288.750
       130   04 Jun 2027 07:28:58.844   04 Jun 2027 07:30:40.356           101.512                  Delhi         12689.000
       131   04 Jun 2027 07:45:24.255   04 Jun 2027 07:46:05.130            40.875                 Moscow          5109.375
       132   04 Jun 2027 07:46:33.299   04 Jun 2027 07:47:35.581            62.282                Norilsk          7785.250
       133   04 Jun 2027 07:48:05.758   04 Jun 2027 07:48:27.295            21.537                 Moscow          2692.125
       134   04 Jun 2027 09:08:15.560   04 Jun 2027 09:08:41.012            25.452                  Delhi          3181.500
       135   04 Jun 2027 09:09:30.718   04 Jun 2027 09:10:52.979            82.261                  Delhi         10282.625
       136   04 Jun 2027 09:16:46.550   04 Jun 2027 09:17:30.008            43.458                Novosib          5432.250
       137   04 Jun 2027 09:17:33.251   04 Jun 2027 09:18:00.958            27.707                 Moscow          3463.375
       138   04 Jun 2027 09:18:14.937   04 Jun 2027 09:18:59.715            44.778                Novosib          5597.250
       139   04 Jun 2027 09:19:07.769   04 Jun 2027 09:19:35.497            27.728                 Moscow          3466.000
       140   04 Jun 2027 09:19:43.367   04 Jun 2027 09:20:51.419            68.052                Novosib          8506.500
       141   04 Jun 2027 09:21:18.876   04 Jun 2027 09:22:38.045            79.169                 Moscow          9896.125
       142   04 Jun 2027 09:22:45.717   04 Jun 2027 09:23:00.659            14.942                Norilsk          1867.750
       143   04 Jun 2027 09:23:02.715   04 Jun 2027 09:23:16.212            13.497                 Moscow          1687.125
       144   04 Jun 2027 09:23:32.488   04 Jun 2027 09:24:26.032            53.544                Norilsk          6693.000
       145   04 Jun 2027 09:24:48.395   04 Jun 2027 09:24:51.330             2.935              Murmansk1           366.875
       146   04 Jun 2027 09:25:14.277   04 Jun 2027 09:25:56.072            41.795              Murmansk1          5224.375
       147   04 Jun 2027 10:29:22.851   04 Jun 2027 10:32:08.184           165.333               CapeTown         20666.625
       148   04 Jun 2027 11:08:14.937   04 Jun 2027 11:14:16.377           361.440                Anadyr1         45180.000
       149   04 Jun 2027 12:48:04.660   04 Jun 2027 12:50:25.213           140.553               Magadan1         17569.125
       150   04 Jun 2027 14:21:50.162   04 Jun 2027 14:23:30.629           100.467               Magadan2         12558.375
       151   04 Jun 2027 14:24:43.402   04 Jun 2027 14:26:16.996            93.594               Magadan1         11699.250
       152   04 Jun 2027 16:49:37.357   04 Jun 2027 16:52:07.504           150.147            RioGallegos         18768.375
       153   04 Jun 2027 16:53:45.582   04 Jun 2027 16:55:25.370            99.788            RioGallegos         12473.500
       154   04 Jun 2027 17:37:13.831   04 Jun 2027 17:39:24.200           130.369                Irkutsk         16296.125
       155   04 Jun 2027 17:41:37.803   04 Jun 2027 17:44:46.480           188.677                Novosib         23584.625
       156   04 Jun 2027 17:53:49.071   04 Jun 2027 17:55:22.965            93.894                Sumatra         11736.750
       157   04 Jun 2027 19:20:42.391   04 Jun 2027 19:22:53.777           131.386                  Delhi         16423.250
       158   04 Jun 2027 19:25:59.550   04 Jun 2027 19:26:11.421            11.871                  Delhi          1483.875
       159   04 Jun 2027 20:48:07.369   04 Jun 2027 20:49:03.428            56.059              Murmansk1          7007.375
       160   04 Jun 2027 20:52:01.673   04 Jun 2027 20:52:48.510            46.837                 Moscow          5854.625
       161   04 Jun 2027 22:25:23.295   04 Jun 2027 22:25:34.256            10.961              Murmansk2          1370.125
       162   04 Jun 2027 22:51:24.835   04 Jun 2027 22:54:55.976           211.141               CapeTown         26392.625
       163   05 Jun 2027 03:07:21.988   05 Jun 2027 03:08:02.324            40.336                Anadyr2          5042.000
       164   05 Jun 2027 03:08:43.155   05 Jun 2027 03:11:15.886           152.731               Magadan1         19091.375
       165   05 Jun 2027 04:41:28.559   05 Jun 2027 04:41:58.716            30.157                Irkutsk          3769.625
       166   05 Jun 2027 04:42:20.005   05 Jun 2027 04:42:48.894            28.889                Irkutsk          3611.125
       167   05 Jun 2027 04:42:52.301   05 Jun 2027 04:44:20.627            88.326               Magadan2         11040.750
       168   05 Jun 2027 04:44:48.908   05 Jun 2027 04:45:46.488            57.580               Magadan1          7197.500
       169   05 Jun 2027 04:45:53.133   05 Jun 2027 04:46:18.567            25.434               Magadan1          3179.250
       170   05 Jun 2027 04:46:48.595   05 Jun 2027 04:47:43.074            54.479                Novosib          6809.875
       171   05 Jun 2027 05:21:57.218   05 Jun 2027 05:23:01.484            64.266            RioGallegos          8033.250
       172   05 Jun 2027 05:56:52.380   05 Jun 2027 05:58:07.038            74.658                Sumatra          9332.250
       173   05 Jun 2027 06:07:56.234   05 Jun 2027 06:10:05.933           129.699                  Delhi         16212.375
       174   05 Jun 2027 06:19:21.261   05 Jun 2027 06:20:16.429            55.168              Murmansk1          6896.000
       175   05 Jun 2027 06:20:30.197   05 Jun 2027 06:21:10.942            40.745                Novosib          5093.125
       176   05 Jun 2027 06:21:11.216   05 Jun 2027 06:21:58.466            47.250              Murmansk1          5906.250
       177   05 Jun 2027 06:22:09.730   05 Jun 2027 06:22:25.226            15.496              Murmansk1          1937.000
       178   05 Jun 2027 06:22:33.929   05 Jun 2027 06:23:10.156            36.227              Murmansk2          4528.375
       179   05 Jun 2027 06:23:29.276   05 Jun 2027 06:23:31.873             2.597                Novosib           324.625
       180   05 Jun 2027 07:40:59.549   05 Jun 2027 07:43:03.487           123.938                  Delhi         15492.250
       181   05 Jun 2027 07:56:39.723   05 Jun 2027 07:57:19.941            40.218              Murmansk1          5027.250
       182   05 Jun 2027 07:57:23.477   05 Jun 2027 07:58:03.257            39.780                 Moscow          4972.500
       183   05 Jun 2027 07:58:18.332   05 Jun 2027 07:59:01.928            43.596              Murmansk2          5449.500
       184   05 Jun 2027 09:22:24.562   05 Jun 2027 09:22:52.323            27.761                  Delhi          3470.125
       185   05 Jun 2027 09:28:21.516   05 Jun 2027 09:28:41.177            19.661                 Moscow          2457.625
       186   05 Jun 2027 09:28:51.593   05 Jun 2027 09:29:43.541            51.948                 Moscow          6493.500
       187   05 Jun 2027 09:29:53.156   05 Jun 2027 09:30:18.229            25.073              Murmansk1          3134.125
       188   05 Jun 2027 09:30:26.610   05 Jun 2027 09:30:59.847            33.237                Novosib          4154.625
       189   05 Jun 2027 09:31:02.492   05 Jun 2027 09:31:33.426            30.934              Murmansk1          3866.750
       190   05 Jun 2027 09:31:47.471   05 Jun 2027 09:32:28.654            41.183              Murmansk2          5147.875
       191   05 Jun 2027 09:32:37.707   05 Jun 2027 09:33:24.125            46.418                Norilsk          5802.250
       192   05 Jun 2027 09:33:37.417   05 Jun 2027 09:34:26.237            48.820              Murmansk1          6102.500
       193   05 Jun 2027 09:34:36.420   05 Jun 2027 09:35:32.719            56.299                Norilsk          7037.375
       194   05 Jun 2027 09:35:40.424   05 Jun 2027 09:36:03.531            23.107                Norilsk          2888.375
       195   05 Jun 2027 10:40:38.043   05 Jun 2027 10:43:54.873           196.830               CapeTown         24603.750
       196   05 Jun 2027 10:46:09.642   05 Jun 2027 10:48:17.285           127.643               CapeTown         15955.375
       197   05 Jun 2027 11:20:05.260   05 Jun 2027 11:21:13.314            68.054                Anadyr1          8506.750
       198   05 Jun 2027 11:21:13.314   05 Jun 2027 11:21:30.252            16.938                Anadyr2          2117.250
       199   05 Jun 2027 11:22:44.483   05 Jun 2027 11:25:14.188           149.705                Anadyr2         18713.125
       200   05 Jun 2027 12:59:23.940   05 Jun 2027 13:02:24.508           180.568               Magadan1         22571.000
       201   05 Jun 2027 16:15:39.428   05 Jun 2027 16:20:44.140           304.712                Irkutsk         38089.000
       202   05 Jun 2027 17:03:08.035   05 Jun 2027 17:04:09.653            61.618            RioGallegos          7702.250
       203   05 Jun 2027 17:49:12.311   05 Jun 2027 17:50:59.090           106.779                Irkutsk         13347.375
       204   05 Jun 2027 17:51:21.659   05 Jun 2027 17:53:37.814           136.155                Novosib         17019.375
       205   05 Jun 2027 17:55:02.453   05 Jun 2027 17:56:53.362           110.909                Novosib         13863.625
       206   05 Jun 2027 19:32:30.261   05 Jun 2027 19:34:37.800           127.539                  Delhi         15942.375
       207   05 Jun 2027 20:59:21.812   05 Jun 2027 21:00:46.031            84.219              Murmansk1         10527.375
       208   05 Jun 2027 21:03:39.549   05 Jun 2027 21:05:05.915            86.366                 Moscow         10795.750
       209   05 Jun 2027 21:32:38.368   05 Jun 2027 21:32:54.148            15.780               CapeTown          1972.500
       210   05 Jun 2027 21:33:11.810   05 Jun 2027 21:34:15.478            63.668               CapeTown          7958.500
       211   06 Jun 2027 03:17:42.254   06 Jun 2027 03:18:14.737            32.483                Anadyr2          4060.375
       212   06 Jun 2027 03:18:48.578   06 Jun 2027 03:19:45.575            56.997               Magadan2          7124.625
       213   06 Jun 2027 03:19:58.363   06 Jun 2027 03:21:28.090            89.727                Anadyr1         11215.875
       214   06 Jun 2027 03:22:23.714   06 Jun 2027 03:22:58.233            34.519                Anadyr1          4314.875
       215   06 Jun 2027 04:53:25.631   06 Jun 2027 04:53:49.296            23.665               Magadan2          2958.125
       216   06 Jun 2027 04:54:18.934   06 Jun 2027 04:56:51.918           152.984               Magadan1         19123.000
       217   06 Jun 2027 04:57:09.129   06 Jun 2027 04:57:15.121             5.992               Magadan2           749.000
       218   06 Jun 2027 04:58:02.944   06 Jun 2027 04:58:41.752            38.808              Murmansk1          4851.000
       219   06 Jun 2027 04:58:42.628   06 Jun 2027 04:59:53.001            70.373                Novosib          8796.625
       220   06 Jun 2027 05:34:05.964   06 Jun 2027 05:34:50.696            44.732            RioGallegos          5591.500
       221   06 Jun 2027 05:38:51.401   06 Jun 2027 05:38:57.916             6.515            RioGallegos           814.375
       222   06 Jun 2027 05:43:07.610   06 Jun 2027 05:43:37.470            29.860            RioGallegos          3732.500
       223   06 Jun 2027 06:08:48.935   06 Jun 2027 06:11:02.137           133.202                Sumatra         16650.250
       224   06 Jun 2027 06:19:42.052   06 Jun 2027 06:20:05.466            23.414                  Delhi          2926.750
       225   06 Jun 2027 06:30:59.034   06 Jun 2027 06:31:22.076            23.042                Novosib          2880.250
       226   06 Jun 2027 06:31:27.205   06 Jun 2027 06:31:53.773            26.568                Norilsk          3321.000
       227   06 Jun 2027 06:32:03.472   06 Jun 2027 06:32:10.944             7.472                Novosib           934.000
       228   06 Jun 2027 06:32:15.468   06 Jun 2027 06:33:51.342            95.874              Murmansk1         11984.250
       229   06 Jun 2027 06:34:07.035   06 Jun 2027 06:35:10.876            63.841                Novosib          7980.125
       230   06 Jun 2027 06:35:58.450   06 Jun 2027 06:36:18.221            19.771                 Moscow          2471.375
       231   06 Jun 2027 07:53:05.672   06 Jun 2027 07:54:35.681            90.009                  Delhi         11251.125
       232   06 Jun 2027 08:08:03.239   06 Jun 2027 08:08:40.704            37.465              Murmansk1          4683.125
       233   06 Jun 2027 08:08:40.704   06 Jun 2027 08:09:10.854            30.150              Murmansk2          3768.750
       234   06 Jun 2027 08:09:18.276   06 Jun 2027 08:09:32.068            13.792                 Moscow          1724.000
       235   06 Jun 2027 08:09:41.653   06 Jun 2027 08:10:55.071            73.418              Murmansk1          9177.250
       236   06 Jun 2027 09:40:43.129   06 Jun 2027 09:41:11.446            28.317                 Moscow          3539.625
       237   06 Jun 2027 09:41:24.622   06 Jun 2027 09:42:14.944            50.322              Murmansk1          6290.250
       238   06 Jun 2027 09:42:27.853   06 Jun 2027 09:43:45.262            77.409                 Moscow          9676.125
       239   06 Jun 2027 09:44:02.322   06 Jun 2027 09:44:22.399            20.077              Murmansk1          2509.625
       240   06 Jun 2027 09:44:36.405   06 Jun 2027 09:45:44.288            67.883                 Moscow          8485.375
       241   06 Jun 2027 09:45:56.578   06 Jun 2027 09:46:33.228            36.650              Murmansk2          4581.250
       242   06 Jun 2027 09:46:33.228   06 Jun 2027 09:46:55.892            22.664              Murmansk1          2833.000
       243   06 Jun 2027 09:47:06.278   06 Jun 2027 09:47:55.127            48.849                 Moscow          6106.125
       244   06 Jun 2027 10:52:07.186   06 Jun 2027 10:55:45.662           218.476               CapeTown         27309.500
       245   06 Jun 2027 10:58:04.210   06 Jun 2027 10:59:13.248            69.038               CapeTown          8629.750
       246   06 Jun 2027 11:31:58.222   06 Jun 2027 11:33:48.388           110.166                Anadyr2         13770.750
       247   06 Jun 2027 11:34:17.418   06 Jun 2027 11:36:11.238           113.820                Anadyr2         14227.500
       248   06 Jun 2027 13:10:59.342   06 Jun 2027 13:14:24.390           205.048               Magadan1         25631.000
       249   06 Jun 2027 16:26:55.808   06 Jun 2027 16:33:00.722           364.914                Irkutsk         45614.250
       250   06 Jun 2027 16:42:56.928   06 Jun 2027 16:44:24.974            88.046                Sumatra         11005.750
       251   06 Jun 2027 16:45:52.544   06 Jun 2027 16:46:19.066            26.522                Sumatra          3315.250
       252   06 Jun 2027 18:02:10.279   06 Jun 2027 18:05:38.515           208.236                Novosib         26029.500
       253   06 Jun 2027 21:11:20.925   06 Jun 2027 21:12:36.956            76.031              Murmansk1          9503.875
       254   06 Jun 2027 21:15:23.578   06 Jun 2027 21:19:10.277           226.699                 Moscow         28337.375
       255   06 Jun 2027 21:42:31.858   06 Jun 2027 21:44:21.824           109.966               CapeTown         13745.750
       256   07 Jun 2027 03:29:33.782   07 Jun 2027 03:30:00.242            26.460                Anadyr2          3307.500
       257   07 Jun 2027 03:30:07.672   07 Jun 2027 03:30:51.069            43.397               Magadan1          5424.625
       258   07 Jun 2027 03:30:58.887   07 Jun 2027 03:31:36.309            37.422               Magadan2          4677.750
       259   07 Jun 2027 03:31:54.367   07 Jun 2027 03:32:24.354            29.987               Magadan1          3748.375
       260   07 Jun 2027 03:32:50.901   07 Jun 2027 03:35:21.153           150.252               Magadan1         18781.500
       261   07 Jun 2027 04:48:11.724   07 Jun 2027 04:50:02.915           111.191                Sumatra         13898.875
       262   07 Jun 2027 05:06:11.466   07 Jun 2027 05:06:57.880            46.414               Magadan1          5801.750
       263   07 Jun 2027 05:07:30.589   07 Jun 2027 05:08:35.772            65.183                Norilsk          8147.875
       264   07 Jun 2027 05:08:44.719   07 Jun 2027 05:09:03.632            18.913               Magadan1          2364.125
       265   07 Jun 2027 05:09:10.298   07 Jun 2027 05:09:25.713            15.415               Magadan1          1926.875
       266   07 Jun 2027 05:09:39.000   07 Jun 2027 05:10:17.975            38.975              Murmansk1          4871.875
       267   07 Jun 2027 05:10:17.975   07 Jun 2027 05:10:40.288            22.313              Murmansk2          2789.125
       268   07 Jun 2027 05:10:49.422   07 Jun 2027 05:11:29.112            39.690                Novosib          4961.250
       269   07 Jun 2027 05:46:18.445   07 Jun 2027 05:46:43.074            24.629            RioGallegos          3078.625
       270   07 Jun 2027 06:20:51.062   07 Jun 2027 06:22:36.063           105.001                Sumatra         13125.125
       271   07 Jun 2027 06:30:32.959   07 Jun 2027 06:31:26.116            53.157                  Delhi          6644.625
       272   07 Jun 2027 06:32:04.443   07 Jun 2027 06:33:55.031           110.588                  Delhi         13823.500
       273   07 Jun 2027 06:43:39.449   07 Jun 2027 06:43:48.001             8.552                Novosib          1069.000
       274   07 Jun 2027 06:43:59.484   07 Jun 2027 06:45:48.800           109.316              Murmansk1         13664.500
       275   07 Jun 2027 06:46:15.115   07 Jun 2027 06:47:11.443            56.328                 Moscow          7041.000
       276   07 Jun 2027 08:05:17.529   07 Jun 2027 08:06:14.623            57.094                  Delhi          7136.750
       277   07 Jun 2027 08:18:52.574   07 Jun 2027 08:20:17.567            84.993                 Moscow         10624.125
       278   07 Jun 2027 08:20:41.398   07 Jun 2027 08:21:16.759            35.361              Murmansk2          4420.125
       279   07 Jun 2027 08:21:21.417   07 Jun 2027 08:21:51.394            29.977                Norilsk          3747.125
       280   07 Jun 2027 08:22:11.710   07 Jun 2027 08:23:14.627            62.917                Novosib          7864.625
       281   07 Jun 2027 08:23:38.671   07 Jun 2027 08:23:59.917            21.246              Murmansk2          2655.750
       282   07 Jun 2027 09:52:54.618   07 Jun 2027 09:53:39.806            45.188              Murmansk2          5648.500
       283   07 Jun 2027 09:54:41.575   07 Jun 2027 09:55:07.919            26.344              Murmansk1          3293.000
       284   07 Jun 2027 09:55:26.502   07 Jun 2027 09:56:14.732            48.230              Murmansk2          6028.750
       285   07 Jun 2027 09:56:16.876   07 Jun 2027 09:56:53.791            36.915              Murmansk1          4614.375
       286   07 Jun 2027 09:57:17.789   07 Jun 2027 09:57:47.079            29.290                 Moscow          3661.250
       287   07 Jun 2027 09:57:48.095   07 Jun 2027 09:58:43.028            54.933                Norilsk          6866.625
       288   07 Jun 2027 11:03:44.881   07 Jun 2027 11:07:39.905           235.024               CapeTown         29378.000
       289   07 Jun 2027 11:09:41.096   07 Jun 2027 11:10:12.219            31.123               CapeTown          3890.375
       290   07 Jun 2027 11:43:53.085   07 Jun 2027 11:47:09.902           196.817                Anadyr2         24602.125
       291   07 Jun 2027 13:22:42.356   07 Jun 2027 13:27:54.428           312.072               Magadan2         39009.000
       292   07 Jun 2027 15:52:00.311   07 Jun 2027 15:54:43.031           162.720            RioGallegos         20340.000
       293   07 Jun 2027 16:38:27.985   07 Jun 2027 16:42:11.275           223.290                Irkutsk         27911.250
       294   07 Jun 2027 16:53:36.979   07 Jun 2027 16:56:03.275           146.296                Sumatra         18287.000
       295   07 Jun 2027 18:16:05.108   07 Jun 2027 18:17:54.697           109.589                Novosib         13698.625
       296   07 Jun 2027 18:24:22.402   07 Jun 2027 18:25:56.314            93.912                  Delhi         11739.000
       297   07 Jun 2027 18:26:46.518   07 Jun 2027 18:28:05.763            79.245                  Delhi          9905.625
       298   07 Jun 2027 21:24:10.513   07 Jun 2027 21:25:40.961            90.448              Murmansk2         11306.000
       299   07 Jun 2027 21:29:30.110   07 Jun 2027 21:30:32.463            62.353                 Moscow          7794.125
       300   07 Jun 2027 21:31:12.060   07 Jun 2027 21:33:43.555           151.495                 Moscow         18936.875
       301   07 Jun 2027 21:58:09.462   07 Jun 2027 21:59:50.547           101.085               CapeTown         12635.625
       302   08 Jun 2027 03:43:03.598   08 Jun 2027 03:43:25.929            22.331                Anadyr1          2791.375
       303   08 Jun 2027 03:43:52.428   08 Jun 2027 03:44:59.334            66.906               Magadan1          8363.250
       304   08 Jun 2027 03:45:29.612   08 Jun 2027 03:46:17.218            47.606                Anadyr1          5950.750
       305   08 Jun 2027 03:46:31.064   08 Jun 2027 03:47:17.790            46.726               Magadan1          5840.750
       306   08 Jun 2027 04:59:08.762   08 Jun 2027 05:01:55.139           166.377                Sumatra         20797.125
       307   08 Jun 2027 05:17:26.487   08 Jun 2027 05:17:56.920            30.433                Irkutsk          3804.125
       308   08 Jun 2027 05:19:08.577   08 Jun 2027 05:21:50.623           162.046                Irkutsk         20255.750
       309   08 Jun 2027 05:23:02.421   08 Jun 2027 05:24:23.734            81.313                Novosib         10164.125
       310   08 Jun 2027 05:58:34.948   08 Jun 2027 05:58:38.619             3.671            RioGallegos           458.875
       311   08 Jun 2027 06:01:01.838   08 Jun 2027 06:01:53.513            51.675            RioGallegos          6459.375
       312   08 Jun 2027 06:39:23.656   08 Jun 2027 06:41:03.351            99.695                Sumatra         12461.875
       313   08 Jun 2027 06:54:54.763   08 Jun 2027 06:55:38.036            43.273                Irkutsk          5409.125
       314   08 Jun 2027 06:56:33.349   08 Jun 2027 06:56:44.355            11.006              Murmansk2          1375.750
       315   08 Jun 2027 06:56:49.464   08 Jun 2027 06:57:45.844            56.380              Murmansk2          7047.500
       316   08 Jun 2027 06:57:51.902   08 Jun 2027 06:58:05.276            13.374                Irkutsk          1671.750
       317   08 Jun 2027 06:58:20.387   08 Jun 2027 06:58:50.266            29.879                Norilsk          3734.875
       318   08 Jun 2027 06:58:54.680   08 Jun 2027 06:59:17.924            23.244              Murmansk1          2905.500
       319   08 Jun 2027 07:00:29.468   08 Jun 2027 07:00:49.072            19.604                Novosib          2450.500
       320   08 Jun 2027 08:17:35.735   08 Jun 2027 08:19:52.745           137.010                  Delhi         17126.250
       321   08 Jun 2027 08:30:59.509   08 Jun 2027 08:31:56.481            56.972              Murmansk1          7121.500
       322   08 Jun 2027 08:32:07.222   08 Jun 2027 08:32:20.740            13.518              Murmansk1          1689.750
       323   08 Jun 2027 08:32:38.088   08 Jun 2027 08:33:31.937            53.849                 Moscow          6731.125
       324   08 Jun 2027 08:33:37.345   08 Jun 2027 08:34:11.803            34.458              Murmansk2          4307.250
       325   08 Jun 2027 08:34:21.118   08 Jun 2027 08:34:50.071            28.953                Novosib          3619.125
       326   08 Jun 2027 08:34:55.223   08 Jun 2027 08:35:18.820            23.597                 Moscow          2949.625
       327   08 Jun 2027 10:08:03.495   08 Jun 2027 10:09:49.375           105.880                 Moscow         13235.000
       328   08 Jun 2027 10:09:49.871   08 Jun 2027 10:10:39.622            49.751              Murmansk1          6218.875
       329   08 Jun 2027 10:11:09.976   08 Jun 2027 10:11:53.494            43.518              Murmansk1          5439.750
       330   08 Jun 2027 11:15:28.615   08 Jun 2027 11:19:37.215           248.600               CapeTown         31075.000
       331   08 Jun 2027 11:21:11.509   08 Jun 2027 11:21:33.331            21.822               CapeTown          2727.750
       332   08 Jun 2027 11:55:49.355   08 Jun 2027 11:56:22.544            33.189                Anadyr1          4148.625
       333   08 Jun 2027 11:56:22.544   08 Jun 2027 11:57:34.289            71.745                Anadyr2          8968.125
       334   08 Jun 2027 11:58:17.105   08 Jun 2027 11:59:54.995            97.890                Anadyr1         12236.250
       335   08 Jun 2027 13:34:29.990   08 Jun 2027 13:38:25.584           235.594               Magadan2         29449.250
       336   08 Jun 2027 15:21:34.771   08 Jun 2027 15:22:06.710            31.939               Magadan2          3992.375
       337   08 Jun 2027 16:03:11.058   08 Jun 2027 16:06:29.882           198.824            RioGallegos         24853.000
       338   08 Jun 2027 16:51:31.410   08 Jun 2027 16:56:04.158           272.748                Irkutsk         34093.500
       339   08 Jun 2027 17:04:45.220   08 Jun 2027 17:05:51.297            66.077                Sumatra          8259.625
       340   08 Jun 2027 17:09:32.950   08 Jun 2027 17:12:26.427           173.477                Sumatra         21684.625
       341   08 Jun 2027 18:34:59.056   08 Jun 2027 18:39:19.854           260.798                  Delhi         32599.750
       342   08 Jun 2027 21:37:19.665   08 Jun 2027 21:39:17.555           117.890              Murmansk1         14736.250
       343   08 Jun 2027 21:46:23.480   08 Jun 2027 21:47:57.314            93.834                 Moscow         11729.250
       344   08 Jun 2027 22:04:43.779   08 Jun 2027 22:04:48.437             4.658               CapeTown           582.250
       345   08 Jun 2027 22:06:36.581   08 Jun 2027 22:07:34.881            58.300               CapeTown          7287.500
       346   08 Jun 2027 22:13:48.006   08 Jun 2027 22:14:17.360            29.354               CapeTown          3669.250
       347   09 Jun 2027 03:55:52.996   09 Jun 2027 03:56:50.668            57.672               Magadan1          7209.000
       348   09 Jun 2027 03:57:05.467   09 Jun 2027 03:57:26.281            20.814                Anadyr1          2601.750
       349   09 Jun 2027 03:57:37.227   09 Jun 2027 03:59:13.176            95.949               Magadan2         11993.625
       350   09 Jun 2027 05:10:25.308   09 Jun 2027 05:10:40.051            14.743                Sumatra          1842.875
       351   09 Jun 2027 05:16:38.744   09 Jun 2027 05:18:20.688           101.944                Sumatra         12743.000
       352   09 Jun 2027 05:31:17.447   09 Jun 2027 05:34:33.866           196.419                Irkutsk         24552.375
       353   09 Jun 2027 06:48:14.531   09 Jun 2027 06:49:56.484           101.953                Sumatra         12744.125
       354   09 Jun 2027 07:08:13.627   09 Jun 2027 07:08:41.627            28.000              Murmansk2          3500.000
       355   09 Jun 2027 07:08:49.215   09 Jun 2027 07:10:21.711            92.496                Irkutsk         11562.000
       356   09 Jun 2027 07:10:49.829   09 Jun 2027 07:12:03.373            73.544                Novosib          9193.000
       357   09 Jun 2027 08:42:44.727   09 Jun 2027 08:43:14.463            29.736                 Moscow          3717.000
       358   09 Jun 2027 08:43:30.792   09 Jun 2027 08:45:08.020            97.228                Novosib         12153.500
       359   09 Jun 2027 08:45:37.743   09 Jun 2027 08:45:55.048            17.305                 Moscow          2163.125
       360   09 Jun 2027 08:46:10.324   09 Jun 2027 08:48:19.851           129.527                Norilsk         16190.875
       361   09 Jun 2027 10:20:55.503   09 Jun 2027 10:22:19.499            83.996              Murmansk1         10499.500
       362   09 Jun 2027 10:23:16.591   09 Jun 2027 10:23:32.896            16.305                 Moscow          2038.125
       363   09 Jun 2027 10:33:38.243   09 Jun 2027 10:37:11.090           212.847                Anadyr2         26605.875
       364   09 Jun 2027 11:27:17.006   09 Jun 2027 11:29:33.978           136.972               CapeTown         17121.500
       365   09 Jun 2027 12:07:46.722   09 Jun 2027 12:10:27.920           161.198                Anadyr1         20149.750
       366   09 Jun 2027 13:46:20.759   09 Jun 2027 13:50:36.783           256.024               Magadan1         32003.000
       367   09 Jun 2027 13:53:46.582   09 Jun 2027 13:56:30.708           164.126               Magadan2         20515.750
       368   09 Jun 2027 16:14:40.622   09 Jun 2027 16:18:19.988           219.366            RioGallegos         27420.750
       369   09 Jun 2027 17:05:01.490   09 Jun 2027 17:05:59.360            57.870                Irkutsk          7233.750
       370   09 Jun 2027 17:16:08.359   09 Jun 2027 17:16:59.439            51.080                Sumatra          6385.000
       371   09 Jun 2027 17:17:44.321   09 Jun 2027 17:21:28.678           224.357                Sumatra         28044.625
       372   09 Jun 2027 17:22:42.922   09 Jun 2027 17:23:30.922            48.000                Sumatra          6000.000
       373   09 Jun 2027 18:38:40.811   09 Jun 2027 18:40:07.664            86.853                Novosib         10856.625
       374   09 Jun 2027 18:46:10.889   09 Jun 2027 18:49:22.017           191.128                  Delhi         23891.000
       375   09 Jun 2027 21:50:55.897   09 Jun 2027 21:53:41.485           165.588                 Moscow         20698.500
       376   09 Jun 2027 22:16:06.664   09 Jun 2027 22:17:29.253            82.589               CapeTown         10323.625
       377   09 Jun 2027 22:23:15.404   09 Jun 2027 22:23:55.134            39.730               CapeTown          4966.250
       378   10 Jun 2027 04:09:51.244   10 Jun 2027 04:11:06.994            75.750               Magadan1          9468.750
       379   10 Jun 2027 04:11:11.907   10 Jun 2027 04:11:13.175             1.268                Irkutsk           158.500
       380   10 Jun 2027 04:46:06.285   10 Jun 2027 04:46:40.760            34.475            RioGallegos          4309.375
       381   10 Jun 2027 05:21:53.925   10 Jun 2027 05:23:15.678            81.753                Sumatra         10219.125
       382   10 Jun 2027 05:43:25.128   10 Jun 2027 05:45:59.897           154.769                Irkutsk         19346.125
       383   10 Jun 2027 05:46:00.267   10 Jun 2027 05:46:10.203             9.936                Novosib          1242.000
       384   10 Jun 2027 05:46:21.709   10 Jun 2027 05:47:14.907            53.198                Novosib          6649.750
       385   10 Jun 2027 07:20:51.267   10 Jun 2027 07:21:35.231            43.964                 Moscow          5495.500
       386   10 Jun 2027 07:21:44.016   10 Jun 2027 07:22:19.650            35.634              Murmansk1          4454.250
       387   10 Jun 2027 07:22:28.831   10 Jun 2027 07:22:57.343            28.512                Norilsk          3564.000
       388   10 Jun 2027 07:23:41.677   10 Jun 2027 07:23:58.845            17.168              Murmansk2          2146.000
       389   10 Jun 2027 07:24:05.886   10 Jun 2027 07:24:37.529            31.643                Novosib          3955.375
       390   10 Jun 2027 08:42:36.029   10 Jun 2027 08:42:47.149            11.120                  Delhi          1390.000
       391   10 Jun 2027 08:49:26.112   10 Jun 2027 08:50:04.522            38.410                  Delhi          4801.250
       392   10 Jun 2027 08:55:14.983   10 Jun 2027 08:57:08.176           113.193                Novosib         14149.125
       393   10 Jun 2027 08:57:30.924   10 Jun 2027 08:57:51.018            20.094                 Moscow          2511.750
       394   10 Jun 2027 08:57:52.077   10 Jun 2027 08:58:13.440            21.363                Norilsk          2670.375
       395   10 Jun 2027 08:58:18.908   10 Jun 2027 08:58:33.158            14.250                Norilsk          1781.250
       396   10 Jun 2027 08:58:34.826   10 Jun 2027 08:59:14.587            39.761              Murmansk1          4970.125
       397   10 Jun 2027 10:45:03.295   10 Jun 2027 10:48:49.044           225.749                Anadyr2         28218.625
       398   10 Jun 2027 12:19:44.951   10 Jun 2027 12:21:01.282            76.331                Anadyr2          9541.375
       399   10 Jun 2027 12:21:25.084   10 Jun 2027 12:24:16.435           171.351                Anadyr1         21418.875
       400   10 Jun 2027 13:58:13.812   10 Jun 2027 14:00:47.765           153.953               Magadan2         19244.125
       401   10 Jun 2027 14:02:28.252   10 Jun 2027 14:03:45.006            76.754               Magadan1          9594.250
       402   10 Jun 2027 14:05:06.619   10 Jun 2027 14:05:46.516            39.897               Magadan2          4987.125
       403   10 Jun 2027 16:26:19.308   10 Jun 2027 16:32:46.845           387.537            RioGallegos         48442.125
       404   10 Jun 2027 17:14:46.420   10 Jun 2027 17:16:14.920            88.500                Irkutsk         11062.500
       405   10 Jun 2027 17:17:52.537   10 Jun 2027 17:17:55.869             3.332                Irkutsk           416.500
       406   10 Jun 2027 17:19:21.748   10 Jun 2027 17:19:27.736             5.988                Irkutsk           748.500
       407   10 Jun 2027 17:27:41.681   10 Jun 2027 17:31:37.376           235.695                Sumatra         29461.875
       408   10 Jun 2027 18:49:23.947   10 Jun 2027 18:51:08.171           104.224                Novosib         13028.000
       409   10 Jun 2027 18:52:11.213   10 Jun 2027 18:53:46.619            95.406                Novosib         11925.750
       410   10 Jun 2027 18:58:25.202   10 Jun 2027 19:01:13.397           168.195                  Delhi         21024.375
       411   10 Jun 2027 20:29:48.887   10 Jun 2027 20:31:24.554            95.667                 Moscow         11958.375
       412   10 Jun 2027 21:59:22.433   10 Jun 2027 22:00:10.516            48.083              Murmansk2          6010.375
       413   10 Jun 2027 22:04:57.403   10 Jun 2027 22:05:42.716            45.313                 Moscow          5664.125
       414   10 Jun 2027 22:27:37.182   10 Jun 2027 22:29:07.270            90.088               CapeTown         11261.000
       415   11 Jun 2027 04:22:03.026   11 Jun 2027 04:22:49.130            46.104              Murmansk1          5763.000
       416   11 Jun 2027 04:22:56.202   11 Jun 2027 04:22:58.785             2.583               Magadan1           322.875
       417   11 Jun 2027 04:23:16.054   11 Jun 2027 04:23:18.886             2.832                Irkutsk           354.000
       418   11 Jun 2027 04:23:30.164   11 Jun 2027 04:24:28.806            58.642                Norilsk          7330.250
       419   11 Jun 2027 04:27:22.854   11 Jun 2027 04:27:33.166            10.312                Norilsk          1289.000
       420   11 Jun 2027 04:58:04.853   11 Jun 2027 04:59:47.022           102.169            RioGallegos         12771.125
       421   11 Jun 2027 05:01:22.696   11 Jun 2027 05:01:45.548            22.852            RioGallegos          2856.500
       422   11 Jun 2027 05:33:31.401   11 Jun 2027 05:35:22.354           110.953                Sumatra         13869.125
       423   11 Jun 2027 05:48:04.865   11 Jun 2027 05:49:05.777            60.912                  Delhi          7614.000
       424   11 Jun 2027 05:55:48.298   11 Jun 2027 05:56:00.531            12.233                Novosib          1529.125
       425   11 Jun 2027 05:56:01.558   11 Jun 2027 05:56:12.167            10.609              Murmansk1          1326.125
       426   11 Jun 2027 05:56:12.503   11 Jun 2027 05:58:40.450           147.947                Irkutsk         18493.375
       427   11 Jun 2027 05:58:59.551   11 Jun 2027 05:59:25.946            26.395                Novosib          3299.375
       428   11 Jun 2027 05:59:26.963   11 Jun 2027 06:00:28.335            61.372                Novosib          7671.500
       429   11 Jun 2027 07:19:21.369   11 Jun 2027 07:20:20.985            59.616                  Delhi          7452.000
       430   11 Jun 2027 07:33:09.500   11 Jun 2027 07:34:00.603            51.103                Novosib          6387.875
       431   11 Jun 2027 07:34:22.157   11 Jun 2027 07:35:32.595            70.438              Murmansk2          8804.750
       432   11 Jun 2027 07:36:18.417   11 Jun 2027 07:37:18.170            59.753                 Moscow          7469.125
       433   11 Jun 2027 09:07:05.851   11 Jun 2027 09:08:03.529            57.678                Novosib          7209.750
       434   11 Jun 2027 09:08:12.193   11 Jun 2027 09:08:58.621            46.428              Murmansk2          5803.500
       435   11 Jun 2027 09:09:07.569   11 Jun 2027 09:09:42.455            34.886                Novosib          4360.750
       436   11 Jun 2027 09:09:50.351   11 Jun 2027 09:10:30.285            39.934                Novosib          4991.750
       437   11 Jun 2027 09:10:39.657   11 Jun 2027 09:11:04.749            25.092              Murmansk1          3136.500
       438   11 Jun 2027 09:11:17.378   11 Jun 2027 09:12:16.773            59.395                 Moscow          7424.375
       439   11 Jun 2027 10:18:52.644   11 Jun 2027 10:20:41.017           108.373               CapeTown         13546.625
       440   11 Jun 2027 10:22:55.545   11 Jun 2027 10:23:17.031            21.486               CapeTown          2685.750
       441   11 Jun 2027 10:56:43.030   11 Jun 2027 11:00:43.269           240.239                Anadyr1         30029.875
       442   11 Jun 2027 11:02:02.559   11 Jun 2027 11:03:24.227            81.668                Anadyr2         10208.500
       443   11 Jun 2027 12:36:17.733   11 Jun 2027 12:36:55.769            38.036                Anadyr1          4754.500
       444   11 Jun 2027 14:10:08.602   11 Jun 2027 14:12:08.907           120.305               Magadan2         15038.125
       445   11 Jun 2027 14:12:53.628   11 Jun 2027 14:14:33.269            99.641               Magadan1         12455.125
       446   11 Jun 2027 14:15:11.762   11 Jun 2027 14:15:33.877            22.115               Magadan1          2764.375
       447   11 Jun 2027 14:18:21.714   11 Jun 2027 14:19:13.766            52.052               Magadan2          6506.500
       448   11 Jun 2027 16:38:03.628   11 Jun 2027 16:44:06.331           362.703            RioGallegos         45337.875
       449   11 Jun 2027 17:27:15.348   11 Jun 2027 17:28:22.405            67.057                Irkutsk          8382.125
       450   11 Jun 2027 17:29:53.533   11 Jun 2027 17:31:56.081           122.548                Novosib         15318.500
       451   11 Jun 2027 17:39:22.903   11 Jun 2027 17:41:11.557           108.654                Sumatra         13581.750
       452   11 Jun 2027 17:41:50.160   11 Jun 2027 17:42:40.589            50.429                Sumatra          6303.625
       453   11 Jun 2027 19:01:19.237   11 Jun 2027 19:03:30.991           131.754                Novosib         16469.250
       454   11 Jun 2027 19:09:14.045   11 Jun 2027 19:10:27.046            73.001                  Delhi          9125.125
       455   11 Jun 2027 19:11:18.829   11 Jun 2027 19:13:07.883           109.054                  Delhi         13631.750
       456   11 Jun 2027 20:39:37.118   11 Jun 2027 20:40:07.766            30.648              Murmansk1          3831.000
       457   11 Jun 2027 20:40:48.704   11 Jun 2027 20:44:04.239           195.535                 Moscow         24441.875
       458   11 Jun 2027 22:39:14.132   11 Jun 2027 22:41:22.330           128.198               CapeTown         16024.750
       459   12 Jun 2027 04:34:02.955   12 Jun 2027 04:34:05.889             2.934              Murmansk1           366.750
       460   12 Jun 2027 04:34:05.889   12 Jun 2027 04:34:32.345            26.456              Murmansk2          3307.000
       461   12 Jun 2027 04:34:38.744   12 Jun 2027 04:35:25.517            46.773              Murmansk1          5846.625
       462   12 Jun 2027 05:10:06.700   12 Jun 2027 05:11:29.888            83.188            RioGallegos         10398.500
       463   12 Jun 2027 05:45:16.055   12 Jun 2027 05:45:45.102            29.047                Sumatra          3630.875
       464   12 Jun 2027 05:46:58.736   12 Jun 2027 05:47:57.823            59.087                Sumatra          7385.875
       465   12 Jun 2027 05:57:12.542   12 Jun 2027 05:58:06.270            53.728                  Delhi          6716.000
       466   12 Jun 2027 06:07:28.582   12 Jun 2027 06:08:23.793            55.211                Norilsk          6901.375
       467   12 Jun 2027 06:08:30.024   12 Jun 2027 06:09:58.114            88.090                Irkutsk         11011.250
       468   12 Jun 2027 06:10:19.868   12 Jun 2027 06:10:49.366            29.498              Murmansk2          3687.250
       469   12 Jun 2027 06:11:36.720   12 Jun 2027 06:12:22.254            45.534              Murmansk1          5691.750
       470   12 Jun 2027 07:22:48.458   12 Jun 2027 07:23:57.955            69.497                Sumatra          8687.125
       471   12 Jun 2027 07:29:13.459   12 Jun 2027 07:30:56.000           102.541                  Delhi         12817.625
       472   12 Jun 2027 07:45:15.557   12 Jun 2027 07:46:20.036            64.479                 Moscow          8059.875
       473   12 Jun 2027 07:46:36.263   12 Jun 2027 07:47:24.248            47.985              Murmansk2          5998.125
       474   12 Jun 2027 09:08:31.253   12 Jun 2027 09:09:45.810            74.557                  Delhi          9319.625
       475   12 Jun 2027 09:16:53.372   12 Jun 2027 09:17:48.316            54.944                 Moscow          6868.000
       476   12 Jun 2027 09:18:14.743   12 Jun 2027 09:20:02.376           107.633              Murmansk1         13454.125
       477   12 Jun 2027 09:20:09.205   12 Jun 2027 09:21:06.102            56.897                Novosib          7112.125
       478   12 Jun 2027 09:21:33.596   12 Jun 2027 09:22:53.494            79.898                 Moscow          9987.250
       479   12 Jun 2027 09:23:00.340   12 Jun 2027 09:23:17.947            17.607                Norilsk          2200.875
       480   12 Jun 2027 09:23:25.585   12 Jun 2027 09:23:47.105            21.520                Norilsk          2690.000
       481   12 Jun 2027 09:23:49.115   12 Jun 2027 09:24:17.225            28.110                Norilsk          3513.750
       482   12 Jun 2027 10:29:36.799   12 Jun 2027 10:32:22.672           165.873               CapeTown         20734.125
