uniorb/output/strategy_1/Drop/Drop_KinoSat_110809.txt

KinoSat_110809
-------------------------
    Access    *     Start Time (UTCG)     *     Stop Time (UTCG)  *   Duration (s)        *       Station  *  Data (Mbytes)
         1   01 Jun 2027 04:35:24.229   01 Jun 2027 04:35:54.977            30.748               Magadan2           960.875
         2   01 Jun 2027 04:36:01.518   01 Jun 2027 04:37:24.342            82.824                Anadyr1          2588.250
         3   01 Jun 2027 04:38:42.255   01 Jun 2027 04:39:22.195            39.940                Anadyr2          1248.125
         4   01 Jun 2027 05:16:50.681   01 Jun 2027 05:17:19.004            28.323            RioGallegos           885.094
         5   01 Jun 2027 06:08:58.300   01 Jun 2027 06:09:41.910            43.610                Irkutsk          1362.812
         6   01 Jun 2027 06:09:45.450   01 Jun 2027 06:11:26.676           101.226               Magadan1          3163.312
         7   01 Jun 2027 06:11:31.649   01 Jun 2027 06:13:20.622           108.973                Anadyr2          3405.406
         8   01 Jun 2027 06:13:39.604   01 Jun 2027 06:15:24.193           104.589                Novosib          3268.406
         9   01 Jun 2027 06:16:32.459   01 Jun 2027 06:16:40.330             7.871                Norilsk           245.969
        10   01 Jun 2027 06:50:00.947   01 Jun 2027 06:52:44.009           163.062            RioGallegos          5095.688
        11   01 Jun 2027 07:26:16.553   01 Jun 2027 07:28:34.388           137.835                Sumatra          4307.344
        12   01 Jun 2027 07:46:40.625   01 Jun 2027 07:47:05.440            24.815                Irkutsk           775.469
        13   01 Jun 2027 07:47:14.586   01 Jun 2027 07:48:07.939            53.353                Norilsk          1667.281
        14   01 Jun 2027 07:48:17.206   01 Jun 2027 07:48:36.556            19.350              Murmansk2           604.688
        15   01 Jun 2027 07:48:36.556   01 Jun 2027 07:52:35.665           239.109              Murmansk1          7472.156
        16   01 Jun 2027 07:55:47.934   01 Jun 2027 07:56:13.750            25.816              Murmansk2           806.750
        17   01 Jun 2027 07:57:11.670   01 Jun 2027 07:57:29.743            18.073              Murmansk2           564.781
        18   01 Jun 2027 08:26:44.548   01 Jun 2027 08:27:20.179            35.631            RioGallegos          1113.469
        19   01 Jun 2027 08:27:43.234   01 Jun 2027 08:28:25.978            42.744            RioGallegos          1335.750
        20   01 Jun 2027 09:01:01.986   01 Jun 2027 09:02:25.946            83.960                Sumatra          2623.750
        21   01 Jun 2027 09:10:50.963   01 Jun 2027 09:11:51.450            60.487                  Delhi          1890.219
        22   01 Jun 2027 09:23:36.582   01 Jun 2027 09:24:29.892            53.310                Irkutsk          1665.937
        23   01 Jun 2027 09:24:31.372   01 Jun 2027 09:24:52.531            21.159              Murmansk2           661.219
        24   01 Jun 2027 09:24:52.531   01 Jun 2027 09:25:02.893            10.362              Murmansk1           323.812
        25   01 Jun 2027 09:25:07.459   01 Jun 2027 09:28:14.126           186.667                 Moscow          5833.344
        26   01 Jun 2027 10:45:49.775   01 Jun 2027 10:47:28.620            98.845                  Delhi          3088.906
        27   01 Jun 2027 10:50:10.018   01 Jun 2027 10:50:28.331            18.313                  Delhi           572.281
        28   01 Jun 2027 11:00:08.840   01 Jun 2027 11:00:21.675            12.835                Novosib           401.094
        29   01 Jun 2027 11:00:21.822   01 Jun 2027 11:01:00.274            38.452              Murmansk2          1201.625
        30   01 Jun 2027 11:01:00.513   01 Jun 2027 11:01:32.250            31.737                Norilsk           991.781
        31   01 Jun 2027 11:01:48.688   01 Jun 2027 11:04:20.895           152.207              Murmansk2          4756.469
        32   01 Jun 2027 11:05:02.799   01 Jun 2027 11:05:29.215            26.416              Murmansk1           825.500
        33   01 Jun 2027 11:05:34.072   01 Jun 2027 11:05:43.486             9.414              Murmansk1           294.187
        34   01 Jun 2027 12:29:24.300   01 Jun 2027 12:31:06.289           101.989                 Moscow          3187.156
        35   01 Jun 2027 12:31:49.132   01 Jun 2027 12:32:35.190            46.058                 Moscow          1439.312
        36   01 Jun 2027 12:32:46.455   01 Jun 2027 12:33:28.755            42.300                 Moscow          1321.875
        37   01 Jun 2027 12:33:43.055   01 Jun 2027 12:37:36.923           233.868              Murmansk1          7308.375
        38   01 Jun 2027 12:38:40.256   01 Jun 2027 12:38:43.316             3.060              Murmansk1            95.625
        39   01 Jun 2027 12:39:02.313   01 Jun 2027 12:39:09.667             7.354              Murmansk1           229.813
        40   01 Jun 2027 12:39:50.262   01 Jun 2027 12:40:01.463            11.201                Norilsk           350.031
        41   01 Jun 2027 12:41:36.614   01 Jun 2027 12:41:56.362            19.748              Murmansk2           617.125
        42   01 Jun 2027 12:49:29.428   01 Jun 2027 12:52:57.538           208.110                Anadyr2          6503.438
        43   01 Jun 2027 13:43:07.091   01 Jun 2027 13:44:45.973            98.882               CapeTown          3090.062
        44   01 Jun 2027 13:45:32.984   01 Jun 2027 13:46:36.745            63.761               CapeTown          1992.531
        45   01 Jun 2027 14:10:42.029   01 Jun 2027 14:12:03.096            81.067              Murmansk1          2533.344
        46   01 Jun 2027 14:23:36.417   01 Jun 2027 14:25:38.738           122.321                Anadyr2          3822.531
        47   01 Jun 2027 14:26:12.465   01 Jun 2027 14:27:58.398           105.933                Anadyr1          3310.406
        48   01 Jun 2027 15:19:12.357   01 Jun 2027 15:19:42.806            30.449               CapeTown           951.531
        49   01 Jun 2027 15:51:09.427   01 Jun 2027 15:51:42.231            32.804              Murmansk1          1025.125
        50   01 Jun 2027 15:53:15.797   01 Jun 2027 15:54:08.668            52.871              Murmansk2          1652.219
        51   01 Jun 2027 15:59:21.036   01 Jun 2027 16:00:55.654            94.618                Anadyr1          2956.812
        52   01 Jun 2027 16:01:20.188   01 Jun 2027 16:02:34.622            74.434                Anadyr2          2326.062
        53   01 Jun 2027 16:03:09.677   01 Jun 2027 16:05:17.944           128.267               Magadan1          4008.344
        54   01 Jun 2027 16:05:29.746   01 Jun 2027 16:06:23.795            54.049               Magadan2          1689.031
        55   01 Jun 2027 16:09:20.948   01 Jun 2027 16:10:02.692            41.744               Magadan2          1304.500
        56   01 Jun 2027 17:35:16.437   01 Jun 2027 17:36:48.052            91.615                Anadyr2          2862.969
        57   01 Jun 2027 17:36:48.594   01 Jun 2027 17:38:12.233            83.639                Anadyr1          2613.719
        58   01 Jun 2027 17:38:29.536   01 Jun 2027 17:38:36.501             6.965                Anadyr1           217.656
        59   01 Jun 2027 17:39:36.051   01 Jun 2027 17:43:26.995           230.944               Magadan2          7217.000
        60   01 Jun 2027 18:30:31.198   01 Jun 2027 18:33:49.545           198.347            RioGallegos          6198.344
        61   01 Jun 2027 19:11:37.981   01 Jun 2027 19:12:41.093            63.112                Anadyr2          1972.250
        62   01 Jun 2027 19:13:11.378   01 Jun 2027 19:17:17.789           246.411                Norilsk          7700.344
        63   01 Jun 2027 19:17:43.850   01 Jun 2027 19:18:52.522            68.672                Irkutsk          2146.000
        64   01 Jun 2027 19:20:04.852   01 Jun 2027 19:21:12.555            67.703                Irkutsk          2115.719
        65   01 Jun 2027 19:24:43.497   01 Jun 2027 19:27:09.309           145.812                Irkutsk          4556.625
        66   01 Jun 2027 19:32:47.623   01 Jun 2027 19:35:08.401           140.778                Sumatra          4399.313
        67   01 Jun 2027 20:52:53.991   01 Jun 2027 20:53:29.538            35.547                Irkutsk          1110.844
        68   01 Jun 2027 20:54:09.608   01 Jun 2027 20:56:36.890           147.282                Novosib          4602.562
        69   01 Jun 2027 21:02:02.147   01 Jun 2027 21:04:54.875           172.728                  Delhi          5397.750
        70   01 Jun 2027 22:27:40.875   01 Jun 2027 22:31:35.140           234.265              Murmansk2          7320.781
        71   01 Jun 2027 22:32:13.990   01 Jun 2027 22:34:35.017           141.027              Murmansk1          4407.094
        72   02 Jun 2027 00:00:46.802   02 Jun 2027 00:00:58.589            11.787               Magadan2           368.344
        73   02 Jun 2027 00:01:33.392   02 Jun 2027 00:02:20.647            47.255               Magadan2          1476.719
        74   02 Jun 2027 00:03:11.105   02 Jun 2027 00:04:16.568            65.463              Murmansk2          2045.719
        75   02 Jun 2027 00:04:40.083   02 Jun 2027 00:04:56.350            16.267              Murmansk1           508.344
        76   02 Jun 2027 00:05:00.198   02 Jun 2027 00:05:38.980            38.782                Novosib          1211.937
        77   02 Jun 2027 00:06:45.781   02 Jun 2027 00:07:52.788            67.007                 Moscow          2093.969
        78   02 Jun 2027 00:08:31.746   02 Jun 2027 00:09:22.010            50.264                 Moscow          1570.750
        79   02 Jun 2027 00:10:16.774   02 Jun 2027 00:11:13.551            56.777                 Moscow          1774.281
        80   02 Jun 2027 00:31:57.840   02 Jun 2027 00:34:54.888           177.048               CapeTown          5532.750
        81   02 Jun 2027 00:38:46.284   02 Jun 2027 00:38:57.343            11.059               CapeTown           345.594
        82   02 Jun 2027 01:31:19.992   02 Jun 2027 01:31:47.616            27.624               Magadan2           863.250
        83   02 Jun 2027 01:34:39.381   02 Jun 2027 01:34:42.623             3.242               Magadan2           101.312
        84   02 Jun 2027 01:35:58.635   02 Jun 2027 01:36:38.813            40.178               Magadan2          1255.562
        85   02 Jun 2027 01:39:07.956   02 Jun 2027 01:40:04.886            56.930              Murmansk1          1779.063
        86   02 Jun 2027 01:40:04.886   02 Jun 2027 01:40:37.684            32.798              Murmansk2          1024.938
        87   02 Jun 2027 01:42:20.271   02 Jun 2027 01:42:52.986            32.715                 Moscow          1022.344
        88   02 Jun 2027 01:43:39.366   02 Jun 2027 01:43:56.871            17.505                 Moscow           547.031
        89   02 Jun 2027 01:45:37.894   02 Jun 2027 01:45:59.885            21.991                 Moscow           687.219
        90   02 Jun 2027 02:06:21.231   02 Jun 2027 02:07:45.830            84.599               CapeTown          2643.719
        91   02 Jun 2027 03:03:07.346   02 Jun 2027 03:03:18.374            11.028                Anadyr2           344.625
        92   02 Jun 2027 03:03:54.574   02 Jun 2027 03:04:26.770            32.196                Anadyr2          1006.125
        93   02 Jun 2027 03:04:52.448   02 Jun 2027 03:05:00.578             8.130               Magadan1           254.063
        94   02 Jun 2027 03:05:05.332   02 Jun 2027 03:05:21.856            16.524                Anadyr2           516.375
        95   02 Jun 2027 03:08:52.326   02 Jun 2027 03:09:18.201            25.875                Anadyr1           808.594
        96   02 Jun 2027 03:09:18.201   02 Jun 2027 03:09:19.485             1.284                Anadyr2            40.125
        97   02 Jun 2027 03:09:28.906   02 Jun 2027 03:11:04.252            95.346               Magadan1          2979.563
        98   02 Jun 2027 03:11:04.252   02 Jun 2027 03:11:07.239             2.987               Magadan2            93.344
        99   02 Jun 2027 03:11:09.138   02 Jun 2027 03:11:22.358            13.220               Magadan2           413.125
       100   02 Jun 2027 03:11:41.120   02 Jun 2027 03:13:31.562           110.442               Magadan1          3451.312
       101   02 Jun 2027 03:13:31.562   02 Jun 2027 03:15:31.030           119.468               Magadan2          3733.375
       102   02 Jun 2027 03:15:32.767   02 Jun 2027 03:15:52.792            20.025                Anadyr2           625.781
       103   02 Jun 2027 04:47:17.845   02 Jun 2027 04:47:48.576            30.731                Norilsk           960.344
       104   02 Jun 2027 04:47:58.251   02 Jun 2027 04:51:30.151           211.900               Magadan2          6621.875
       105   02 Jun 2027 05:28:19.046   02 Jun 2027 05:28:43.127            24.081            RioGallegos           752.531
       106   02 Jun 2027 06:21:52.646   02 Jun 2027 06:22:29.377            36.731               Magadan2          1147.844
       107   02 Jun 2027 06:22:57.295   02 Jun 2027 06:25:43.625           166.330                Novosib          5197.813
       108   02 Jun 2027 06:25:45.043   02 Jun 2027 06:26:10.989            25.946              Murmansk1           810.813
       109   02 Jun 2027 06:26:14.072   02 Jun 2027 06:26:57.183            43.111               Magadan2          1347.219
       110   02 Jun 2027 06:27:03.508   02 Jun 2027 06:27:29.487            25.979                Novosib           811.844
       111   02 Jun 2027 06:27:34.012   02 Jun 2027 06:28:07.256            33.244              Murmansk2          1038.875
       112   02 Jun 2027 06:31:39.122   02 Jun 2027 06:32:08.067            28.945              Murmansk2           904.531
       113   02 Jun 2027 07:01:56.173   02 Jun 2027 07:02:08.701            12.528            RioGallegos           391.500
       114   02 Jun 2027 07:02:15.326   02 Jun 2027 07:03:17.576            62.250            RioGallegos          1945.312
       115   02 Jun 2027 07:37:44.757   02 Jun 2027 07:38:17.114            32.357                Sumatra          1011.156
       116   02 Jun 2027 07:38:46.897   02 Jun 2027 07:41:00.296           133.399                Sumatra          4168.719
       117   02 Jun 2027 07:58:26.290   02 Jun 2027 07:59:08.030            41.740                Irkutsk          1304.375
       118   02 Jun 2027 07:59:28.214   02 Jun 2027 08:00:48.019            79.805                Norilsk          2493.906
       119   02 Jun 2027 08:01:10.368   02 Jun 2027 08:02:46.282            95.914                Norilsk          2997.312
       120   02 Jun 2027 08:02:54.813   02 Jun 2027 08:04:35.534           100.721              Murmansk2          3147.531
       121   02 Jun 2027 08:04:35.534   02 Jun 2027 08:05:20.892            45.358              Murmansk1          1417.438
       122   02 Jun 2027 08:39:10.164   02 Jun 2027 08:39:26.289            16.125            RioGallegos           503.906
       123   02 Jun 2027 09:13:23.002   02 Jun 2027 09:14:18.278            55.276                Sumatra          1727.375
       124   02 Jun 2027 09:16:14.366   02 Jun 2027 09:17:22.552            68.186                Sumatra          2130.813
       125   02 Jun 2027 09:21:18.105   02 Jun 2027 09:22:51.224            93.119                  Delhi          2909.969
       126   02 Jun 2027 09:25:10.557   02 Jun 2027 09:25:10.929             0.372                  Delhi            11.625
       127   02 Jun 2027 09:35:47.084   02 Jun 2027 09:36:01.460            14.376                Novosib           449.250
       128   02 Jun 2027 09:36:16.112   02 Jun 2027 09:37:21.003            64.891              Murmansk1          2027.844
       129   02 Jun 2027 09:37:37.273   02 Jun 2027 09:38:31.947            54.674                Novosib          1708.562
       130   02 Jun 2027 09:38:46.203   02 Jun 2027 09:39:00.837            14.634                Norilsk           457.313
       131   02 Jun 2027 09:39:08.480   02 Jun 2027 09:40:32.664            84.184              Murmansk1          2630.750
       132   02 Jun 2027 09:40:35.799   02 Jun 2027 09:41:04.091            28.292                 Moscow           884.125
       133   02 Jun 2027 09:42:55.647   02 Jun 2027 09:43:41.076            45.429                Norilsk          1419.656
       134   02 Jun 2027 10:58:24.102   02 Jun 2027 10:58:38.643            14.541                  Delhi           454.406
       135   02 Jun 2027 10:59:08.469   02 Jun 2027 11:00:52.620           104.151                  Delhi          3254.719
       136   02 Jun 2027 11:12:13.640   02 Jun 2027 11:12:24.889            11.249                Novosib           351.531
       137   02 Jun 2027 11:12:31.274   02 Jun 2027 11:13:00.660            29.386              Murmansk2           918.313
       138   02 Jun 2027 11:13:00.660   02 Jun 2027 11:13:06.857             6.197              Murmansk1           193.656
       139   02 Jun 2027 11:13:16.822   02 Jun 2027 11:14:09.402            52.580                Novosib          1643.125
       140   02 Jun 2027 11:14:12.046   02 Jun 2027 11:14:34.555            22.509                Norilsk           703.406
       141   02 Jun 2027 11:14:38.523   02 Jun 2027 11:14:43.484             4.961              Murmansk1           155.031
       142   02 Jun 2027 11:15:21.641   02 Jun 2027 11:15:32.559            10.918                 Moscow           341.187
       143   02 Jun 2027 11:17:10.531   02 Jun 2027 11:18:13.852            63.321                 Moscow          1978.781
       144   02 Jun 2027 12:41:33.464   02 Jun 2027 12:42:54.412            80.948                 Moscow          2529.625
       145   02 Jun 2027 12:44:34.602   02 Jun 2027 12:45:38.367            63.765                 Moscow          1992.656
       146   02 Jun 2027 12:45:44.067   02 Jun 2027 12:46:58.289            74.222              Murmansk1          2319.438
       147   02 Jun 2027 12:46:58.289   02 Jun 2027 12:48:19.278            80.989              Murmansk2          2530.906
       148   02 Jun 2027 12:49:38.348   02 Jun 2027 12:49:47.243             8.895              Murmansk1           277.969
       149   02 Jun 2027 12:49:58.045   02 Jun 2027 12:50:53.364            55.319              Murmansk2          1728.719
       150   02 Jun 2027 12:52:22.456   02 Jun 2027 12:53:36.495            74.039                Norilsk          2313.719
       151   02 Jun 2027 13:00:53.690   02 Jun 2027 13:04:17.286           203.596                Anadyr1          6362.375
       152   02 Jun 2027 13:04:40.153   02 Jun 2027 13:06:13.682            93.529                Anadyr2          2922.781
       153   02 Jun 2027 13:54:59.181   02 Jun 2027 13:55:33.606            34.425               CapeTown          1075.781
       154   02 Jun 2027 13:56:35.049   02 Jun 2027 13:57:01.083            26.034               CapeTown           813.562
       155   02 Jun 2027 14:23:06.794   02 Jun 2027 14:25:36.610           149.816              Murmansk1          4681.750
       156   02 Jun 2027 14:35:34.655   02 Jun 2027 14:37:29.973           115.318                Anadyr1          3603.688
       157   02 Jun 2027 14:38:11.671   02 Jun 2027 14:38:44.166            32.495                Anadyr2          1015.469
       158   02 Jun 2027 15:32:37.303   02 Jun 2027 15:34:25.785           108.482               CapeTown          3390.062
       159   02 Jun 2027 16:04:06.285   02 Jun 2027 16:05:11.097            64.812              Murmansk1          2025.375
       160   02 Jun 2027 16:11:22.226   02 Jun 2027 16:12:55.791            93.565                Anadyr1          2923.906
       161   02 Jun 2027 16:13:01.546   02 Jun 2027 16:14:05.778            64.232                Anadyr2          2007.250
       162   02 Jun 2027 16:14:51.085   02 Jun 2027 16:19:10.416           259.331               Magadan1          8104.094
       163   02 Jun 2027 17:47:17.398   02 Jun 2027 17:48:49.498            92.100                Anadyr2          2878.125
       164   02 Jun 2027 17:49:03.681   02 Jun 2027 17:49:47.505            43.824                Anadyr1          1369.500
       165   02 Jun 2027 17:50:03.593   02 Jun 2027 17:50:18.459            14.866                Anadyr1           464.563
       166   02 Jun 2027 17:51:29.584   02 Jun 2027 17:53:28.927           119.343               Magadan2          3729.469
       167   02 Jun 2027 17:55:13.508   02 Jun 2027 17:56:37.263            83.755               Magadan1          2617.344
       168   02 Jun 2027 18:42:09.649   02 Jun 2027 18:46:26.170           256.521            RioGallegos          8016.281
       169   02 Jun 2027 18:47:17.932   02 Jun 2027 18:48:36.009            78.077            RioGallegos          2439.906
       170   02 Jun 2027 19:24:19.467   02 Jun 2027 19:24:24.274             4.807                Anadyr2           150.219
       171   02 Jun 2027 19:25:10.463   02 Jun 2027 19:29:18.505           248.042                Norilsk          7751.313
       172   02 Jun 2027 19:29:32.816   02 Jun 2027 19:32:11.443           158.627                Irkutsk          4957.094
       173   02 Jun 2027 19:38:33.209   02 Jun 2027 19:39:00.512            27.303                Irkutsk           853.219
       174   02 Jun 2027 19:43:32.349   02 Jun 2027 19:45:18.002           105.653                Sumatra          3301.656
       175   02 Jun 2027 19:48:01.693   02 Jun 2027 19:48:26.738            25.045                Sumatra           782.656
       176   02 Jun 2027 19:49:36.345   02 Jun 2027 19:50:11.023            34.678                Sumatra          1083.687
       177   02 Jun 2027 21:04:55.152   02 Jun 2027 21:06:14.335            79.183                Irkutsk          2474.469
       178   02 Jun 2027 21:06:56.950   02 Jun 2027 21:07:46.514            49.564                Novosib          1548.875
       179   02 Jun 2027 21:13:28.650   02 Jun 2027 21:16:42.463           193.813                  Delhi          6056.656
       180   02 Jun 2027 22:33:24.136   02 Jun 2027 22:34:00.491            36.355                Anadyr1          1136.094
       181   02 Jun 2027 22:37:23.648   02 Jun 2027 22:38:50.930            87.282               Magadan1          2727.563
       182   02 Jun 2027 22:39:34.697   02 Jun 2027 22:43:33.418           238.721              Murmansk2          7460.031
       183   02 Jun 2027 22:44:07.464   02 Jun 2027 22:45:23.425            75.961              Murmansk1          2373.781
       184   02 Jun 2027 22:45:42.004   02 Jun 2027 22:48:47.053           185.049                 Moscow          5782.781
       185   03 Jun 2027 00:10:28.951   03 Jun 2027 00:10:52.535            23.584               Magadan2           737.000
       186   03 Jun 2027 00:15:12.058   03 Jun 2027 00:16:48.340            96.282              Murmansk2          3008.813
       187   03 Jun 2027 00:17:36.631   03 Jun 2027 00:18:11.359            34.728                Novosib          1085.250
       188   03 Jun 2027 00:18:40.730   03 Jun 2027 00:20:36.871           116.141                 Moscow          3629.406
       189   03 Jun 2027 00:43:28.058   03 Jun 2027 00:46:42.458           194.400               CapeTown          6075.000
       190   03 Jun 2027 01:42:11.456   03 Jun 2027 01:43:39.933            88.477               Magadan1          2764.906
       191   03 Jun 2027 01:44:42.385   03 Jun 2027 01:44:57.087            14.702               Magadan2           459.437
       192   03 Jun 2027 01:51:09.623   03 Jun 2027 01:52:39.297            89.674              Murmansk1          2802.312
       193   03 Jun 2027 01:54:20.682   03 Jun 2027 01:54:49.420            28.738                Novosib           898.062
       194   03 Jun 2027 01:55:20.327   03 Jun 2027 01:55:21.215             0.888              Murmansk1            27.750
       195   03 Jun 2027 01:55:22.541   03 Jun 2027 01:55:55.753            33.212                 Moscow          1037.875
       196   03 Jun 2027 01:57:35.233   03 Jun 2027 01:58:04.363            29.130                 Moscow           910.313
       197   03 Jun 2027 02:18:34.582   03 Jun 2027 02:19:55.410            80.828               CapeTown          2525.875
       198   03 Jun 2027 02:21:00.495   03 Jun 2027 02:21:20.329            19.834               CapeTown           619.812
       199   03 Jun 2027 03:16:28.647   03 Jun 2027 03:16:54.006            25.359               Magadan1           792.469
       200   03 Jun 2027 03:17:39.541   03 Jun 2027 03:17:57.024            17.483               Magadan1           546.344
       201   03 Jun 2027 03:19:21.908   03 Jun 2027 03:19:26.980             5.072               Magadan2           158.500
       202   03 Jun 2027 03:21:06.723   03 Jun 2027 03:21:22.022            15.299               Magadan2           478.094
       203   03 Jun 2027 03:21:25.394   03 Jun 2027 03:24:38.342           192.948                Anadyr1          6029.625
       204   03 Jun 2027 03:24:57.738   03 Jun 2027 03:25:13.710            15.972                Anadyr1           499.125
       205   03 Jun 2027 03:25:31.550   03 Jun 2027 03:26:37.563            66.013                Anadyr1          2062.906
       206   03 Jun 2027 03:27:29.626   03 Jun 2027 03:27:42.805            13.179                Anadyr2           411.844
       207   03 Jun 2027 04:59:27.026   03 Jun 2027 04:59:27.378             0.352               Magadan1            11.000
       208   03 Jun 2027 04:59:35.945   03 Jun 2027 05:03:14.458           218.513                Anadyr1          6828.531
       209   03 Jun 2027 05:40:06.233   03 Jun 2027 05:40:46.863            40.630            RioGallegos          1269.687
       210   03 Jun 2027 06:33:50.766   03 Jun 2027 06:34:48.383            57.617                Irkutsk          1800.531
       211   03 Jun 2027 06:34:51.203   03 Jun 2027 06:35:13.530            22.327                Norilsk           697.719
       212   03 Jun 2027 06:35:13.532   03 Jun 2027 06:36:14.175            60.643                Irkutsk          1895.094
       213   03 Jun 2027 06:36:29.092   03 Jun 2027 06:37:25.740            56.648                Novosib          1770.250
       214   03 Jun 2027 06:37:27.923   03 Jun 2027 06:37:38.048            10.125                Norilsk           316.406
       215   03 Jun 2027 06:37:43.559   03 Jun 2027 06:38:06.264            22.705                Norilsk           709.531
       216   03 Jun 2027 06:38:12.040   03 Jun 2027 06:39:08.371            56.331                Irkutsk          1760.344
       217   03 Jun 2027 06:39:19.463   03 Jun 2027 06:40:04.142            44.679              Murmansk2          1396.219
       218   03 Jun 2027 07:13:54.624   03 Jun 2027 07:16:07.586           132.962            RioGallegos          4155.063
       219   03 Jun 2027 07:49:21.924   03 Jun 2027 07:53:00.577           218.653                Sumatra          6832.906
       220   03 Jun 2027 08:02:43.565   03 Jun 2027 08:03:23.580            40.015                  Delhi          1250.469
       221   03 Jun 2027 08:10:34.117   03 Jun 2027 08:11:22.290            48.173                Novosib          1505.406
       222   03 Jun 2027 08:11:29.605   03 Jun 2027 08:13:09.208            99.603                Novosib          3112.594
       223   03 Jun 2027 08:13:11.892   03 Jun 2027 08:14:00.619            48.727              Murmansk1          1522.719
       224   03 Jun 2027 08:14:19.027   03 Jun 2027 08:15:11.188            52.161                Irkutsk          1630.031
       225   03 Jun 2027 08:15:12.870   03 Jun 2027 08:15:39.825            26.955                Novosib           842.344
       226   03 Jun 2027 08:16:36.867   03 Jun 2027 08:17:13.768            36.901              Murmansk2          1153.156
       227   03 Jun 2027 09:25:53.103   03 Jun 2027 09:26:16.303            23.200                Sumatra           725.000
       228   03 Jun 2027 09:28:04.100   03 Jun 2027 09:29:03.293            59.193                Sumatra          1849.781
       229   03 Jun 2027 09:33:08.050   03 Jun 2027 09:36:26.956           198.906                  Delhi          6215.813
       230   03 Jun 2027 09:48:03.022   03 Jun 2027 09:48:39.477            36.455                 Moscow          1139.219
       231   03 Jun 2027 09:48:48.335   03 Jun 2027 09:49:11.884            23.549              Murmansk2           735.906
       232   03 Jun 2027 09:49:11.884   03 Jun 2027 09:50:17.627            65.743              Murmansk1          2054.469
       233   03 Jun 2027 09:50:17.830   03 Jun 2027 09:51:22.891            65.061                 Moscow          2033.156
       234   03 Jun 2027 09:52:06.519   03 Jun 2027 09:52:23.677            17.158                 Moscow           536.188
       235   03 Jun 2027 11:15:01.567   03 Jun 2027 11:15:22.066            20.499                  Delhi           640.594
       236   03 Jun 2027 11:22:53.789   03 Jun 2027 11:23:06.314            12.525              Murmansk1           391.406
       237   03 Jun 2027 11:23:11.319   03 Jun 2027 11:24:09.722            58.403              Murmansk2          1825.094
       238   03 Jun 2027 11:24:32.496   03 Jun 2027 11:24:54.610            22.114                 Moscow           691.063
       239   03 Jun 2027 11:25:17.383   03 Jun 2027 11:26:13.197            55.814                Norilsk          1744.187
       240   03 Jun 2027 11:26:31.866   03 Jun 2027 11:26:37.249             5.383                Norilsk           168.219
       241   03 Jun 2027 11:26:37.516   03 Jun 2027 11:27:05.646            28.130              Murmansk1           879.062
       242   03 Jun 2027 11:27:13.872   03 Jun 2027 11:27:28.986            15.114                 Moscow           472.312
       243   03 Jun 2027 11:27:32.038   03 Jun 2027 11:27:48.020            15.982              Murmansk1           499.438
       244   03 Jun 2027 11:28:23.613   03 Jun 2027 11:28:37.699            14.086              Murmansk1           440.188
       245   03 Jun 2027 11:28:54.376   03 Jun 2027 11:29:10.600            16.224                 Moscow           507.000
       246   03 Jun 2027 12:34:46.726   03 Jun 2027 12:36:20.405            93.679               CapeTown          2927.469
       247   03 Jun 2027 12:38:52.889   03 Jun 2027 12:39:01.615             8.726               CapeTown           272.687
       248   03 Jun 2027 12:53:45.938   03 Jun 2027 12:54:52.571            66.633                 Moscow          2082.281
       249   03 Jun 2027 12:57:14.572   03 Jun 2027 13:00:09.976           175.404              Murmansk2          5481.375
       250   03 Jun 2027 13:01:39.897   03 Jun 2027 13:02:18.542            38.645              Murmansk1          1207.656
       251   03 Jun 2027 13:03:24.491   03 Jun 2027 13:03:30.823             6.332              Murmansk1           197.875
       252   03 Jun 2027 13:06:58.980   03 Jun 2027 13:07:19.920            20.940              Murmansk2           654.375
       253   03 Jun 2027 13:12:33.162   03 Jun 2027 13:16:10.134           216.972                Anadyr1          6780.375
       254   03 Jun 2027 13:17:01.061   03 Jun 2027 13:19:03.301           122.240                Anadyr2          3820.000
       255   03 Jun 2027 14:35:34.051   03 Jun 2027 14:36:03.697            29.646              Murmansk2           926.438
       256   03 Jun 2027 14:37:44.386   03 Jun 2027 14:38:05.832            21.446              Murmansk1           670.187
       257   03 Jun 2027 14:47:33.589   03 Jun 2027 14:50:19.398           165.809                Anadyr2          5181.531
       258   03 Jun 2027 14:51:25.806   03 Jun 2027 14:52:10.377            44.571                Anadyr2          1392.844
       259   03 Jun 2027 16:17:18.484   03 Jun 2027 16:19:25.862           127.378              Murmansk1          3980.562
       260   03 Jun 2027 16:19:33.122   03 Jun 2027 16:19:37.613             4.491              Murmansk2           140.344
       261   03 Jun 2027 16:20:07.814   03 Jun 2027 16:20:12.059             4.245              Murmansk2           132.656
       262   03 Jun 2027 16:23:23.520   03 Jun 2027 16:24:56.275            92.755                Anadyr1          2898.594
       263   03 Jun 2027 16:25:17.181   03 Jun 2027 16:26:01.414            44.233                Anadyr2          1382.281
       264   03 Jun 2027 16:26:39.569   03 Jun 2027 16:26:59.696            20.127                Anadyr2           628.969
       265   03 Jun 2027 16:27:03.866   03 Jun 2027 16:29:57.230           173.364               Magadan1          5417.625
       266   03 Jun 2027 16:32:16.988   03 Jun 2027 16:33:26.396            69.408               Magadan1          2169.000
       267   03 Jun 2027 17:59:18.156   03 Jun 2027 18:01:53.471           155.315                Anadyr1          4853.594
       268   03 Jun 2027 18:01:58.110   03 Jun 2027 18:03:20.916            82.806               Magadan2          2587.688
       269   03 Jun 2027 18:03:20.916   03 Jun 2027 18:04:05.691            44.775               Magadan1          1399.219
       270   03 Jun 2027 18:04:05.875   03 Jun 2027 18:05:35.546            89.671                Norilsk          2802.219
       271   03 Jun 2027 18:53:53.827   03 Jun 2027 18:56:14.669           140.842            RioGallegos          4401.313
       272   03 Jun 2027 18:57:33.797   03 Jun 2027 18:58:52.553            78.756            RioGallegos          2461.125
       273   03 Jun 2027 19:37:10.257   03 Jun 2027 19:38:56.632           106.375                Norilsk          3324.219
       274   03 Jun 2027 19:40:06.896   03 Jun 2027 19:40:26.419            19.523               Magadan1           610.094
       275   03 Jun 2027 19:41:24.509   03 Jun 2027 19:44:14.495           169.986                Irkutsk          5312.062
       276   03 Jun 2027 19:44:28.244   03 Jun 2027 19:46:17.700           109.456                Novosib          3420.500
       277   03 Jun 2027 19:55:13.297   03 Jun 2027 19:56:32.606            79.309                Sumatra          2478.406
       278   03 Jun 2027 19:57:39.220   03 Jun 2027 19:59:00.768            81.548                Sumatra          2548.375
       279   03 Jun 2027 19:59:23.668   03 Jun 2027 20:00:00.027            36.359                Sumatra          1136.219
       280   03 Jun 2027 21:17:09.108   03 Jun 2027 21:17:24.310            15.202                Novosib           475.063
       281   03 Jun 2027 21:17:48.385   03 Jun 2027 21:18:23.050            34.665                Novosib          1083.281
       282   03 Jun 2027 21:19:06.776   03 Jun 2027 21:20:06.987            60.211                Novosib          1881.594
       283   03 Jun 2027 21:22:19.173   03 Jun 2027 21:23:21.621            62.448                Novosib          1951.500
       284   03 Jun 2027 21:25:04.578   03 Jun 2027 21:27:52.874           168.296                  Delhi          5259.250
       285   03 Jun 2027 21:31:28.921   03 Jun 2027 21:31:36.256             7.335                  Delhi           229.219
       286   03 Jun 2027 22:49:05.137   03 Jun 2027 22:50:23.512            78.375                Norilsk          2449.219
       287   03 Jun 2027 22:51:30.541   03 Jun 2027 22:53:57.272           146.731              Murmansk1          4585.344
       288   03 Jun 2027 22:54:11.541   03 Jun 2027 22:55:32.505            80.964              Murmansk2          2530.125
       289   03 Jun 2027 22:56:39.835   03 Jun 2027 23:02:20.997           341.162                 Moscow         10661.312
       290   04 Jun 2027 00:27:13.248   04 Jun 2027 00:27:27.302            14.054              Murmansk2           439.188
       291   04 Jun 2027 00:27:54.030   04 Jun 2027 00:29:51.223           117.193              Murmansk1          3662.281
       292   04 Jun 2027 00:30:33.282   04 Jun 2027 00:31:24.819            51.537              Murmansk1          1610.531
       293   04 Jun 2027 00:32:29.766   04 Jun 2027 00:32:47.205            17.439                 Moscow           544.969
       294   04 Jun 2027 00:34:29.100   04 Jun 2027 00:34:39.755            10.655                 Moscow           332.969
       295   04 Jun 2027 00:36:46.632   04 Jun 2027 00:37:15.821            29.189                 Moscow           912.156
       296   04 Jun 2027 00:42:35.534   04 Jun 2027 00:42:53.617            18.083                 Moscow           565.094
       297   04 Jun 2027 00:55:04.767   04 Jun 2027 00:56:24.693            79.926               CapeTown          2497.688
       298   04 Jun 2027 00:57:11.521   04 Jun 2027 00:58:29.655            78.134               CapeTown          2441.687
       299   04 Jun 2027 01:53:45.725   04 Jun 2027 01:54:43.074            57.349               Magadan2          1792.156
       300   04 Jun 2027 01:54:43.074   04 Jun 2027 01:55:07.844            24.770               Magadan1           774.063
       301   04 Jun 2027 01:58:57.383   04 Jun 2027 01:59:07.787            10.404               Magadan2           325.125
       302   04 Jun 2027 01:59:21.674   04 Jun 2027 01:59:21.763             0.089               Magadan1             2.781
       303   04 Jun 2027 02:00:31.923   04 Jun 2027 02:00:51.503            19.580                Norilsk           611.875
       304   04 Jun 2027 02:02:57.011   04 Jun 2027 02:03:17.990            20.979               Magadan2           655.594
       305   04 Jun 2027 02:03:42.102   04 Jun 2027 02:04:40.999            58.897              Murmansk1          1840.531
       306   04 Jun 2027 02:06:24.801   04 Jun 2027 02:06:57.175            32.374              Murmansk2          1011.687
       307   04 Jun 2027 02:07:03.080   04 Jun 2027 02:07:55.468            52.388                 Moscow          1637.125
       308   04 Jun 2027 02:10:48.732   04 Jun 2027 02:10:54.964             6.232              Murmansk2           194.750
       309   04 Jun 2027 02:12:06.313   04 Jun 2027 02:12:10.022             3.709                 Moscow           115.906
       310   04 Jun 2027 02:12:27.720   04 Jun 2027 02:12:38.818            11.098                 Moscow           346.812
       311   04 Jun 2027 02:16:35.183   04 Jun 2027 02:16:44.240             9.057                 Moscow           283.031
       312   04 Jun 2027 02:17:30.250   04 Jun 2027 02:18:57.683            87.433                 Moscow          2732.281
       313   04 Jun 2027 02:40:33.834   04 Jun 2027 02:40:49.165            15.331               CapeTown           479.094
       314   04 Jun 2027 02:41:30.248   04 Jun 2027 02:42:29.847            59.599               CapeTown          1862.469
       315   04 Jun 2027 03:33:30.883   04 Jun 2027 03:33:51.682            20.799               Magadan2           649.969
       316   04 Jun 2027 03:33:51.682   04 Jun 2027 03:34:12.826            21.144               Magadan1           660.750
       317   04 Jun 2027 03:34:17.913   04 Jun 2027 03:34:26.515             8.602                Anadyr2           268.813
       318   04 Jun 2027 03:34:35.899   04 Jun 2027 03:35:08.609            32.710               Magadan1          1022.188
       319   04 Jun 2027 03:35:08.609   04 Jun 2027 03:35:27.771            19.162               Magadan2           598.813
       320   04 Jun 2027 03:35:46.338   04 Jun 2027 03:36:33.929            47.591                Anadyr2          1487.219
       321   04 Jun 2027 03:36:33.929   04 Jun 2027 03:36:56.391            22.462                Anadyr1           701.938
       322   04 Jun 2027 03:36:56.391   04 Jun 2027 03:37:12.708            16.317                Anadyr2           509.906
       323   04 Jun 2027 03:37:33.025   04 Jun 2027 03:39:54.089           141.064                Anadyr2          4408.250
       324   04 Jun 2027 05:10:46.293   04 Jun 2027 05:12:00.750            74.457                Anadyr1          2326.781
       325   04 Jun 2027 05:12:11.285   04 Jun 2027 05:12:31.088            19.803                Norilsk           618.844
       326   04 Jun 2027 05:12:33.299   04 Jun 2027 05:13:18.983            45.684                Norilsk          1427.625
       327   04 Jun 2027 05:13:26.432   04 Jun 2027 05:14:13.076            46.644                Anadyr1          1457.625
       328   04 Jun 2027 05:53:20.051   04 Jun 2027 05:53:35.913            15.862            RioGallegos           495.687
       329   04 Jun 2027 06:39:08.545   04 Jun 2027 06:39:38.154            29.609                Irkutsk           925.281
       330   04 Jun 2027 06:45:31.614   04 Jun 2027 06:46:02.331            30.717               Magadan1           959.906
       331   04 Jun 2027 06:46:14.727   04 Jun 2027 06:46:59.106            44.379               Magadan1          1386.844
       332   04 Jun 2027 06:47:01.294   04 Jun 2027 06:47:44.750            43.456               Magadan1          1358.000
       333   04 Jun 2027 06:47:57.858   04 Jun 2027 06:51:06.637           188.779                Novosib          5899.344
       334   04 Jun 2027 06:51:09.259   04 Jun 2027 06:52:14.973            65.714                Novosib          2053.562
       335   04 Jun 2027 07:27:45.474   04 Jun 2027 07:27:54.237             8.763            RioGallegos           273.844
       336   04 Jun 2027 07:30:08.875   04 Jun 2027 07:30:29.136            20.261            RioGallegos           633.156
       337   04 Jun 2027 08:01:06.332   04 Jun 2027 08:02:14.560            68.228                Sumatra          2132.125
       338   04 Jun 2027 08:03:47.045   04 Jun 2027 08:05:02.363            75.318                Sumatra          2353.688
       339   04 Jun 2027 08:13:05.459   04 Jun 2027 08:14:04.470            59.011                  Delhi          1844.094
       340   04 Jun 2027 08:21:33.275   04 Jun 2027 08:22:18.993            45.718                Norilsk          1428.688
       341   04 Jun 2027 08:22:23.300   04 Jun 2027 08:22:28.542             5.242                Irkutsk           163.812
       342   04 Jun 2027 08:22:29.004   04 Jun 2027 08:24:19.242           110.238                Irkutsk          3444.937
       343   04 Jun 2027 08:24:31.363   04 Jun 2027 08:25:05.840            34.477              Murmansk1          1077.406
       344   04 Jun 2027 08:25:05.840   04 Jun 2027 08:25:54.506            48.666              Murmansk2          1520.812
       345   04 Jun 2027 08:25:59.704   04 Jun 2027 08:26:30.561            30.857                Novosib           964.281
       346   04 Jun 2027 08:26:32.201   04 Jun 2027 08:26:44.050            11.849              Murmansk2           370.281
       347   04 Jun 2027 08:26:44.050   04 Jun 2027 08:27:14.639            30.589              Murmansk1           955.906
       348   04 Jun 2027 08:27:48.677   04 Jun 2027 08:28:20.752            32.075                Novosib          1002.344
       349   04 Jun 2027 08:31:47.739   04 Jun 2027 08:31:59.796            12.057              Murmansk2           376.781
       350   04 Jun 2027 09:04:19.469   04 Jun 2027 09:04:43.791            24.322            RioGallegos           760.063
       351   04 Jun 2027 09:07:10.112   04 Jun 2027 09:07:46.928            36.816            RioGallegos          1150.500
       352   04 Jun 2027 09:38:36.202   04 Jun 2027 09:40:40.708           124.506                Sumatra          3890.813
       353   04 Jun 2027 09:59:12.065   04 Jun 2027 10:00:14.353            62.288              Murmansk1          1946.500
       354   04 Jun 2027 10:00:20.412   04 Jun 2027 10:00:26.295             5.883              Murmansk2           183.844
       355   04 Jun 2027 10:00:36.224   04 Jun 2027 10:01:03.507            27.283              Murmansk2           852.594
       356   04 Jun 2027 10:01:21.414   04 Jun 2027 10:02:31.036            69.622                 Moscow          2175.687
       357   04 Jun 2027 10:02:39.510   04 Jun 2027 10:02:55.753            16.243                Novosib           507.594
       358   04 Jun 2027 10:03:11.838   04 Jun 2027 10:03:33.279            21.441              Murmansk2           670.031
       359   04 Jun 2027 10:03:44.386   04 Jun 2027 10:03:51.071             6.685              Murmansk1           208.906
       360   04 Jun 2027 10:04:37.991   04 Jun 2027 10:05:12.359            34.368                 Moscow          1074.000
       361   04 Jun 2027 11:24:17.609   04 Jun 2027 11:27:29.876           192.267                  Delhi          6008.344
       362   04 Jun 2027 11:32:43.034   04 Jun 2027 11:33:34.060            51.026                 Moscow          1594.563
       363   04 Jun 2027 11:33:37.127   04 Jun 2027 11:33:39.473             2.346                 Moscow            73.313
       364   04 Jun 2027 11:34:02.153   04 Jun 2027 11:34:07.109             4.956                 Moscow           154.875
       365   04 Jun 2027 11:34:08.378   04 Jun 2027 11:34:22.023            13.645              Murmansk2           426.406
       366   04 Jun 2027 11:34:29.778   04 Jun 2027 11:35:04.382            34.604              Murmansk1          1081.375
       367   04 Jun 2027 11:35:07.974   04 Jun 2027 11:36:06.956            58.982              Murmansk1          1843.188
       368   04 Jun 2027 11:36:13.805   04 Jun 2027 11:36:55.686            41.881              Murmansk1          1308.781
       369   04 Jun 2027 11:37:11.344   04 Jun 2027 11:37:55.386            44.042                Norilsk          1376.312
       370   04 Jun 2027 11:38:09.803   04 Jun 2027 11:38:09.998             0.195                 Moscow             6.094
       371   04 Jun 2027 11:38:14.591   04 Jun 2027 11:38:27.584            12.993                Norilsk           406.031
       372   04 Jun 2027 11:38:29.964   04 Jun 2027 11:38:32.085             2.121              Murmansk2            66.281
       373   04 Jun 2027 11:38:39.121   04 Jun 2027 11:39:07.934            28.813                 Moscow           900.406
       374   04 Jun 2027 11:39:33.614   04 Jun 2027 11:40:13.489            39.875              Murmansk1          1246.094
       375   04 Jun 2027 12:45:28.644   04 Jun 2027 12:47:57.661           149.017               CapeTown          4656.781
       376   04 Jun 2027 12:51:02.607   04 Jun 2027 12:52:37.046            94.439               CapeTown          2951.219
       377   04 Jun 2027 13:09:26.649   04 Jun 2027 13:10:23.152            56.503              Murmansk1          1765.719
       378   04 Jun 2027 13:10:51.691   04 Jun 2027 13:12:11.630            79.939              Murmansk2          2498.094
       379   04 Jun 2027 13:12:34.937   04 Jun 2027 13:13:41.537            66.600              Murmansk2          2081.250
       380   04 Jun 2027 13:24:19.441   04 Jun 2027 13:29:14.896           295.455                Anadyr2          9232.969
       381   04 Jun 2027 14:48:03.965   04 Jun 2027 14:48:34.015            30.050              Murmansk2           939.062
       382   04 Jun 2027 14:49:39.441   04 Jun 2027 14:49:45.967             6.526              Murmansk1           203.937
       383   04 Jun 2027 14:50:04.192   04 Jun 2027 14:50:11.713             7.521              Murmansk1           235.031
       384   04 Jun 2027 14:51:29.625   04 Jun 2027 14:51:51.991            22.366              Murmansk2           698.938
       385   04 Jun 2027 14:59:33.084   04 Jun 2027 15:01:19.009           105.925                Anadyr1          3310.156
       386   04 Jun 2027 15:01:23.332   04 Jun 2027 15:01:37.442            14.110                Anadyr2           440.938
       387   04 Jun 2027 15:01:47.969   04 Jun 2027 15:02:08.489            20.520                Anadyr2           641.250
       388   04 Jun 2027 15:02:46.796   04 Jun 2027 15:03:08.286            21.490                Anadyr2           671.562
       389   04 Jun 2027 15:04:10.156   04 Jun 2027 15:08:14.813           244.657               Magadan2          7645.531
       390   04 Jun 2027 16:35:24.875   04 Jun 2027 16:36:57.035            92.160                Anadyr2          2880.000
       391   04 Jun 2027 16:37:54.607   04 Jun 2027 16:38:43.902            49.295               Magadan2          1540.469
       392   04 Jun 2027 16:38:43.902   04 Jun 2027 16:40:15.328            91.426               Magadan1          2857.062
       393   04 Jun 2027 16:40:48.847   04 Jun 2027 16:40:58.614             9.767               Magadan1           305.219
       394   04 Jun 2027 16:42:45.309   04 Jun 2027 16:44:16.775            91.466               Magadan2          2858.312
       395   04 Jun 2027 18:11:18.676   04 Jun 2027 18:14:07.222           168.546                Anadyr2          5267.063
       396   04 Jun 2027 18:14:20.356   04 Jun 2027 18:14:27.991             7.635                Anadyr2           238.594
       397   04 Jun 2027 18:15:00.005   04 Jun 2027 18:17:38.500           158.495                Norilsk          4952.969
       398   04 Jun 2027 18:25:46.412   04 Jun 2027 18:26:04.089            17.677               Magadan1           552.406
       399   04 Jun 2027 19:05:41.970   04 Jun 2027 19:09:11.346           209.376            RioGallegos          6543.000
       400   04 Jun 2027 19:49:10.590   04 Jun 2027 19:50:52.492           101.902                Norilsk          3184.438
       401   04 Jun 2027 19:52:06.838   04 Jun 2027 19:52:17.072            10.234               Magadan2           319.812
       402   04 Jun 2027 19:53:06.131   04 Jun 2027 19:53:32.560            26.429               Magadan2           825.906
       403   04 Jun 2027 19:53:42.848   04 Jun 2027 19:54:18.434            35.586                Irkutsk          1112.063
       404   04 Jun 2027 19:55:00.844   04 Jun 2027 20:00:46.085           345.241                Novosib         10788.781
       405   04 Jun 2027 20:08:15.124   04 Jun 2027 20:09:53.214            98.090                Sumatra          3065.312
       406   04 Jun 2027 20:17:30.320   04 Jun 2027 20:19:01.490            91.170                Sumatra          2849.062
       407   04 Jun 2027 21:29:33.807   04 Jun 2027 21:31:07.618            93.811                Novosib          2931.594
       408   04 Jun 2027 21:36:47.184   04 Jun 2027 21:40:29.991           222.807                  Delhi          6962.719
       409   04 Jun 2027 23:01:05.929   04 Jun 2027 23:01:44.397            38.468               Magadan2          1202.125
       410   04 Jun 2027 23:03:08.934   04 Jun 2027 23:03:10.067             1.133               Magadan2            35.406
       411   04 Jun 2027 23:03:27.814   04 Jun 2027 23:05:36.477           128.663              Murmansk1          4020.719
       412   04 Jun 2027 23:06:12.392   04 Jun 2027 23:07:32.229            79.837              Murmansk2          2494.906
       413   04 Jun 2027 23:08:06.600   04 Jun 2027 23:11:40.872           214.272                 Moscow          6696.000
       414   04 Jun 2027 23:12:33.026   04 Jun 2027 23:14:20.275           107.249                 Moscow          3351.531
       415   05 Jun 2027 00:37:09.084   05 Jun 2027 00:37:26.431            17.347               Magadan2           542.094
       416   05 Jun 2027 00:39:14.629   05 Jun 2027 00:39:17.040             2.411              Murmansk2            75.344
       417   05 Jun 2027 00:39:44.803   05 Jun 2027 00:40:47.754            62.951              Murmansk2          1967.219
       418   05 Jun 2027 00:41:12.994   05 Jun 2027 00:43:26.473           133.479              Murmansk1          4171.219
       419   05 Jun 2027 00:45:22.028   05 Jun 2027 00:45:49.190            27.162                 Moscow           848.813
       420   05 Jun 2027 00:47:17.256   05 Jun 2027 00:47:56.493            39.237                 Moscow          1226.156
       421   05 Jun 2027 01:06:47.230   05 Jun 2027 01:08:20.837            93.607               CapeTown          2925.219
       422   05 Jun 2027 02:03:08.048   05 Jun 2027 02:03:36.619            28.571                Anadyr1           892.844
       423   05 Jun 2027 02:04:05.620   05 Jun 2027 02:04:31.889            26.269                Anadyr2           820.906
       424   05 Jun 2027 02:05:21.583   05 Jun 2027 02:07:22.499           120.916               Magadan1          3778.625
       425   05 Jun 2027 02:11:26.743   05 Jun 2027 02:11:49.490            22.747               Magadan2           710.844
       426   05 Jun 2027 02:14:05.393   05 Jun 2027 02:14:09.115             3.722                Norilsk           116.313
       427   05 Jun 2027 02:15:12.748   05 Jun 2027 02:16:27.770            75.022              Murmansk2          2344.437
       428   05 Jun 2027 02:16:47.903   05 Jun 2027 02:16:56.041             8.138              Murmansk2           254.313
       429   05 Jun 2027 02:17:52.372   05 Jun 2027 02:18:24.365            31.993              Murmansk1           999.781
       430   05 Jun 2027 02:18:27.856   05 Jun 2027 02:18:40.972            13.116                 Moscow           409.875
       431   05 Jun 2027 02:19:47.754   05 Jun 2027 02:19:55.915             8.161                 Moscow           255.031
       432   05 Jun 2027 02:21:21.703   05 Jun 2027 02:21:29.675             7.972                 Moscow           249.125
       433   05 Jun 2027 02:22:21.606   05 Jun 2027 02:22:46.665            25.059                 Moscow           783.094
       434   05 Jun 2027 02:27:08.746   05 Jun 2027 02:27:17.383             8.637                 Moscow           269.906
       435   05 Jun 2027 02:30:37.248   05 Jun 2027 02:30:47.820            10.572                 Moscow           330.375
       436   05 Jun 2027 02:43:20.658   05 Jun 2027 02:43:48.791            28.133               CapeTown           879.156
       437   05 Jun 2027 02:44:01.341   05 Jun 2027 02:44:52.191            50.850               CapeTown          1589.063
       438   05 Jun 2027 03:44:35.502   05 Jun 2027 03:45:43.860            68.358               Magadan2          2136.188
       439   05 Jun 2027 03:45:43.921   05 Jun 2027 03:46:45.021            61.100                Anadyr2          1909.375
       440   05 Jun 2027 03:47:10.304   05 Jun 2027 03:47:30.366            20.062               Magadan2           626.938
       441   05 Jun 2027 03:47:30.366   05 Jun 2027 03:47:47.178            16.812               Magadan1           525.375
       442   05 Jun 2027 03:47:47.281   05 Jun 2027 03:51:16.271           208.990                Anadyr2          6530.938
       443   05 Jun 2027 03:51:20.857   05 Jun 2027 03:51:32.116            11.259                Anadyr2           351.844
       444   05 Jun 2027 03:51:37.895   05 Jun 2027 03:51:37.982             0.087               Magadan1             2.719
       445   05 Jun 2027 05:21:16.629   05 Jun 2027 05:21:38.889            22.260                Anadyr2           695.625
       446   05 Jun 2027 05:21:49.766   05 Jun 2027 05:24:20.466           150.700                Anadyr2          4709.375
       447   05 Jun 2027 05:24:37.758   05 Jun 2027 05:25:07.185            29.427               Magadan1           919.594
       448   05 Jun 2027 05:25:07.185   05 Jun 2027 05:25:11.313             4.128               Magadan2           129.000
       449   05 Jun 2027 05:25:16.275   05 Jun 2027 05:25:40.956            24.681               Magadan2           771.281
       450   05 Jun 2027 05:25:49.005   05 Jun 2027 05:27:14.335            85.330                Anadyr2          2666.563
       451   05 Jun 2027 06:04:12.074   05 Jun 2027 06:04:56.536            44.462            RioGallegos          1389.437
       452   05 Jun 2027 06:57:32.371   05 Jun 2027 06:58:04.410            32.039                Novosib          1001.219
       453   05 Jun 2027 06:58:15.514   05 Jun 2027 06:59:15.265            59.751                Novosib          1867.219
       454   05 Jun 2027 06:59:20.210   05 Jun 2027 07:01:58.217           158.007               Magadan1          4937.719
       455   05 Jun 2027 07:01:58.217   05 Jun 2027 07:02:07.870             9.653               Magadan2           301.656
       456   05 Jun 2027 07:02:17.920   05 Jun 2027 07:03:21.124            63.204              Murmansk2          1975.125
       457   05 Jun 2027 07:03:21.124   05 Jun 2027 07:03:28.642             7.518              Murmansk1           234.938
       458   05 Jun 2027 07:38:01.483   05 Jun 2027 07:38:19.847            18.364            RioGallegos           573.875
       459   05 Jun 2027 07:41:13.458   05 Jun 2027 07:42:42.938            89.480            RioGallegos          2796.250
       460   05 Jun 2027 08:14:03.636   05 Jun 2027 08:15:30.444            86.808                Sumatra          2712.750
       461   05 Jun 2027 08:24:02.232   05 Jun 2027 08:25:10.669            68.437                  Delhi          2138.656
       462   05 Jun 2027 08:33:26.463   05 Jun 2027 08:33:47.815            21.352                Irkutsk           667.250
       463   05 Jun 2027 08:33:57.296   05 Jun 2027 08:34:18.208            20.912                Novosib           653.500
       464   05 Jun 2027 08:34:22.008   05 Jun 2027 08:34:39.241            17.233                Norilsk           538.531
       465   05 Jun 2027 08:35:06.063   05 Jun 2027 08:35:36.069            30.006                Norilsk           937.688
       466   05 Jun 2027 08:35:39.127   05 Jun 2027 08:36:39.826            60.699                Novosib          1896.844
       467   05 Jun 2027 08:36:45.870   05 Jun 2027 08:36:51.937             6.067                Irkutsk           189.594
       468   05 Jun 2027 08:36:53.946   05 Jun 2027 08:37:00.794             6.848                Irkutsk           214.000
       469   05 Jun 2027 08:37:03.472   05 Jun 2027 08:37:36.287            32.815                Novosib          1025.469
       470   05 Jun 2027 08:37:39.090   05 Jun 2027 08:38:52.411            73.321                 Moscow          2291.281
       471   05 Jun 2027 09:17:06.255   05 Jun 2027 09:17:15.865             9.610            RioGallegos           300.312
       472   05 Jun 2027 09:17:49.683   05 Jun 2027 09:18:28.391            38.708            RioGallegos          1209.625
       473   05 Jun 2027 09:51:42.646   05 Jun 2027 09:52:25.376            42.730                Sumatra          1335.312
       474   05 Jun 2027 09:53:15.844   05 Jun 2027 09:55:05.762           109.918                Sumatra          3434.937
       475   05 Jun 2027 10:11:12.858   05 Jun 2027 10:12:04.709            51.851              Murmansk1          1620.344
       476   05 Jun 2027 10:12:08.263   05 Jun 2027 10:12:24.554            16.291              Murmansk1           509.094
       477   05 Jun 2027 10:12:25.495   05 Jun 2027 10:12:26.759             1.264              Murmansk2            39.500
       478   05 Jun 2027 10:12:37.126   05 Jun 2027 10:13:40.819            63.693                Novosib          1990.406
       479   05 Jun 2027 10:13:45.162   05 Jun 2027 10:14:37.903            52.741                 Moscow          1648.156
       480   05 Jun 2027 10:15:01.289   05 Jun 2027 10:15:28.716            27.427                Novosib           857.094
       481   05 Jun 2027 10:16:38.103   05 Jun 2027 10:16:59.872            21.769                 Moscow           680.281
       482   05 Jun 2027 11:38:22.188   05 Jun 2027 11:40:21.604           119.416                  Delhi          3731.750
