uniorb/output/strategy_1/Drop/Drop_KinoSat_111210.txt

KinoSat_111210
-------------------------
    Access    *     Start Time (UTCG)     *     Stop Time (UTCG)  *   Duration (s)        *       Station  *  Data (Mbytes)
         1   01 Jun 2027 04:11:30.003   01 Jun 2027 04:11:37.005             7.002               Magadan2           218.813
         2   01 Jun 2027 04:12:19.489   01 Jun 2027 04:12:46.222            26.733               Magadan2           835.406
         3   01 Jun 2027 04:20:27.990   01 Jun 2027 04:21:08.546            40.556                Norilsk          1267.375
         4   01 Jun 2027 04:22:07.361   01 Jun 2027 04:22:42.073            34.712              Murmansk1          1084.750
         5   01 Jun 2027 04:25:11.408   01 Jun 2027 04:25:12.974             1.566              Murmansk2            48.937
         6   01 Jun 2027 05:44:15.401   01 Jun 2027 05:47:19.736           184.335               Magadan2          5760.469
         7   01 Jun 2027 05:47:19.736   01 Jun 2027 05:47:46.847            27.111               Magadan1           847.219
         8   01 Jun 2027 05:47:59.117   01 Jun 2027 05:49:13.715            74.598                Anadyr2          2331.188
         9   01 Jun 2027 07:19:16.411   01 Jun 2027 07:20:45.691            89.280                Anadyr2          2790.000
        10   01 Jun 2027 07:20:45.691   01 Jun 2027 07:22:28.809           103.118                Anadyr1          3222.438
        11   01 Jun 2027 07:22:49.512   01 Jun 2027 07:23:46.042            56.530                Anadyr1          1766.563
        12   01 Jun 2027 07:24:06.043   01 Jun 2027 07:25:49.740           103.697               Magadan1          3240.531
        13   01 Jun 2027 07:27:07.232   01 Jun 2027 07:27:32.825            25.593              Murmansk1           799.781
        14   01 Jun 2027 08:01:16.263   01 Jun 2027 08:02:22.104            65.841            RioGallegos          2057.531
        15   01 Jun 2027 08:55:57.553   01 Jun 2027 08:56:10.248            12.695                Irkutsk           396.719
        16   01 Jun 2027 08:56:20.886   01 Jun 2027 08:59:09.069           168.183               Magadan2          5255.719
        17   01 Jun 2027 08:59:32.355   01 Jun 2027 08:59:53.702            21.347              Murmansk1           667.094
        18   01 Jun 2027 08:59:53.702   01 Jun 2027 09:00:31.644            37.942              Murmansk2          1185.688
        19   01 Jun 2027 09:00:44.165   01 Jun 2027 09:01:40.143            55.978                Irkutsk          1749.312
        20   01 Jun 2027 09:01:46.496   01 Jun 2027 09:02:40.196            53.700                Novosib          1678.125
        21   01 Jun 2027 09:02:40.417   01 Jun 2027 09:02:56.144            15.727                Norilsk           491.469
        22   01 Jun 2027 09:03:05.679   01 Jun 2027 09:04:34.525            88.846              Murmansk2          2776.438
        23   01 Jun 2027 09:36:26.817   01 Jun 2027 09:38:24.985           118.168            RioGallegos          3692.750
        24   01 Jun 2027 10:11:14.777   01 Jun 2027 10:14:13.888           179.111                Sumatra          5597.219
        25   01 Jun 2027 10:33:18.724   01 Jun 2027 10:37:14.413           235.689                Novosib          7365.281
        26   01 Jun 2027 10:37:16.681   01 Jun 2027 10:37:45.640            28.959              Murmansk2           904.969
        27   01 Jun 2027 10:37:59.439   01 Jun 2027 10:38:56.184            56.745              Murmansk1          1773.281
        28   01 Jun 2027 11:17:11.576   01 Jun 2027 11:17:43.780            32.204            RioGallegos          1006.375
        29   01 Jun 2027 11:19:38.302   01 Jun 2027 11:20:28.919            50.617            RioGallegos          1581.781
        30   01 Jun 2027 11:51:12.297   01 Jun 2027 11:52:27.574            75.277                Sumatra          2352.406
        31   01 Jun 2027 11:54:17.488   01 Jun 2027 11:54:22.751             5.263                Sumatra           164.469
        32   01 Jun 2027 11:54:27.053   01 Jun 2027 11:54:47.082            20.029                Sumatra           625.906
        33   01 Jun 2027 12:06:10.023   01 Jun 2027 12:06:27.252            17.229                Novosib           538.406
        34   01 Jun 2027 12:07:15.820   01 Jun 2027 12:07:57.770            41.950                Irkutsk          1310.938
        35   01 Jun 2027 13:44:03.854   01 Jun 2027 13:44:08.843             4.989                 Moscow           155.906
        36   01 Jun 2027 13:44:47.399   01 Jun 2027 13:44:56.824             9.425              Murmansk1           294.531
        37   01 Jun 2027 13:44:56.824   01 Jun 2027 13:45:26.313            29.489              Murmansk2           921.531
        38   01 Jun 2027 13:45:27.429   01 Jun 2027 13:45:48.988            21.559                 Moscow           673.719
        39   01 Jun 2027 13:45:52.757   01 Jun 2027 13:46:17.587            24.830                 Moscow           775.937
        40   01 Jun 2027 13:46:51.842   01 Jun 2027 13:48:19.236            87.394                Norilsk          2731.062
        41   01 Jun 2027 13:48:22.305   01 Jun 2027 13:48:48.403            26.098                Norilsk           815.563
        42   01 Jun 2027 13:50:27.845   01 Jun 2027 13:50:46.198            18.353              Murmansk2           573.531
        43   01 Jun 2027 13:51:06.109   01 Jun 2027 13:51:40.483            34.374                Norilsk          1074.188
        44   01 Jun 2027 13:53:46.700   01 Jun 2027 13:54:19.872            33.172                Norilsk          1036.625
        45   01 Jun 2027 14:57:39.909   01 Jun 2027 14:58:02.892            22.983               CapeTown           718.219
        46   01 Jun 2027 14:58:25.122   01 Jun 2027 14:58:41.886            16.764               CapeTown           523.875
        47   01 Jun 2027 14:59:35.118   01 Jun 2027 15:00:27.979            52.861               CapeTown          1651.906
        48   01 Jun 2027 15:01:09.421   01 Jun 2027 15:01:38.565            29.144               CapeTown           910.750
        49   01 Jun 2027 15:22:12.426   01 Jun 2027 15:22:32.236            19.810                 Moscow           619.062
        50   01 Jun 2027 15:22:55.250   01 Jun 2027 15:23:19.971            24.721              Murmansk2           772.531
        51   01 Jun 2027 15:24:36.494   01 Jun 2027 15:24:37.857             1.363              Murmansk2            42.594
        52   01 Jun 2027 15:24:42.061   01 Jun 2027 15:25:06.568            24.507                 Moscow           765.844
        53   01 Jun 2027 15:26:25.406   01 Jun 2027 15:27:04.407            39.001              Murmansk2          1218.781
        54   01 Jun 2027 15:28:43.022   01 Jun 2027 15:29:10.052            27.030              Murmansk2           844.688
        55   01 Jun 2027 15:34:24.867   01 Jun 2027 15:37:01.591           156.724                Anadyr1          4897.625
        56   01 Jun 2027 16:37:58.210   01 Jun 2027 16:38:16.906            18.696               CapeTown           584.250
        57   01 Jun 2027 16:40:15.827   01 Jun 2027 16:40:59.572            43.745               CapeTown          1367.031
        58   01 Jun 2027 16:59:17.824   01 Jun 2027 17:00:33.044            75.220              Murmansk2          2350.625
        59   01 Jun 2027 17:02:00.412   01 Jun 2027 17:02:40.390            39.978              Murmansk2          1249.312
        60   01 Jun 2027 17:04:15.238   01 Jun 2027 17:04:40.420            25.182              Murmansk2           786.938
        61   01 Jun 2027 17:05:45.301   01 Jun 2027 17:06:24.997            39.696              Murmansk1          1240.500
        62   01 Jun 2027 17:12:00.647   01 Jun 2027 17:12:24.964            24.317                Anadyr2           759.906
        63   01 Jun 2027 17:13:02.540   01 Jun 2027 17:13:25.803            23.263                Anadyr1           726.969
        64   01 Jun 2027 17:14:01.816   01 Jun 2027 17:14:47.992            46.176                Anadyr1          1443.000
        65   01 Jun 2027 17:16:32.781   01 Jun 2027 17:16:40.630             7.849               Magadan2           245.281
        66   01 Jun 2027 17:18:19.801   01 Jun 2027 17:18:36.679            16.878                Anadyr1           527.437
        67   01 Jun 2027 17:18:56.283   01 Jun 2027 17:19:12.420            16.137               Magadan1           504.281
        68   01 Jun 2027 17:20:41.851   01 Jun 2027 17:20:56.743            14.892                Anadyr2           465.375
        69   01 Jun 2027 18:45:47.822   01 Jun 2027 18:49:57.677           249.855                Anadyr2          7807.969
        70   01 Jun 2027 18:50:22.972   01 Jun 2027 18:50:59.989            37.017               Magadan2          1156.781
        71   01 Jun 2027 18:50:59.989   01 Jun 2027 18:51:08.641             8.652               Magadan1           270.375
        72   01 Jun 2027 18:51:29.468   01 Jun 2027 18:51:46.416            16.948               Magadan1           529.625
        73   01 Jun 2027 18:52:46.322   01 Jun 2027 18:53:18.608            32.286               Magadan1          1008.938
        74   01 Jun 2027 18:54:31.067   01 Jun 2027 18:54:54.474            23.407               Magadan1           731.469
        75   01 Jun 2027 18:56:34.947   01 Jun 2027 18:56:38.725             3.778               Magadan2           118.063
        76   01 Jun 2027 18:57:18.768   01 Jun 2027 18:57:24.820             6.052               Magadan2           189.125
        77   01 Jun 2027 18:57:24.820   01 Jun 2027 18:57:47.588            22.768               Magadan1           711.500
        78   01 Jun 2027 18:59:07.689   01 Jun 2027 19:00:10.942            63.253               Magadan1          1976.656
        79   01 Jun 2027 20:21:39.996   01 Jun 2027 20:24:08.070           148.074                Anadyr1          4627.313
        80   01 Jun 2027 20:24:08.912   01 Jun 2027 20:25:42.397            93.485               Magadan2          2921.406
        81   01 Jun 2027 20:25:42.397   01 Jun 2027 20:26:13.556            31.159               Magadan1           973.719
        82   01 Jun 2027 20:26:47.286   01 Jun 2027 20:27:34.886            47.600                Norilsk          1487.500
        83   01 Jun 2027 20:29:34.819   01 Jun 2027 20:31:36.376           121.557                Irkutsk          3798.656
        84   01 Jun 2027 20:31:44.561   01 Jun 2027 20:32:14.643            30.082                Irkutsk           940.063
        85   01 Jun 2027 20:35:37.983   01 Jun 2027 20:35:40.492             2.509                Irkutsk            78.406
        86   01 Jun 2027 20:46:17.174   01 Jun 2027 20:46:54.963            37.789                Sumatra          1180.906
        87   01 Jun 2027 20:47:38.128   01 Jun 2027 20:49:32.407           114.279                Sumatra          3571.219
        88   01 Jun 2027 21:58:26.156   01 Jun 2027 21:59:22.676            56.520                Anadyr1          1766.250
        89   01 Jun 2027 21:59:32.013   01 Jun 2027 21:59:58.854            26.841                Norilsk           838.781
        90   01 Jun 2027 22:00:25.316   01 Jun 2027 22:00:39.279            13.963                Norilsk           436.344
        91   01 Jun 2027 22:00:51.558   01 Jun 2027 22:01:23.250            31.692                Norilsk           990.375
        92   01 Jun 2027 22:03:32.372   01 Jun 2027 22:04:50.967            78.595                Irkutsk          2456.094
        93   01 Jun 2027 22:09:01.058   01 Jun 2027 22:11:09.768           128.710                Novosib          4022.188
        94   01 Jun 2027 23:00:30.771   01 Jun 2027 23:01:02.377            31.606            RioGallegos           987.687
        95   01 Jun 2027 23:31:31.100   01 Jun 2027 23:33:16.463           105.363                Anadyr2          3292.594
        96   01 Jun 2027 23:33:28.762   01 Jun 2027 23:33:45.819            17.057                Anadyr2           533.031
        97   01 Jun 2027 23:34:09.543   01 Jun 2027 23:34:10.019             0.476                Anadyr2            14.875
        98   01 Jun 2027 23:34:11.089   01 Jun 2027 23:34:35.075            23.986                Anadyr2           749.563
        99   01 Jun 2027 23:35:31.316   01 Jun 2027 23:35:50.577            19.261                Norilsk           601.906
       100   01 Jun 2027 23:36:08.512   01 Jun 2027 23:37:32.510            83.998               Magadan1          2624.937
       101   01 Jun 2027 23:37:48.928   01 Jun 2027 23:37:58.833             9.905               Magadan2           309.531
       102   01 Jun 2027 23:39:18.223   01 Jun 2027 23:40:01.570            43.347              Murmansk2          1354.594
       103   01 Jun 2027 23:40:16.172   01 Jun 2027 23:41:48.792            92.620              Murmansk1          2894.375
       104   01 Jun 2027 23:48:28.533   01 Jun 2027 23:49:22.477            53.944                  Delhi          1685.750
       105   01 Jun 2027 23:51:02.011   01 Jun 2027 23:52:57.759           115.748                  Delhi          3617.125
       106   02 Jun 2027 01:04:53.171   02 Jun 2027 01:05:19.419            26.248                Anadyr2           820.250
       107   02 Jun 2027 01:05:46.363   02 Jun 2027 01:06:27.760            41.397                Anadyr1          1293.656
       108   02 Jun 2027 01:07:08.795   02 Jun 2027 01:07:29.788            20.993                Anadyr2           656.031
       109   02 Jun 2027 01:10:39.542   02 Jun 2027 01:11:06.851            27.309                Anadyr1           853.406
       110   02 Jun 2027 01:11:28.844   02 Jun 2027 01:11:48.195            19.351                Norilsk           604.719
       111   02 Jun 2027 01:11:49.608   02 Jun 2027 01:13:30.056           100.448               Magadan1          3139.000
       112   02 Jun 2027 01:13:45.415   02 Jun 2027 01:15:44.388           118.973              Murmansk2          3717.906
       113   02 Jun 2027 01:21:03.989   02 Jun 2027 01:21:26.867            22.878                Irkutsk           714.938
       114   02 Jun 2027 01:22:11.251   02 Jun 2027 01:22:19.906             8.655                 Moscow           270.469
       115   02 Jun 2027 01:23:28.934   02 Jun 2027 01:23:41.222            12.288              Murmansk2           384.000
       116   02 Jun 2027 01:26:10.903   02 Jun 2027 01:27:42.768            91.865                  Delhi          2870.781
       117   02 Jun 2027 01:48:16.846   02 Jun 2027 01:49:25.477            68.631               CapeTown          2144.719
       118   02 Jun 2027 02:38:29.670   02 Jun 2027 02:38:58.957            29.287                Anadyr1           915.219
       119   02 Jun 2027 02:39:25.180   02 Jun 2027 02:39:42.253            17.073                Anadyr1           533.531
       120   02 Jun 2027 02:40:41.149   02 Jun 2027 02:40:54.514            13.365                Anadyr2           417.656
       121   02 Jun 2027 02:41:04.691   02 Jun 2027 02:41:34.857            30.166                Anadyr1           942.688
       122   02 Jun 2027 02:42:56.256   02 Jun 2027 02:44:08.598            72.342               Magadan2          2260.688
       123   02 Jun 2027 02:46:41.188   02 Jun 2027 02:46:43.707             2.519               Magadan2            78.719
       124   02 Jun 2027 02:46:46.343   02 Jun 2027 02:47:15.385            29.042               Magadan2           907.563
       125   02 Jun 2027 02:49:37.506   02 Jun 2027 02:51:05.386            87.880              Murmansk1          2746.250
       126   02 Jun 2027 02:51:53.769   02 Jun 2027 02:52:27.288            33.519                Novosib          1047.469
       127   02 Jun 2027 02:53:04.426   02 Jun 2027 02:53:33.289            28.863                Novosib           901.969
       128   02 Jun 2027 03:00:37.789   02 Jun 2027 03:03:37.542           179.753                 Moscow          5617.281
       129   02 Jun 2027 03:16:50.801   02 Jun 2027 03:20:06.983           196.182               CapeTown          6130.688
       130   02 Jun 2027 04:20:14.422   02 Jun 2027 04:21:17.702            63.280                Anadyr1          1977.500
       131   02 Jun 2027 04:21:32.214   02 Jun 2027 04:22:44.166            71.952               Magadan1          2248.500
       132   02 Jun 2027 04:22:44.166   02 Jun 2027 04:23:43.475            59.309               Magadan2          1853.406
       133   02 Jun 2027 05:54:47.085   02 Jun 2027 05:55:51.734            64.649                Anadyr2          2020.281
       134   02 Jun 2027 05:55:58.003   02 Jun 2027 05:58:23.045           145.042                Anadyr2          4532.563
       135   02 Jun 2027 05:58:25.636   02 Jun 2027 05:58:36.416            10.780               Magadan2           336.875
       136   02 Jun 2027 05:58:54.600   02 Jun 2027 05:59:24.903            30.303                Anadyr2           946.969
       137   02 Jun 2027 05:59:24.903   02 Jun 2027 06:00:38.448            73.545                Anadyr1          2298.281
       138   02 Jun 2027 07:30:27.327   02 Jun 2027 07:31:09.429            42.102                Irkutsk          1315.688
       139   02 Jun 2027 07:31:12.545   02 Jun 2027 07:31:27.405            14.860               Magadan1           464.375
       140   02 Jun 2027 07:31:27.405   02 Jun 2027 07:31:55.145            27.740               Magadan2           866.875
       141   02 Jun 2027 07:31:56.022   02 Jun 2027 07:32:30.395            34.373               Magadan2          1074.156
       142   02 Jun 2027 07:32:45.917   02 Jun 2027 07:36:00.329           194.412                Anadyr2          6075.375
       143   02 Jun 2027 07:36:09.456   02 Jun 2027 07:36:15.893             6.437               Magadan1           201.156
       144   02 Jun 2027 07:36:17.595   02 Jun 2027 07:36:51.763            34.168                Irkutsk          1067.750
       145   02 Jun 2027 07:37:05.119   02 Jun 2027 07:37:57.277            52.158                Novosib          1629.937
       146   02 Jun 2027 07:38:17.530   02 Jun 2027 07:39:22.452            64.922                Norilsk          2028.813
       147   02 Jun 2027 07:39:31.402   02 Jun 2027 07:40:34.657            63.255              Murmansk2          1976.719
       148   02 Jun 2027 08:13:00.767   02 Jun 2027 08:14:40.934           100.167            RioGallegos          3130.219
       149   02 Jun 2027 08:52:00.449   02 Jun 2027 08:52:35.442            34.993                Sumatra          1093.531
       150   02 Jun 2027 09:08:17.715   02 Jun 2027 09:09:21.194            63.479                Novosib          1983.719
       151   02 Jun 2027 09:09:35.906   02 Jun 2027 09:12:17.256           161.350                Norilsk          5042.187
       152   02 Jun 2027 09:12:52.429   02 Jun 2027 09:13:43.307            50.878                Irkutsk          1589.937
       153   02 Jun 2027 09:14:09.470   02 Jun 2027 09:14:59.877            50.407                Novosib          1575.219
       154   02 Jun 2027 09:14:59.924   02 Jun 2027 09:18:12.320           192.396              Murmansk2          6012.375
       155   02 Jun 2027 09:18:12.320   02 Jun 2027 09:18:54.340            42.020              Murmansk1          1313.125
       156   02 Jun 2027 09:20:23.087   02 Jun 2027 09:21:09.610            46.523              Murmansk1          1453.844
       157   02 Jun 2027 09:48:37.816   02 Jun 2027 09:52:55.694           257.878            RioGallegos          8058.687
       158   02 Jun 2027 10:23:14.730   02 Jun 2027 10:25:08.566           113.836                Sumatra          3557.375
       159   02 Jun 2027 10:33:12.633   02 Jun 2027 10:33:39.894            27.261                  Delhi           851.906
       160   02 Jun 2027 10:43:23.034   02 Jun 2027 10:43:33.900            10.866                  Delhi           339.562
       161   02 Jun 2027 10:45:25.169   02 Jun 2027 10:49:11.265           226.096                Norilsk          7065.500
       162   02 Jun 2027 10:49:16.515   02 Jun 2027 10:51:06.629           110.114                Novosib          3441.063
       163   02 Jun 2027 11:29:11.133   02 Jun 2027 11:30:26.948            75.815            RioGallegos          2369.219
       164   02 Jun 2027 11:32:12.107   02 Jun 2027 11:32:54.205            42.098            RioGallegos          1315.563
       165   02 Jun 2027 12:07:37.031   02 Jun 2027 12:07:43.466             6.435                  Delhi           201.094
       166   02 Jun 2027 12:10:31.187   02 Jun 2027 12:11:22.447            51.260                  Delhi          1601.875
       167   02 Jun 2027 12:15:30.527   02 Jun 2027 12:16:49.346            78.819                Novosib          2463.094
       168   02 Jun 2027 12:17:13.537   02 Jun 2027 12:17:49.939            36.402                Novosib          1137.563
       169   02 Jun 2027 12:17:53.184   02 Jun 2027 12:18:24.643            31.459                Novosib           983.094
       170   02 Jun 2027 12:19:32.532   02 Jun 2027 12:21:57.344           144.812                Norilsk          4525.375
       171   02 Jun 2027 12:23:04.210   02 Jun 2027 12:23:16.543            12.333                Norilsk           385.406
       172   02 Jun 2027 13:51:50.448   02 Jun 2027 13:55:47.814           237.366                 Moscow          7417.688
       173   02 Jun 2027 13:55:56.462   02 Jun 2027 13:57:23.608            87.146              Murmansk1          2723.312
       174   02 Jun 2027 13:57:23.608   02 Jun 2027 13:57:33.054             9.446              Murmansk2           295.188
       175   02 Jun 2027 13:58:13.522   02 Jun 2027 13:58:24.398            10.876              Murmansk2           339.875
       176   02 Jun 2027 13:59:34.899   02 Jun 2027 14:01:08.600            93.701                Norilsk          2928.156
       177   02 Jun 2027 14:01:41.767   02 Jun 2027 14:02:23.893            42.126                Norilsk          1316.437
       178   02 Jun 2027 15:06:18.070   02 Jun 2027 15:07:05.185            47.115               CapeTown          1472.344
       179   02 Jun 2027 15:07:30.937   02 Jun 2027 15:09:20.573           109.636               CapeTown          3426.125
       180   02 Jun 2027 15:32:43.304   02 Jun 2027 15:32:52.954             9.650              Murmansk1           301.562
       181   02 Jun 2027 15:34:33.994   02 Jun 2027 15:34:56.884            22.890              Murmansk1           715.313
       182   02 Jun 2027 15:36:54.169   02 Jun 2027 15:37:06.932            12.763              Murmansk1           398.844
       183   02 Jun 2027 15:39:41.965   02 Jun 2027 15:40:24.689            42.724              Murmansk2          1335.125
       184   02 Jun 2027 15:46:19.283   02 Jun 2027 15:48:26.411           127.128                Anadyr2          3972.750
       185   02 Jun 2027 16:49:27.361   02 Jun 2027 16:49:50.969            23.608               CapeTown           737.750
       186   02 Jun 2027 16:51:43.470   02 Jun 2027 16:51:46.476             3.006               CapeTown            93.937
       187   02 Jun 2027 16:51:56.893   02 Jun 2027 16:52:51.956            55.063               CapeTown          1720.719
       188   02 Jun 2027 17:11:55.937   02 Jun 2027 17:14:42.145           166.208              Murmansk2          5194.000
       189   02 Jun 2027 17:16:14.387   02 Jun 2027 17:16:42.601            28.214              Murmansk2           881.688
       190   02 Jun 2027 17:21:54.209   02 Jun 2027 17:22:41.379            47.170                Anadyr1          1474.063
       191   02 Jun 2027 17:24:48.298   02 Jun 2027 17:24:52.363             4.065                Anadyr1           127.031
       192   02 Jun 2027 17:25:12.699   02 Jun 2027 17:26:25.663            72.964               Magadan2          2280.125
       193   02 Jun 2027 17:28:44.096   02 Jun 2027 17:28:52.131             8.035               Magadan2           251.094
       194   02 Jun 2027 17:30:40.681   02 Jun 2027 17:31:37.715            57.034               Magadan1          1782.312
       195   02 Jun 2027 18:57:49.322   02 Jun 2027 19:01:56.274           246.952                Anadyr1          7717.250
       196   02 Jun 2027 19:02:27.727   02 Jun 2027 19:02:27.896             0.169               Magadan2             5.281
       197   02 Jun 2027 19:02:40.339   02 Jun 2027 19:03:39.591            59.252               Magadan2          1851.625
       198   02 Jun 2027 19:04:21.210   02 Jun 2027 19:04:48.214            27.004               Magadan2           843.875
       199   02 Jun 2027 19:05:28.116   02 Jun 2027 19:05:59.183            31.067               Magadan2           970.844
       200   02 Jun 2027 19:08:15.585   02 Jun 2027 19:08:30.141            14.556               Magadan1           454.875
       201   02 Jun 2027 19:54:57.107   02 Jun 2027 19:56:50.706           113.599            RioGallegos          3549.969
       202   02 Jun 2027 20:33:39.806   02 Jun 2027 20:34:08.175            28.369                Anadyr1           886.531
       203   02 Jun 2027 20:34:53.507   02 Jun 2027 20:35:47.151            53.644                Anadyr2          1676.375
       204   02 Jun 2027 20:35:52.085   02 Jun 2027 20:39:02.730           190.645                Norilsk          5957.656
       205   02 Jun 2027 20:41:02.329   02 Jun 2027 20:41:35.178            32.849                Irkutsk          1026.531
       206   02 Jun 2027 20:41:47.139   02 Jun 2027 20:43:35.827           108.688                Irkutsk          3396.500
       207   02 Jun 2027 20:46:50.742   02 Jun 2027 20:47:33.767            43.025                Irkutsk          1344.531
       208   02 Jun 2027 20:56:30.658   02 Jun 2027 20:57:08.425            37.767                Sumatra          1180.219
       209   02 Jun 2027 20:59:51.322   02 Jun 2027 21:01:18.021            86.699                Sumatra          2709.344
       210   02 Jun 2027 22:11:33.443   02 Jun 2027 22:12:28.090            54.647                Norilsk          1707.719
       211   02 Jun 2027 22:12:41.614   02 Jun 2027 22:12:43.185             1.571               Magadan1            49.094
       212   02 Jun 2027 22:12:57.364   02 Jun 2027 22:13:38.418            41.054               Magadan1          1282.937
       213   02 Jun 2027 22:15:30.334   02 Jun 2027 22:16:50.739            80.405                Irkutsk          2512.656
       214   02 Jun 2027 22:21:25.289   02 Jun 2027 22:23:10.178           104.889                Novosib          3277.781
       215   02 Jun 2027 22:28:06.755   02 Jun 2027 22:28:20.475            13.720                  Delhi           428.750
       216   02 Jun 2027 22:28:58.733   02 Jun 2027 22:29:31.494            32.761                  Delhi          1023.781
       217   02 Jun 2027 23:43:15.558   02 Jun 2027 23:45:17.373           121.815                Anadyr1          3806.719
       218   02 Jun 2027 23:47:33.361   02 Jun 2027 23:47:49.510            16.149                Norilsk           504.656
       219   02 Jun 2027 23:48:09.120   02 Jun 2027 23:49:08.575            59.455               Magadan1          1857.969
       220   02 Jun 2027 23:50:45.240   02 Jun 2027 23:54:01.886           196.646              Murmansk1          6145.188
       221   03 Jun 2027 00:06:47.092   03 Jun 2027 00:07:07.836            20.744                  Delhi           648.250
       222   03 Jun 2027 00:10:22.366   03 Jun 2027 00:10:58.889            36.523                  Delhi          1141.344
       223   03 Jun 2027 00:43:17.792   03 Jun 2027 00:43:36.617            18.825            RioGallegos           588.281
       224   03 Jun 2027 00:45:04.992   03 Jun 2027 00:45:33.398            28.406            RioGallegos           887.688
       225   03 Jun 2027 01:16:34.544   03 Jun 2027 01:16:59.739            25.195                Anadyr2           787.344
       226   03 Jun 2027 01:17:16.180   03 Jun 2027 01:17:47.593            31.413                Anadyr1           981.656
       227   03 Jun 2027 01:18:08.674   03 Jun 2027 01:18:40.417            31.743                Anadyr2           991.969
       228   03 Jun 2027 01:18:40.417   03 Jun 2027 01:19:09.101            28.684                Anadyr1           896.375
       229   03 Jun 2027 01:22:42.474   03 Jun 2027 01:24:58.000           135.526               Magadan2          4235.187
       230   03 Jun 2027 01:25:45.156   03 Jun 2027 01:27:34.623           109.467              Murmansk1          3420.844
       231   03 Jun 2027 01:32:33.737   03 Jun 2027 01:32:49.368            15.631                Novosib           488.469
       232   03 Jun 2027 01:32:53.286   03 Jun 2027 01:32:55.734             2.448                Irkutsk            76.500
       233   03 Jun 2027 01:34:48.082   03 Jun 2027 01:35:30.400            42.318                 Moscow          1322.437
       234   03 Jun 2027 01:44:27.922   03 Jun 2027 01:44:37.373             9.451                  Delhi           295.344
       235   03 Jun 2027 01:56:20.125   03 Jun 2027 01:58:09.681           109.556               CapeTown          3423.625
       236   03 Jun 2027 02:50:18.436   03 Jun 2027 02:51:42.308            83.872                Anadyr2          2621.000
       237   03 Jun 2027 02:52:39.537   03 Jun 2027 02:52:51.511            11.974                Anadyr1           374.188
       238   03 Jun 2027 02:54:25.104   03 Jun 2027 02:55:42.847            77.743               Magadan1          2429.469
       239   03 Jun 2027 03:08:09.562   03 Jun 2027 03:08:58.930            49.368                Norilsk          1542.750
       240   03 Jun 2027 03:08:59.746   03 Jun 2027 03:09:24.199            24.453                Novosib           764.156
       241   03 Jun 2027 03:09:39.644   03 Jun 2027 03:10:16.165            36.521                Norilsk          1141.281
       242   03 Jun 2027 03:10:32.151   03 Jun 2027 03:10:50.655            18.504              Murmansk1           578.250
       243   03 Jun 2027 03:10:53.750   03 Jun 2027 03:11:05.185            11.435              Murmansk2           357.344
       244   03 Jun 2027 03:11:13.511   03 Jun 2027 03:11:19.133             5.622                Novosib           175.687
       245   03 Jun 2027 03:11:29.992   03 Jun 2027 03:14:17.771           167.779              Murmansk2          5243.094
       246   03 Jun 2027 03:28:46.700   03 Jun 2027 03:31:41.428           174.728               CapeTown          5460.250
       247   03 Jun 2027 04:25:30.138   03 Jun 2027 04:27:08.275            98.137                Anadyr1          3066.781
       248   03 Jun 2027 04:27:34.125   03 Jun 2027 04:28:42.342            68.217                Anadyr1          2131.781
       249   03 Jun 2027 04:29:18.043   03 Jun 2027 04:29:27.353             9.310                Anadyr1           290.937
       250   03 Jun 2027 04:31:59.584   03 Jun 2027 04:34:45.434           165.850               Magadan1          5182.813
       251   03 Jun 2027 04:34:45.434   03 Jun 2027 04:35:52.639            67.205               Magadan2          2100.156
       252   03 Jun 2027 06:09:01.621   03 Jun 2027 06:10:11.740            70.119                Anadyr1          2191.219
       253   03 Jun 2027 06:10:14.305   03 Jun 2027 06:10:24.154             9.849                Norilsk           307.781
       254   03 Jun 2027 06:10:25.745   03 Jun 2027 06:12:06.224           100.479               Magadan2          3139.969
       255   03 Jun 2027 06:13:49.222   03 Jun 2027 06:14:03.395            14.173               Magadan2           442.906
       256   03 Jun 2027 07:43:26.567   03 Jun 2027 07:44:59.495            92.928               Magadan2          2904.000
       257   03 Jun 2027 07:45:04.669   03 Jun 2027 07:46:27.889            83.220                Irkutsk          2600.625
       258   03 Jun 2027 07:46:30.581   03 Jun 2027 07:46:42.711            12.130               Magadan1           379.062
       259   03 Jun 2027 07:46:52.290   03 Jun 2027 07:48:57.092           124.802                Anadyr2          3900.062
       260   03 Jun 2027 07:48:58.465   03 Jun 2027 07:49:45.274            46.809               Magadan2          1462.781
       261   03 Jun 2027 09:20:18.055   03 Jun 2027 09:22:28.999           130.944               Magadan2          4092.000
       262   03 Jun 2027 09:22:28.999   03 Jun 2027 09:23:24.636            55.637               Magadan1          1738.656
       263   03 Jun 2027 09:23:44.495   03 Jun 2027 09:25:06.000            81.505                Irkutsk          2547.031
       264   03 Jun 2027 09:25:17.054   03 Jun 2027 09:25:43.104            26.050                Irkutsk           814.063
       265   03 Jun 2027 09:26:14.898   03 Jun 2027 09:26:47.275            32.377              Murmansk2          1011.781
       266   03 Jun 2027 10:00:52.728   03 Jun 2027 10:01:42.587            49.859            RioGallegos          1558.094
       267   03 Jun 2027 10:03:16.742   03 Jun 2027 10:03:29.312            12.570            RioGallegos           392.813
       268   03 Jun 2027 10:35:20.346   03 Jun 2027 10:37:39.815           139.469                Sumatra          4358.406
       269   03 Jun 2027 10:55:51.439   03 Jun 2027 10:55:52.834             1.395                  Delhi            43.594
       270   03 Jun 2027 10:56:42.822   03 Jun 2027 10:57:42.479            59.657                Irkutsk          1864.281
       271   03 Jun 2027 10:57:46.321   03 Jun 2027 10:57:52.890             6.569                Norilsk           205.281
       272   03 Jun 2027 10:57:54.098   03 Jun 2027 10:59:29.552            95.454                 Moscow          2982.937
       273   03 Jun 2027 10:59:34.692   03 Jun 2027 11:00:55.034            80.342              Murmansk1          2510.687
       274   03 Jun 2027 11:00:59.976   03 Jun 2027 11:01:35.908            35.932              Murmansk1          1122.875
       275   03 Jun 2027 11:01:49.449   03 Jun 2027 11:02:38.669            49.220              Murmansk1          1538.125
       276   03 Jun 2027 11:43:16.916   03 Jun 2027 11:44:41.610            84.694            RioGallegos          2646.687
       277   03 Jun 2027 12:19:52.650   03 Jun 2027 12:20:47.139            54.489                  Delhi          1702.781
       278   03 Jun 2027 12:24:42.027   03 Jun 2027 12:24:51.076             9.049                  Delhi           282.781
       279   03 Jun 2027 12:27:58.372   03 Jun 2027 12:29:07.245            68.873                Novosib          2152.281
       280   03 Jun 2027 12:29:08.949   03 Jun 2027 12:29:18.148             9.199                 Moscow           287.469
       281   03 Jun 2027 12:29:32.574   03 Jun 2027 12:29:56.402            23.828                Novosib           744.625
       282   03 Jun 2027 12:31:31.968   03 Jun 2027 12:32:27.637            55.669                Novosib          1739.656
       283   03 Jun 2027 12:32:43.662   03 Jun 2027 12:34:06.099            82.437                Norilsk          2576.156
       284   03 Jun 2027 12:35:18.131   03 Jun 2027 12:35:48.812            30.681                Norilsk           958.781
       285   03 Jun 2027 14:03:52.461   03 Jun 2027 14:07:57.381           244.920                 Moscow          7653.750
       286   03 Jun 2027 14:08:50.889   03 Jun 2027 14:11:28.071           157.182              Murmansk1          4911.938
       287   03 Jun 2027 14:12:22.635   03 Jun 2027 14:13:10.251            47.616                Norilsk          1488.000
       288   03 Jun 2027 15:17:59.693   03 Jun 2027 15:21:21.273           201.580               CapeTown          6299.375
       289   03 Jun 2027 15:43:29.148   03 Jun 2027 15:43:56.844            27.696                 Moscow           865.500
       290   03 Jun 2027 15:44:47.178   03 Jun 2027 15:45:43.862            56.684              Murmansk1          1771.375
       291   03 Jun 2027 15:48:33.678   03 Jun 2027 15:48:40.403             6.725              Murmansk2           210.156
       292   03 Jun 2027 15:48:40.403   03 Jun 2027 15:48:55.242            14.839              Murmansk1           463.719
       293   03 Jun 2027 15:54:30.913   03 Jun 2027 15:54:36.694             5.781              Murmansk1           180.656
       294   03 Jun 2027 15:58:15.270   03 Jun 2027 15:58:47.837            32.567                Anadyr2          1017.719
       295   03 Jun 2027 15:58:56.997   03 Jun 2027 16:00:08.655            71.658                Anadyr2          2239.312
       296   03 Jun 2027 16:00:48.409   03 Jun 2027 16:00:50.336             1.927                Anadyr1            60.219
       297   03 Jun 2027 16:01:54.284   03 Jun 2027 16:02:08.661            14.377                Anadyr1           449.281
       298   03 Jun 2027 16:02:31.291   03 Jun 2027 16:03:01.970            30.679                Anadyr1           958.719
       299   03 Jun 2027 16:53:31.246   03 Jun 2027 16:54:24.665            53.419               CapeTown          1669.344
       300   03 Jun 2027 16:58:56.941   03 Jun 2027 16:59:09.253            12.312               CapeTown           384.750
       301   03 Jun 2027 17:24:37.964   03 Jun 2027 17:28:12.660           214.696              Murmansk2          6709.250
       302   03 Jun 2027 17:33:55.154   03 Jun 2027 17:34:46.819            51.665                Anadyr1          1614.531
       303   03 Jun 2027 17:35:51.599   03 Jun 2027 17:36:01.378             9.779                Anadyr1           305.594
       304   03 Jun 2027 17:36:58.963   03 Jun 2027 17:36:59.557             0.594               Magadan2            18.562
       305   03 Jun 2027 17:37:10.674   03 Jun 2027 17:37:51.771            41.097                Anadyr1          1284.281
       306   03 Jun 2027 17:38:48.155   03 Jun 2027 17:40:19.367            91.212               Magadan1          2850.375
       307   03 Jun 2027 19:09:50.747   03 Jun 2027 19:11:53.276           122.529                Anadyr1          3829.031
       308   03 Jun 2027 19:11:53.682   03 Jun 2027 19:13:41.608           107.926                Anadyr2          3372.688
       309   03 Jun 2027 19:13:56.617   03 Jun 2027 19:14:16.261            19.644               Magadan1           613.875
       310   03 Jun 2027 19:14:25.050   03 Jun 2027 19:16:06.212           101.162               Magadan2          3161.313
       311   03 Jun 2027 19:16:49.710   03 Jun 2027 19:17:23.284            33.574               Magadan1          1049.188
       312   03 Jun 2027 20:05:51.719   03 Jun 2027 20:08:30.049           158.330            RioGallegos          4947.813
       313   03 Jun 2027 20:11:23.199   03 Jun 2027 20:11:43.216            20.017            RioGallegos           625.531
       314   03 Jun 2027 20:45:39.180   03 Jun 2027 20:47:48.028           128.848                Anadyr1          4026.500
       315   03 Jun 2027 20:47:48.695   03 Jun 2027 20:48:30.509            41.814                Norilsk          1306.687
       316   03 Jun 2027 20:48:49.576   03 Jun 2027 20:49:07.111            17.535               Magadan1           547.969
       317   03 Jun 2027 20:49:20.925   03 Jun 2027 20:49:48.094            27.169                Norilsk           849.031
       318   03 Jun 2027 20:50:22.027   03 Jun 2027 20:51:00.288            38.261                Norilsk          1195.656
       319   03 Jun 2027 20:52:40.079   03 Jun 2027 20:53:44.805            64.726                Irkutsk          2022.687
       320   03 Jun 2027 20:53:53.834   03 Jun 2027 20:54:38.154            44.320                Norilsk          1385.000
       321   03 Jun 2027 20:55:42.459   03 Jun 2027 20:55:54.303            11.844                Irkutsk           370.125
       322   03 Jun 2027 20:56:03.594   03 Jun 2027 20:56:44.770            41.176                Irkutsk          1286.750
       323   03 Jun 2027 21:07:29.737   03 Jun 2027 21:09:52.774           143.037                Sumatra          4469.906
       324   03 Jun 2027 21:12:11.585   03 Jun 2027 21:13:09.798            58.213                Sumatra          1819.156
       325   03 Jun 2027 22:24:34.144   03 Jun 2027 22:24:56.148            22.004               Magadan1           687.625
       326   03 Jun 2027 22:25:13.437   03 Jun 2027 22:25:40.166            26.729               Magadan2           835.281
       327   03 Jun 2027 22:25:48.192   03 Jun 2027 22:26:15.270            27.078               Magadan2           846.187
       328   03 Jun 2027 22:27:29.438   03 Jun 2027 22:28:46.133            76.695                Irkutsk          2396.719
       329   03 Jun 2027 22:29:07.097   03 Jun 2027 22:31:24.066           136.969                Novosib          4280.281
       330   03 Jun 2027 22:37:51.103   03 Jun 2027 22:39:33.242           102.139                  Delhi          3191.844
       331   03 Jun 2027 23:57:13.425   03 Jun 2027 23:57:31.498            18.073                Anadyr2           564.781
       332   04 Jun 2027 00:00:08.787   04 Jun 2027 00:01:25.068            76.281               Magadan1          2383.781
       333   04 Jun 2027 00:01:45.507   04 Jun 2027 00:01:52.520             7.013               Magadan1           219.156
       334   04 Jun 2027 00:02:03.062   04 Jun 2027 00:02:23.897            20.835               Magadan1           651.094
       335   04 Jun 2027 00:02:28.484   04 Jun 2027 00:06:02.525           214.041              Murmansk2          6688.781
       336   04 Jun 2027 00:11:22.019   04 Jun 2027 00:13:21.063           119.044                  Delhi          3720.125
       337   04 Jun 2027 00:54:53.875   04 Jun 2027 00:54:58.463             4.588            RioGallegos           143.375
       338   04 Jun 2027 00:56:36.984   04 Jun 2027 00:56:54.716            17.732            RioGallegos           554.125
       339   04 Jun 2027 00:58:27.658   04 Jun 2027 00:59:30.578            62.920            RioGallegos          1966.250
       340   04 Jun 2027 01:28:16.365   04 Jun 2027 01:28:41.856            25.491                Anadyr1           796.594
       341   04 Jun 2027 01:30:46.657   04 Jun 2027 01:31:19.697            33.040                Anadyr2          1032.500
       342   04 Jun 2027 01:34:06.426   04 Jun 2027 01:34:34.320            27.894                Anadyr2           871.687
       343   04 Jun 2027 01:34:40.349   04 Jun 2027 01:36:10.984            90.635               Magadan1          2832.344
       344   04 Jun 2027 01:36:25.577   04 Jun 2027 01:36:49.848            24.271               Magadan2           758.469
       345   04 Jun 2027 01:37:45.424   04 Jun 2027 01:38:35.657            50.233              Murmansk1          1569.781
       346   04 Jun 2027 01:38:42.874   04 Jun 2027 01:39:53.684            70.810              Murmansk2          2212.812
       347   04 Jun 2027 01:41:18.989   04 Jun 2027 01:41:42.089            23.100                Irkutsk           721.875
       348   04 Jun 2027 01:43:23.857   04 Jun 2027 01:44:28.836            64.979                Novosib          2030.594
       349   04 Jun 2027 01:50:53.315   04 Jun 2027 01:50:59.175             5.860                 Moscow           183.125
       350   04 Jun 2027 01:54:00.149   04 Jun 2027 01:54:38.645            38.496                  Delhi          1203.000
       351   04 Jun 2027 02:12:52.264   04 Jun 2027 02:13:03.013            10.749               CapeTown           335.906
       352   04 Jun 2027 02:14:10.357   04 Jun 2027 02:14:50.483            40.126               CapeTown          1253.938
       353   04 Jun 2027 03:02:08.627   04 Jun 2027 03:03:44.263            95.636                Anadyr1          2988.625
       354   04 Jun 2027 03:04:56.195   04 Jun 2027 03:05:04.087             7.892                Anadyr2           246.625
       355   04 Jun 2027 03:21:23.656   04 Jun 2027 03:22:28.218            64.562                 Moscow          2017.563
       356   04 Jun 2027 03:22:42.265   04 Jun 2027 03:22:43.159             0.894                Norilsk            27.937
       357   04 Jun 2027 03:22:43.685   04 Jun 2027 03:27:11.280           267.595                 Moscow          8362.344
       358   04 Jun 2027 03:40:47.575   04 Jun 2027 03:43:21.931           154.356               CapeTown          4823.625
       359   04 Jun 2027 04:43:56.471   04 Jun 2027 04:44:50.224            53.753               Magadan2          1679.781
       360   04 Jun 2027 04:44:50.224   04 Jun 2027 04:47:42.779           172.555               Magadan1          5392.344
       361   04 Jun 2027 04:48:11.502   04 Jun 2027 04:48:20.151             8.649                Anadyr1           270.281
       362   04 Jun 2027 04:48:33.790   04 Jun 2027 04:48:45.251            11.461                Anadyr1           358.156
       363   04 Jun 2027 06:21:24.723   04 Jun 2027 06:21:33.049             8.326               Magadan2           260.188
       364   04 Jun 2027 06:21:39.334   04 Jun 2027 06:22:58.167            78.833                Anadyr1          2463.531
       365   04 Jun 2027 06:22:58.167   04 Jun 2027 06:24:41.141           102.974                Anadyr2          3217.938
       366   04 Jun 2027 07:55:19.527   04 Jun 2027 07:55:24.834             5.307                Norilsk           165.844
       367   04 Jun 2027 07:55:28.252   04 Jun 2027 07:56:34.392            66.140               Magadan1          2066.875
       368   04 Jun 2027 07:56:34.392   04 Jun 2027 07:57:05.481            31.089               Magadan2           971.531
       369   04 Jun 2027 07:57:11.619   04 Jun 2027 07:57:57.642            46.023                Norilsk          1438.219
       370   04 Jun 2027 07:58:01.508   04 Jun 2027 07:58:04.037             2.529                Novosib            79.031
       371   04 Jun 2027 07:58:04.970   04 Jun 2027 07:58:24.853            19.883               Magadan2           621.344
       372   04 Jun 2027 07:58:25.279   04 Jun 2027 07:58:28.449             3.170                Irkutsk            99.063
       373   04 Jun 2027 07:58:33.441   04 Jun 2027 08:00:16.262           102.821               Magadan2          3213.156
       374   04 Jun 2027 08:00:20.299   04 Jun 2027 08:00:23.080             2.781                Anadyr1            86.906
       375   04 Jun 2027 08:00:30.927   04 Jun 2027 08:01:08.510            37.583                Novosib          1174.469
       376   04 Jun 2027 08:01:08.652   04 Jun 2027 08:01:22.150            13.498                Norilsk           421.812
       377   04 Jun 2027 08:01:27.600   04 Jun 2027 08:01:51.166            23.566                Norilsk           736.438
       378   04 Jun 2027 08:02:08.693   04 Jun 2027 08:02:27.522            18.829                Novosib           588.406
       379   04 Jun 2027 08:02:27.688   04 Jun 2027 08:03:12.399            44.711              Murmansk1          1397.219
       380   04 Jun 2027 08:03:26.122   04 Jun 2027 08:03:49.675            23.553                Norilsk           736.031
       381   04 Jun 2027 08:36:39.409   04 Jun 2027 08:37:52.925            73.516            RioGallegos          2297.375
       382   04 Jun 2027 09:13:06.864   04 Jun 2027 09:13:34.171            27.307                Sumatra           853.344
       383   04 Jun 2027 09:16:30.138   04 Jun 2027 09:17:54.604            84.466                Sumatra          2639.563
       384   04 Jun 2027 09:31:34.138   04 Jun 2027 09:31:54.761            20.623                Norilsk           644.469
       385   04 Jun 2027 09:32:00.319   04 Jun 2027 09:33:11.188            70.869                Irkutsk          2214.656
       386   04 Jun 2027 09:33:57.070   04 Jun 2027 09:34:22.147            25.077                Novosib           783.656
       387   04 Jun 2027 09:34:29.101   04 Jun 2027 09:35:10.670            41.569                Irkutsk          1299.031
       388   04 Jun 2027 09:35:19.023   04 Jun 2027 09:35:43.374            24.351                Norilsk           760.969
       389   04 Jun 2027 09:35:46.144   04 Jun 2027 09:35:51.324             5.180                Irkutsk           161.875
       390   04 Jun 2027 09:35:55.129   04 Jun 2027 09:36:55.583            60.454                Novosib          1889.187
       391   04 Jun 2027 09:36:58.537   04 Jun 2027 09:37:25.197            26.660              Murmansk2           833.125
       392   04 Jun 2027 09:37:28.376   04 Jun 2027 09:37:40.104            11.728                Novosib           366.500
       393   04 Jun 2027 09:38:34.509   04 Jun 2027 09:39:10.716            36.207              Murmansk1          1131.469
       394   04 Jun 2027 10:13:11.884   04 Jun 2027 10:13:39.213            27.329            RioGallegos           854.031
       395   04 Jun 2027 10:13:58.746   04 Jun 2027 10:14:28.232            29.486            RioGallegos           921.438
       396   04 Jun 2027 10:17:42.756   04 Jun 2027 10:18:07.757            25.001            RioGallegos           781.281
       397   04 Jun 2027 10:47:31.960   04 Jun 2027 10:48:12.236            40.276                Sumatra          1258.625
       398   04 Jun 2027 10:50:09.918   04 Jun 2027 10:51:58.253           108.335                Sumatra          3385.469
       399   04 Jun 2027 11:08:10.271   04 Jun 2027 11:08:47.284            37.013                Novosib          1156.656
       400   04 Jun 2027 11:08:48.893   04 Jun 2027 11:09:16.228            27.335                Irkutsk           854.219
       401   04 Jun 2027 11:09:25.556   04 Jun 2027 11:09:57.278            31.722              Murmansk1           991.312
       402   04 Jun 2027 11:10:06.228   04 Jun 2027 11:10:21.205            14.977              Murmansk1           468.031
       403   04 Jun 2027 11:10:35.171   04 Jun 2027 11:10:43.104             7.933                 Moscow           247.906
       404   04 Jun 2027 11:10:46.131   04 Jun 2027 11:11:07.707            21.576              Murmansk2           674.250
       405   04 Jun 2027 11:11:07.707   04 Jun 2027 11:11:38.076            30.369              Murmansk1           949.031
       406   04 Jun 2027 11:11:47.243   04 Jun 2027 11:12:12.216            24.973              Murmansk2           780.406
       407   04 Jun 2027 11:12:15.447   04 Jun 2027 11:12:22.040             6.593              Murmansk1           206.031
       408   04 Jun 2027 11:12:28.506   04 Jun 2027 11:13:10.836            42.330                Novosib          1322.813
       409   04 Jun 2027 11:13:30.595   04 Jun 2027 11:13:46.317            15.722              Murmansk2           491.312
       410   04 Jun 2027 12:32:15.187   04 Jun 2027 12:34:37.353           142.166                  Delhi          4442.687
       411   04 Jun 2027 12:40:31.497   04 Jun 2027 12:41:59.102            87.605                Novosib          2737.656
       412   04 Jun 2027 12:43:37.710   04 Jun 2027 12:45:49.302           131.592              Murmansk2          4112.250
       413   04 Jun 2027 12:46:27.603   04 Jun 2027 12:47:16.897            49.294              Murmansk1          1540.438
       414   04 Jun 2027 14:15:57.453   04 Jun 2027 14:19:11.134           193.681                 Moscow          6052.531
       415   04 Jun 2027 14:19:28.900   04 Jun 2027 14:21:22.338           113.438              Murmansk2          3544.937
       416   04 Jun 2027 14:21:26.368   04 Jun 2027 14:22:41.902            75.534              Murmansk1          2360.437
       417   04 Jun 2027 14:25:16.907   04 Jun 2027 14:26:08.778            51.871                Norilsk          1620.969
       418   04 Jun 2027 14:36:24.672   04 Jun 2027 14:38:17.507           112.835                Anadyr1          3526.094
       419   04 Jun 2027 15:29:46.478   04 Jun 2027 15:30:18.009            31.531               CapeTown           985.344
       420   04 Jun 2027 15:30:46.074   04 Jun 2027 15:31:21.063            34.989               CapeTown          1093.406
       421   04 Jun 2027 15:55:31.412   04 Jun 2027 15:56:03.310            31.898                 Moscow           996.812
       422   04 Jun 2027 15:57:08.841   04 Jun 2027 15:58:39.178            90.337              Murmansk2          2823.031
       423   04 Jun 2027 16:06:32.926   04 Jun 2027 16:07:14.349            41.423              Murmansk2          1294.469
       424   04 Jun 2027 16:10:12.457   04 Jun 2027 16:10:49.188            36.731                Anadyr1          1147.844
       425   04 Jun 2027 16:10:50.490   04 Jun 2027 16:12:39.480           108.990                Anadyr2          3405.937
       426   04 Jun 2027 17:05:43.217   04 Jun 2027 17:06:41.477            58.260               CapeTown          1820.625
       427   04 Jun 2027 17:37:24.783   04 Jun 2027 17:40:09.774           164.991              Murmansk2          5155.969
       428   04 Jun 2027 17:40:46.845   04 Jun 2027 17:41:04.740            17.895              Murmansk1           559.219
       429   04 Jun 2027 17:42:33.856   04 Jun 2027 17:42:35.365             1.509              Murmansk2            47.156
       430   04 Jun 2027 17:45:56.297   04 Jun 2027 17:46:42.329            46.032                Anadyr1          1438.500
       431   04 Jun 2027 17:47:24.876   04 Jun 2027 17:48:01.467            36.591                Anadyr1          1143.469
       432   04 Jun 2027 17:48:48.843   04 Jun 2027 17:50:35.485           106.642               Magadan2          3332.562
       433   04 Jun 2027 17:52:19.188   04 Jun 2027 17:52:43.538            24.350               Magadan2           760.938
       434   04 Jun 2027 17:57:39.978   04 Jun 2027 17:57:43.901             3.923               Magadan2           122.594
       435   04 Jun 2027 17:57:43.901   04 Jun 2027 17:57:48.990             5.089               Magadan1           159.031
       436   04 Jun 2027 19:21:52.071   04 Jun 2027 19:25:25.900           213.829                Anadyr1          6682.156
       437   04 Jun 2027 19:25:34.482   04 Jun 2027 19:28:28.965           174.483               Magadan2          5452.594
       438   04 Jun 2027 19:31:25.331   04 Jun 2027 19:31:51.147            25.816               Magadan2           806.750
       439   04 Jun 2027 20:17:15.955   04 Jun 2027 20:20:14.863           178.908            RioGallegos          5590.875
       440   04 Jun 2027 20:22:32.433   04 Jun 2027 20:23:32.237            59.804            RioGallegos          1868.875
       441   04 Jun 2027 20:58:04.098   04 Jun 2027 21:00:07.394           123.296                Anadyr1          3853.000
       442   04 Jun 2027 21:01:10.436   04 Jun 2027 21:01:34.407            23.971                Norilsk           749.094
       443   04 Jun 2027 21:01:49.591   04 Jun 2027 21:03:03.100            73.509                Norilsk          2297.156
       444   04 Jun 2027 21:03:07.966   04 Jun 2027 21:03:28.127            20.161                Norilsk           630.031
       445   04 Jun 2027 21:04:23.908   04 Jun 2027 21:04:24.873             0.965                Irkutsk            30.156
       446   04 Jun 2027 21:04:25.310   04 Jun 2027 21:04:50.147            24.837                Irkutsk           776.156
       447   04 Jun 2027 21:07:25.393   04 Jun 2027 21:07:46.376            20.983                Irkutsk           655.719
       448   04 Jun 2027 21:14:02.990   04 Jun 2027 21:14:26.271            23.281                Irkutsk           727.531
       449   04 Jun 2027 21:18:47.515   04 Jun 2027 21:21:12.148           144.633                Sumatra          4519.781
       450   04 Jun 2027 21:24:40.685   04 Jun 2027 21:25:07.293            26.608                Sumatra           831.500
       451   04 Jun 2027 22:36:13.901   04 Jun 2027 22:37:17.670            63.769               Magadan1          1992.781
       452   04 Jun 2027 22:37:26.439   04 Jun 2027 22:37:42.248            15.809               Magadan2           494.031
       453   04 Jun 2027 22:38:21.499   04 Jun 2027 22:38:24.925             3.426               Magadan2           107.063
       454   04 Jun 2027 22:38:50.174   04 Jun 2027 22:39:28.120            37.946               Magadan2          1185.812
       455   04 Jun 2027 22:39:58.388   04 Jun 2027 22:40:54.064            55.676                Novosib          1739.875
       456   04 Jun 2027 22:43:06.629   04 Jun 2027 22:43:16.548             9.919                Novosib           309.969
       457   04 Jun 2027 22:43:33.992   04 Jun 2027 22:44:36.570            62.578                Novosib          1955.563
       458   04 Jun 2027 22:48:53.107   04 Jun 2027 22:51:25.106           151.999                  Delhi          4749.969
       459   05 Jun 2027 00:06:41.580   05 Jun 2027 00:06:42.078             0.498                Anadyr1            15.563
       460   05 Jun 2027 00:07:23.827   05 Jun 2027 00:08:58.850            95.023                Anadyr1          2969.469
       461   05 Jun 2027 00:11:25.470   05 Jun 2027 00:12:11.711            46.241                Anadyr2          1445.031
       462   05 Jun 2027 00:12:50.925   05 Jun 2027 00:13:05.618            14.693                Norilsk           459.156
       463   05 Jun 2027 00:13:16.623   05 Jun 2027 00:13:48.256            31.633               Magadan2           988.531
       464   05 Jun 2027 00:13:53.908   05 Jun 2027 00:13:58.149             4.241               Magadan2           132.531
       465   05 Jun 2027 00:14:05.490   05 Jun 2027 00:14:37.263            31.773               Magadan2           992.906
       466   05 Jun 2027 00:14:39.050   05 Jun 2027 00:16:00.086            81.036              Murmansk2          2532.375
       467   05 Jun 2027 00:16:19.527   05 Jun 2027 00:18:57.676           158.149              Murmansk1          4942.156
       468   05 Jun 2027 00:28:34.043   05 Jun 2027 00:28:50.325            16.282                  Delhi           508.813
       469   05 Jun 2027 00:31:42.677   05 Jun 2027 00:32:08.475            25.798                  Delhi           806.187
       470   05 Jun 2027 01:05:04.517   05 Jun 2027 01:05:45.837            41.320            RioGallegos          1291.250
       471   05 Jun 2027 01:09:55.698   05 Jun 2027 01:10:05.286             9.588            RioGallegos           299.625
       472   05 Jun 2027 01:39:58.792   05 Jun 2027 01:40:33.646            34.854                Anadyr2          1089.187
       473   05 Jun 2027 01:40:56.118   05 Jun 2027 01:42:43.226           107.108                Anadyr1          3347.125
       474   05 Jun 2027 01:45:48.733   05 Jun 2027 01:46:30.841            42.108               Magadan1          1315.875
       475   05 Jun 2027 01:46:31.396   05 Jun 2027 01:46:51.853            20.457               Magadan2           639.281
       476   05 Jun 2027 01:47:30.636   05 Jun 2027 01:47:55.243            24.607                Norilsk           768.969
       477   05 Jun 2027 01:48:04.640   05 Jun 2027 01:48:17.997            13.357               Magadan2           417.406
       478   05 Jun 2027 01:49:46.116   05 Jun 2027 01:50:37.094            50.978              Murmansk2          1593.062
       479   05 Jun 2027 01:50:56.181   05 Jun 2027 01:51:07.787            11.606              Murmansk1           362.687
       480   05 Jun 2027 01:51:34.603   05 Jun 2027 01:52:53.799            79.196                Novosib          2474.875
       481   05 Jun 2027 01:53:23.411   05 Jun 2027 01:53:52.499            29.088                 Moscow           909.000
       482   05 Jun 2027 01:58:36.399   05 Jun 2027 01:59:14.219            37.820                 Moscow          1181.875
