uniorb/output/strategy_1/Drop/Drop_KinoSat_110505.txt

KinoSat_110505
-------------------------
    Access    *     Start Time (UTCG)     *     Stop Time (UTCG)  *   Duration (s)        *       Station  *  Data (Mbytes)
         1   01 Jun 2027 03:47:39.106   01 Jun 2027 03:49:20.654           101.548                Anadyr2         12693.500
         2   01 Jun 2027 03:49:48.915   01 Jun 2027 03:51:08.349            79.434                Anadyr2          9929.250
         3   01 Jun 2027 03:51:24.088   01 Jun 2027 03:52:00.395            36.307                Anadyr1          4538.375
         4   01 Jun 2027 03:52:00.395   01 Jun 2027 03:53:21.228            80.833                Anadyr2         10104.125
         5   01 Jun 2027 03:54:12.533   01 Jun 2027 03:54:22.028             9.495                Anadyr1          1186.875
         6   01 Jun 2027 05:25:24.651   01 Jun 2027 05:25:32.118             7.467                Irkutsk           933.375
         7   01 Jun 2027 05:25:33.401   01 Jun 2027 05:26:28.945            55.544               Magadan2          6943.000
         8   01 Jun 2027 05:26:52.894   01 Jun 2027 05:28:20.883            87.989                Novosib         10998.625
         9   01 Jun 2027 05:28:37.598   01 Jun 2027 05:29:16.148            38.550                Novosib          4818.750
        10   01 Jun 2027 05:29:25.874   01 Jun 2027 05:29:41.158            15.284              Murmansk2          1910.500
        11   01 Jun 2027 05:29:44.935   01 Jun 2027 05:30:28.346            43.411              Murmansk2          5426.375
        12   01 Jun 2027 05:32:45.712   01 Jun 2027 05:32:55.166             9.454                Norilsk          1181.750
        13   01 Jun 2027 05:33:17.075   01 Jun 2027 05:33:39.190            22.115                Norilsk          2764.375
        14   01 Jun 2027 06:05:19.814   01 Jun 2027 06:05:44.827            25.013            RioGallegos          3126.625
        15   01 Jun 2027 06:40:08.092   01 Jun 2027 06:41:07.818            59.726                Sumatra          7465.750
        16   01 Jun 2027 06:43:15.133   01 Jun 2027 06:43:16.646             1.513                Sumatra           189.125
        17   01 Jun 2027 06:51:09.078   01 Jun 2027 06:53:06.379           117.301                  Delhi         14662.625
        18   01 Jun 2027 07:02:46.881   01 Jun 2027 07:03:34.756            47.875                Norilsk          5984.375
        19   01 Jun 2027 07:03:34.982   01 Jun 2027 07:03:41.125             6.143                Novosib           767.875
        20   01 Jun 2027 07:03:45.937   01 Jun 2027 07:04:11.886            25.949              Murmansk1          3243.625
        21   01 Jun 2027 07:04:19.346   01 Jun 2027 07:04:37.219            17.873              Murmansk1          2234.125
        22   01 Jun 2027 07:04:43.844   01 Jun 2027 07:04:44.148             0.304              Murmansk2            38.000
        23   01 Jun 2027 07:04:48.240   01 Jun 2027 07:05:18.531            30.291                Novosib          3786.375
        24   01 Jun 2027 07:05:27.386   01 Jun 2027 07:06:17.479            50.093                Irkutsk          6261.625
        25   01 Jun 2027 07:06:27.467   01 Jun 2027 07:06:37.331             9.864                Norilsk          1233.000
        26   01 Jun 2027 07:06:44.926   01 Jun 2027 07:07:50.265            65.339                Novosib          8167.375
        27   01 Jun 2027 08:24:20.479   01 Jun 2027 08:25:03.624            43.145                  Delhi          5393.125
        28   01 Jun 2027 08:40:24.481   01 Jun 2027 08:42:03.518            99.037                 Moscow         12379.625
        29   01 Jun 2027 08:43:15.997   01 Jun 2027 08:43:41.774            25.777                Novosib          3222.125
        30   01 Jun 2027 10:13:19.678   01 Jun 2027 10:14:27.113            67.435              Murmansk1          8429.375
        31   01 Jun 2027 10:14:51.083   01 Jun 2027 10:15:26.333            35.250              Murmansk1          4406.250
        32   01 Jun 2027 10:15:29.735   01 Jun 2027 10:16:24.959            55.224              Murmansk1          6903.000
        33   01 Jun 2027 10:16:51.767   01 Jun 2027 10:17:53.442            61.675              Murmansk1          7709.375
        34   01 Jun 2027 10:18:01.180   01 Jun 2027 10:18:26.804            25.624              Murmansk2          3203.000
        35   01 Jun 2027 10:18:43.289   01 Jun 2027 10:20:50.743           127.454                 Moscow         15931.750
        36   01 Jun 2027 11:23:38.273   01 Jun 2027 11:29:19.412           341.139               CapeTown         42642.375
        37   01 Jun 2027 11:29:29.184   01 Jun 2027 11:31:05.157            95.973               CapeTown         11996.625
        38   01 Jun 2027 12:03:19.473   01 Jun 2027 12:07:09.349           229.876                Anadyr1         28734.500
        39   01 Jun 2027 12:07:09.349   01 Jun 2027 12:07:32.112            22.763                Anadyr2          2845.375
        40   01 Jun 2027 12:08:36.319   01 Jun 2027 12:10:12.927            96.608                Anadyr1         12076.000
        41   01 Jun 2027 13:42:27.645   01 Jun 2027 13:46:06.224           218.579               Magadan1         27322.375
        42   01 Jun 2027 13:48:21.313   01 Jun 2027 13:49:21.218            59.905               Magadan2          7488.125
        43   01 Jun 2027 16:58:31.184   01 Jun 2027 17:04:46.013           374.829                Irkutsk         46853.625
        44   01 Jun 2027 17:15:15.916   01 Jun 2027 17:17:29.657           133.741                Sumatra         16717.625
        45   01 Jun 2027 18:33:31.906   01 Jun 2027 18:38:25.795           293.889                Novosib         36736.125
        46   01 Jun 2027 18:39:52.753   01 Jun 2027 18:41:29.145            96.392                Novosib         12049.000
        47   01 Jun 2027 21:42:39.554   01 Jun 2027 21:44:30.331           110.777              Murmansk2         12057.249
        48   02 Jun 2027 04:02:52.525   02 Jun 2027 04:03:28.989            36.464               Magadan2          4558.000
        49   02 Jun 2027 04:03:32.505   02 Jun 2027 04:04:25.328            52.823               Magadan1          6602.875
        50   02 Jun 2027 04:04:40.333   02 Jun 2027 04:04:54.014            13.681               Magadan1          1710.125
        51   02 Jun 2027 04:04:59.272   02 Jun 2027 04:05:21.155            21.883               Magadan1          2735.375
        52   02 Jun 2027 04:05:22.402   02 Jun 2027 04:05:31.823             9.421                Anadyr1          1177.625
        53   02 Jun 2027 04:05:50.035   02 Jun 2027 04:06:38.230            48.195               Magadan1          6024.375
        54   02 Jun 2027 05:23:24.006   02 Jun 2027 05:25:23.395           119.389                Sumatra         14923.625
        55   02 Jun 2027 05:37:56.794   02 Jun 2027 05:38:59.562            62.768               Magadan1          7846.000
        56   02 Jun 2027 05:39:20.708   02 Jun 2027 05:40:54.326            93.618               Magadan1         11702.250
        57   02 Jun 2027 05:40:59.360   02 Jun 2027 05:41:00.520             1.160               Magadan1           145.000
        58   02 Jun 2027 05:41:28.244   02 Jun 2027 05:42:25.605            57.361                Novosib          7170.125
        59   02 Jun 2027 05:43:11.224   02 Jun 2027 05:43:36.641            25.417                Novosib          3177.125
        60   02 Jun 2027 05:45:52.245   02 Jun 2027 05:46:29.018            36.773                Norilsk          4596.625
        61   02 Jun 2027 06:52:07.675   02 Jun 2027 06:52:18.773            11.098                Sumatra          1387.250
        62   02 Jun 2027 07:00:16.372   02 Jun 2027 07:00:57.440            41.068                Sumatra          5133.500
        63   02 Jun 2027 07:05:52.741   02 Jun 2027 07:07:24.610            91.869                  Delhi         11483.625
        64   02 Jun 2027 07:14:47.415   02 Jun 2027 07:15:33.297            45.882                Irkutsk          5735.250
        65   02 Jun 2027 07:15:38.309   02 Jun 2027 07:16:28.822            50.513                Novosib          6314.125
        66   02 Jun 2027 07:16:48.970   02 Jun 2027 07:17:35.626            46.656                Norilsk          5832.000
        67   02 Jun 2027 07:17:40.899   02 Jun 2027 07:18:05.904            25.005              Murmansk1          3125.625
        68   02 Jun 2027 07:18:16.693   02 Jun 2027 07:19:35.487            78.794                 Moscow          9849.250
        69   02 Jun 2027 08:36:29.660   02 Jun 2027 08:37:48.804            79.144                  Delhi          9893.000
        70   02 Jun 2027 08:52:24.926   02 Jun 2027 08:52:32.269             7.343                 Moscow           917.875
        71   02 Jun 2027 08:52:32.896   02 Jun 2027 08:52:51.959            19.063              Murmansk1          2382.875
        72   02 Jun 2027 08:52:59.313   02 Jun 2027 08:53:42.428            43.115                Novosib          5389.375
        73   02 Jun 2027 08:54:17.270   02 Jun 2027 08:55:13.062            55.792              Murmansk2          6974.000
        74   02 Jun 2027 08:55:55.636   02 Jun 2027 08:56:07.321            11.685              Murmansk1          1460.625
        75   02 Jun 2027 10:27:16.406   02 Jun 2027 10:27:31.208            14.802              Murmansk1          1850.250
        76   02 Jun 2027 10:28:04.966   02 Jun 2027 10:29:00.245            55.279              Murmansk2          6909.875
        77   02 Jun 2027 10:29:11.384   02 Jun 2027 10:30:19.188            67.804                 Moscow          8475.500
        78   02 Jun 2027 10:31:49.073   02 Jun 2027 10:31:52.524             3.451              Murmansk2           431.375
        79   02 Jun 2027 11:35:12.478   02 Jun 2027 11:37:01.531           109.053               CapeTown         13631.625
        80   02 Jun 2027 11:38:29.462   02 Jun 2027 11:41:51.968           202.506               CapeTown         25313.250
        81   02 Jun 2027 12:15:13.536   02 Jun 2027 12:17:46.636           153.100                Anadyr1         19137.500
        82   02 Jun 2027 12:18:20.525   02 Jun 2027 12:21:01.828           161.303                Anadyr1         20162.875
        83   02 Jun 2027 12:21:09.056   02 Jun 2027 12:24:01.422           172.366                Anadyr1         21545.750
        84   02 Jun 2027 13:54:07.718   02 Jun 2027 14:00:33.763           386.045               Magadan1         48255.625
        85   02 Jun 2027 16:23:57.748   02 Jun 2027 16:26:04.897           127.149            RioGallegos         15893.625
        86   02 Jun 2027 17:09:57.702   02 Jun 2027 17:16:00.023           362.321                Irkutsk         45290.125
        87   02 Jun 2027 17:17:37.477   02 Jun 2027 17:17:41.202             3.725                Irkutsk           465.625
        88   02 Jun 2027 17:25:26.602   02 Jun 2027 17:27:27.324           120.722                Sumatra         15090.250
        89   02 Jun 2027 17:29:14.366   02 Jun 2027 17:31:22.670           128.304                Sumatra         16038.000
        90   02 Jun 2027 18:48:37.569   02 Jun 2027 18:50:53.218           135.649                Novosib         16956.125
        91   02 Jun 2027 18:57:27.074   02 Jun 2027 18:58:00.681            33.607                  Delhi          4200.875
        92   02 Jun 2027 20:21:00.368   02 Jun 2027 20:21:35.235            34.867              Murmansk1          4358.375
        93   02 Jun 2027 21:55:50.841   02 Jun 2027 21:56:45.880            55.039              Murmansk1          6879.875
        94   02 Jun 2027 21:58:34.983   02 Jun 2027 22:00:25.625           110.642                 Moscow         13830.250
        95   02 Jun 2027 22:01:38.339   02 Jun 2027 22:04:42.493           184.154                 Moscow         23019.250
        96   02 Jun 2027 22:25:14.587   02 Jun 2027 22:26:07.249            52.662               CapeTown          6582.750
        97   03 Jun 2027 04:16:56.011   03 Jun 2027 04:17:01.791             5.780               Magadan1           722.500
        98   03 Jun 2027 04:17:23.409   03 Jun 2027 04:17:48.408            24.999                Anadyr1          3124.875
        99   03 Jun 2027 04:17:56.366   03 Jun 2027 04:18:37.721            41.355               Magadan1          5169.375
       100   03 Jun 2027 04:19:15.866   03 Jun 2027 04:19:39.848            23.982                Norilsk          2997.750
       101   03 Jun 2027 04:19:45.415   03 Jun 2027 04:19:59.813            14.398                Norilsk          1799.750
       102   03 Jun 2027 04:53:41.652   03 Jun 2027 04:54:14.428            32.776            RioGallegos          4097.000
       103   03 Jun 2027 04:55:06.784   03 Jun 2027 04:55:52.931            46.147            RioGallegos          5768.375
       104   03 Jun 2027 04:57:50.212   03 Jun 2027 04:58:49.198            58.986            RioGallegos          7373.250
       105   03 Jun 2027 05:30:52.546   03 Jun 2027 05:33:03.520           130.974                Sumatra         16371.750
       106   03 Jun 2027 05:50:08.230   03 Jun 2027 05:50:46.807            38.577                Irkutsk          4822.125
       107   03 Jun 2027 05:51:09.846   03 Jun 2027 05:51:59.490            49.644               Magadan2          6205.500
       108   03 Jun 2027 05:52:28.662   03 Jun 2027 05:53:43.090            74.428                Novosib          9303.500
       109   03 Jun 2027 05:53:57.188   03 Jun 2027 05:54:38.581            41.393                Irkutsk          5174.125
       110   03 Jun 2027 05:55:13.656   03 Jun 2027 05:55:21.999             8.343                Norilsk          1042.875
       111   03 Jun 2027 05:55:45.797   03 Jun 2027 05:55:58.537            12.740                Novosib          1592.500
       112   03 Jun 2027 06:29:45.188   03 Jun 2027 06:30:09.834            24.646            RioGallegos          3080.750
       113   03 Jun 2027 07:04:12.874   03 Jun 2027 07:06:00.060           107.186                Sumatra         13398.250
       114   03 Jun 2027 07:26:02.024   03 Jun 2027 07:26:14.449            12.425                Irkutsk          1553.125
       115   03 Jun 2027 07:26:28.282   03 Jun 2027 07:27:16.208            47.926                Irkutsk          5990.750
       116   03 Jun 2027 07:28:34.424   03 Jun 2027 07:29:47.781            73.357                Irkutsk          9169.625
       117   03 Jun 2027 07:29:55.050   03 Jun 2027 07:30:04.258             9.208                Irkutsk          1151.000
       118   03 Jun 2027 07:30:15.328   03 Jun 2027 07:32:07.072           111.744                Novosib         13968.000
       119   03 Jun 2027 09:03:40.706   03 Jun 2027 09:03:46.982             6.276                Novosib           784.500
       120   03 Jun 2027 09:03:54.651   03 Jun 2027 09:04:45.352            50.701                Novosib          6337.625
       121   03 Jun 2027 09:04:50.529   03 Jun 2027 09:04:52.619             2.090              Murmansk1           261.250
       122   03 Jun 2027 09:04:55.174   03 Jun 2027 09:05:20.910            25.736                 Moscow          3217.000
       123   03 Jun 2027 09:05:46.601   03 Jun 2027 09:06:24.084            37.483                Norilsk          4685.375
       124   03 Jun 2027 09:06:26.698   03 Jun 2027 09:07:20.158            53.460              Murmansk1          6682.500
       125   03 Jun 2027 09:07:50.178   03 Jun 2027 09:08:17.153            26.975                 Moscow          3371.875
       126   03 Jun 2027 10:38:47.282   03 Jun 2027 10:39:14.010            26.728              Murmansk1          3341.000
       127   03 Jun 2027 10:39:19.976   03 Jun 2027 10:40:11.608            51.632                 Moscow          6454.000
       128   03 Jun 2027 10:40:26.177   03 Jun 2027 10:41:10.505            44.328              Murmansk2          5541.000
       129   03 Jun 2027 11:46:53.680   03 Jun 2027 11:47:53.823            60.143               CapeTown          7517.875
       130   03 Jun 2027 11:50:50.082   03 Jun 2027 11:53:08.310           138.228               CapeTown         17278.500
       131   03 Jun 2027 12:27:09.207   03 Jun 2027 12:29:12.145           122.938                Anadyr2         15367.250
       132   03 Jun 2027 12:31:07.539   03 Jun 2027 12:32:37.278            89.739                Anadyr2         11217.375
       133   03 Jun 2027 12:34:26.135   03 Jun 2027 12:36:41.182           135.047                Anadyr1         16880.875
       134   03 Jun 2027 14:05:53.479   03 Jun 2027 14:12:38.701           405.222               Magadan1         50652.750
       135   03 Jun 2027 14:14:15.000   03 Jun 2027 14:14:56.668            41.668               Magadan1          5208.500
       136   03 Jun 2027 16:34:48.340   03 Jun 2027 16:37:49.160           180.820            RioGallegos         22602.500
       137   03 Jun 2027 16:40:01.954   03 Jun 2027 16:40:46.720            44.766            RioGallegos          5595.750
       138   03 Jun 2027 17:22:15.318   03 Jun 2027 17:25:19.979           184.661                Irkutsk         23082.625
       139   03 Jun 2027 17:27:00.380   03 Jun 2027 17:28:08.433            68.053                Irkutsk          8506.625
       140   03 Jun 2027 17:36:24.800   03 Jun 2027 17:40:57.129           272.329                Sumatra         34041.125
       141   03 Jun 2027 17:41:35.306   03 Jun 2027 17:42:27.892            52.586                Sumatra          6573.250
       142   03 Jun 2027 19:00:21.295   03 Jun 2027 19:01:04.648            43.353                Novosib          5419.125
       143   03 Jun 2027 19:06:48.205   03 Jun 2027 19:08:59.659           131.454                  Delhi         16431.750
       144   03 Jun 2027 19:10:11.977   03 Jun 2027 19:11:04.135            52.158                  Delhi          6519.750
       145   03 Jun 2027 20:32:40.049   03 Jun 2027 20:33:48.130            68.081              Murmansk2          8510.125
       146   03 Jun 2027 22:08:59.407   03 Jun 2027 22:10:58.691           119.284              Murmansk1         14910.500
       147   03 Jun 2027 22:11:08.940   03 Jun 2027 22:11:35.368            26.428              Murmansk1          3303.500
       148   03 Jun 2027 22:16:57.220   03 Jun 2027 22:17:02.106             4.886                 Moscow           610.750
       149   03 Jun 2027 22:17:26.329   03 Jun 2027 22:19:01.947            95.618                 Moscow         11952.250
       150   03 Jun 2027 22:36:22.017   03 Jun 2027 22:38:18.368           116.351               CapeTown         14543.875
       151   04 Jun 2027 04:29:00.702   04 Jun 2027 04:30:04.510            63.808                Irkutsk          7976.000
       152   04 Jun 2027 04:30:12.323   04 Jun 2027 04:30:21.533             9.210                Irkutsk          1151.250
       153   04 Jun 2027 04:30:38.671   04 Jun 2027 04:30:47.335             8.664              Murmansk2          1083.000
       154   04 Jun 2027 04:31:21.220   04 Jun 2027 04:31:21.491             0.271                Novosib            33.875
       155   04 Jun 2027 05:05:32.385   04 Jun 2027 05:06:45.410            73.025            RioGallegos          9128.125
       156   04 Jun 2027 05:42:01.611   04 Jun 2027 05:44:11.827           130.216                Sumatra         16277.000
       157   04 Jun 2027 06:02:12.158   04 Jun 2027 06:02:19.624             7.466                Irkutsk           933.250
       158   04 Jun 2027 06:02:26.871   04 Jun 2027 06:03:05.599            38.728                Novosib          4841.000
       159   04 Jun 2027 06:03:21.804   04 Jun 2027 06:05:51.117           149.313                Irkutsk         18664.125
       160   04 Jun 2027 06:06:10.248   04 Jun 2027 06:06:39.971            29.723                Irkutsk          3715.375
       161   04 Jun 2027 07:16:24.007   04 Jun 2027 07:17:36.991            72.984                Sumatra          9123.000
       162   04 Jun 2027 07:39:14.184   04 Jun 2027 07:39:18.106             3.922                Irkutsk           490.250
       163   04 Jun 2027 07:39:19.482   04 Jun 2027 07:39:48.286            28.804                Norilsk          3600.500
       164   04 Jun 2027 07:39:52.575   04 Jun 2027 07:40:06.036            13.461                 Moscow          1682.625
       165   04 Jun 2027 07:40:15.545   04 Jun 2027 07:40:28.400            12.855                 Moscow          1606.875
       166   04 Jun 2027 07:40:28.934   04 Jun 2027 07:40:52.994            24.060                 Moscow          3007.500
       167   04 Jun 2027 07:41:22.636   04 Jun 2027 07:41:54.128            31.492                Irkutsk          3936.500
       168   04 Jun 2027 07:41:59.150   04 Jun 2027 07:43:33.773            94.623              Murmansk2         11827.875
       169   04 Jun 2027 07:44:01.854   04 Jun 2027 07:45:00.811            58.957                 Moscow          7369.625
       170   04 Jun 2027 09:01:06.926   04 Jun 2027 09:03:03.670           116.744                  Delhi         14593.000
       171   04 Jun 2027 09:14:26.879   04 Jun 2027 09:14:50.049            23.170                Norilsk          2896.250
       172   04 Jun 2027 09:15:12.595   04 Jun 2027 09:16:45.891            93.296              Murmansk1         11662.000
       173   04 Jun 2027 09:16:46.193   04 Jun 2027 09:16:46.550             0.357                Novosib            44.625
       174   04 Jun 2027 09:17:00.054   04 Jun 2027 09:18:00.199            60.145              Murmansk2          7518.125
       175   04 Jun 2027 09:18:00.958   04 Jun 2027 09:19:07.769            66.811                 Moscow          8351.375
       176   04 Jun 2027 10:51:55.046   04 Jun 2027 10:52:02.650             7.604                 Moscow           950.500
       177   04 Jun 2027 10:52:26.103   04 Jun 2027 10:54:13.628           107.525                 Moscow         13440.625
       178   04 Jun 2027 11:05:26.947   04 Jun 2027 11:07:39.759           132.812                Anadyr2         16601.500
       179   04 Jun 2027 12:39:06.104   04 Jun 2027 12:39:56.874            50.770                Anadyr2          6346.250
       180   04 Jun 2027 12:39:56.874   04 Jun 2027 12:41:24.742            87.868                Anadyr1         10983.500
       181   04 Jun 2027 12:43:48.570   04 Jun 2027 12:45:43.980           115.410                Anadyr1         14426.250
       182   04 Jun 2027 14:17:42.948   04 Jun 2027 14:24:43.402           420.454               Magadan1         52556.750
       183   04 Jun 2027 16:46:11.348   04 Jun 2027 16:49:37.357           206.009            RioGallegos         25751.125
       184   04 Jun 2027 16:52:07.504   04 Jun 2027 16:53:45.582            98.078            RioGallegos         12259.750
       185   04 Jun 2027 17:36:04.446   04 Jun 2027 17:37:13.831            69.385                Irkutsk          8673.125
       186   04 Jun 2027 17:39:24.200   04 Jun 2027 17:40:01.894            37.694                Irkutsk          4711.750
       187   04 Jun 2027 17:47:41.981   04 Jun 2027 17:48:14.218            32.237                Sumatra          4029.625
       188   04 Jun 2027 17:49:11.170   04 Jun 2027 17:53:49.071           277.901                Sumatra         34737.625
       189   04 Jun 2027 19:17:48.685   04 Jun 2027 19:20:10.293           141.608                  Delhi         17701.000
       190   04 Jun 2027 19:22:53.777   04 Jun 2027 19:24:51.183           117.406                  Delhi         14675.750
       191   04 Jun 2027 20:45:04.613   04 Jun 2027 20:46:26.162            81.549              Murmansk2         10193.625
       192   04 Jun 2027 22:21:54.734   04 Jun 2027 22:23:00.326            65.592              Murmansk1          8199.000
       193   05 Jun 2027 04:37:09.492   05 Jun 2027 04:37:13.936             4.444               Magadan2           555.500
       194   05 Jun 2027 04:37:26.621   05 Jun 2027 04:38:42.361            75.740                Irkutsk          9467.500
       195   05 Jun 2027 04:39:01.228   05 Jun 2027 04:39:17.185            15.957               Magadan2          1994.625
       196   05 Jun 2027 04:39:30.362   05 Jun 2027 04:40:26.699            56.337                Norilsk          7042.125
       197   05 Jun 2027 04:40:39.364   05 Jun 2027 04:41:28.559            49.195                Irkutsk          6149.375
       198   05 Jun 2027 04:41:39.185   05 Jun 2027 04:41:49.297            10.112               Magadan2          1264.000
       199   05 Jun 2027 04:41:58.716   05 Jun 2027 04:42:20.005            21.289                Irkutsk          2661.125
       200   05 Jun 2027 04:42:32.310   05 Jun 2027 04:43:32.068            59.758                Novosib          7469.750
       201   05 Jun 2027 05:17:26.282   05 Jun 2027 05:17:30.666             4.384            RioGallegos           548.000
       202   05 Jun 2027 05:18:14.830   05 Jun 2027 05:19:42.185            87.355            RioGallegos         10919.375
       203   05 Jun 2027 05:53:25.268   05 Jun 2027 05:54:19.267            53.999                Sumatra          6749.875
       204   05 Jun 2027 06:14:15.337   05 Jun 2027 06:15:03.375            48.038                Irkutsk          6004.750
       205   05 Jun 2027 06:15:25.255   05 Jun 2027 06:16:38.485            73.230                Irkutsk          9153.750
       206   05 Jun 2027 06:17:15.451   05 Jun 2027 06:18:43.777            88.326              Murmansk1         11040.750
       207   05 Jun 2027 06:20:36.439   05 Jun 2027 06:20:43.063             6.624              Murmansk1           828.000
       208   05 Jun 2027 06:54:27.516   05 Jun 2027 06:54:58.256            30.740            RioGallegos          3842.500
       209   05 Jun 2027 07:28:41.830   05 Jun 2027 07:29:21.194            39.364                Sumatra          4920.500
       210   05 Jun 2027 07:33:07.678   05 Jun 2027 07:33:23.894            16.216                Sumatra          2027.000
       211   05 Jun 2027 07:38:54.305   05 Jun 2027 07:39:27.185            32.880                  Delhi          4110.000
       212   05 Jun 2027 07:51:39.453   05 Jun 2027 07:52:22.258            42.805                 Moscow          5350.625
       213   05 Jun 2027 07:52:31.613   05 Jun 2027 07:52:33.493             1.880                 Moscow           235.000
       214   05 Jun 2027 07:52:34.907   05 Jun 2027 07:52:54.962            20.055                Norilsk          2506.875
       215   05 Jun 2027 07:53:01.638   05 Jun 2027 07:53:37.691            36.053                Novosib          4506.625
       216   05 Jun 2027 07:53:46.770   05 Jun 2027 07:54:35.912            49.142                 Moscow          6142.750
       217   05 Jun 2027 07:54:59.631   05 Jun 2027 07:56:06.577            66.946                 Moscow          8368.250
       218   05 Jun 2027 09:26:18.400   05 Jun 2027 09:27:01.781            43.381                Novosib          5422.625
       219   05 Jun 2027 09:27:14.193   05 Jun 2027 09:28:19.280            65.087              Murmansk2          8135.875
       220   05 Jun 2027 09:28:32.606   05 Jun 2027 09:29:11.395            38.789              Murmansk2          4848.625
       221   05 Jun 2027 09:29:30.494   05 Jun 2027 09:31:10.190            99.696                Norilsk         12462.000
       222   05 Jun 2027 11:16:34.775   05 Jun 2027 11:21:13.314           278.539                Anadyr2         34817.375
       223   05 Jun 2027 12:56:24.805   05 Jun 2027 12:56:25.342             0.537                Anadyr2            67.125
       224   05 Jun 2027 14:29:35.033   05 Jun 2027 14:30:06.083            31.050               Magadan1          3881.250
       225   05 Jun 2027 14:30:06.083   05 Jun 2027 14:33:25.777           199.694               Magadan2         24961.750
       226   05 Jun 2027 14:33:39.290   05 Jun 2027 14:36:02.550           143.260               Magadan2         17907.500
       227   05 Jun 2027 14:36:26.211   05 Jun 2027 14:38:17.787           111.576               Magadan2         13947.000
       228   05 Jun 2027 16:57:49.848   05 Jun 2027 17:03:08.035           318.187            RioGallegos         39773.375
       229   05 Jun 2027 17:04:09.653   05 Jun 2027 17:04:28.753            19.100            RioGallegos          2387.500
       230   05 Jun 2027 17:42:53.110   05 Jun 2027 17:44:09.904            76.794                Norilsk          9599.250
       231   05 Jun 2027 18:03:48.689   05 Jun 2027 18:06:05.664           136.975                Sumatra         17121.875
       232   05 Jun 2027 19:29:09.815   05 Jun 2027 19:32:30.261           200.446                  Delhi         25055.750
       233   05 Jun 2027 19:34:37.800   05 Jun 2027 19:36:47.438           129.638                  Delhi         16204.750
       234   05 Jun 2027 20:59:00.799   05 Jun 2027 20:59:21.812            21.013              Murmansk1          2626.625
       235   05 Jun 2027 23:04:20.142   05 Jun 2027 23:05:59.886            99.744               CapeTown         12468.000
       236   06 Jun 2027 03:16:02.455   06 Jun 2027 03:16:18.860            16.405               Magadan1          2050.625
       237   06 Jun 2027 03:17:32.350   06 Jun 2027 03:17:42.254             9.904                Anadyr2          1238.000
       238   06 Jun 2027 03:18:14.737   06 Jun 2027 03:18:52.907            38.170                Anadyr2          4771.250
       239   06 Jun 2027 04:50:14.798   06 Jun 2027 04:50:39.358            24.560                Norilsk          3070.000
       240   06 Jun 2027 04:51:01.456   06 Jun 2027 04:52:37.155            95.699                Novosib         11962.375
       241   06 Jun 2027 04:52:37.362   06 Jun 2027 04:53:25.631            48.269               Magadan2          6033.625
       242   06 Jun 2027 04:53:40.441   06 Jun 2027 04:53:48.999             8.558                Irkutsk          1069.750
       243   06 Jun 2027 04:54:13.959   06 Jun 2027 04:54:29.659            15.700              Murmansk2          1962.500
       244   06 Jun 2027 04:54:37.135   06 Jun 2027 04:55:41.128            63.993                Novosib          7999.125
       245   06 Jun 2027 05:29:23.375   06 Jun 2027 05:31:21.321           117.946            RioGallegos         14743.250
       246   06 Jun 2027 06:04:58.978   06 Jun 2027 06:06:40.531           101.553                Sumatra         12694.125
       247   06 Jun 2027 06:26:46.056   06 Jun 2027 06:29:13.380           147.324                Irkutsk         18415.500
       248   06 Jun 2027 06:30:00.636   06 Jun 2027 06:31:00.288            59.652                Norilsk          7456.500
       249   06 Jun 2027 06:31:15.278   06 Jun 2027 06:31:27.205            11.927                Norilsk          1490.875
       250   06 Jun 2027 06:31:49.776   06 Jun 2027 06:32:15.468            25.692              Murmansk2          3211.500
       251   06 Jun 2027 07:41:07.793   06 Jun 2027 07:41:11.679             3.886                Sumatra           485.750
       252   06 Jun 2027 07:42:23.728   06 Jun 2027 07:43:14.862            51.134                Sumatra          6391.750
       253   06 Jun 2027 07:48:40.062   06 Jun 2027 07:48:54.979            14.917                  Delhi          1864.625
       254   06 Jun 2027 07:51:36.290   06 Jun 2027 07:52:18.240            41.950                  Delhi          5243.750
       255   06 Jun 2027 08:03:02.902   06 Jun 2027 08:03:45.084            42.182              Murmansk2          5272.750
       256   06 Jun 2027 08:03:50.611   06 Jun 2027 08:04:26.060            35.449                 Moscow          4431.125
       257   06 Jun 2027 08:04:42.952   06 Jun 2027 08:05:15.350            32.398              Murmansk2          4049.750
       258   06 Jun 2027 08:05:15.350   06 Jun 2027 08:05:28.165            12.815              Murmansk1          1601.875
       259   06 Jun 2027 08:05:42.590   06 Jun 2027 08:06:09.649            27.059                Norilsk          3382.375
       260   06 Jun 2027 08:06:11.815   06 Jun 2027 08:08:11.800           119.985                 Moscow         14998.125
       261   06 Jun 2027 09:38:21.083   06 Jun 2027 09:39:09.805            48.722                Novosib          6090.250
       262   06 Jun 2027 09:39:15.848   06 Jun 2027 09:39:40.732            24.884              Murmansk1          3110.500
       263   06 Jun 2027 09:39:55.044   06 Jun 2027 09:40:43.129            48.085                 Moscow          6010.625
       264   06 Jun 2027 09:40:52.192   06 Jun 2027 09:41:24.622            32.430              Murmansk1          4053.750
       265   06 Jun 2027 09:41:40.547   06 Jun 2027 09:42:39.460            58.913                Novosib          7364.125
       266   06 Jun 2027 09:42:52.387   06 Jun 2027 09:43:20.646            28.259              Murmansk1          3532.375
       267   06 Jun 2027 10:51:28.377   06 Jun 2027 10:52:07.186            38.809               CapeTown          4851.125
       268   06 Jun 2027 11:28:09.506   06 Jun 2027 11:34:17.418           367.912                Anadyr1         45989.000
       269   06 Jun 2027 14:41:29.079   06 Jun 2027 14:43:53.200           144.121               Magadan1         18015.125
       270   06 Jun 2027 14:46:24.895   06 Jun 2027 14:47:01.863            36.968               Magadan1          4621.000
       271   06 Jun 2027 14:49:45.042   06 Jun 2027 14:50:59.975            74.933               Magadan2          9366.625
       272   06 Jun 2027 17:12:03.603   06 Jun 2027 17:15:41.307           217.704            RioGallegos         27213.000
       273   06 Jun 2027 18:00:06.695   06 Jun 2027 18:02:10.279           123.584                Novosib         15448.000
       274   06 Jun 2027 18:16:52.386   06 Jun 2027 18:17:15.070            22.684                Sumatra          2835.500
       275   06 Jun 2027 19:44:05.810   06 Jun 2027 19:47:27.914           202.104                  Delhi         25263.000
       276   06 Jun 2027 21:08:17.321   06 Jun 2027 21:09:05.107            47.786              Murmansk1          5973.250
       277   06 Jun 2027 21:09:26.649   06 Jun 2027 21:12:32.170           185.521              Murmansk2         23190.125
       278   06 Jun 2027 21:12:53.449   06 Jun 2027 21:15:23.578           150.129                 Moscow         18766.125
       279   07 Jun 2027 03:27:37.649   07 Jun 2027 03:28:00.996            23.347                Anadyr1          2918.375
       280   07 Jun 2027 03:28:00.996   07 Jun 2027 03:28:05.915             4.919                Anadyr2           614.875
       281   07 Jun 2027 03:28:17.975   07 Jun 2027 03:29:33.782            75.807                Anadyr1          9475.875
       282   07 Jun 2027 05:01:15.487   07 Jun 2027 05:01:18.551             3.064               Magadan2           383.000
       283   07 Jun 2027 05:01:33.796   07 Jun 2027 05:01:58.189            24.393                Norilsk          3049.125
       284   07 Jun 2027 05:01:59.071   07 Jun 2027 05:03:07.710            68.639                Irkutsk          8579.875
       285   07 Jun 2027 05:03:17.857   07 Jun 2027 05:03:48.923            31.066               Magadan2          3883.250
       286   07 Jun 2027 05:03:49.866   07 Jun 2027 05:03:54.422             4.556                Irkutsk           569.500
       287   07 Jun 2027 05:04:06.080   07 Jun 2027 05:04:59.336            53.256                Irkutsk          6657.000
       288   07 Jun 2027 05:05:06.867   07 Jun 2027 05:05:51.751            44.884               Magadan1          5610.500
       289   07 Jun 2027 05:06:21.512   07 Jun 2027 05:06:39.921            18.409                Irkutsk          2301.125
       290   07 Jun 2027 05:06:41.917   07 Jun 2027 05:06:59.603            17.686                Norilsk          2210.750
       291   07 Jun 2027 05:08:35.772   07 Jun 2027 05:08:47.175            11.403                Norilsk          1425.375
       292   07 Jun 2027 05:08:58.414   07 Jun 2027 05:09:19.345            20.931                Norilsk          2616.375
       293   07 Jun 2027 05:41:23.711   07 Jun 2027 05:42:15.502            51.791            RioGallegos          6473.875
       294   07 Jun 2027 06:16:40.509   07 Jun 2027 06:18:22.721           102.212                Sumatra         12776.500
       295   07 Jun 2027 06:38:15.077   07 Jun 2027 06:38:51.283            36.206                Norilsk          4525.750
       296   07 Jun 2027 06:39:00.308   07 Jun 2027 06:39:55.908            55.600                Norilsk          6950.000
       297   07 Jun 2027 06:40:17.269   07 Jun 2027 06:41:17.579            60.310                Irkutsk          7538.750
       298   07 Jun 2027 06:41:55.777   07 Jun 2027 06:42:38.662            42.885                Irkutsk          5360.625
       299   07 Jun 2027 06:42:51.524   07 Jun 2027 06:43:59.484            67.960              Murmansk2          8495.000
       300   07 Jun 2027 07:19:31.323   07 Jun 2027 07:19:41.932            10.609            RioGallegos          1326.125
       301   07 Jun 2027 07:53:44.725   07 Jun 2027 07:54:59.948            75.223                Sumatra          9402.875
       302   07 Jun 2027 08:00:33.130   07 Jun 2027 08:01:27.750            54.620                  Delhi          6827.500
       303   07 Jun 2027 08:15:21.081   07 Jun 2027 08:15:22.401             1.320              Murmansk2           165.000
       304   07 Jun 2027 08:15:22.401   07 Jun 2027 08:15:34.971            12.570              Murmansk1          1571.250
       305   07 Jun 2027 08:15:49.021   07 Jun 2027 08:16:29.595            40.574                Irkutsk          5071.750
       306   07 Jun 2027 08:16:33.730   07 Jun 2027 08:17:36.324            62.594                 Moscow          7824.250
       307   07 Jun 2027 08:17:59.501   07 Jun 2027 08:18:55.123            55.622                Norilsk          6952.750
       308   07 Jun 2027 08:21:22.895   07 Jun 2027 08:21:25.483             2.588                 Moscow           323.500
       309   07 Jun 2027 09:39:14.991   07 Jun 2027 09:40:27.958            72.967                  Delhi          9120.875
       310   07 Jun 2027 09:50:19.803   07 Jun 2027 09:51:37.485            77.682                Novosib          9710.250
       311   07 Jun 2027 09:51:41.787   07 Jun 2027 09:51:54.242            12.455              Murmansk1          1556.875
       312   07 Jun 2027 09:52:06.151   07 Jun 2027 09:52:52.216            46.065                Norilsk          5758.125
       313   07 Jun 2027 09:53:15.815   07 Jun 2027 09:54:38.529            82.714                 Moscow         10339.250
       314   07 Jun 2027 09:54:39.892   07 Jun 2027 09:54:42.409             2.517                Norilsk           314.625
       315   07 Jun 2027 09:54:47.556   07 Jun 2027 09:56:22.475            94.919                 Moscow         11864.875
       316   07 Jun 2027 11:01:23.480   07 Jun 2027 11:03:44.881           141.401               CapeTown         17675.125
       317   07 Jun 2027 11:39:53.349   07 Jun 2027 11:43:22.895           209.546                Anadyr2         26193.250
       318   07 Jun 2027 11:43:50.160   07 Jun 2027 11:46:03.963           133.803                Anadyr1         16725.375
       319   07 Jun 2027 13:20:09.661   07 Jun 2027 13:21:40.361            90.700               Magadan2         11337.500
       320   07 Jun 2027 14:53:24.651   07 Jun 2027 14:55:03.718            99.067               Magadan2         12383.375
       321   07 Jun 2027 17:25:15.613   07 Jun 2027 17:27:11.608           115.995            RioGallegos         14499.375
       322   07 Jun 2027 18:10:47.321   07 Jun 2027 18:16:05.108           317.787                Novosib         39723.375
       323   07 Jun 2027 19:57:28.262   07 Jun 2027 19:58:40.996            72.734                  Delhi          9091.750
       324   07 Jun 2027 21:20:10.484   07 Jun 2027 21:24:23.221           252.737              Murmansk1         31592.125
       325   07 Jun 2027 21:24:54.387   07 Jun 2027 21:29:30.110           275.723                 Moscow         34465.375
       326   08 Jun 2027 03:38:37.897   08 Jun 2027 03:39:03.520            25.623               Magadan1          3202.875
       327   08 Jun 2027 03:39:20.990   08 Jun 2027 03:39:29.789             8.799               Magadan1          1099.875
       328   08 Jun 2027 03:39:36.806   08 Jun 2027 03:39:47.178            10.372                Anadyr2          1296.500
       329   08 Jun 2027 03:40:01.508   08 Jun 2027 03:42:20.935           139.427                Anadyr1         17428.375
       330   08 Jun 2027 05:13:53.216   08 Jun 2027 05:14:14.032            20.816                Norilsk          2602.000
       331   08 Jun 2027 05:14:24.551   08 Jun 2027 05:14:36.114            11.563                Irkutsk          1445.375
       332   08 Jun 2027 05:15:04.005   08 Jun 2027 05:17:00.702           116.697                Novosib         14587.125
       333   08 Jun 2027 05:17:09.935   08 Jun 2027 05:17:58.576            48.641               Magadan1          6080.125
       334   08 Jun 2027 05:18:20.870   08 Jun 2027 05:18:44.385            23.515                Irkutsk          2939.375
       335   08 Jun 2027 05:18:48.361   08 Jun 2027 05:19:27.410            39.049                Novosib          4881.125
       336   08 Jun 2027 05:21:11.371   08 Jun 2027 05:21:21.581            10.210                Norilsk          1276.250
       337   08 Jun 2027 05:23:21.026   08 Jun 2027 05:23:25.611             4.585                Norilsk           573.125
       338   08 Jun 2027 05:53:27.392   08 Jun 2027 05:54:45.822            78.430            RioGallegos          9803.750
       339   08 Jun 2027 06:28:28.633   08 Jun 2027 06:28:57.310            28.677                Sumatra          3584.625
       340   08 Jun 2027 06:31:22.561   08 Jun 2027 06:32:35.103            72.542                Sumatra          9067.750
       341   08 Jun 2027 06:43:46.893   08 Jun 2027 06:45:48.433           121.540                  Delhi         15192.500
       342   08 Jun 2027 06:50:59.875   08 Jun 2027 06:51:27.684            27.809              Murmansk1          3476.125
       343   08 Jun 2027 06:51:37.295   08 Jun 2027 06:52:08.033            30.738              Murmansk1          3842.250
       344   08 Jun 2027 06:52:22.142   08 Jun 2027 06:52:30.912             8.770                Novosib          1096.250
       345   08 Jun 2027 06:52:34.621   08 Jun 2027 06:52:57.176            22.555                Novosib          2819.375
       346   08 Jun 2027 06:52:58.008   08 Jun 2027 06:54:36.042            98.034                Irkutsk         12254.250
       347   08 Jun 2027 08:12:31.486   08 Jun 2027 08:13:12.221            40.735                  Delhi          5091.875
       348   08 Jun 2027 08:27:15.510   08 Jun 2027 08:28:47.167            91.657              Murmansk2         11457.125
       349   08 Jun 2027 08:28:47.354   08 Jun 2027 08:29:27.768            40.414                 Moscow          5051.750
       350   08 Jun 2027 08:29:45.353   08 Jun 2027 08:30:13.603            28.250                Novosib          3531.250
       351   08 Jun 2027 08:30:24.515   08 Jun 2027 08:30:30.406             5.891                 Moscow           736.375
       352   08 Jun 2027 09:52:44.158   08 Jun 2027 09:53:43.650            59.492                  Delhi          7436.500
       353   08 Jun 2027 09:59:51.190   08 Jun 2027 10:00:04.489            13.299                 Moscow          1662.375
       354   08 Jun 2027 10:00:21.665   08 Jun 2027 10:02:16.080           114.415              Murmansk1         14301.875
       355   08 Jun 2027 10:02:20.655   08 Jun 2027 10:02:38.282            17.627                 Moscow          2203.375
       356   08 Jun 2027 10:02:46.731   08 Jun 2027 10:03:18.739            32.008                Novosib          4001.000
       357   08 Jun 2027 10:03:21.096   08 Jun 2027 10:03:25.154             4.058                Norilsk           507.250
       358   08 Jun 2027 10:03:39.852   08 Jun 2027 10:04:41.827            61.975                Novosib          7746.875
       359   08 Jun 2027 10:04:45.314   08 Jun 2027 10:05:19.705            34.391                 Moscow          4298.875
       360   08 Jun 2027 10:05:31.565   08 Jun 2027 10:06:07.107            35.542                 Moscow          4442.750
       361   08 Jun 2027 10:06:30.151   08 Jun 2027 10:06:55.364            25.213              Murmansk1          3151.625
       362   08 Jun 2027 10:07:02.199   08 Jun 2027 10:08:03.495            61.296                 Moscow          7662.000
       363   08 Jun 2027 11:12:28.601   08 Jun 2027 11:15:28.615           180.014               CapeTown         22501.750
       364   08 Jun 2027 11:19:37.215   08 Jun 2027 11:20:31.711            54.496               CapeTown          6812.000
       365   08 Jun 2027 11:51:42.112   08 Jun 2027 11:56:22.544           280.432                Anadyr2         35054.000
       366   08 Jun 2027 13:31:11.982   08 Jun 2027 13:33:39.000           147.018               Magadan2         18377.250
       367   08 Jun 2027 16:47:43.382   08 Jun 2027 16:51:31.410           228.028                Irkutsk         28503.500
       368   08 Jun 2027 18:22:10.392   08 Jun 2027 18:29:14.360           423.968                Novosib         52996.000
       369   08 Jun 2027 21:31:47.498   08 Jun 2027 21:33:41.563           114.065              Murmansk1         14258.125
       370   08 Jun 2027 21:33:56.608   08 Jun 2027 21:36:27.423           150.815              Murmansk1         18851.875
       371   08 Jun 2027 21:36:52.486   08 Jun 2027 21:41:37.319           284.833                 Moscow         35604.125
       372   08 Jun 2027 22:04:48.437   08 Jun 2027 22:06:36.581           108.144               CapeTown         13518.000
       373   09 Jun 2027 03:50:21.023   09 Jun 2027 03:51:24.194            63.171                Anadyr1          7896.375
       374   09 Jun 2027 03:51:45.420   09 Jun 2027 03:51:55.770            10.350               Magadan2          1293.750
       375   09 Jun 2027 03:52:01.699   09 Jun 2027 03:52:10.213             8.514                Anadyr1          1064.250
       376   09 Jun 2027 03:52:17.693   09 Jun 2027 03:53:47.608            89.915                Anadyr1         11239.375
       377   09 Jun 2027 03:54:27.219   09 Jun 2027 03:54:57.156            29.937               Magadan1          3742.125
       378   09 Jun 2027 05:25:46.774   09 Jun 2027 05:29:07.707           200.933                Irkutsk         25116.625
       379   09 Jun 2027 05:30:15.779   09 Jun 2027 05:30:48.093            32.314                Irkutsk          4039.250
       380   09 Jun 2027 05:31:51.822   09 Jun 2027 05:32:02.405            10.583                Novosib          1322.875
       381   09 Jun 2027 06:05:34.535   09 Jun 2027 06:06:38.266            63.731            RioGallegos          7966.375
       382   09 Jun 2027 06:40:22.672   09 Jun 2027 06:41:21.947            59.275                Sumatra          7409.375
       383   09 Jun 2027 06:55:51.747   09 Jun 2027 06:57:47.127           115.380                  Delhi         14422.500
       384   09 Jun 2027 07:02:35.538   09 Jun 2027 07:02:43.616             8.078                Novosib          1009.750
       385   09 Jun 2027 07:03:06.994   09 Jun 2027 07:04:02.406            55.412              Murmansk2          6926.500
       386   09 Jun 2027 07:04:04.407   09 Jun 2027 07:04:30.780            26.373                 Moscow          3296.625
       387   09 Jun 2027 07:04:43.484   09 Jun 2027 07:04:55.343            11.859              Murmansk2          1482.375
       388   09 Jun 2027 07:04:58.736   09 Jun 2027 07:05:11.689            12.953              Murmansk1          1619.125
       389   09 Jun 2027 07:05:18.565   09 Jun 2027 07:05:25.311             6.746                Norilsk           843.250
       390   09 Jun 2027 07:05:34.113   09 Jun 2027 07:06:59.385            85.272                Novosib         10659.000
       391   09 Jun 2027 07:45:46.109   09 Jun 2027 07:45:55.442             9.333            RioGallegos          1166.625
       392   09 Jun 2027 08:20:16.409   09 Jun 2027 08:21:10.344            53.935                Sumatra          6741.875
       393   09 Jun 2027 08:30:01.310   09 Jun 2027 08:31:38.090            96.780                  Delhi         12097.500
       394   09 Jun 2027 08:39:14.754   09 Jun 2027 08:40:16.956            62.202                Norilsk          7775.250
       395   09 Jun 2027 08:40:39.320   09 Jun 2027 08:42:18.158            98.838                 Moscow         12354.750
       396   09 Jun 2027 10:12:00.850   09 Jun 2027 10:12:57.320            56.470                 Moscow          7058.750
       397   09 Jun 2027 10:13:34.314   09 Jun 2027 10:15:41.111           126.797              Murmansk2         15849.625
       398   09 Jun 2027 10:15:44.368   09 Jun 2027 10:15:48.708             4.340              Murmansk1           542.500
       399   09 Jun 2027 10:15:59.669   09 Jun 2027 10:16:45.421            45.752                 Moscow          5719.000
       400   09 Jun 2027 10:17:06.501   09 Jun 2027 10:18:43.091            96.590              Murmansk1         12073.750
       401   09 Jun 2027 10:18:58.284   09 Jun 2027 10:20:17.191            78.907                 Moscow          9863.375
       402   09 Jun 2027 11:23:52.531   09 Jun 2027 11:27:17.006           204.475               CapeTown         25559.375
       403   09 Jun 2027 11:29:33.978   09 Jun 2027 11:31:18.502           104.524               CapeTown         13065.500
       404   09 Jun 2027 12:03:34.012   09 Jun 2027 12:04:54.594            80.582                Anadyr1         10072.750
       405   09 Jun 2027 12:05:59.444   09 Jun 2027 12:08:51.300           171.856                Anadyr2         21482.000
       406   09 Jun 2027 13:42:41.983   09 Jun 2027 13:46:28.915           226.932               Magadan2         28366.500
       407   09 Jun 2027 16:58:45.311   09 Jun 2027 17:05:01.490           376.179                Irkutsk         47022.375
       408   09 Jun 2027 17:15:28.455   09 Jun 2027 17:16:08.359            39.904                Sumatra          4988.000
       409   09 Jun 2027 17:16:59.439   09 Jun 2027 17:17:44.321            44.882                Sumatra          5610.250
       410   09 Jun 2027 18:33:46.287   09 Jun 2027 18:38:40.811           294.524                Novosib         36815.500
       411   09 Jun 2027 18:40:07.664   09 Jun 2027 18:40:29.015            21.351                Novosib          2668.875
       412   09 Jun 2027 21:42:54.165   09 Jun 2027 21:44:19.824            85.659              Murmansk2         10707.375
       413   09 Jun 2027 21:46:38.255   09 Jun 2027 21:48:51.207           132.952              Murmansk1         16619.000
       414   09 Jun 2027 21:50:15.231   09 Jun 2027 21:51:59.635           104.404              Murmansk1         13050.500
       415   09 Jun 2027 21:53:41.485   09 Jun 2027 21:55:17.226            95.741                 Moscow         11967.625
       416   09 Jun 2027 22:14:39.273   09 Jun 2027 22:16:06.664            87.391               CapeTown         10923.875
       417   10 Jun 2027 04:02:28.112   10 Jun 2027 04:05:37.628           189.516                Anadyr2         23689.500
       418   10 Jun 2027 04:06:53.763   10 Jun 2027 04:06:55.189             1.426               Magadan2           178.250
       419   10 Jun 2027 04:11:29.724   10 Jun 2027 04:11:45.766            16.042                Norilsk          2005.250
       420   10 Jun 2027 04:44:22.995   10 Jun 2027 04:44:40.819            17.824            RioGallegos          2228.000
       421   10 Jun 2027 04:44:54.241   10 Jun 2027 04:45:20.288            26.047            RioGallegos          3255.875
       422   10 Jun 2027 04:49:35.628   10 Jun 2027 04:49:46.215            10.587            RioGallegos          1323.375
       423   10 Jun 2027 04:52:59.487   10 Jun 2027 04:53:33.725            34.238            RioGallegos          4279.750
       424   10 Jun 2027 05:20:23.991   10 Jun 2027 05:21:00.567            36.576                Sumatra          4572.000
       425   10 Jun 2027 05:23:38.613   10 Jun 2027 05:25:38.064           119.451                Sumatra         14931.375
       426   10 Jun 2027 05:38:11.635   10 Jun 2027 05:39:35.508            83.873               Magadan2         10484.125
       427   10 Jun 2027 05:39:43.137   10 Jun 2027 05:40:43.075            59.938               Magadan2          7492.250
       428   10 Jun 2027 05:41:12.343   10 Jun 2027 05:41:14.740             2.397               Magadan2           299.625
       429   10 Jun 2027 05:41:52.170   10 Jun 2027 05:42:41.155            48.985              Murmansk2          6123.125
       430   10 Jun 2027 05:42:44.913   10 Jun 2027 05:43:08.560            23.647                Norilsk          2955.875
       431   10 Jun 2027 05:43:26.689   10 Jun 2027 05:44:08.088            41.399                Novosib          5174.875
       432   10 Jun 2027 05:45:21.710   10 Jun 2027 05:45:45.150            23.440                Norilsk          2930.000
       433   10 Jun 2027 06:21:36.932   10 Jun 2027 06:22:36.246            59.314            RioGallegos          7414.250
       434   10 Jun 2027 07:00:31.185   10 Jun 2027 07:01:10.945            39.760                Sumatra          4970.000
       435   10 Jun 2027 07:06:08.459   10 Jun 2027 07:07:39.187            90.728                  Delhi         11341.000
       436   10 Jun 2027 07:13:31.307   10 Jun 2027 07:14:18.895            47.588                Irkutsk          5948.500
       437   10 Jun 2027 07:15:44.539   10 Jun 2027 07:16:43.313            58.774                Irkutsk          7346.750
       438   10 Jun 2027 07:16:52.001   10 Jun 2027 07:17:14.309            22.308                 Moscow          2788.500
       439   10 Jun 2027 07:17:21.839   10 Jun 2027 07:18:25.579            63.740                 Moscow          7967.500
       440   10 Jun 2027 07:18:34.562   10 Jun 2027 07:19:06.262            31.700                 Moscow          3962.500
       441   10 Jun 2027 08:36:44.427   10 Jun 2027 08:38:03.250            78.823                  Delhi          9852.875
       442   10 Jun 2027 08:50:51.348   10 Jun 2027 08:51:08.917            17.569              Murmansk2          2196.125
       443   10 Jun 2027 08:51:24.392   10 Jun 2027 08:52:50.841            86.449              Murmansk2         10806.125
       444   10 Jun 2027 08:53:00.722   10 Jun 2027 08:53:06.562             5.840              Murmansk1           730.000
       445   10 Jun 2027 08:53:08.511   10 Jun 2027 08:53:14.657             6.146                Norilsk           768.250
       446   10 Jun 2027 08:53:17.179   10 Jun 2027 08:53:57.256            40.077                Novosib          5009.625
       447   10 Jun 2027 08:54:22.885   10 Jun 2027 08:55:14.983            52.098                Novosib          6512.250
       448   10 Jun 2027 08:55:20.281   10 Jun 2027 08:56:03.399            43.118                Norilsk          5389.750
       449   10 Jun 2027 10:26:15.948   10 Jun 2027 10:27:11.861            55.913              Murmansk1          6989.125
       450   10 Jun 2027 10:27:16.128   10 Jun 2027 10:27:31.196            15.068              Murmansk1          1883.500
       451   10 Jun 2027 10:27:39.041   10 Jun 2027 10:28:27.346            48.305              Murmansk1          6038.125
       452   10 Jun 2027 10:28:34.092   10 Jun 2027 10:28:44.762            10.670                 Moscow          1333.750
       453   10 Jun 2027 10:29:15.002   10 Jun 2027 10:31:08.992           113.990              Murmansk2         14248.750
       454   10 Jun 2027 10:31:54.689   10 Jun 2027 10:32:17.674            22.985                Norilsk          2873.125
       455   10 Jun 2027 11:35:26.835   10 Jun 2027 11:36:06.469            39.634               CapeTown          4954.250
       456   10 Jun 2027 11:38:45.422   10 Jun 2027 11:42:05.947           200.525               CapeTown         25065.625
       457   10 Jun 2027 12:15:28.098   10 Jun 2027 12:17:59.887           151.789                Anadyr1         18973.625
       458   10 Jun 2027 12:18:35.794   10 Jun 2027 12:19:25.164            49.370                Anadyr2          6171.250
       459   10 Jun 2027 12:24:16.435   10 Jun 2027 12:24:59.078            42.643                Anadyr1          5330.375
       460   10 Jun 2027 13:54:22.142   10 Jun 2027 13:57:38.229           196.087               Magadan2         24510.875
       461   10 Jun 2027 13:59:02.536   10 Jun 2027 14:00:46.351           103.815               Magadan1         12976.875
       462   10 Jun 2027 16:24:11.034   10 Jun 2027 16:26:19.308           128.274            RioGallegos         16034.250
       463   10 Jun 2027 17:10:12.001   10 Jun 2027 17:14:46.420           274.419                Irkutsk         34302.375
       464   10 Jun 2027 17:16:14.920   10 Jun 2027 17:17:52.537            97.617                Irkutsk         12202.125
       465   10 Jun 2027 17:25:40.308   10 Jun 2027 17:27:41.681           121.373                Sumatra         15171.625
       466   10 Jun 2027 17:31:37.376   10 Jun 2027 17:32:45.651            68.275                Sumatra          8534.375
       467   10 Jun 2027 18:47:20.507   10 Jun 2027 18:48:52.412            91.905                Novosib         11488.125
       468   10 Jun 2027 18:51:08.171   10 Jun 2027 18:52:11.213            63.042                Novosib          7880.250
       469   10 Jun 2027 18:57:31.975   10 Jun 2027 18:58:25.202            53.227                  Delhi          6653.375
       470   10 Jun 2027 20:21:10.302   10 Jun 2027 20:21:56.635            46.333              Murmansk1          5791.625
       471   10 Jun 2027 21:56:06.990   10 Jun 2027 21:56:10.461             3.471              Murmansk1           433.875
       472   10 Jun 2027 21:58:49.464   10 Jun 2027 22:00:40.423           110.959                 Moscow         13869.875
       473   10 Jun 2027 22:01:53.833   10 Jun 2027 22:04:57.403           183.570                 Moscow         22946.250
       474   10 Jun 2027 22:25:28.483   10 Jun 2027 22:26:22.218            53.735               CapeTown          6716.875
       475   10 Jun 2027 22:29:07.270   10 Jun 2027 22:31:13.784           126.514               CapeTown         15814.250
       476   11 Jun 2027 04:15:24.222   11 Jun 2027 04:15:46.639            22.417                Irkutsk          2802.125
       477   11 Jun 2027 04:16:00.776   11 Jun 2027 04:16:09.642             8.866                Anadyr1          1108.250
       478   11 Jun 2027 04:16:14.814   11 Jun 2027 04:17:38.627            83.813                Anadyr2         10476.625
       479   11 Jun 2027 04:18:00.615   11 Jun 2027 04:18:02.709             2.094                Anadyr1           261.750
       480   11 Jun 2027 04:18:29.074   11 Jun 2027 04:18:52.295            23.221               Magadan1          2902.625
       481   11 Jun 2027 04:23:16.085   11 Jun 2027 04:23:30.164            14.079                Norilsk          1759.875
       482   11 Jun 2027 04:53:56.139   11 Jun 2027 04:54:28.481            32.342            RioGallegos          4042.750
