uniorb/output/strategy_1/Drop/Drop_KinoSat_110607.txt

KinoSat_110607
-------------------------
    Access    *     Start Time (UTCG)     *     Stop Time (UTCG)  *   Duration (s)        *       Station  *  Data (Mbytes)
         1   01 Jun 2027 03:25:57.192   01 Jun 2027 03:26:24.921            27.729                Anadyr2           866.531
         2   01 Jun 2027 03:26:29.602   01 Jun 2027 03:26:58.066            28.464                Anadyr2           889.500
         3   01 Jun 2027 03:27:01.975   01 Jun 2027 03:29:14.981           133.006                Anadyr2          4156.438
         4   01 Jun 2027 03:29:51.274   01 Jun 2027 03:30:15.487            24.213                Anadyr2           756.656
         5   01 Jun 2027 05:01:17.489   01 Jun 2027 05:04:42.515           205.026               Magadan2          6407.063
         6   01 Jun 2027 05:04:43.307   01 Jun 2027 05:05:24.301            40.994                Anadyr1          1281.063
         7   01 Jun 2027 05:05:34.107   01 Jun 2027 05:05:51.139            17.032               Magadan1           532.250
         8   01 Jun 2027 05:05:51.139   01 Jun 2027 05:05:54.380             3.241               Magadan2           101.281
         9   01 Jun 2027 05:05:56.761   01 Jun 2027 05:06:38.330            41.569                Irkutsk          1299.031
        10   01 Jun 2027 05:06:40.084   01 Jun 2027 05:07:37.112            57.028                Novosib          1782.125
        11   01 Jun 2027 05:08:39.986   01 Jun 2027 05:08:56.710            16.724                Norilsk           522.625
        12   01 Jun 2027 05:09:45.104   01 Jun 2027 05:10:16.616            31.512                Norilsk           984.750
        13   01 Jun 2027 05:41:47.555   01 Jun 2027 05:44:24.852           157.297            RioGallegos          4915.531
        14   01 Jun 2027 06:18:13.015   01 Jun 2027 06:18:52.147            39.132                Sumatra          1222.875
        15   01 Jun 2027 06:21:14.943   01 Jun 2027 06:22:50.045            95.102                Sumatra          2971.938
        16   01 Jun 2027 06:24:19.683   01 Jun 2027 06:25:29.705            70.022                Sumatra          2188.187
        17   01 Jun 2027 06:38:06.601   01 Jun 2027 06:39:14.647            68.046                Novosib          2126.437
        18   01 Jun 2027 06:39:15.868   01 Jun 2027 06:39:40.047            24.179                Norilsk           755.594
        19   01 Jun 2027 06:39:49.941   01 Jun 2027 06:43:16.036           206.095                Novosib          6440.469
        20   01 Jun 2027 06:43:19.336   01 Jun 2027 06:44:14.557            55.221              Murmansk1          1725.656
        21   01 Jun 2027 06:44:50.196   01 Jun 2027 06:44:56.497             6.301                Norilsk           196.906
        22   01 Jun 2027 06:46:54.789   01 Jun 2027 06:46:59.672             4.883              Murmansk1           152.594
        23   01 Jun 2027 06:47:26.271   01 Jun 2027 06:48:06.999            40.728              Murmansk2          1272.750
        24   01 Jun 2027 07:18:22.352   01 Jun 2027 07:18:38.460            16.108            RioGallegos           503.375
        25   01 Jun 2027 07:19:11.044   01 Jun 2027 07:19:51.263            40.219            RioGallegos          1256.844
        26   01 Jun 2027 07:20:27.573   01 Jun 2027 07:20:45.409            17.836            RioGallegos           557.375
        27   01 Jun 2027 07:52:41.605   01 Jun 2027 07:53:58.520            76.915                Sumatra          2403.594
        28   01 Jun 2027 07:56:20.901   01 Jun 2027 07:57:44.197            83.296                Sumatra          2603.000
        29   01 Jun 2027 08:01:24.227   01 Jun 2027 08:05:08.164           223.937                  Delhi          6998.031
        30   01 Jun 2027 08:15:22.278   01 Jun 2027 08:16:05.492            43.214              Murmansk2          1350.438
        31   01 Jun 2027 08:16:16.721   01 Jun 2027 08:21:11.992           295.271                 Moscow          9227.219
        32   01 Jun 2027 09:37:25.799   01 Jun 2027 09:39:14.376           108.577                  Delhi          3393.031
        33   01 Jun 2027 09:41:27.493   01 Jun 2027 09:42:04.132            36.639                  Delhi          1144.969
        34   01 Jun 2027 09:51:06.503   01 Jun 2027 09:51:44.240            37.737                Novosib          1179.281
        35   01 Jun 2027 09:52:10.778   01 Jun 2027 09:52:20.070             9.292                 Moscow           290.375
        36   01 Jun 2027 09:52:47.768   01 Jun 2027 09:55:22.276           154.508                 Moscow          4828.375
        37   01 Jun 2027 09:55:27.985   01 Jun 2027 09:57:06.209            98.224                Norilsk          3069.500
        38   01 Jun 2027 09:57:15.720   01 Jun 2027 09:58:47.340            91.620              Murmansk2          2863.125
        39   01 Jun 2027 11:41:33.607   01 Jun 2027 11:44:09.729           156.122                Anadyr1          4878.813
        40   01 Jun 2027 13:16:54.137   01 Jun 2027 13:17:24.720            30.583                Anadyr2           955.719
        41   01 Jun 2027 13:20:21.513   01 Jun 2027 13:20:51.446            29.933                Anadyr2           935.406
        42   01 Jun 2027 14:51:05.272   01 Jun 2027 14:52:16.873            71.601                Anadyr2          2237.531
        43   01 Jun 2027 14:53:57.940   01 Jun 2027 15:03:53.549           595.609               Magadan2         18612.781
        44   01 Jun 2027 17:22:24.132   01 Jun 2027 17:30:04.562           460.430            RioGallegos         14388.437
        45   01 Jun 2027 18:07:02.483   01 Jun 2027 18:09:15.506           133.023                Norilsk          4156.969
        46   01 Jun 2027 18:09:39.646   01 Jun 2027 18:10:37.355            57.709                Norilsk          1803.406
        47   01 Jun 2027 18:10:47.402   01 Jun 2027 18:11:07.490            20.088                Irkutsk           627.750
        48   01 Jun 2027 18:12:41.300   01 Jun 2027 18:17:33.516           292.216                Irkutsk          9131.750
        49   01 Jun 2027 18:26:48.405   01 Jun 2027 18:31:20.565           272.160                Sumatra          8505.000
        50   01 Jun 2027 19:45:07.275   01 Jun 2027 19:46:04.428            57.153                Novosib          1786.031
        51   01 Jun 2027 19:47:08.683   01 Jun 2027 19:48:11.537            62.854                Novosib          1964.188
        52   01 Jun 2027 19:53:59.649   01 Jun 2027 20:02:27.934           508.285                  Delhi         15883.906
        53   01 Jun 2027 21:19:28.180   01 Jun 2027 21:20:08.773            40.593              Murmansk2          1268.531
        54   01 Jun 2027 21:20:47.635   01 Jun 2027 21:25:24.401           276.766              Murmansk1          8648.937
        55   01 Jun 2027 22:58:57.956   01 Jun 2027 23:00:37.496            99.540              Murmansk2          3110.625
        56   01 Jun 2027 23:00:44.885   01 Jun 2027 23:02:08.572            83.687                 Moscow          2615.219
        57   01 Jun 2027 23:23:52.837   01 Jun 2027 23:24:35.836            42.999               CapeTown          1343.719
        58   01 Jun 2027 23:26:24.359   01 Jun 2027 23:31:04.654           280.295               CapeTown          8759.219
        59   02 Jun 2027 01:01:38.001   02 Jun 2027 01:02:00.020            22.019               CapeTown           688.094
        60   02 Jun 2027 01:54:49.595   02 Jun 2027 01:54:53.646             4.051                Anadyr1           126.594
        61   02 Jun 2027 01:55:22.112   02 Jun 2027 01:56:45.903            83.791               Magadan1          2618.469
        62   02 Jun 2027 01:56:46.821   02 Jun 2027 01:57:04.092            17.271               Magadan1           539.719
        63   02 Jun 2027 01:57:38.283   02 Jun 2027 01:57:59.047            20.764               Magadan2           648.875
        64   02 Jun 2027 02:00:56.674   02 Jun 2027 02:01:19.399            22.725               Magadan1           710.156
        65   02 Jun 2027 02:03:28.220   02 Jun 2027 02:03:58.429            30.209               Magadan2           944.031
        66   02 Jun 2027 02:06:47.558   02 Jun 2027 02:07:55.391            67.833              Murmansk1          2119.781
        67   02 Jun 2027 02:08:35.249   02 Jun 2027 02:08:49.050            13.801              Murmansk2           431.281
        68   02 Jun 2027 02:10:18.049   02 Jun 2027 02:11:27.167            69.118                 Moscow          2159.937
        69   02 Jun 2027 02:14:32.408   02 Jun 2027 02:14:49.785            17.377                 Moscow           543.031
        70   02 Jun 2027 02:17:09.489   02 Jun 2027 02:17:17.127             7.638                 Moscow           238.688
        71   02 Jun 2027 02:19:54.153   02 Jun 2027 02:19:57.223             3.070                 Moscow            95.938
        72   02 Jun 2027 02:20:39.160   02 Jun 2027 02:20:46.559             7.399                 Moscow           231.219
        73   02 Jun 2027 03:35:02.947   02 Jun 2027 03:36:10.296            67.349                Anadyr1          2104.656
        74   02 Jun 2027 03:37:13.803   02 Jun 2027 03:40:29.782           195.979                Anadyr2          6124.344
        75   02 Jun 2027 03:40:29.782   02 Jun 2027 03:40:34.844             5.062                Anadyr1           158.187
        76   02 Jun 2027 03:40:49.518   02 Jun 2027 03:42:02.808            73.290               Magadan2          2290.312
        77   02 Jun 2027 03:42:06.351   02 Jun 2027 03:43:14.467            68.116               Magadan1          2128.625
        78   02 Jun 2027 05:13:56.015   02 Jun 2027 05:13:59.421             3.406                Irkutsk           106.437
        79   02 Jun 2027 05:14:06.221   02 Jun 2027 05:15:04.999            58.778                Irkutsk          1836.812
        80   02 Jun 2027 05:15:50.560   02 Jun 2027 05:16:01.385            10.825                Irkutsk           338.281
        81   02 Jun 2027 05:16:03.212   02 Jun 2027 05:17:29.343            86.131               Magadan2          2691.594
        82   02 Jun 2027 05:17:48.457   02 Jun 2027 05:19:49.093           120.636                Novosib          3769.875
        83   02 Jun 2027 05:53:41.802   02 Jun 2027 05:56:54.273           192.471            RioGallegos          6014.719
        84   02 Jun 2027 06:29:37.936   02 Jun 2027 06:30:55.953            78.017                Sumatra          2438.031
        85   02 Jun 2027 06:34:21.075   02 Jun 2027 06:36:02.396           101.321                Sumatra          3166.281
        86   02 Jun 2027 06:49:53.573   02 Jun 2027 06:50:35.067            41.494                Irkutsk          1296.687
        87   02 Jun 2027 06:51:05.980   02 Jun 2027 06:51:48.141            42.161                Norilsk          1317.531
        88   02 Jun 2027 06:51:52.952   02 Jun 2027 06:52:48.421            55.469              Murmansk1          1733.406
        89   02 Jun 2027 06:53:01.708   02 Jun 2027 06:54:56.508           114.800                Irkutsk          3587.500
        90   02 Jun 2027 06:55:02.926   02 Jun 2027 06:57:17.240           134.314              Murmansk2          4197.313
        91   02 Jun 2027 07:30:46.388   02 Jun 2027 07:32:33.311           106.923            RioGallegos          3341.344
        92   02 Jun 2027 08:05:00.245   02 Jun 2027 08:07:00.874           120.629                Sumatra          3769.656
        93   02 Jun 2027 08:09:20.215   02 Jun 2027 08:09:39.172            18.957                Sumatra           592.406
        94   02 Jun 2027 08:13:06.777   02 Jun 2027 08:14:30.665            83.888                  Delhi          2621.500
        95   02 Jun 2027 08:14:59.097   02 Jun 2027 08:15:44.355            45.258                  Delhi          1414.312
        96   02 Jun 2027 08:28:31.151   02 Jun 2027 08:28:37.251             6.100                 Moscow           190.625
        97   02 Jun 2027 08:28:41.605   02 Jun 2027 08:30:31.461           109.856                 Moscow          3433.000
        98   02 Jun 2027 08:30:45.665   02 Jun 2027 08:32:13.986            88.321                Novosib          2760.031
        99   02 Jun 2027 09:49:57.081   02 Jun 2027 09:52:24.942           147.861                  Delhi          4620.656
       100   02 Jun 2027 09:53:07.277   02 Jun 2027 09:53:50.784            43.507                  Delhi          1359.594
       101   02 Jun 2027 10:03:55.958   02 Jun 2027 10:06:14.124           138.166              Murmansk2          4317.688
       102   02 Jun 2027 10:06:14.124   02 Jun 2027 10:06:56.103            41.979              Murmansk1          1311.844
       103   02 Jun 2027 11:52:47.228   02 Jun 2027 11:57:37.227           289.999                Anadyr2          9062.469
       104   02 Jun 2027 15:06:25.721   02 Jun 2027 15:09:21.325           175.604               Magadan2          5487.625
       105   02 Jun 2027 15:10:15.131   02 Jun 2027 15:11:32.943            77.812               Magadan2          2431.625
       106   02 Jun 2027 15:13:32.649   02 Jun 2027 15:15:20.074           107.425               Magadan1          3357.031
       107   02 Jun 2027 17:35:06.594   02 Jun 2027 17:40:35.584           328.990            RioGallegos         10280.938
       108   02 Jun 2027 18:20:00.609   02 Jun 2027 18:22:06.802           126.193                Norilsk          3943.531
       109   02 Jun 2027 18:23:16.688   02 Jun 2027 18:24:43.440            86.752                Irkutsk          2711.000
       110   02 Jun 2027 18:28:22.303   02 Jun 2027 18:30:47.561           145.258                Irkutsk          4539.312
       111   02 Jun 2027 18:36:51.701   02 Jun 2027 18:38:59.355           127.654                Sumatra          3989.187
       112   02 Jun 2027 18:40:31.817   02 Jun 2027 18:42:12.797           100.980                Sumatra          3155.625
       113   02 Jun 2027 19:58:26.392   02 Jun 2027 19:59:30.848            64.456                Novosib          2014.250
       114   02 Jun 2027 20:05:22.309   02 Jun 2027 20:12:54.384           452.075                  Delhi         14127.344
       115   02 Jun 2027 21:31:21.132   02 Jun 2027 21:38:49.645           448.513              Murmansk2         14016.031
       116   02 Jun 2027 23:11:45.868   02 Jun 2027 23:12:23.948            38.080                 Moscow          1190.000
       117   02 Jun 2027 23:12:49.003   02 Jun 2027 23:14:11.203            82.200                 Moscow          2568.750
       118   02 Jun 2027 23:35:20.879   02 Jun 2027 23:36:35.296            74.417               CapeTown          2325.531
       119   02 Jun 2027 23:38:39.972   02 Jun 2027 23:40:48.747           128.775               CapeTown          4024.219
       120   02 Jun 2027 23:40:53.662   02 Jun 2027 23:42:08.999            75.337               CapeTown          2354.281
       121   03 Jun 2027 00:49:44.555   03 Jun 2027 00:50:40.234            55.679              Murmansk1          1739.969
       122   03 Jun 2027 00:53:15.995   03 Jun 2027 00:54:19.102            63.107                 Moscow          1972.094
       123   03 Jun 2027 00:58:44.582   03 Jun 2027 00:58:51.944             7.362                 Moscow           230.062
       124   03 Jun 2027 01:14:10.194   03 Jun 2027 01:15:10.390            60.196               CapeTown          1881.125
       125   03 Jun 2027 01:17:35.611   03 Jun 2027 01:18:29.258            53.647               CapeTown          1676.469
       126   03 Jun 2027 02:06:57.888   03 Jun 2027 02:07:16.195            18.307                Anadyr1           572.094
       127   03 Jun 2027 02:07:49.019   03 Jun 2027 02:08:14.649            25.630                Anadyr1           800.938
       128   03 Jun 2027 02:08:44.137   03 Jun 2027 02:09:40.827            56.690               Magadan1          1771.563
       129   03 Jun 2027 02:10:38.935   03 Jun 2027 02:10:43.467             4.532               Magadan1           141.625
       130   03 Jun 2027 02:10:59.401   03 Jun 2027 02:11:06.685             7.284               Magadan1           227.625
       131   03 Jun 2027 02:12:06.626   03 Jun 2027 02:12:26.647            20.021               Magadan1           625.656
       132   03 Jun 2027 02:13:24.531   03 Jun 2027 02:13:41.668            17.137               Magadan1           535.531
       133   03 Jun 2027 02:14:55.700   03 Jun 2027 02:15:21.739            26.039               Magadan1           813.719
       134   03 Jun 2027 02:16:19.748   03 Jun 2027 02:16:38.947            19.199                Norilsk           599.969
       135   03 Jun 2027 02:17:47.224   03 Jun 2027 02:18:16.606            29.382               Magadan2           918.188
       136   03 Jun 2027 02:18:38.165   03 Jun 2027 02:18:44.699             6.534                Norilsk           204.188
       137   03 Jun 2027 02:18:48.029   03 Jun 2027 02:19:06.803            18.774              Murmansk1           586.688
       138   03 Jun 2027 02:20:10.439   03 Jun 2027 02:20:59.289            48.850              Murmansk2          1526.562
       139   03 Jun 2027 02:22:31.235   03 Jun 2027 02:23:07.704            36.469              Murmansk1          1139.656
       140   03 Jun 2027 02:25:49.492   03 Jun 2027 02:26:13.499            24.007              Murmansk2           750.219
       141   03 Jun 2027 02:27:23.748   03 Jun 2027 02:27:29.545             5.797              Murmansk2           181.156
       142   03 Jun 2027 02:28:10.349   03 Jun 2027 02:28:40.152            29.803                 Moscow           931.344
       143   03 Jun 2027 02:30:55.102   03 Jun 2027 02:31:02.771             7.669              Murmansk1           239.656
       144   03 Jun 2027 02:31:12.714   03 Jun 2027 02:31:22.945            10.231              Murmansk2           319.719
       145   03 Jun 2027 02:32:03.600   03 Jun 2027 02:32:20.008            16.408                 Moscow           512.750
       146   03 Jun 2027 03:49:26.240   03 Jun 2027 03:51:47.066           140.826                Anadyr2          4400.813
       147   03 Jun 2027 03:51:54.174   03 Jun 2027 03:53:11.636            77.462               Magadan2          2420.688
       148   03 Jun 2027 03:53:11.636   03 Jun 2027 03:53:18.027             6.391               Magadan1           199.719
       149   03 Jun 2027 03:53:35.864   03 Jun 2027 03:53:50.514            14.650               Magadan1           457.812
       150   03 Jun 2027 03:54:16.981   03 Jun 2027 03:55:14.905            57.924               Magadan2          1810.125
       151   03 Jun 2027 05:26:30.546   03 Jun 2027 05:28:16.050           105.504                Irkutsk          3297.000
       152   03 Jun 2027 05:28:38.506   03 Jun 2027 05:28:59.855            21.349                Norilsk           667.156
       153   03 Jun 2027 05:29:14.699   03 Jun 2027 05:30:51.275            96.576                Irkutsk          3018.000
       154   03 Jun 2027 05:30:55.944   03 Jun 2027 05:31:58.863            62.919              Murmansk2          1966.219
       155   03 Jun 2027 05:32:19.591   03 Jun 2027 05:32:49.168            29.577              Murmansk2           924.281
       156   03 Jun 2027 05:33:03.380   03 Jun 2027 05:33:28.814            25.434              Murmansk2           794.813
       157   03 Jun 2027 05:34:03.838   03 Jun 2027 05:35:20.444            76.606                Norilsk          2393.937
       158   03 Jun 2027 05:36:50.047   03 Jun 2027 05:37:12.999            22.952              Murmansk2           717.250
       159   03 Jun 2027 05:38:00.071   03 Jun 2027 05:38:09.421             9.350              Murmansk2           292.187
       160   03 Jun 2027 05:39:17.798   03 Jun 2027 05:39:53.789            35.991              Murmansk1          1124.719
       161   03 Jun 2027 06:05:39.251   03 Jun 2027 06:07:42.587           123.336            RioGallegos          3854.250
       162   03 Jun 2027 06:08:00.646   03 Jun 2027 06:08:28.344            27.698            RioGallegos           865.563
       163   03 Jun 2027 06:08:56.429   03 Jun 2027 06:09:48.954            52.525            RioGallegos          1641.406
       164   03 Jun 2027 06:15:07.066   03 Jun 2027 06:15:14.079             7.013            RioGallegos           219.156
       165   03 Jun 2027 06:41:12.591   03 Jun 2027 06:42:45.955            93.364                Sumatra          2917.625
       166   03 Jun 2027 06:45:41.043   03 Jun 2027 06:46:34.789            53.746                Sumatra          1679.563
       167   03 Jun 2027 07:02:56.641   03 Jun 2027 07:05:09.448           132.807                Norilsk          4150.219
       168   03 Jun 2027 07:05:33.583   03 Jun 2027 07:09:01.031           207.448              Murmansk2          6482.750
       169   03 Jun 2027 07:09:01.031   03 Jun 2027 07:09:45.627            44.596              Murmansk1          1393.625
       170   03 Jun 2027 07:10:36.683   03 Jun 2027 07:11:28.562            51.879              Murmansk1          1621.219
       171   03 Jun 2027 07:12:20.498   03 Jun 2027 07:12:48.959            28.461              Murmansk2           889.406
       172   03 Jun 2027 07:12:52.878   03 Jun 2027 07:13:17.002            24.124              Murmansk2           753.875
       173   03 Jun 2027 07:43:15.804   03 Jun 2027 07:44:17.365            61.561            RioGallegos          1923.781
       174   03 Jun 2027 07:49:55.479   03 Jun 2027 07:50:08.834            13.355            RioGallegos           417.344
       175   03 Jun 2027 08:17:27.237   03 Jun 2027 08:17:38.473            11.236                Sumatra           351.125
       176   03 Jun 2027 08:18:36.659   03 Jun 2027 08:20:00.634            83.975                Sumatra          2624.219
       177   03 Jun 2027 08:24:55.038   03 Jun 2027 08:26:46.455           111.417                  Delhi          3481.781
       178   03 Jun 2027 08:27:22.732   03 Jun 2027 08:28:25.623            62.891                  Delhi          1965.344
       179   03 Jun 2027 08:40:14.088   03 Jun 2027 08:41:37.909            83.821                Novosib          2619.406
       180   03 Jun 2027 08:41:42.323   03 Jun 2027 08:42:27.032            44.709              Murmansk1          1397.156
       181   03 Jun 2027 08:42:51.852   03 Jun 2027 08:44:21.883            90.031                Novosib          2813.469
       182   03 Jun 2027 08:44:29.850   03 Jun 2027 08:45:26.687            56.837              Murmansk2          1776.156
       183   03 Jun 2027 10:02:39.440   03 Jun 2027 10:04:01.174            81.734                  Delhi          2554.187
       184   03 Jun 2027 10:15:21.367   03 Jun 2027 10:15:23.399             2.032                Norilsk            63.500
       185   03 Jun 2027 10:15:25.390   03 Jun 2027 10:16:52.245            86.855                 Moscow          2714.219
       186   03 Jun 2027 10:17:00.127   03 Jun 2027 10:17:56.224            56.097                Norilsk          1753.031
       187   03 Jun 2027 10:18:08.492   03 Jun 2027 10:19:29.561            81.069              Murmansk2          2533.406
       188   03 Jun 2027 10:19:58.530   03 Jun 2027 10:20:13.228            14.698              Murmansk1           459.312
       189   03 Jun 2027 11:27:16.913   03 Jun 2027 11:28:17.812            60.899               CapeTown          1903.094
       190   03 Jun 2027 11:29:52.312   03 Jun 2027 11:29:54.778             2.466               CapeTown            77.062
       191   03 Jun 2027 12:04:23.358   03 Jun 2027 12:10:39.668           376.310                Anadyr2         11759.687
       192   03 Jun 2027 13:30:27.375   03 Jun 2027 13:30:34.183             6.808              Murmansk1           212.750
       193   03 Jun 2027 13:32:04.624   03 Jun 2027 13:32:17.108            12.484              Murmansk1           390.125
       194   03 Jun 2027 13:33:08.011   03 Jun 2027 13:33:25.450            17.439              Murmansk1           544.969
       195   03 Jun 2027 13:34:21.123   03 Jun 2027 13:34:27.612             6.489              Murmansk1           202.781
       196   03 Jun 2027 13:34:47.633   03 Jun 2027 13:35:05.754            18.121              Murmansk2           566.281
       197   03 Jun 2027 13:35:05.754   03 Jun 2027 13:36:07.956            62.202              Murmansk1          1943.812
       198   03 Jun 2027 13:39:18.448   03 Jun 2027 13:40:50.234            91.786                Anadyr1          2868.313
       199   03 Jun 2027 13:41:06.030   03 Jun 2027 13:41:29.935            23.905                Anadyr2           747.031
       200   03 Jun 2027 13:41:44.032   03 Jun 2027 13:43:10.602            86.570                Anadyr2          2705.312
       201   03 Jun 2027 13:49:42.755   03 Jun 2027 13:50:57.237            74.482                Anadyr1          2327.562
       202   03 Jun 2027 15:08:38.886   03 Jun 2027 15:10:01.774            82.888              Murmansk1          2590.250
       203   03 Jun 2027 15:15:07.620   03 Jun 2027 15:16:16.668            69.048                Anadyr1          2157.750
       204   03 Jun 2027 15:17:09.308   03 Jun 2027 15:17:58.145            48.837                Anadyr1          1526.156
       205   03 Jun 2027 15:18:48.252   03 Jun 2027 15:19:04.436            16.184                Anadyr2           505.750
       206   03 Jun 2027 15:19:26.385   03 Jun 2027 15:19:32.270             5.885                Anadyr2           183.906
       207   03 Jun 2027 15:19:35.419   03 Jun 2027 15:21:22.673           107.254               Magadan1          3351.688
       208   03 Jun 2027 15:21:22.673   03 Jun 2027 15:23:21.769           119.096               Magadan2          3721.750
       209   03 Jun 2027 15:24:28.651   03 Jun 2027 15:24:41.695            13.044               Magadan1           407.625
       210   03 Jun 2027 15:26:10.210   03 Jun 2027 15:28:51.996           161.786               Magadan2          5055.813
       211   03 Jun 2027 16:53:19.478   03 Jun 2027 16:55:28.633           129.155               Magadan1          4036.094
       212   03 Jun 2027 17:02:16.361   03 Jun 2027 17:02:19.454             3.093               Magadan1            96.656
       213   03 Jun 2027 17:02:31.559   03 Jun 2027 17:02:37.787             6.228               Magadan2           194.625
       214   03 Jun 2027 17:05:30.722   03 Jun 2027 17:06:02.536            31.814               Magadan2           994.188
       215   03 Jun 2027 17:45:42.827   03 Jun 2027 17:51:54.673           371.846            RioGallegos         11620.187
       216   03 Jun 2027 18:29:44.497   03 Jun 2027 18:34:18.037           273.540                Norilsk          8548.125
       217   03 Jun 2027 18:35:22.428   03 Jun 2027 18:36:46.360            83.932                Irkutsk          2622.875
       218   03 Jun 2027 18:36:49.136   03 Jun 2027 18:38:45.688           116.552                Novosib          3642.250
       219   03 Jun 2027 18:42:02.912   03 Jun 2027 18:43:41.470            98.558                Irkutsk          3079.937
       220   03 Jun 2027 18:49:18.096   03 Jun 2027 18:50:58.395           100.299                Sumatra          3134.344
       221   03 Jun 2027 20:08:54.971   03 Jun 2027 20:09:19.930            24.959                Novosib           779.969
       222   03 Jun 2027 20:11:24.429   03 Jun 2027 20:12:41.035            76.606                Novosib          2393.937
       223   03 Jun 2027 20:16:55.709   03 Jun 2027 20:18:31.377            95.668                  Delhi          2989.625
       224   03 Jun 2027 20:20:27.329   03 Jun 2027 20:23:35.850           188.521                  Delhi          5891.281
       225   03 Jun 2027 21:43:16.368   03 Jun 2027 21:48:51.923           335.555              Murmansk2         10486.094
       226   03 Jun 2027 21:49:27.776   03 Jun 2027 21:51:29.702           121.926              Murmansk1          3810.188
       227   03 Jun 2027 21:53:10.969   03 Jun 2027 21:53:43.869            32.900                 Moscow          1028.125
       228   03 Jun 2027 23:22:22.632   03 Jun 2027 23:24:44.903           142.271                 Moscow          4445.969
       229   03 Jun 2027 23:29:48.079   03 Jun 2027 23:30:42.232            54.153                 Moscow          1692.281
       230   03 Jun 2027 23:46:55.703   03 Jun 2027 23:48:34.829            99.126               CapeTown          3097.688
       231   03 Jun 2027 23:50:32.643   03 Jun 2027 23:51:13.843            41.200               CapeTown          1287.500
       232   04 Jun 2027 00:54:55.249   04 Jun 2027 00:56:14.135            78.886              Murmansk2          2465.188
       233   04 Jun 2027 00:57:25.920   04 Jun 2027 00:58:07.940            42.020              Murmansk2          1313.125
       234   04 Jun 2027 00:58:08.450   04 Jun 2027 00:59:07.081            58.631                 Moscow          1832.219
       235   04 Jun 2027 01:02:35.399   04 Jun 2027 01:02:39.857             4.458                 Moscow           139.313
       236   04 Jun 2027 01:02:43.410   04 Jun 2027 01:03:58.041            74.631                 Moscow          2332.219
       237   04 Jun 2027 01:22:31.910   04 Jun 2027 01:23:15.118            43.208               CapeTown          1350.250
       238   04 Jun 2027 01:28:12.628   04 Jun 2027 01:28:46.547            33.919               CapeTown          1059.969
       239   04 Jun 2027 01:32:25.216   04 Jun 2027 01:32:45.067            19.851               CapeTown           620.344
       240   04 Jun 2027 02:18:57.148   04 Jun 2027 02:20:41.471           104.323               Magadan1          3260.094
       241   04 Jun 2027 02:21:21.792   04 Jun 2027 02:21:43.266            21.474               Magadan1           671.063
       242   04 Jun 2027 02:22:18.257   04 Jun 2027 02:22:35.200            16.943               Magadan1           529.469
       243   04 Jun 2027 02:24:08.672   04 Jun 2027 02:25:04.002            55.330               Magadan1          1729.063
       244   04 Jun 2027 02:28:10.160   04 Jun 2027 02:28:38.799            28.639                Norilsk           894.969
       245   04 Jun 2027 02:30:48.212   04 Jun 2027 02:31:30.069            41.857              Murmansk1          1308.031
       246   04 Jun 2027 02:31:44.237   04 Jun 2027 02:31:58.225            13.988              Murmansk2           437.125
       247   04 Jun 2027 02:34:30.434   04 Jun 2027 02:35:16.430            45.996                 Moscow          1437.375
       248   04 Jun 2027 02:37:39.879   04 Jun 2027 02:37:49.469             9.590                 Moscow           299.688
       249   04 Jun 2027 02:39:18.609   04 Jun 2027 02:39:37.272            18.663                 Moscow           583.219
       250   04 Jun 2027 02:42:18.788   04 Jun 2027 02:42:22.693             3.905                 Moscow           122.031
       251   04 Jun 2027 02:43:44.045   04 Jun 2027 02:43:58.020            13.975                 Moscow           436.719
       252   04 Jun 2027 03:13:29.837   04 Jun 2027 03:14:27.132            57.295            RioGallegos          1790.469
       253   04 Jun 2027 03:14:41.567   04 Jun 2027 03:15:32.441            50.874            RioGallegos          1589.812
       254   04 Jun 2027 04:01:16.283   04 Jun 2027 04:02:42.418            86.135                Irkutsk          2691.719
       255   04 Jun 2027 04:02:58.267   04 Jun 2027 04:06:19.895           201.628                Anadyr1          6300.875
       256   04 Jun 2027 04:06:19.895   04 Jun 2027 04:06:37.726            17.831                Anadyr2           557.219
       257   04 Jun 2027 05:38:13.909   04 Jun 2027 05:41:04.943           171.034               Magadan2          5344.813
       258   04 Jun 2027 05:41:17.581   04 Jun 2027 05:42:26.256            68.675               Magadan1          2146.094
       259   04 Jun 2027 05:42:35.679   04 Jun 2027 05:43:45.481            69.802              Murmansk2          2181.313
       260   04 Jun 2027 05:43:50.937   04 Jun 2027 05:44:05.846            14.909                Novosib           465.906
       261   04 Jun 2027 05:45:06.868   04 Jun 2027 05:46:03.002            56.134              Murmansk1          1754.188
       262   04 Jun 2027 05:51:08.660   04 Jun 2027 05:51:42.523            33.863              Murmansk1          1058.219
       263   04 Jun 2027 06:17:39.951   04 Jun 2027 06:18:58.823            78.872            RioGallegos          2464.750
       264   04 Jun 2027 06:22:50.014   04 Jun 2027 06:23:04.251            14.237            RioGallegos           444.906
       265   04 Jun 2027 06:23:40.534   04 Jun 2027 06:25:04.690            84.156            RioGallegos          2629.875
       266   04 Jun 2027 06:52:54.897   04 Jun 2027 06:55:26.967           152.070                Sumatra          4752.188
       267   04 Jun 2027 06:56:44.084   04 Jun 2027 06:57:00.008            15.924                Sumatra           497.625
       268   04 Jun 2027 07:05:14.179   04 Jun 2027 07:07:34.045           139.866                  Delhi          4370.812
       269   04 Jun 2027 07:14:47.897   04 Jun 2027 07:15:29.569            41.672                Norilsk          1302.250
       270   04 Jun 2027 07:15:37.997   04 Jun 2027 07:15:38.747             0.750                Norilsk            23.438
       271   04 Jun 2027 07:15:42.025   04 Jun 2027 07:17:24.719           102.694              Murmansk1          3209.188
       272   04 Jun 2027 07:17:33.371   04 Jun 2027 07:19:35.184           121.813                Norilsk          3806.656
       273   04 Jun 2027 07:19:50.632   04 Jun 2027 07:20:30.440            39.808                Novosib          1244.000
       274   04 Jun 2027 07:23:29.319   04 Jun 2027 07:23:48.272            18.953              Murmansk2           592.281
       275   04 Jun 2027 07:24:41.577   04 Jun 2027 07:25:15.012            33.435              Murmansk1          1044.844
       276   04 Jun 2027 07:26:20.332   04 Jun 2027 07:26:22.342             2.010              Murmansk1            62.812
       277   04 Jun 2027 07:55:51.600   04 Jun 2027 07:57:04.813            73.213            RioGallegos          2287.906
       278   04 Jun 2027 07:57:55.242   04 Jun 2027 07:58:22.296            27.054            RioGallegos           845.438
       279   04 Jun 2027 08:03:30.551   04 Jun 2027 08:03:34.556             4.005            RioGallegos           125.156
       280   04 Jun 2027 08:30:05.672   04 Jun 2027 08:30:26.105            20.433                Sumatra           638.531
       281   04 Jun 2027 08:32:46.648   04 Jun 2027 08:33:15.364            28.716                Sumatra           897.375
       282   04 Jun 2027 08:36:27.950   04 Jun 2027 08:37:33.417            65.467                Sumatra          2045.844
       283   04 Jun 2027 08:38:22.827   04 Jun 2027 08:39:42.967            80.140                  Delhi          2504.375
       284   04 Jun 2027 08:44:12.349   04 Jun 2027 08:45:01.698            49.349                  Delhi          1542.156
       285   04 Jun 2027 08:51:11.421   04 Jun 2027 08:51:44.674            33.253              Murmansk1          1039.156
       286   04 Jun 2027 08:51:47.965   04 Jun 2027 08:52:22.738            34.773                 Moscow          1086.656
       287   04 Jun 2027 08:52:27.562   04 Jun 2027 08:52:54.732            27.170                Novosib           849.063
       288   04 Jun 2027 08:53:02.988   04 Jun 2027 08:54:38.324            95.336                 Moscow          2979.250
       289   04 Jun 2027 10:15:38.664   04 Jun 2027 10:18:20.916           162.252                  Delhi          5070.375
       290   04 Jun 2027 10:26:12.706   04 Jun 2027 10:26:15.215             2.509                 Moscow            78.406
       291   04 Jun 2027 10:26:21.299   04 Jun 2027 10:27:04.862            43.563                 Moscow          1361.344
       292   04 Jun 2027 10:27:07.009   04 Jun 2027 10:27:08.628             1.619              Murmansk1            50.594
       293   04 Jun 2027 10:27:10.321   04 Jun 2027 10:27:45.521            35.200                 Moscow          1100.000
       294   04 Jun 2027 10:27:49.522   04 Jun 2027 10:27:55.758             6.236                Novosib           194.875
       295   04 Jun 2027 10:27:57.914   04 Jun 2027 10:28:29.933            32.019              Murmansk1          1000.594
       296   04 Jun 2027 10:28:29.933   04 Jun 2027 10:28:52.251            22.318              Murmansk2           697.437
       297   04 Jun 2027 10:28:53.672   04 Jun 2027 10:29:39.580            45.908                 Moscow          1434.625
       298   04 Jun 2027 10:30:04.048   04 Jun 2027 10:30:50.972            46.924              Murmansk2          1466.375
       299   04 Jun 2027 10:30:53.921   04 Jun 2027 10:31:37.108            43.187                 Moscow          1349.594
       300   04 Jun 2027 11:37:31.934   04 Jun 2027 11:39:55.122           143.188               CapeTown          4474.625
       301   04 Jun 2027 11:40:57.594   04 Jun 2027 11:43:43.363           165.769               CapeTown          5180.281
       302   04 Jun 2027 11:43:53.214   04 Jun 2027 11:43:57.782             4.568               CapeTown           142.750
       303   04 Jun 2027 12:16:07.887   04 Jun 2027 12:23:31.201           443.314                Anadyr1         13853.562
       304   04 Jun 2027 13:51:17.745   04 Jun 2027 13:52:44.017            86.272                Anadyr1          2696.000
       305   04 Jun 2027 13:53:26.623   04 Jun 2027 13:53:50.441            23.818                Anadyr2           744.313
       306   04 Jun 2027 13:55:11.120   04 Jun 2027 13:55:38.694            27.574                Anadyr2           861.687
       307   04 Jun 2027 13:56:15.945   04 Jun 2027 13:59:26.270           190.325               Magadan2          5947.656
       308   04 Jun 2027 15:27:08.928   04 Jun 2027 15:28:17.122            68.194                Anadyr1          2131.062
       309   04 Jun 2027 15:29:40.229   04 Jun 2027 15:31:22.412           102.183               Magadan2          3193.219
       310   04 Jun 2027 15:31:22.412   04 Jun 2027 15:33:24.315           121.903               Magadan1          3809.469
       311   04 Jun 2027 15:33:24.315   04 Jun 2027 15:35:19.880           115.565               Magadan2          3611.406
       312   04 Jun 2027 17:05:20.643   04 Jun 2027 17:06:33.078            72.435               Magadan2          2263.594
       313   04 Jun 2027 17:08:57.346   04 Jun 2027 17:09:58.422            61.076                Norilsk          1908.625
       314   04 Jun 2027 17:14:18.885   04 Jun 2027 17:14:25.153             6.268               Magadan1           195.875
       315   04 Jun 2027 17:57:29.842   04 Jun 2027 18:00:51.092           201.250            RioGallegos          6289.062
       316   04 Jun 2027 18:01:23.862   04 Jun 2027 18:01:50.460            26.598            RioGallegos           831.187
       317   04 Jun 2027 18:06:56.352   04 Jun 2027 18:08:01.854            65.502            RioGallegos          2046.937
       318   04 Jun 2027 18:40:55.064   04 Jun 2027 18:42:36.729           101.665                Norilsk          3177.031
       319   04 Jun 2027 18:42:57.433   04 Jun 2027 18:44:55.860           118.427                Norilsk          3700.844
       320   04 Jun 2027 18:45:04.587   04 Jun 2027 18:47:05.690           121.103                Irkutsk          3784.469
       321   04 Jun 2027 18:47:11.736   04 Jun 2027 18:52:29.922           318.186                Novosib          9943.312
       322   04 Jun 2027 20:21:49.221   04 Jun 2027 20:21:54.746             5.525                Novosib           172.656
       323   04 Jun 2027 20:23:52.388   04 Jun 2027 20:23:57.000             4.612                Irkutsk           144.125
       324   04 Jun 2027 20:24:44.260   04 Jun 2027 20:26:23.174            98.914                Novosib          3091.063
       325   04 Jun 2027 20:28:36.437   04 Jun 2027 20:32:27.570           231.133                  Delhi          7222.906
       326   04 Jun 2027 20:32:46.532   04 Jun 2027 20:33:54.384            67.852                  Delhi          2120.375
       327   04 Jun 2027 20:34:07.561   04 Jun 2027 20:34:53.770            46.209                  Delhi          1444.031
       328   04 Jun 2027 21:55:13.202   04 Jun 2027 21:57:15.926           122.724              Murmansk1          3835.125
       329   04 Jun 2027 21:57:20.762   04 Jun 2027 22:00:43.940           203.178              Murmansk2          6349.312
       330   04 Jun 2027 22:00:44.185   04 Jun 2027 22:06:55.321           371.136                 Moscow         11598.000
       331   04 Jun 2027 23:39:46.432   04 Jun 2027 23:40:46.563            60.131                 Moscow          1879.094
       332   04 Jun 2027 23:58:36.465   05 Jun 2027 00:01:04.376           147.911               CapeTown          4622.219
       333   05 Jun 2027 00:02:30.252   05 Jun 2027 00:02:55.308            25.056               CapeTown           783.000
       334   05 Jun 2027 01:06:56.765   05 Jun 2027 01:08:01.955            65.190              Murmansk2          2037.187
       335   05 Jun 2027 01:09:21.038   05 Jun 2027 01:09:32.863            11.825              Murmansk2           369.531
       336   05 Jun 2027 01:10:11.293   05 Jun 2027 01:10:35.999            24.706                 Moscow           772.062
       337   05 Jun 2027 01:10:44.084   05 Jun 2027 01:12:55.705           131.621                 Moscow          4113.156
       338   05 Jun 2027 01:43:29.725   05 Jun 2027 01:43:43.429            13.704               CapeTown           428.250
       339   05 Jun 2027 02:30:47.834   05 Jun 2027 02:33:11.902           144.068               Magadan1          4502.125
       340   05 Jun 2027 02:34:04.509   05 Jun 2027 02:34:15.685            11.176               Magadan1           349.250
       341   05 Jun 2027 02:34:45.911   05 Jun 2027 02:35:05.138            19.227               Magadan1           600.844
       342   05 Jun 2027 02:35:23.621   05 Jun 2027 02:36:11.002            47.381               Magadan2          1480.656
       343   05 Jun 2027 02:42:37.876   05 Jun 2027 02:42:44.267             6.391                Norilsk           199.719
       344   05 Jun 2027 02:42:48.088   05 Jun 2027 02:43:31.487            43.399              Murmansk2          1356.219
       345   05 Jun 2027 02:43:52.326   05 Jun 2027 02:43:59.422             7.096              Murmansk1           221.750
       346   05 Jun 2027 02:45:08.262   05 Jun 2027 02:45:38.574            30.312              Murmansk1           947.250
       347   05 Jun 2027 02:46:27.994   05 Jun 2027 02:47:05.319            37.325              Murmansk1          1166.406
       348   05 Jun 2027 02:47:15.784   05 Jun 2027 02:47:20.610             4.826                 Moscow           150.812
       349   05 Jun 2027 02:48:05.596   05 Jun 2027 02:48:30.053            24.457                 Moscow           764.281
       350   05 Jun 2027 02:51:57.680   05 Jun 2027 02:52:43.714            46.034                 Moscow          1438.563
       351   05 Jun 2027 03:24:07.470   05 Jun 2027 03:25:22.412            74.942            RioGallegos          2341.938
       352   05 Jun 2027 03:26:36.826   05 Jun 2027 03:27:08.233            31.407            RioGallegos           981.469
       353   05 Jun 2027 03:28:26.852   05 Jun 2027 03:28:48.708            21.856            RioGallegos           683.000
       354   05 Jun 2027 04:11:44.400   05 Jun 2027 04:11:57.146            12.746               Magadan2           398.312
       355   05 Jun 2027 04:12:39.599   05 Jun 2027 04:14:30.227           110.628                Anadyr2          3457.125
       356   05 Jun 2027 04:14:58.093   05 Jun 2027 04:17:41.912           163.819                Anadyr2          5119.344
       357   05 Jun 2027 04:17:56.206   05 Jun 2027 04:19:10.840            74.634               Magadan1          2332.313
       358   05 Jun 2027 04:54:56.720   05 Jun 2027 04:55:51.399            54.679            RioGallegos          1708.719
       359   05 Jun 2027 04:56:45.213   05 Jun 2027 04:56:59.267            14.054            RioGallegos           439.188
       360   05 Jun 2027 04:57:14.197   05 Jun 2027 04:57:58.428            44.231            RioGallegos          1382.219
       361   05 Jun 2027 05:49:46.689   05 Jun 2027 05:50:07.433            20.744               Magadan2           648.250
       362   05 Jun 2027 05:50:07.433   05 Jun 2027 05:50:38.971            31.538               Magadan1           985.562
       363   05 Jun 2027 05:51:01.454   05 Jun 2027 05:52:35.946            94.492                Novosib          2952.875
       364   05 Jun 2027 05:52:40.745   05 Jun 2027 05:55:51.887           191.142                Norilsk          5973.188
       365   05 Jun 2027 05:57:47.506   05 Jun 2027 05:57:57.391             9.885                Norilsk           308.906
       366   05 Jun 2027 05:58:25.484   05 Jun 2027 05:58:47.723            22.239                Norilsk           694.969
       367   05 Jun 2027 06:29:44.010   05 Jun 2027 06:31:13.428            89.418            RioGallegos          2794.312
       368   05 Jun 2027 06:32:57.992   05 Jun 2027 06:33:59.906            61.914            RioGallegos          1934.812
       369   05 Jun 2027 07:04:43.701   05 Jun 2027 07:05:47.169            63.468                Sumatra          1983.375
       370   05 Jun 2027 07:06:05.907   05 Jun 2027 07:07:10.720            64.813                Sumatra          2025.406
       371   05 Jun 2027 07:16:03.863   05 Jun 2027 07:16:57.846            53.983                  Delhi          1686.969
       372   05 Jun 2027 07:19:55.143   05 Jun 2027 07:21:51.869           116.726                  Delhi          3647.688
       373   05 Jun 2027 07:25:38.634   05 Jun 2027 07:25:53.069            14.435                Irkutsk           451.094
       374   05 Jun 2027 07:26:42.925   05 Jun 2027 07:27:58.288            75.363                Irkutsk          2355.094
       375   05 Jun 2027 07:28:32.039   05 Jun 2027 07:29:55.730            83.691                Norilsk          2615.344
       376   05 Jun 2027 07:30:01.631   05 Jun 2027 07:30:09.728             8.097                 Moscow           253.031
       377   05 Jun 2027 07:30:16.269   05 Jun 2027 07:31:33.252            76.983                Novosib          2405.719
       378   05 Jun 2027 07:31:40.573   05 Jun 2027 07:32:04.953            24.380                Norilsk           761.875
       379   05 Jun 2027 07:32:07.629   05 Jun 2027 07:32:41.482            33.853              Murmansk1          1057.906
       380   05 Jun 2027 08:08:35.399   05 Jun 2027 08:09:52.478            77.079            RioGallegos          2408.719
       381   05 Jun 2027 08:43:02.874   05 Jun 2027 08:43:49.488            46.614                Sumatra          1456.688
       382   05 Jun 2027 08:45:43.907   05 Jun 2027 08:46:38.504            54.597                Sumatra          1706.156
       383   05 Jun 2027 08:48:47.633   05 Jun 2027 08:49:09.067            21.434                  Delhi           669.813
       384   05 Jun 2027 08:50:03.806   05 Jun 2027 08:50:03.868             0.062                  Delhi             1.937
       385   05 Jun 2027 08:52:22.479   05 Jun 2027 08:53:43.788            81.309                  Delhi          2540.906
       386   05 Jun 2027 09:03:01.918   05 Jun 2027 09:04:09.619            67.701                Novosib          2115.656
       387   05 Jun 2027 09:04:18.975   05 Jun 2027 09:04:33.657            14.682                 Moscow           458.813
       388   05 Jun 2027 09:04:38.696   05 Jun 2027 09:05:30.777            52.081                Novosib          1627.531
       389   05 Jun 2027 09:05:34.358   05 Jun 2027 09:06:33.132            58.774              Murmansk1          1836.687
       390   05 Jun 2027 10:29:14.326   05 Jun 2027 10:31:16.929           122.603                  Delhi          3831.344
       391   05 Jun 2027 10:31:22.525   05 Jun 2027 10:31:45.353            22.828                  Delhi           713.375
       392   05 Jun 2027 10:36:29.312   05 Jun 2027 10:37:23.582            54.270                 Moscow          1695.937
       393   05 Jun 2027 10:37:37.721   05 Jun 2027 10:38:57.891            80.170                 Moscow          2505.313
       394   05 Jun 2027 10:39:03.865   05 Jun 2027 10:39:09.413             5.548              Murmansk1           173.375
       395   05 Jun 2027 10:39:09.413   05 Jun 2027 10:39:21.291            11.878              Murmansk2           371.187
       396   05 Jun 2027 10:39:24.389   05 Jun 2027 10:39:52.969            28.580                Novosib           893.125
       397   05 Jun 2027 10:39:59.152   05 Jun 2027 10:40:17.195            18.043              Murmansk1           563.844
       398   05 Jun 2027 10:40:17.195   05 Jun 2027 10:40:24.734             7.539              Murmansk2           235.594
       399   05 Jun 2027 10:40:41.953   05 Jun 2027 10:41:08.612            26.659              Murmansk1           833.094
       400   05 Jun 2027 10:41:23.971   05 Jun 2027 10:42:00.869            36.898              Murmansk1          1153.062
       401   05 Jun 2027 10:42:38.905   05 Jun 2027 10:42:45.663             6.758                 Moscow           211.187
       402   05 Jun 2027 10:42:49.198   05 Jun 2027 10:43:33.704            44.506              Murmansk2          1390.813
       403   05 Jun 2027 10:43:54.463   05 Jun 2027 10:43:54.903             0.440              Murmansk2            13.750
       404   05 Jun 2027 10:43:54.903   05 Jun 2027 10:44:00.647             5.744              Murmansk1           179.500
       405   05 Jun 2027 10:44:23.186   05 Jun 2027 10:44:55.577            32.391                 Moscow          1012.219
       406   05 Jun 2027 11:48:39.935   05 Jun 2027 11:51:38.576           178.641               CapeTown          5582.531
       407   05 Jun 2027 11:53:06.375   05 Jun 2027 11:56:10.498           184.123               CapeTown          5753.844
       408   05 Jun 2027 12:27:57.070   05 Jun 2027 12:36:15.617           498.547                Anadyr2         15579.594
       409   05 Jun 2027 14:03:17.533   05 Jun 2027 14:04:50.755            93.222                Anadyr1          2913.187
       410   05 Jun 2027 14:07:23.873   05 Jun 2027 14:12:55.781           331.908               Magadan2         10372.125
       411   05 Jun 2027 15:41:37.136   05 Jun 2027 15:44:05.740           148.604               Magadan1          4643.875
       412   05 Jun 2027 15:45:26.194   05 Jun 2027 15:47:01.373            95.179               Magadan1          2974.344
       413   05 Jun 2027 15:48:35.831   05 Jun 2027 15:48:55.227            19.396               Magadan2           606.125
       414   05 Jun 2027 17:15:03.230   05 Jun 2027 17:15:28.184            24.954                Anadyr2           779.813
       415   05 Jun 2027 17:16:58.371   05 Jun 2027 17:17:09.205            10.834                Anadyr1           338.563
       416   05 Jun 2027 17:17:22.115   05 Jun 2027 17:18:32.265            70.150               Magadan1          2192.187
       417   05 Jun 2027 17:19:03.516   05 Jun 2027 17:20:24.632            81.116               Magadan1          2534.875
       418   05 Jun 2027 17:21:33.015   05 Jun 2027 17:22:18.820            45.805                Norilsk          1431.406
       419   05 Jun 2027 17:23:50.423   05 Jun 2027 17:28:00.047           249.624                Irkutsk          7800.750
       420   05 Jun 2027 18:19:43.475   05 Jun 2027 18:20:43.300            59.825            RioGallegos          1869.531
       421   05 Jun 2027 18:55:28.964   05 Jun 2027 18:55:54.451            25.487                Norilsk           796.469
       422   05 Jun 2027 18:56:57.745   05 Jun 2027 18:57:51.732            53.987                Norilsk          1687.094
       423   05 Jun 2027 18:58:23.252   05 Jun 2027 19:05:36.874           433.622                Novosib         13550.687
       424   05 Jun 2027 19:13:43.683   05 Jun 2027 19:14:03.680            19.997                Sumatra           624.906
       425   05 Jun 2027 19:20:55.444   05 Jun 2027 19:21:19.070            23.626                Sumatra           738.313
       426   05 Jun 2027 19:22:47.607   05 Jun 2027 19:23:00.746            13.139                Sumatra           410.594
       427   05 Jun 2027 20:34:32.771   05 Jun 2027 20:35:34.248            61.477                Novosib          1921.156
       428   05 Jun 2027 20:36:38.015   05 Jun 2027 20:36:47.953             9.938                Novosib           310.562
       429   05 Jun 2027 20:37:06.824   05 Jun 2027 20:38:17.403            70.579                Novosib          2205.594
       430   05 Jun 2027 20:40:22.709   05 Jun 2027 20:42:15.708           112.999                  Delhi          3531.219
       431   05 Jun 2027 20:42:45.766   05 Jun 2027 20:44:26.651           100.885                  Delhi          3152.656
       432   05 Jun 2027 22:07:11.193   05 Jun 2027 22:08:56.180           104.987              Murmansk1          3280.844
       433   05 Jun 2027 22:09:28.231   05 Jun 2027 22:13:55.327           267.096              Murmansk2          8346.750
       434   05 Jun 2027 22:14:13.784   05 Jun 2027 22:16:39.286           145.502              Murmansk2          4546.938
       435   05 Jun 2027 22:17:01.793   05 Jun 2027 22:19:22.460           140.667                 Moscow          4395.844
       436   05 Jun 2027 22:40:40.264   05 Jun 2027 22:43:13.688           153.424               CapeTown          4794.500
       437   06 Jun 2027 00:10:22.629   06 Jun 2027 00:12:21.739           119.110               CapeTown          3722.188
       438   06 Jun 2027 00:13:13.551   06 Jun 2027 00:14:00.167            46.616               CapeTown          1456.750
       439   06 Jun 2027 01:18:58.176   06 Jun 2027 01:21:14.986           136.810              Murmansk1          4275.313
       440   06 Jun 2027 01:26:34.692   06 Jun 2027 01:26:40.183             5.491                 Moscow           171.594
       441   06 Jun 2027 01:27:02.625   06 Jun 2027 01:27:16.314            13.689                 Moscow           427.781
       442   06 Jun 2027 01:30:50.905   06 Jun 2027 01:31:30.449            39.544                 Moscow          1235.750
       443   06 Jun 2027 01:47:28.564   06 Jun 2027 01:48:24.040            55.476               CapeTown          1733.625
       444   06 Jun 2027 01:51:28.446   06 Jun 2027 01:51:46.577            18.131               CapeTown           566.594
       445   06 Jun 2027 01:57:36.467   06 Jun 2027 01:57:40.345             3.878               CapeTown           121.188
       446   06 Jun 2027 02:42:40.705   06 Jun 2027 02:45:07.880           147.175               Magadan2          4599.219
       447   06 Jun 2027 02:45:28.691   06 Jun 2027 02:45:34.842             6.151               Magadan2           192.219
       448   06 Jun 2027 02:45:47.712   06 Jun 2027 02:46:14.692            26.980               Magadan2           843.125
       449   06 Jun 2027 02:49:38.341   06 Jun 2027 02:50:00.602            22.261               Magadan2           695.656
       450   06 Jun 2027 02:51:15.849   06 Jun 2027 02:51:41.734            25.885               Magadan2           808.906
       451   06 Jun 2027 02:54:47.613   06 Jun 2027 02:55:33.092            45.479              Murmansk1          1421.219
       452   06 Jun 2027 02:55:40.032   06 Jun 2027 02:56:00.444            20.412              Murmansk2           637.875
       453   06 Jun 2027 02:56:58.055   06 Jun 2027 02:57:31.661            33.606              Murmansk2          1050.187
       454   06 Jun 2027 02:58:45.950   06 Jun 2027 03:00:03.657            77.707                 Moscow          2428.344
       455   06 Jun 2027 03:35:08.364   06 Jun 2027 03:37:50.201           161.837            RioGallegos          5057.406
       456   06 Jun 2027 03:41:00.562   06 Jun 2027 03:41:16.554            15.992            RioGallegos           499.750
       457   06 Jun 2027 04:23:50.892   06 Jun 2027 04:24:19.997            29.105               Magadan1           909.531
       458   06 Jun 2027 04:24:40.472   06 Jun 2027 04:30:42.207           361.735                Anadyr1         11304.219
       459   06 Jun 2027 04:30:44.439   06 Jun 2027 04:30:57.236            12.797               Magadan2           399.906
       460   06 Jun 2027 05:06:38.254   06 Jun 2027 05:08:25.116           106.862            RioGallegos          3339.437
       461   06 Jun 2027 05:08:51.789   06 Jun 2027 05:10:09.602            77.813            RioGallegos          2431.656
       462   06 Jun 2027 06:01:42.013   06 Jun 2027 06:02:10.673            28.660                Novosib           895.625
       463   06 Jun 2027 06:02:35.065   06 Jun 2027 06:04:04.251            89.186                Norilsk          2787.062
       464   06 Jun 2027 06:04:08.987   06 Jun 2027 06:05:54.466           105.479               Magadan1          3296.219
       465   06 Jun 2027 06:05:59.175   06 Jun 2027 06:07:15.776            76.601                Novosib          2393.781
       466   06 Jun 2027 06:41:51.552   06 Jun 2027 06:43:03.622            72.070            RioGallegos          2252.188
       467   06 Jun 2027 07:16:38.370   06 Jun 2027 07:19:39.041           180.671                Sumatra          5645.969
       468   06 Jun 2027 07:27:12.562   06 Jun 2027 07:27:50.667            38.105                  Delhi          1190.781
       469   06 Jun 2027 07:28:35.976   06 Jun 2027 07:29:10.979            35.003                  Delhi          1093.844
       470   06 Jun 2027 07:32:10.841   06 Jun 2027 07:33:49.415            98.574                  Delhi          3080.438
       471   06 Jun 2027 07:38:24.863   06 Jun 2027 07:38:32.339             7.476                Norilsk           233.625
       472   06 Jun 2027 07:38:34.060   06 Jun 2027 07:39:23.791            49.731                Novosib          1554.094
       473   06 Jun 2027 07:39:30.380   06 Jun 2027 07:40:20.602            50.222                Norilsk          1569.437
       474   06 Jun 2027 07:40:36.328   06 Jun 2027 07:40:39.619             3.291                Irkutsk           102.844
       475   06 Jun 2027 07:40:41.954   06 Jun 2027 07:41:36.840            54.886              Murmansk2          1715.187
       476   06 Jun 2027 07:41:47.017   06 Jun 2027 07:42:47.521            60.504                Irkutsk          1890.750
       477   06 Jun 2027 07:42:51.219   06 Jun 2027 07:43:34.614            43.395                Norilsk          1356.094
       478   06 Jun 2027 07:44:50.971   06 Jun 2027 07:44:53.564             2.593              Murmansk2            81.031
       479   06 Jun 2027 07:45:34.778   06 Jun 2027 07:46:15.091            40.313              Murmansk1          1259.781
       480   06 Jun 2027 07:46:48.465   06 Jun 2027 07:47:27.211            38.746              Murmansk1          1210.812
       481   06 Jun 2027 08:21:30.322   06 Jun 2027 08:22:32.798            62.476            RioGallegos          1952.375
       482   06 Jun 2027 08:56:50.955   06 Jun 2027 08:58:03.737            72.782                Sumatra          2274.438
