uniorb/output/strategy_1/Drop/Drop_KinoSat_112009.txt

KinoSat_112009
-------------------------
    Access    *     Start Time (UTCG)     *     Stop Time (UTCG)  *   Duration (s)        *       Station  *  Data (Mbytes)
         1   01 Jun 2027 03:56:42.660   01 Jun 2027 03:57:34.342            51.682                Novosib          1615.063
         2   01 Jun 2027 03:57:34.532   01 Jun 2027 03:59:12.608            98.076                Norilsk          3064.875
         3   01 Jun 2027 03:59:14.867   01 Jun 2027 03:59:23.560             8.693                Norilsk           271.656
         4   01 Jun 2027 03:59:33.022   01 Jun 2027 04:00:30.832            57.810              Murmansk1          1806.563
         5   01 Jun 2027 04:00:38.103   01 Jun 2027 04:01:27.209            49.106                Norilsk          1534.562
         6   01 Jun 2027 04:01:44.263   01 Jun 2027 04:02:30.890            46.627                  Delhi          1457.094
         7   01 Jun 2027 04:03:20.289   01 Jun 2027 04:03:24.154             3.865                Norilsk           120.781
         8   01 Jun 2027 04:03:33.883   01 Jun 2027 04:03:36.504             2.621                Irkutsk            81.906
         9   01 Jun 2027 04:03:54.408   01 Jun 2027 04:04:22.881            28.473                Novosib           889.781
        10   01 Jun 2027 04:04:38.050   01 Jun 2027 04:06:11.237            93.187                  Delhi          2912.094
        11   01 Jun 2027 04:10:02.439   01 Jun 2027 04:11:26.337            83.898                  Delhi          2621.813
        12   01 Jun 2027 04:45:04.359   01 Jun 2027 04:47:35.529           151.170            RioGallegos          4724.063
        13   01 Jun 2027 05:35:38.367   01 Jun 2027 05:36:00.175            21.808              Murmansk1           681.500
        14   01 Jun 2027 05:36:00.175   01 Jun 2027 05:36:26.877            26.702              Murmansk2           834.438
        15   01 Jun 2027 05:36:28.235   01 Jun 2027 05:38:07.247            99.012                Novosib          3094.125
        16   01 Jun 2027 05:38:12.457   01 Jun 2027 05:39:11.890            59.433              Murmansk1          1857.281
        17   01 Jun 2027 05:39:28.094   01 Jun 2027 05:39:53.221            25.127              Murmansk2           785.219
        18   01 Jun 2027 05:40:04.440   01 Jun 2027 05:40:50.870            46.430                Novosib          1450.938
        19   01 Jun 2027 05:56:54.600   01 Jun 2027 05:59:58.648           184.048               CapeTown          5751.500
        20   01 Jun 2027 06:02:13.240   01 Jun 2027 06:02:48.009            34.769               CapeTown          1086.531
        21   01 Jun 2027 06:03:33.597   01 Jun 2027 06:04:20.993            47.396               CapeTown          1481.125
        22   01 Jun 2027 06:06:47.397   01 Jun 2027 06:07:35.870            48.473               CapeTown          1514.781
        23   01 Jun 2027 07:12:49.018   01 Jun 2027 07:13:15.034            26.016              Murmansk2           813.000
        24   01 Jun 2027 07:13:32.171   01 Jun 2027 07:13:54.153            21.982                 Moscow           686.938
        25   01 Jun 2027 07:14:00.887   01 Jun 2027 07:14:13.144            12.257              Murmansk1           383.031
        26   01 Jun 2027 07:14:13.144   01 Jun 2027 07:15:17.028            63.884              Murmansk2          1996.375
        27   01 Jun 2027 07:15:17.028   01 Jun 2027 07:15:41.321            24.293              Murmansk1           759.156
        28   01 Jun 2027 07:15:46.345   01 Jun 2027 07:17:02.778            76.433                 Moscow          2388.531
        29   01 Jun 2027 07:17:27.404   01 Jun 2027 07:17:37.843            10.439                 Moscow           326.219
        30   01 Jun 2027 07:17:45.893   01 Jun 2027 07:18:07.894            22.001                 Moscow           687.531
        31   01 Jun 2027 07:32:03.435   01 Jun 2027 07:37:02.133           298.698               CapeTown          9334.313
        32   01 Jun 2027 08:35:35.722   01 Jun 2027 08:37:12.476            96.754               Magadan1          3023.563
        33   01 Jun 2027 08:37:38.887   01 Jun 2027 08:37:47.320             8.433                Anadyr2           263.531
        34   01 Jun 2027 08:37:47.320   01 Jun 2027 08:38:27.755            40.435                Anadyr1          1263.594
        35   01 Jun 2027 08:38:28.021   01 Jun 2027 08:38:44.825            16.804               Magadan2           525.125
        36   01 Jun 2027 08:40:33.069   01 Jun 2027 08:41:22.447            49.378                Anadyr2          1543.062
        37   01 Jun 2027 10:07:27.439   01 Jun 2027 10:08:33.945            66.506                Anadyr2          2078.312
        38   01 Jun 2027 10:08:35.431   01 Jun 2027 10:11:04.851           149.420                Anadyr1          4669.375
        39   01 Jun 2027 10:11:04.851   01 Jun 2027 10:16:58.748           353.897                Anadyr2         11059.281
        40   01 Jun 2027 11:42:51.324   01 Jun 2027 11:46:01.903           190.579               Magadan2          5955.594
        41   01 Jun 2027 11:46:15.438   01 Jun 2027 11:48:14.073           118.635               Magadan1          3707.344
        42   01 Jun 2027 11:48:56.811   01 Jun 2027 11:52:19.450           202.639               Magadan2          6332.469
        43   01 Jun 2027 14:41:46.529   01 Jun 2027 14:46:22.533           276.004                Sumatra          8625.125
        44   01 Jun 2027 14:56:29.266   01 Jun 2027 15:02:16.755           347.489                Irkutsk         10859.031
        45   01 Jun 2027 16:25:16.145   01 Jun 2027 16:33:12.437           476.292                  Delhi         14884.125
        46   01 Jun 2027 16:33:36.253   01 Jun 2027 16:40:35.476           419.223                Novosib         13100.719
        47   01 Jun 2027 19:47:33.110   01 Jun 2027 19:53:41.539           368.429                 Moscow         11513.406
        48   01 Jun 2027 19:53:47.767   01 Jun 2027 19:55:13.171            85.404              Murmansk2          2668.875
        49   01 Jun 2027 20:59:02.690   01 Jun 2027 21:03:19.528           256.838               CapeTown          8026.188
        50   01 Jun 2027 21:30:39.449   01 Jun 2027 21:33:51.565           192.116              Murmansk1          6003.625
        51   02 Jun 2027 02:46:55.032   02 Jun 2027 02:54:52.107           477.075                Sumatra         14908.594
        52   02 Jun 2027 04:08:58.011   02 Jun 2027 04:10:46.777           108.766                Irkutsk          3398.938
        53   02 Jun 2027 04:11:24.161   02 Jun 2027 04:15:43.785           259.624                Irkutsk          8113.250
        54   02 Jun 2027 04:17:02.244   02 Jun 2027 04:18:19.225            76.981                Novosib          2405.656
        55   02 Jun 2027 05:47:14.290   02 Jun 2027 05:47:56.585            42.295                Norilsk          1321.719
        56   02 Jun 2027 05:47:58.037   02 Jun 2027 05:48:36.035            37.998                Norilsk          1187.438
        57   02 Jun 2027 05:48:44.198   02 Jun 2027 05:48:52.977             8.779                Norilsk           274.344
        58   02 Jun 2027 05:49:07.772   02 Jun 2027 05:50:35.599            87.827                Norilsk          2744.594
        59   02 Jun 2027 05:50:42.968   02 Jun 2027 05:52:18.354            95.386              Murmansk1          2980.813
        60   02 Jun 2027 05:52:18.354   02 Jun 2027 05:52:40.047            21.693              Murmansk2           677.906
        61   02 Jun 2027 05:53:35.469   02 Jun 2027 05:56:23.531           168.062                 Moscow          5251.938
        62   02 Jun 2027 06:08:31.761   02 Jun 2027 06:17:52.092           560.331               CapeTown         17510.344
        63   02 Jun 2027 07:24:23.363   02 Jun 2027 07:24:54.730            31.367                Norilsk           980.219
        64   02 Jun 2027 07:25:07.516   02 Jun 2027 07:29:35.426           267.910              Murmansk2          8372.188
        65   02 Jun 2027 07:29:35.426   02 Jun 2027 07:29:36.696             1.270              Murmansk1            39.687
        66   02 Jun 2027 07:29:54.940   02 Jun 2027 07:30:21.921            26.981                 Moscow           843.156
        67   02 Jun 2027 07:30:38.813   02 Jun 2027 07:31:55.466            76.653                 Moscow          2395.406
        68   02 Jun 2027 07:32:14.190   02 Jun 2027 07:32:25.138            10.948                 Moscow           342.125
        69   02 Jun 2027 07:44:23.902   02 Jun 2027 07:49:45.315           321.413               CapeTown         10044.156
        70   02 Jun 2027 08:47:41.296   02 Jun 2027 08:50:19.077           157.781                Anadyr1          4930.656
        71   02 Jun 2027 10:19:47.925   02 Jun 2027 10:20:15.369            27.444                Anadyr2           857.625
        72   02 Jun 2027 10:22:55.356   02 Jun 2027 10:25:33.070           157.714                Anadyr2          4928.563
        73   02 Jun 2027 10:25:52.529   02 Jun 2027 10:27:02.442            69.913                Anadyr1          2184.781
        74   02 Jun 2027 10:28:33.670   02 Jun 2027 10:28:53.663            19.993                Anadyr1           624.781
        75   02 Jun 2027 11:55:08.953   02 Jun 2027 12:01:14.647           365.694               Magadan2         11427.938
        76   02 Jun 2027 12:01:27.201   02 Jun 2027 12:04:09.294           162.093               Magadan1          5065.406
        77   02 Jun 2027 14:20:39.852   02 Jun 2027 14:24:12.932           213.080            RioGallegos          6658.750
        78   02 Jun 2027 14:52:10.118   02 Jun 2027 15:00:24.924           494.806                Sumatra         15462.687
        79   02 Jun 2027 15:07:56.471   02 Jun 2027 15:14:46.410           409.939                Irkutsk         12810.594
        80   02 Jun 2027 16:37:51.642   02 Jun 2027 16:44:16.433           384.791                  Delhi         12024.719
        81   02 Jun 2027 16:46:18.368   02 Jun 2027 16:52:02.618           344.250                Novosib         10757.813
        82   02 Jun 2027 20:01:00.918   02 Jun 2027 20:04:49.474           228.556                 Moscow          7142.375
        83   02 Jun 2027 20:05:22.362   02 Jun 2027 20:06:55.745            93.383              Murmansk1          2918.219
        84   02 Jun 2027 21:09:57.656   02 Jun 2027 21:17:37.862           460.206               CapeTown         14381.437
        85   03 Jun 2027 02:58:40.983   03 Jun 2027 03:05:51.546           430.563                Sumatra         13455.094
        86   03 Jun 2027 04:21:47.301   03 Jun 2027 04:22:15.997            28.696              Murmansk2           896.750
        87   03 Jun 2027 04:22:16.228   03 Jun 2027 04:22:25.821             9.593                Novosib           299.781
        88   03 Jun 2027 04:22:37.878   03 Jun 2027 04:25:10.146           152.268                Norilsk          4758.375
        89   03 Jun 2027 04:25:12.779   03 Jun 2027 04:25:29.079            16.300              Murmansk1           509.375
        90   03 Jun 2027 04:26:09.083   03 Jun 2027 04:29:16.748           187.665                  Delhi          5864.531
        91   03 Jun 2027 06:00:10.040   03 Jun 2027 06:00:58.839            48.799                 Moscow          1524.969
        92   03 Jun 2027 06:01:20.823   03 Jun 2027 06:01:38.806            17.983                Norilsk           561.969
        93   03 Jun 2027 06:01:49.189   03 Jun 2027 06:05:52.661           243.472                 Moscow          7608.500
        94   03 Jun 2027 06:06:11.362   03 Jun 2027 06:06:44.531            33.169                 Moscow          1036.531
        95   03 Jun 2027 06:07:00.923   03 Jun 2027 06:08:36.744            95.821                 Moscow          2994.406
        96   03 Jun 2027 06:20:14.790   03 Jun 2027 06:21:08.517            53.727               CapeTown          1678.969
        97   03 Jun 2027 06:22:23.142   03 Jun 2027 06:23:46.379            83.237               CapeTown          2601.156
        98   03 Jun 2027 06:27:18.619   03 Jun 2027 06:27:46.539            27.920               CapeTown           872.500
        99   03 Jun 2027 07:35:52.739   03 Jun 2027 07:36:43.357            50.618                Norilsk          1581.812
       100   03 Jun 2027 07:36:59.012   03 Jun 2027 07:37:36.185            37.173              Murmansk1          1161.656
       101   03 Jun 2027 07:37:44.013   03 Jun 2027 07:38:19.582            35.569              Murmansk2          1111.531
       102   03 Jun 2027 07:39:40.043   03 Jun 2027 07:40:01.740            21.697                 Moscow           678.031
       103   03 Jun 2027 07:40:54.884   03 Jun 2027 07:42:33.288            98.404                 Moscow          3075.125
       104   03 Jun 2027 07:42:58.448   03 Jun 2027 07:43:45.686            47.238                 Moscow          1476.188
       105   03 Jun 2027 07:56:51.677   03 Jun 2027 08:02:44.329           352.652               CapeTown         11020.375
       106   03 Jun 2027 08:58:48.255   03 Jun 2027 08:59:27.396            39.141               Magadan2          1223.156
       107   03 Jun 2027 08:59:41.245   03 Jun 2027 09:02:40.733           179.488                Anadyr1          5609.000
       108   03 Jun 2027 10:32:27.868   03 Jun 2027 10:33:22.992            55.124                Anadyr2          1722.625
       109   03 Jun 2027 10:33:22.992   03 Jun 2027 10:37:58.028           275.036                Anadyr1          8594.875
       110   03 Jun 2027 10:39:57.381   03 Jun 2027 10:40:46.463            49.082                Anadyr1          1533.812
       111   03 Jun 2027 12:07:53.937   03 Jun 2027 12:14:36.349           402.412               Magadan1         12575.375
       112   03 Jun 2027 12:15:00.533   03 Jun 2027 12:15:55.304            54.771               Magadan2          1711.594
       113   03 Jun 2027 14:31:53.505   03 Jun 2027 14:38:22.012           388.507            RioGallegos         12140.844
       114   03 Jun 2027 15:05:21.264   03 Jun 2027 15:11:08.493           347.229                Sumatra         10850.906
       115   03 Jun 2027 15:21:15.999   03 Jun 2027 15:25:59.503           283.504                Irkutsk          8859.500
       116   03 Jun 2027 16:52:07.992   03 Jun 2027 16:54:15.568           127.576                  Delhi          3986.750
       117   03 Jun 2027 16:59:57.186   03 Jun 2027 17:03:00.236           183.050                Novosib          5720.313
       118   03 Jun 2027 20:14:22.247   03 Jun 2027 20:15:13.719            51.472              Murmansk1          1608.500
       119   03 Jun 2027 20:17:19.025   03 Jun 2027 20:19:38.087           139.062              Murmansk2          4345.687
       120   03 Jun 2027 20:20:46.904   03 Jun 2027 20:22:15.166            88.262              Murmansk1          2758.187
       121   03 Jun 2027 20:23:00.059   03 Jun 2027 20:23:07.457             7.398              Murmansk1           231.187
       122   03 Jun 2027 21:22:46.181   03 Jun 2027 21:28:27.037           340.856               CapeTown         10651.750
       123   04 Jun 2027 00:30:59.523   04 Jun 2027 00:33:18.409           138.886            RioGallegos          4340.187
       124   04 Jun 2027 00:34:30.419   04 Jun 2027 00:35:26.227            55.808            RioGallegos          1744.000
       125   04 Jun 2027 00:39:27.102   04 Jun 2027 00:39:52.006            24.904            RioGallegos           778.250
       126   04 Jun 2027 01:12:19.590   04 Jun 2027 01:13:12.992            53.402                Anadyr2          1668.813
       127   04 Jun 2027 01:13:48.095   04 Jun 2027 01:14:14.712            26.617                Anadyr2           831.781
       128   04 Jun 2027 01:14:37.970   04 Jun 2027 01:16:40.616           122.646                Norilsk          3832.687
       129   04 Jun 2027 01:16:45.266   04 Jun 2027 01:17:03.385            18.119               Magadan1           566.219
       130   04 Jun 2027 01:18:08.258   04 Jun 2027 01:18:30.029            21.771               Magadan2           680.344
       131   04 Jun 2027 01:18:41.377   04 Jun 2027 01:20:33.683           112.306                Irkutsk          3509.562
       132   04 Jun 2027 01:21:42.190   04 Jun 2027 01:22:16.283            34.093                Novosib          1065.406
       133   04 Jun 2027 01:25:41.007   04 Jun 2027 01:26:07.775            26.768                Irkutsk           836.500
       134   04 Jun 2027 01:32:23.016   04 Jun 2027 01:33:32.533            69.517                Sumatra          2172.406
       135   04 Jun 2027 01:35:30.284   04 Jun 2027 01:36:26.372            56.088                Sumatra          1752.750
       136   04 Jun 2027 01:44:16.772   04 Jun 2027 01:45:06.600            49.828                Sumatra          1557.125
       137   04 Jun 2027 02:12:41.281   04 Jun 2027 02:12:47.401             6.120            RioGallegos           191.250
       138   04 Jun 2027 02:16:22.067   04 Jun 2027 02:17:40.438            78.371            RioGallegos          2449.094
       139   04 Jun 2027 02:50:38.007   04 Jun 2027 02:51:42.250            64.243                Norilsk          2007.594
       140   04 Jun 2027 02:51:46.202   04 Jun 2027 02:52:01.413            15.211                Norilsk           475.344
       141   04 Jun 2027 02:54:31.409   04 Jun 2027 02:56:48.801           137.392                Novosib          4293.500
       142   04 Jun 2027 02:56:58.684   04 Jun 2027 02:58:13.248            74.564                Irkutsk          2330.125
       143   04 Jun 2027 03:00:19.506   04 Jun 2027 03:01:05.816            46.310                Novosib          1447.187
       144   04 Jun 2027 03:01:28.099   04 Jun 2027 03:03:29.389           121.290                Irkutsk          3790.313
       145   04 Jun 2027 03:12:21.307   04 Jun 2027 03:16:05.396           224.089                Sumatra          7002.781
       146   04 Jun 2027 03:43:13.738   04 Jun 2027 03:43:19.159             5.421            RioGallegos           169.406
       147   04 Jun 2027 03:45:27.190   04 Jun 2027 03:46:08.771            41.581            RioGallegos          1299.406
       148   04 Jun 2027 03:46:31.766   04 Jun 2027 03:47:26.565            54.799            RioGallegos          1712.469
       149   04 Jun 2027 04:31:24.449   04 Jun 2027 04:32:27.460            63.011                Irkutsk          1969.094
       150   04 Jun 2027 04:33:07.999   04 Jun 2027 04:34:15.646            67.647                Irkutsk          2113.969
       151   04 Jun 2027 04:35:01.337   04 Jun 2027 04:36:09.632            68.295                Irkutsk          2134.219
       152   04 Jun 2027 04:36:24.792   04 Jun 2027 04:36:34.507             9.715              Murmansk2           303.594
       153   04 Jun 2027 04:36:34.507   04 Jun 2027 04:37:25.997            51.490              Murmansk1          1609.062
       154   04 Jun 2027 04:37:25.997   04 Jun 2027 04:38:19.887            53.890              Murmansk2          1684.063
       155   04 Jun 2027 04:38:28.524   04 Jun 2027 04:46:54.873           506.349                  Delhi         15823.406
       156   04 Jun 2027 06:12:40.826   04 Jun 2027 06:14:50.758           129.932                 Moscow          4060.375
       157   04 Jun 2027 06:15:11.451   04 Jun 2027 06:15:20.700             9.249                Novosib           289.031
       158   04 Jun 2027 06:15:27.027   04 Jun 2027 06:17:09.773           102.746              Murmansk2          3210.813
       159   04 Jun 2027 06:17:33.062   04 Jun 2027 06:17:46.863            13.801                 Moscow           431.281
       160   04 Jun 2027 06:18:49.893   04 Jun 2027 06:18:57.956             8.063                 Moscow           251.969
       161   04 Jun 2027 06:32:03.230   04 Jun 2027 06:35:47.840           224.610               CapeTown          7019.062
       162   04 Jun 2027 06:39:00.625   04 Jun 2027 06:40:01.347            60.722               CapeTown          1897.563
       163   04 Jun 2027 07:36:09.113   04 Jun 2027 07:37:22.686            73.573               Magadan2          2299.156
       164   04 Jun 2027 07:37:37.242   04 Jun 2027 07:38:11.265            34.023                Anadyr2          1063.219
       165   04 Jun 2027 07:38:11.265   04 Jun 2027 07:38:46.913            35.648                Anadyr1          1114.000
       166   04 Jun 2027 07:38:58.017   04 Jun 2027 07:39:20.340            22.323               Magadan2           697.594
       167   04 Jun 2027 07:39:43.053   04 Jun 2027 07:40:12.021            28.968                Anadyr1           905.250
       168   04 Jun 2027 07:47:09.535   04 Jun 2027 07:48:28.076            78.541              Murmansk1          2454.406
       169   04 Jun 2027 07:48:28.076   04 Jun 2027 07:48:49.614            21.538              Murmansk2           673.063
       170   04 Jun 2027 07:49:19.120   04 Jun 2027 07:49:42.921            23.801                 Moscow           743.781
       171   04 Jun 2027 07:51:41.125   04 Jun 2027 07:52:08.640            27.515                 Moscow           859.844
       172   04 Jun 2027 07:54:42.910   04 Jun 2027 07:54:59.746            16.836                 Moscow           526.125
       173   04 Jun 2027 08:09:28.522   04 Jun 2027 08:16:15.395           406.873               CapeTown         12714.781
       174   04 Jun 2027 09:09:24.559   04 Jun 2027 09:10:22.258            57.699                Anadyr2          1803.094
       175   04 Jun 2027 09:10:42.074   04 Jun 2027 09:10:52.034             9.960               Magadan2           311.250
       176   04 Jun 2027 09:10:52.034   04 Jun 2027 09:11:29.444            37.410               Magadan1          1169.063
       177   04 Jun 2027 09:11:40.620   04 Jun 2027 09:12:44.152            63.532                Anadyr2          1985.375
       178   04 Jun 2027 09:12:44.152   04 Jun 2027 09:14:09.528            85.376                Anadyr1          2668.000
       179   04 Jun 2027 09:15:12.600   04 Jun 2027 09:15:58.125            45.525                Anadyr2          1422.656
       180   04 Jun 2027 09:19:11.782   04 Jun 2027 09:19:25.117            13.335              Murmansk2           416.719
       181   04 Jun 2027 09:56:36.620   04 Jun 2027 09:57:49.756            73.136            RioGallegos          2285.500
       182   04 Jun 2027 10:44:08.796   04 Jun 2027 10:44:38.213            29.417                Irkutsk           919.281
       183   04 Jun 2027 10:44:40.619   04 Jun 2027 10:45:28.929            48.310               Magadan1          1509.687
       184   04 Jun 2027 10:45:42.464   04 Jun 2027 10:52:36.243           413.779                Anadyr1         12930.594
       185   04 Jun 2027 12:20:47.700   04 Jun 2027 12:27:35.359           407.659               Magadan1         12739.344
       186   04 Jun 2027 13:58:36.266   04 Jun 2027 13:58:56.691            20.425                Irkutsk           638.281
       187   04 Jun 2027 14:03:51.298   04 Jun 2027 14:04:07.989            16.691                Norilsk           521.594
       188   04 Jun 2027 14:08:00.969   04 Jun 2027 14:09:23.095            82.126                Norilsk          2566.438
       189   04 Jun 2027 14:43:38.280   04 Jun 2027 14:50:14.916           396.636            RioGallegos         12394.875
       190   04 Jun 2027 15:34:32.111   04 Jun 2027 15:35:33.248            61.137                Novosib          1910.531
       191   04 Jun 2027 17:06:59.099   04 Jun 2027 17:09:23.509           144.410                 Moscow          4512.812
       192   04 Jun 2027 17:14:18.038   04 Jun 2027 17:16:35.689           137.651                Norilsk          4301.594
       193   04 Jun 2027 17:18:22.621   04 Jun 2027 17:19:08.077            45.456                Norilsk          1420.500
       194   04 Jun 2027 17:19:48.639   04 Jun 2027 17:20:16.091            27.452                Norilsk           857.875
       195   04 Jun 2027 18:29:07.226   04 Jun 2027 18:30:34.816            87.590               CapeTown          2737.188
       196   04 Jun 2027 18:44:16.523   04 Jun 2027 18:45:11.453            54.930                 Moscow          1716.563
       197   04 Jun 2027 18:47:26.551   04 Jun 2027 18:48:03.904            37.353              Murmansk2          1167.281
       198   04 Jun 2027 18:49:04.866   04 Jun 2027 18:49:34.793            29.927                 Moscow           935.219
       199   04 Jun 2027 18:51:39.108   04 Jun 2027 18:52:21.462            42.354              Murmansk1          1323.563
       200   04 Jun 2027 18:52:25.596   04 Jun 2027 18:52:30.575             4.979              Murmansk1           155.594
       201   04 Jun 2027 18:56:28.679   04 Jun 2027 18:57:13.432            44.753              Murmansk2          1398.531
       202   04 Jun 2027 19:06:09.346   04 Jun 2027 19:06:31.020            21.674                Anadyr1           677.313
       203   04 Jun 2027 19:56:28.164   04 Jun 2027 19:58:14.107           105.943               CapeTown          3310.719
       204   04 Jun 2027 19:59:30.370   04 Jun 2027 20:00:34.318            63.948               CapeTown          1998.375
       205   04 Jun 2027 20:26:42.526   04 Jun 2027 20:28:13.515            90.989              Murmansk2          2843.406
       206   04 Jun 2027 20:28:19.455   04 Jun 2027 20:35:05.274           405.819              Murmansk1         12681.844
       207   04 Jun 2027 21:36:31.892   04 Jun 2027 21:38:15.837           103.945               CapeTown          3248.281
       208   04 Jun 2027 22:13:31.787   04 Jun 2027 22:13:39.608             7.821                Anadyr1           244.406
       209   04 Jun 2027 22:13:48.563   04 Jun 2027 22:13:54.941             6.378                Anadyr1           199.312
       210   04 Jun 2027 22:14:13.779   04 Jun 2027 22:14:29.493            15.714                Anadyr1           491.062
       211   04 Jun 2027 22:14:50.655   04 Jun 2027 22:16:12.025            81.370                Anadyr1          2542.812
       212   04 Jun 2027 22:16:26.488   04 Jun 2027 22:16:42.441            15.953               Magadan2           498.531
       213   04 Jun 2027 22:16:42.441   04 Jun 2027 22:17:04.591            22.150               Magadan1           692.187
       214   04 Jun 2027 22:18:30.012   04 Jun 2027 22:18:38.458             8.446               Magadan1           263.938
       215   04 Jun 2027 22:18:57.909   04 Jun 2027 22:18:57.952             0.043               Magadan1             1.344
       216   04 Jun 2027 22:19:09.084   04 Jun 2027 22:19:12.878             3.794               Magadan2           118.563
       217   04 Jun 2027 22:20:01.539   04 Jun 2027 22:20:25.814            24.275               Magadan2           758.594
       218   04 Jun 2027 23:48:49.743   04 Jun 2027 23:54:21.725           331.982                Anadyr2         10374.437
       219   04 Jun 2027 23:54:35.018   04 Jun 2027 23:55:04.660            29.642               Magadan2           926.313
       220   04 Jun 2027 23:55:30.917   04 Jun 2027 23:57:41.096           130.179               Magadan2          4068.094
       221   04 Jun 2027 23:57:49.560   04 Jun 2027 23:58:17.496            27.936                Irkutsk           873.000
       222   04 Jun 2027 23:59:12.311   04 Jun 2027 23:59:21.267             8.956                Irkutsk           279.875
       223   05 Jun 2027 00:00:25.583   05 Jun 2027 00:01:30.881            65.298                Irkutsk          2040.563
       224   05 Jun 2027 00:12:21.866   05 Jun 2027 00:13:44.518            82.652                Sumatra          2582.875
       225   05 Jun 2027 00:16:34.059   05 Jun 2027 00:17:15.509            41.450                Sumatra          1295.313
       226   05 Jun 2027 00:42:53.766   05 Jun 2027 00:43:48.185            54.419            RioGallegos          1700.594
       227   05 Jun 2027 00:50:40.787   05 Jun 2027 00:50:48.976             8.189            RioGallegos           255.906
       228   05 Jun 2027 01:24:14.638   05 Jun 2027 01:24:58.009            43.371                Anadyr2          1355.344
       229   05 Jun 2027 01:25:04.902   05 Jun 2027 01:25:44.153            39.251                Anadyr1          1226.594
       230   05 Jun 2027 01:26:15.124   05 Jun 2027 01:26:56.796            41.672                Anadyr1          1302.250
       231   05 Jun 2027 01:27:17.059   05 Jun 2027 01:27:23.661             6.602               Magadan1           206.312
       232   05 Jun 2027 01:27:26.913   05 Jun 2027 01:28:42.975            76.062                Norilsk          2376.937
       233   05 Jun 2027 01:29:02.188   05 Jun 2027 01:30:28.027            85.839               Magadan1          2682.469
       234   05 Jun 2027 01:30:39.170   05 Jun 2027 01:32:01.975            82.805                Irkutsk          2587.656
       235   05 Jun 2027 01:32:24.844   05 Jun 2027 01:33:33.883            69.039                Irkutsk          2157.469
       236   05 Jun 2027 01:44:23.353   05 Jun 2027 01:46:28.257           124.904                Sumatra          3903.250
       237   05 Jun 2027 01:47:32.349   05 Jun 2027 01:48:42.227            69.878                Sumatra          2183.687
       238   05 Jun 2027 01:53:43.288   05 Jun 2027 01:53:46.159             2.871                Sumatra            89.719
       239   05 Jun 2027 02:24:31.211   05 Jun 2027 02:24:47.043            15.832            RioGallegos           494.750
       240   05 Jun 2027 02:27:59.698   05 Jun 2027 02:30:01.253           121.555            RioGallegos          3798.594
       241   05 Jun 2027 03:06:58.397   05 Jun 2027 03:07:50.284            51.887               Magadan2          1621.469
       242   05 Jun 2027 03:08:06.141   05 Jun 2027 03:09:03.835            57.694               Magadan2          1802.937
       243   05 Jun 2027 03:09:30.525   05 Jun 2027 03:09:47.603            17.078              Murmansk2           533.687
       244   05 Jun 2027 03:09:53.199   05 Jun 2027 03:10:26.016            32.817                Norilsk          1025.531
       245   05 Jun 2027 03:10:27.888   05 Jun 2027 03:10:46.158            18.270                Irkutsk           570.937
       246   05 Jun 2027 03:10:50.298   05 Jun 2027 03:12:15.929            85.631                Novosib          2675.969
       247   05 Jun 2027 03:12:22.029   05 Jun 2027 03:12:43.817            21.788                Irkutsk           680.875
       248   05 Jun 2027 03:12:55.905   05 Jun 2027 03:13:08.317            12.412                Norilsk           387.875
       249   05 Jun 2027 03:13:24.464   05 Jun 2027 03:15:53.909           149.445                Novosib          4670.156
       250   05 Jun 2027 03:17:05.806   05 Jun 2027 03:17:54.863            49.057                  Delhi          1533.031
       251   05 Jun 2027 03:18:24.771   05 Jun 2027 03:18:37.351            12.580                Irkutsk           393.125
       252   05 Jun 2027 03:18:49.330   05 Jun 2027 03:19:17.752            28.422                Novosib           888.187
       253   05 Jun 2027 03:20:54.330   05 Jun 2027 03:21:18.708            24.378                  Delhi           761.813
       254   05 Jun 2027 03:55:58.646   05 Jun 2027 03:58:07.180           128.534            RioGallegos          4016.688
       255   05 Jun 2027 03:58:26.845   05 Jun 2027 03:59:47.450            80.605            RioGallegos          2518.906
       256   05 Jun 2027 04:44:59.325   05 Jun 2027 04:45:04.900             5.575                Novosib           174.219
       257   05 Jun 2027 04:45:25.798   05 Jun 2027 04:46:10.917            45.119              Murmansk2          1409.969
       258   05 Jun 2027 04:46:17.830   05 Jun 2027 04:48:13.357           115.527                Norilsk          3610.219
       259   05 Jun 2027 04:48:14.143   05 Jun 2027 04:48:15.590             1.447                Novosib            45.219
       260   05 Jun 2027 04:48:26.048   05 Jun 2027 04:49:08.223            42.175                Novosib          1317.969
       261   05 Jun 2027 04:49:20.620   05 Jun 2027 04:50:37.470            76.850                Norilsk          2401.562
       262   05 Jun 2027 04:50:48.604   05 Jun 2027 04:51:35.711            47.107                 Moscow          1472.094
       263   05 Jun 2027 04:52:10.298   05 Jun 2027 04:52:29.042            18.744                Novosib           585.750
       264   05 Jun 2027 04:52:39.309   05 Jun 2027 04:59:34.857           415.548                  Delhi         12985.875
       265   05 Jun 2027 06:24:10.131   05 Jun 2027 06:24:47.101            36.970                 Moscow          1155.313
       266   05 Jun 2027 06:25:00.939   05 Jun 2027 06:25:16.399            15.460              Murmansk2           483.125
       267   05 Jun 2027 06:25:24.471   05 Jun 2027 06:25:46.688            22.217                 Moscow           694.281
       268   05 Jun 2027 06:25:50.414   05 Jun 2027 06:26:17.183            26.769              Murmansk2           836.531
       269   05 Jun 2027 06:26:19.120   05 Jun 2027 06:27:14.331            55.211              Murmansk2          1725.344
       270   05 Jun 2027 06:27:16.561   05 Jun 2027 06:28:12.292            55.731                 Moscow          1741.594
       271   05 Jun 2027 06:28:23.936   05 Jun 2027 06:29:21.718            57.782              Murmansk2          1805.687
       272   05 Jun 2027 06:29:36.395   05 Jun 2027 06:30:52.195            75.800                 Moscow          2368.750
       273   05 Jun 2027 06:31:43.536   05 Jun 2027 06:32:26.506            42.970                 Moscow          1342.812
       274   05 Jun 2027 06:43:56.819   05 Jun 2027 06:45:02.458            65.639               CapeTown          2051.219
       275   05 Jun 2027 06:47:06.244   05 Jun 2027 06:47:22.459            16.215               CapeTown           506.719
       276   05 Jun 2027 06:48:13.103   05 Jun 2027 06:50:42.149           149.046               CapeTown          4657.687
       277   05 Jun 2027 07:47:40.176   05 Jun 2027 07:48:53.583            73.407                Anadyr2          2293.969
       278   05 Jun 2027 07:49:36.753   05 Jun 2027 07:50:14.162            37.409                Anadyr2          1169.031
       279   05 Jun 2027 07:50:57.078   05 Jun 2027 07:51:23.281            26.203               Magadan1           818.844
       280   05 Jun 2027 08:22:17.760   05 Jun 2027 08:22:42.451            24.691               CapeTown           771.594
       281   05 Jun 2027 08:22:54.432   05 Jun 2027 08:30:41.662           467.230               CapeTown         14600.937
       282   05 Jun 2027 09:21:17.316   05 Jun 2027 09:25:34.066           256.750                Anadyr1          8023.438
       283   05 Jun 2027 09:25:52.691   05 Jun 2027 09:27:20.698            88.007               Magadan2          2750.219
       284   05 Jun 2027 09:28:39.276   05 Jun 2027 09:29:11.151            31.875               Magadan1           996.094
       285   05 Jun 2027 10:10:33.725   05 Jun 2027 10:10:39.118             5.393            RioGallegos           168.531
       286   05 Jun 2027 10:53:03.403   05 Jun 2027 10:55:01.104           117.701               Magadan2          3678.156
       287   05 Jun 2027 10:55:55.568   05 Jun 2027 10:56:15.539            19.971                Irkutsk           624.094
       288   05 Jun 2027 10:56:26.734   05 Jun 2027 10:59:03.110           156.376               Magadan1          4886.750
       289   05 Jun 2027 10:59:03.110   05 Jun 2027 11:02:37.540           214.430               Magadan2          6700.938
       290   05 Jun 2027 11:02:37.540   05 Jun 2027 11:02:54.019            16.479               Magadan1           514.969
       291   05 Jun 2027 11:03:41.323   05 Jun 2027 11:03:43.190             1.867                Novosib            58.344
       292   05 Jun 2027 11:03:50.400   05 Jun 2027 11:04:05.910            15.510                Novosib           484.687
       293   05 Jun 2027 11:04:08.301   05 Jun 2027 11:04:22.255            13.954                Norilsk           436.062
       294   05 Jun 2027 11:04:23.827   05 Jun 2027 11:04:25.282             1.455                Novosib            45.469
       295   05 Jun 2027 11:04:28.264   05 Jun 2027 11:05:11.175            42.911              Murmansk1          1340.969
       296   05 Jun 2027 11:40:03.285   05 Jun 2027 11:40:40.877            37.592            RioGallegos          1174.750
       297   05 Jun 2027 11:44:47.638   05 Jun 2027 11:45:37.595            49.957            RioGallegos          1561.156
       298   05 Jun 2027 12:19:24.175   05 Jun 2027 12:19:28.547             4.372                Sumatra           136.625
       299   05 Jun 2027 12:19:36.648   05 Jun 2027 12:19:59.787            23.139                Sumatra           723.094
       300   05 Jun 2027 12:28:07.231   05 Jun 2027 12:30:34.664           147.433                Irkutsk          4607.281
       301   05 Jun 2027 12:32:31.005   05 Jun 2027 12:32:43.592            12.587                Novosib           393.344
       302   05 Jun 2027 12:33:01.476   05 Jun 2027 12:33:56.091            54.615                Norilsk          1706.719
       303   05 Jun 2027 12:34:08.742   05 Jun 2027 12:34:26.377            17.635                Norilsk           551.094
       304   05 Jun 2027 12:34:45.389   05 Jun 2027 12:39:04.451           259.062               Magadan2          8095.688
       305   05 Jun 2027 13:51:47.146   05 Jun 2027 13:53:31.251           104.105                Sumatra          3253.281
       306   05 Jun 2027 13:56:52.795   05 Jun 2027 13:57:09.196            16.401                Sumatra           512.531
       307   05 Jun 2027 13:59:26.321   05 Jun 2027 14:00:06.534            40.213                Sumatra          1256.656
       308   05 Jun 2027 14:04:56.150   05 Jun 2027 14:05:37.488            41.338                Irkutsk          1291.812
       309   05 Jun 2027 14:06:58.807   05 Jun 2027 14:09:45.465           166.658                Irkutsk          5208.063
       310   05 Jun 2027 14:14:46.820   05 Jun 2027 14:14:50.895             4.075                Irkutsk           127.344
       311   05 Jun 2027 14:57:04.128   05 Jun 2027 15:01:21.470           257.342            RioGallegos          8041.937
       312   05 Jun 2027 15:42:51.906   05 Jun 2027 15:43:36.042            44.136                Novosib          1379.250
       313   05 Jun 2027 15:47:21.750   05 Jun 2027 15:47:30.512             8.762                Norilsk           273.812
       314   05 Jun 2027 15:47:47.780   05 Jun 2027 15:48:13.439            25.659                Novosib           801.844
       315   05 Jun 2027 15:50:47.138   05 Jun 2027 15:52:49.942           122.804                Novosib          3837.625
       316   05 Jun 2027 17:20:22.929   05 Jun 2027 17:22:14.584           111.655                 Moscow          3489.219
       317   05 Jun 2027 17:27:03.175   05 Jun 2027 17:30:34.083           210.908                Norilsk          6590.875
       318   05 Jun 2027 17:32:11.157   05 Jun 2027 17:32:51.837            40.680                Norilsk          1271.250
       319   05 Jun 2027 18:56:46.112   05 Jun 2027 18:58:19.873            93.761                 Moscow          2930.031
       320   05 Jun 2027 18:59:45.222   05 Jun 2027 19:01:47.402           122.180              Murmansk1          3818.125
       321   05 Jun 2027 19:03:53.103   05 Jun 2027 19:04:15.302            22.199              Murmansk2           693.719
       322   05 Jun 2027 19:08:52.041   05 Jun 2027 19:09:29.895            37.854              Murmansk1          1182.938
       323   05 Jun 2027 19:22:00.753   05 Jun 2027 19:22:24.003            23.250                Anadyr2           726.563
       324   05 Jun 2027 20:08:35.922   05 Jun 2027 20:11:20.562           164.640               CapeTown          5145.000
       325   05 Jun 2027 20:39:22.628   05 Jun 2027 20:45:18.598           355.970              Murmansk2         11124.063
       326   05 Jun 2027 20:45:26.189   05 Jun 2027 20:47:01.629            95.440              Murmansk1          2982.500
       327   05 Jun 2027 22:24:59.274   05 Jun 2027 22:28:13.918           194.644                Anadyr1          6082.625
       328   05 Jun 2027 22:28:45.389   05 Jun 2027 22:30:10.825            85.436               Magadan1          2669.875
       329   05 Jun 2027 22:30:10.825   05 Jun 2027 22:30:26.691            15.866               Magadan2           495.813
       330   05 Jun 2027 22:31:04.695   05 Jun 2027 22:31:12.938             8.243               Magadan2           257.594
       331   05 Jun 2027 22:32:34.642   05 Jun 2027 22:32:48.375            13.733               Magadan2           429.156
       332   05 Jun 2027 23:21:21.133   05 Jun 2027 23:23:48.421           147.288            RioGallegos          4602.750
       333   05 Jun 2027 23:25:40.055   05 Jun 2027 23:26:06.130            26.075            RioGallegos           814.844
       334   06 Jun 2027 00:00:49.745   06 Jun 2027 00:03:48.776           179.031                Anadyr2          5594.719
       335   06 Jun 2027 00:03:51.587   06 Jun 2027 00:04:27.274            35.687                Norilsk          1115.219
       336   06 Jun 2027 00:05:05.826   06 Jun 2027 00:05:48.724            42.898                Norilsk          1340.563
       337   06 Jun 2027 00:06:19.933   06 Jun 2027 00:06:28.491             8.558               Magadan1           267.437
       338   06 Jun 2027 00:06:44.117   06 Jun 2027 00:06:54.944            10.827               Magadan1           338.344
       339   06 Jun 2027 00:07:46.992   06 Jun 2027 00:08:16.887            29.895               Magadan1           934.219
       340   06 Jun 2027 00:09:50.599   06 Jun 2027 00:11:35.166           104.567                Irkutsk          3267.719
       341   06 Jun 2027 00:15:47.080   06 Jun 2027 00:16:09.695            22.615                Irkutsk           706.719
       342   06 Jun 2027 00:23:04.915   06 Jun 2027 00:25:00.025           115.110                Sumatra          3597.187
       343   06 Jun 2027 00:29:05.497   06 Jun 2027 00:31:07.952           122.455                Sumatra          3826.719
       344   06 Jun 2027 01:36:08.610   06 Jun 2027 01:36:22.602            13.992                Anadyr2           437.250
       345   06 Jun 2027 01:36:58.391   06 Jun 2027 01:37:38.726            40.335                Anadyr2          1260.469
       346   06 Jun 2027 01:38:15.196   06 Jun 2027 01:38:32.222            17.026                Anadyr1           532.062
       347   06 Jun 2027 01:38:32.222   06 Jun 2027 01:38:50.790            18.568                Anadyr2           580.250
       348   06 Jun 2027 01:39:20.143   06 Jun 2027 01:39:38.299            18.156                Anadyr2           567.375
       349   06 Jun 2027 01:39:41.157   06 Jun 2027 01:40:45.320            64.163                Norilsk          2005.094
       350   06 Jun 2027 01:41:02.121   06 Jun 2027 01:42:25.078            82.957               Magadan2          2592.406
       351   06 Jun 2027 01:42:38.180   06 Jun 2027 01:45:45.296           187.116                Irkutsk          5847.375
       352   06 Jun 2027 01:55:11.558   06 Jun 2027 01:55:39.470            27.912                  Delhi           872.250
       353   06 Jun 2027 01:56:48.900   06 Jun 2027 01:59:28.712           159.812                Sumatra          4994.125
       354   06 Jun 2027 02:04:56.511   06 Jun 2027 02:06:12.740            76.229                Sumatra          2382.156
       355   06 Jun 2027 03:19:45.575   06 Jun 2027 03:20:56.935            71.360               Magadan1          2230.000
       356   06 Jun 2027 03:21:36.155   06 Jun 2027 03:23:05.685            89.530                Irkutsk          2797.812
       357   06 Jun 2027 03:23:22.455   06 Jun 2027 03:23:48.190            25.735                Novosib           804.219
       358   06 Jun 2027 03:23:59.361   06 Jun 2027 03:24:43.884            44.523                Irkutsk          1391.344
       359   06 Jun 2027 03:24:44.372   06 Jun 2027 03:26:18.299            93.927                Norilsk          2935.219
       360   06 Jun 2027 03:26:20.183   06 Jun 2027 03:28:06.132           105.949                Novosib          3310.906
       361   06 Jun 2027 03:29:01.723   06 Jun 2027 03:31:13.606           131.883                  Delhi          4121.344
       362   06 Jun 2027 03:34:06.549   06 Jun 2027 03:35:59.863           113.314                  Delhi          3541.063
       363   06 Jun 2027 04:07:44.217   06 Jun 2027 04:09:09.011            84.794            RioGallegos          2649.812
       364   06 Jun 2027 04:10:37.409   06 Jun 2027 04:12:50.014           132.605            RioGallegos          4143.906
       365   06 Jun 2027 04:58:38.258   06 Jun 2027 04:58:41.752             3.494              Murmansk2           109.188
       366   06 Jun 2027 04:58:41.752   06 Jun 2027 05:01:17.669           155.917              Murmansk1          4872.406
       367   06 Jun 2027 05:01:22.135   06 Jun 2027 05:04:15.524           173.389                Novosib          5418.406
       368   06 Jun 2027 05:05:01.417   06 Jun 2027 05:05:58.821            57.404                Novosib          1793.875
       369   06 Jun 2027 05:08:03.738   06 Jun 2027 05:11:16.623           192.885                  Delhi          6027.656
       370   06 Jun 2027 06:36:34.234   06 Jun 2027 06:36:58.904            24.670                 Moscow           770.937
       371   06 Jun 2027 06:37:14.016   06 Jun 2027 06:37:47.527            33.511              Murmansk2          1047.219
       372   06 Jun 2027 06:37:47.527   06 Jun 2027 06:38:12.664            25.137              Murmansk1           785.531
       373   06 Jun 2027 06:38:24.596   06 Jun 2027 06:40:32.881           128.285              Murmansk1          4008.906
       374   06 Jun 2027 06:41:37.816   06 Jun 2027 06:42:00.013            22.197                 Moscow           693.656
       375   06 Jun 2027 06:55:55.456   06 Jun 2027 07:00:06.611           251.155               CapeTown          7848.594
       376   06 Jun 2027 07:59:31.743   06 Jun 2027 08:00:24.294            52.551               Magadan1          1642.219
       377   06 Jun 2027 08:00:31.700   06 Jun 2027 08:00:42.871            11.171               Magadan2           349.094
       378   06 Jun 2027 08:01:07.957   06 Jun 2027 08:02:24.486            76.529                Anadyr1          2391.531
       379   06 Jun 2027 08:03:45.142   06 Jun 2027 08:04:49.291            64.149                Anadyr2          2004.656
       380   06 Jun 2027 08:04:49.291   06 Jun 2027 08:05:10.046            20.755                Anadyr1           648.594
       381   06 Jun 2027 08:35:27.325   06 Jun 2027 08:41:49.138           381.813               CapeTown         11931.656
       382   06 Jun 2027 09:35:32.522   06 Jun 2027 09:35:38.088             5.566               Magadan2           173.937
       383   06 Jun 2027 09:35:45.647   06 Jun 2027 09:36:28.420            42.773               Magadan1          1336.656
       384   06 Jun 2027 09:37:05.097   06 Jun 2027 09:39:20.823           135.726               Magadan1          4241.438
       385   06 Jun 2027 09:40:02.150   06 Jun 2027 09:41:17.981            75.831                Anadyr2          2369.719
       386   06 Jun 2027 11:05:24.524   06 Jun 2027 11:05:44.588            20.064               Magadan1           627.000
       387   06 Jun 2027 11:08:07.060   06 Jun 2027 11:08:10.876             3.816               Magadan2           119.250
       388   06 Jun 2027 11:10:14.971   06 Jun 2027 11:10:33.142            18.171                Norilsk           567.844
       389   06 Jun 2027 11:10:34.874   06 Jun 2027 11:10:37.234             2.360                Norilsk            73.750
       390   06 Jun 2027 11:10:53.891   06 Jun 2027 11:11:40.424            46.533               Magadan1          1454.156
       391   06 Jun 2027 11:12:04.852   06 Jun 2027 11:12:09.102             4.250                Novosib           132.813
       392   06 Jun 2027 11:12:10.305   06 Jun 2027 11:12:14.729             4.424                Norilsk           138.250
       393   06 Jun 2027 11:12:17.903   06 Jun 2027 11:12:37.017            19.114                Irkutsk           597.313
       394   06 Jun 2027 11:12:41.023   06 Jun 2027 11:12:41.809             0.786                Norilsk            24.563
       395   06 Jun 2027 11:13:01.483   06 Jun 2027 11:13:24.130            22.647                Novosib           707.719
       396   06 Jun 2027 11:13:32.889   06 Jun 2027 11:13:59.140            26.251                Norilsk           820.344
       397   06 Jun 2027 11:14:09.113   06 Jun 2027 11:15:57.847           108.734                Anadyr1          3397.938
       398   06 Jun 2027 11:16:09.499   06 Jun 2027 11:16:21.788            12.289                Norilsk           384.031
       399   06 Jun 2027 11:16:29.555   06 Jun 2027 11:16:58.528            28.973              Murmansk2           905.406
       400   06 Jun 2027 11:16:58.528   06 Jun 2027 11:17:09.049            10.521              Murmansk1           328.781
       401   06 Jun 2027 11:51:52.733   06 Jun 2027 11:53:03.777            71.044            RioGallegos          2220.125
       402   06 Jun 2027 12:28:37.606   06 Jun 2027 12:30:30.930           113.324                Sumatra          3541.375
       403   06 Jun 2027 12:40:03.780   06 Jun 2027 12:42:53.417           169.637                Irkutsk          5301.156
       404   06 Jun 2027 12:46:28.439   06 Jun 2027 12:47:07.244            38.805                Norilsk          1212.656
       405   06 Jun 2027 12:47:38.908   06 Jun 2027 12:50:00.617           141.709               Magadan1          4428.406
       406   06 Jun 2027 14:02:34.727   06 Jun 2027 14:05:24.695           169.968                Sumatra          5311.500
       407   06 Jun 2027 14:10:25.609   06 Jun 2027 14:12:20.612           115.003                Sumatra          3593.844
       408   06 Jun 2027 14:17:22.673   06 Jun 2027 14:18:41.098            78.425                Irkutsk          2450.781
       409   06 Jun 2027 14:22:11.881   06 Jun 2027 14:22:49.796            37.915                Irkutsk          1184.844
       410   06 Jun 2027 14:26:49.153   06 Jun 2027 14:28:17.585            88.432                Irkutsk          2763.500
       411   06 Jun 2027 15:47:12.205   06 Jun 2027 15:48:44.077            91.872                  Delhi          2871.000
       412   06 Jun 2027 15:52:27.834   06 Jun 2027 15:52:32.383             4.549                  Delhi           142.156
       413   06 Jun 2027 15:54:11.340   06 Jun 2027 15:57:07.054           175.714                  Delhi          5491.062
       414   06 Jun 2027 15:59:33.973   06 Jun 2027 16:00:44.530            70.557                Novosib          2204.906
       415   06 Jun 2027 16:04:09.418   06 Jun 2027 16:04:56.201            46.783                Norilsk          1461.969
       416   06 Jun 2027 16:09:12.076   06 Jun 2027 16:09:51.210            39.134                Norilsk          1222.938
       417   06 Jun 2027 17:34:20.205   06 Jun 2027 17:34:42.629            22.424                 Moscow           700.750
       418   06 Jun 2027 17:35:27.833   06 Jun 2027 17:37:44.295           136.462              Murmansk1          4264.437
       419   06 Jun 2027 17:39:53.459   06 Jun 2027 17:43:04.797           191.338                Norilsk          5979.313
       420   06 Jun 2027 17:44:31.563   06 Jun 2027 17:45:16.811            45.248                Norilsk          1414.000
       421   06 Jun 2027 19:09:21.258   06 Jun 2027 19:15:18.542           357.284                 Moscow         11165.125
       422   06 Jun 2027 20:20:46.827   06 Jun 2027 20:22:03.377            76.550               CapeTown          2392.187
       423   06 Jun 2027 20:23:05.453   06 Jun 2027 20:25:22.985           137.532               CapeTown          4297.875
       424   06 Jun 2027 20:52:06.919   06 Jun 2027 20:58:55.894           408.975              Murmansk2         12780.469
       425   06 Jun 2027 22:37:01.063   06 Jun 2027 22:37:57.172            56.109                Anadyr1          1753.406
       426   06 Jun 2027 22:38:14.288   06 Jun 2027 22:38:16.481             2.193                Anadyr1            68.531
       427   06 Jun 2027 22:38:29.935   06 Jun 2027 22:38:54.641            24.706                Anadyr1           772.062
       428   06 Jun 2027 22:39:17.852   06 Jun 2027 22:41:05.924           108.072               Magadan1          3377.250
       429   06 Jun 2027 22:41:56.794   06 Jun 2027 22:42:22.589            25.795               Magadan2           806.094
       430   06 Jun 2027 22:43:29.384   06 Jun 2027 22:44:07.954            38.570               Magadan2          1205.312
       431   06 Jun 2027 22:44:51.524   06 Jun 2027 22:45:05.408            13.884               Magadan1           433.875
       432   06 Jun 2027 23:32:36.963   06 Jun 2027 23:35:31.991           175.028            RioGallegos          5469.625
       433   06 Jun 2027 23:37:42.691   06 Jun 2027 23:38:16.469            33.778            RioGallegos          1055.563
       434   07 Jun 2027 00:12:49.276   07 Jun 2027 00:14:39.496           110.220                Anadyr2          3444.375
       435   07 Jun 2027 00:14:53.619   07 Jun 2027 00:16:46.925           113.306                Norilsk          3540.813
       436   07 Jun 2027 00:16:47.752   07 Jun 2027 00:16:57.156             9.404               Magadan1           293.875
       437   07 Jun 2027 00:18:05.798   07 Jun 2027 00:18:39.148            33.350               Magadan1          1042.188
       438   07 Jun 2027 00:19:38.110   07 Jun 2027 00:20:43.808            65.698                Irkutsk          2053.063
       439   07 Jun 2027 00:21:50.994   07 Jun 2027 00:22:06.573            15.579                Irkutsk           486.844
       440   07 Jun 2027 00:22:17.929   07 Jun 2027 00:23:01.611            43.682                Irkutsk          1365.063
       441   07 Jun 2027 00:26:05.854   07 Jun 2027 00:26:36.910            31.056                Irkutsk           970.500
       442   07 Jun 2027 00:34:14.844   07 Jun 2027 00:35:54.816            99.972                Sumatra          3124.125
       443   07 Jun 2027 00:39:10.455   07 Jun 2027 00:40:06.181            55.726                Sumatra          1741.437
       444   07 Jun 2027 01:06:47.427   07 Jun 2027 01:06:59.440            12.013            RioGallegos           375.406
       445   07 Jun 2027 01:09:19.444   07 Jun 2027 01:09:42.918            23.474            RioGallegos           733.563
       446   07 Jun 2027 01:13:22.192   07 Jun 2027 01:13:55.054            32.862            RioGallegos          1026.937
       447   07 Jun 2027 01:18:24.666   07 Jun 2027 01:19:10.895            46.229            RioGallegos          1444.656
       448   07 Jun 2027 01:48:01.403   07 Jun 2027 01:48:11.831            10.428                Anadyr2           325.875
       449   07 Jun 2027 01:48:20.857   07 Jun 2027 01:48:27.747             6.890                Anadyr2           215.313
       450   07 Jun 2027 01:49:31.278   07 Jun 2027 01:49:47.725            16.447                Anadyr2           513.969
       451   07 Jun 2027 01:50:14.851   07 Jun 2027 01:50:34.224            19.373                Anadyr2           605.406
       452   07 Jun 2027 01:50:34.224   07 Jun 2027 01:50:55.806            21.582                Anadyr1           674.438
       453   07 Jun 2027 01:51:23.811   07 Jun 2027 01:51:32.501             8.690               Magadan1           271.563
       454   07 Jun 2027 01:51:34.717   07 Jun 2027 01:52:56.019            81.302               Magadan2          2540.688
       455   07 Jun 2027 01:54:38.270   07 Jun 2027 01:56:47.650           129.380                Irkutsk          4043.125
       456   07 Jun 2027 01:57:43.810   07 Jun 2027 01:57:59.163            15.353                Novosib           479.781
       457   07 Jun 2027 01:58:10.552   07 Jun 2027 01:59:04.946            54.394                Novosib          1699.813
       458   07 Jun 2027 02:04:24.616   07 Jun 2027 02:04:41.546            16.930                  Delhi           529.063
       459   07 Jun 2027 02:08:41.617   07 Jun 2027 02:09:26.690            45.073                Sumatra          1408.531
       460   07 Jun 2027 02:11:19.155   07 Jun 2027 02:13:39.131           139.976                Sumatra          4374.250
       461   07 Jun 2027 02:15:46.641   07 Jun 2027 02:18:30.290           163.649                Sumatra          5114.031
       462   07 Jun 2027 03:31:36.309   07 Jun 2027 03:31:54.367            18.058               Magadan2           564.313
       463   07 Jun 2027 03:32:29.141   07 Jun 2027 03:34:21.825           112.684                Irkutsk          3521.375
       464   07 Jun 2027 03:34:50.192   07 Jun 2027 03:36:47.183           116.991                Irkutsk          3655.969
       465   07 Jun 2027 03:37:24.122   07 Jun 2027 03:39:41.440           137.318                Norilsk          4291.188
       466   07 Jun 2027 03:39:50.514   07 Jun 2027 03:42:00.309           129.795                Irkutsk          4056.094
       467   07 Jun 2027 03:43:15.011   07 Jun 2027 03:43:20.616             5.605                Novosib           175.156
       468   07 Jun 2027 03:44:39.183   07 Jun 2027 03:47:33.754           174.571                  Delhi          5455.344
       469   07 Jun 2027 04:20:05.571   07 Jun 2027 04:24:13.548           247.977            RioGallegos          7749.281
       470   07 Jun 2027 05:10:15.443   07 Jun 2027 05:11:02.402            46.959                Norilsk          1467.469
       471   07 Jun 2027 05:11:06.756   07 Jun 2027 05:11:46.372            39.616              Murmansk2          1238.000
       472   07 Jun 2027 05:11:48.584   07 Jun 2027 05:12:14.834            26.250                Norilsk           820.312
       473   07 Jun 2027 05:12:30.838   07 Jun 2027 05:12:37.514             6.676                Novosib           208.625
       474   07 Jun 2027 05:12:40.219   07 Jun 2027 05:13:54.553            74.334              Murmansk2          2322.937
       475   07 Jun 2027 05:13:55.560   07 Jun 2027 05:14:19.380            23.820                Norilsk           744.375
       476   07 Jun 2027 05:14:23.301   07 Jun 2027 05:14:30.842             7.541                Novosib           235.656
       477   07 Jun 2027 05:14:41.344   07 Jun 2027 05:15:14.542            33.198                Norilsk          1037.438
       478   07 Jun 2027 05:15:21.908   07 Jun 2027 05:15:59.786            37.878              Murmansk2          1183.688
       479   07 Jun 2027 05:16:21.293   07 Jun 2027 05:17:52.717            91.424                Novosib          2857.000
       480   07 Jun 2027 05:20:10.996   07 Jun 2027 05:22:02.405           111.409                  Delhi          3481.531
       481   07 Jun 2027 06:48:01.439   07 Jun 2027 06:49:23.895            82.456                 Moscow          2576.750
       482   07 Jun 2027 06:49:43.361   07 Jun 2027 06:50:17.996            34.635              Murmansk1          1082.344
