uniorb/output/strategy_1/Drop/Drop_KinoSat_111702.txt

KinoSat_111702
-------------------------
    Access    *     Start Time (UTCG)     *     Stop Time (UTCG)  *   Duration (s)        *       Station  *  Data (Mbytes)
         1   01 Jun 2027 03:41:57.982   01 Jun 2027 03:43:49.619           111.637                Norilsk          3488.656
         2   01 Jun 2027 03:44:00.331   01 Jun 2027 03:45:07.387            67.056              Murmansk1          2095.500
         3   01 Jun 2027 03:45:08.379   01 Jun 2027 03:46:54.921           106.542                Novosib          3329.438
         4   01 Jun 2027 03:47:38.382   01 Jun 2027 03:47:59.934            21.552                 Moscow           673.500
         5   01 Jun 2027 03:49:08.230   01 Jun 2027 03:51:57.381           169.151                  Delhi          5285.969
         6   01 Jun 2027 05:19:33.625   01 Jun 2027 05:20:42.899            69.274                Novosib          2164.813
         7   01 Jun 2027 05:21:03.729   01 Jun 2027 05:24:11.648           187.919              Murmansk1          5872.469
         8   01 Jun 2027 05:24:17.417   01 Jun 2027 05:25:11.094            53.677                 Moscow          1677.406
         9   01 Jun 2027 05:38:35.022   01 Jun 2027 05:41:14.720           159.698               CapeTown          4990.562
        10   01 Jun 2027 06:42:25.476   01 Jun 2027 06:43:13.593            48.117                Anadyr2          1503.656
        11   01 Jun 2027 06:43:13.593   01 Jun 2027 06:45:00.546           106.953                Anadyr1          3342.281
        12   01 Jun 2027 06:47:27.745   01 Jun 2027 06:48:15.368            47.623                Anadyr2          1488.219
        13   01 Jun 2027 08:19:23.830   01 Jun 2027 08:20:32.879            69.049               Magadan1          2157.781
        14   01 Jun 2027 08:20:32.879   01 Jun 2027 08:22:45.857           132.978               Magadan2          4155.563
        15   01 Jun 2027 08:23:23.748   01 Jun 2027 08:24:02.760            39.012                Anadyr1          1219.125
        16   01 Jun 2027 09:52:07.507   01 Jun 2027 09:53:22.967            75.460               Magadan2          2358.125
        17   01 Jun 2027 09:53:33.005   01 Jun 2027 09:55:54.044           141.039               Magadan2          4407.469
        18   01 Jun 2027 09:56:53.419   01 Jun 2027 09:59:32.718           159.299               Magadan2          4978.094
        19   01 Jun 2027 10:34:31.705   01 Jun 2027 10:35:24.473            52.768            RioGallegos          1649.000
        20   01 Jun 2027 11:11:14.942   01 Jun 2027 11:13:10.592           115.650                Sumatra          3614.063
        21   01 Jun 2027 11:30:30.509   01 Jun 2027 11:32:29.568           119.059               Magadan2          3720.594
        22   01 Jun 2027 11:32:46.648   01 Jun 2027 11:34:29.126           102.478                Norilsk          3202.437
        23   01 Jun 2027 11:34:42.399   01 Jun 2027 11:36:44.663           122.264                Norilsk          3820.750
        24   01 Jun 2027 12:10:51.090   01 Jun 2027 12:12:07.423            76.333            RioGallegos          2385.406
        25   01 Jun 2027 12:15:24.571   01 Jun 2027 12:15:32.824             8.253            RioGallegos           257.906
        26   01 Jun 2027 12:45:14.714   01 Jun 2027 12:47:16.182           121.468                Sumatra          3795.875
        27   01 Jun 2027 13:00:03.787   01 Jun 2027 13:01:28.710            84.923                Irkutsk          2653.844
        28   01 Jun 2027 13:02:02.875   01 Jun 2027 13:03:00.661            57.786                Novosib          1805.812
        29   01 Jun 2027 13:03:47.900   01 Jun 2027 13:04:44.270            56.370                Irkutsk          1761.562
        30   01 Jun 2027 13:04:52.608   01 Jun 2027 13:05:28.106            35.498                Norilsk          1109.313
        31   01 Jun 2027 13:06:33.296   01 Jun 2027 13:06:55.138            21.842                Norilsk           682.563
        32   01 Jun 2027 13:09:31.197   01 Jun 2027 13:10:03.144            31.947                Irkutsk           998.344
        33   01 Jun 2027 14:29:52.794   01 Jun 2027 14:30:38.391            45.597                  Delhi          1424.906
        34   01 Jun 2027 14:31:14.185   01 Jun 2027 14:32:05.805            51.620                  Delhi          1613.125
        35   01 Jun 2027 14:34:25.788   01 Jun 2027 14:34:54.640            28.852                  Delhi           901.625
        36   01 Jun 2027 14:37:00.197   01 Jun 2027 14:38:10.104            69.907                  Delhi          2184.594
        37   01 Jun 2027 14:38:29.561   01 Jun 2027 14:41:13.773           164.212                Novosib          5131.625
        38   01 Jun 2027 14:41:28.640   01 Jun 2027 14:42:22.099            53.459              Murmansk2          1670.594
        39   01 Jun 2027 14:42:23.971   01 Jun 2027 14:42:54.788            30.817                Norilsk           963.031
        40   01 Jun 2027 14:43:06.877   01 Jun 2027 14:43:24.106            17.229                Novosib           538.406
        41   01 Jun 2027 14:44:21.188   01 Jun 2027 14:44:49.922            28.734                Norilsk           897.938
        42   01 Jun 2027 14:45:51.252   01 Jun 2027 14:46:38.992            47.740                Norilsk          1491.875
        43   01 Jun 2027 16:13:43.345   01 Jun 2027 16:16:52.267           188.922                 Moscow          5903.813
        44   01 Jun 2027 16:17:14.355   01 Jun 2027 16:19:59.104           164.749              Murmansk1          5148.406
        45   01 Jun 2027 16:22:37.086   01 Jun 2027 16:27:07.998           270.912                Norilsk          8466.000
        46   01 Jun 2027 17:52:02.933   01 Jun 2027 17:53:50.903           107.970                 Moscow          3374.063
        47   01 Jun 2027 17:54:46.894   01 Jun 2027 17:57:56.400           189.506              Murmansk1          5922.063
        48   01 Jun 2027 19:03:26.611   01 Jun 2027 19:05:03.803            97.192               CapeTown          3037.250
        49   01 Jun 2027 19:10:24.165   01 Jun 2027 19:10:50.495            26.330               CapeTown           822.812
        50   01 Jun 2027 19:11:56.310   01 Jun 2027 19:12:52.195            55.885               CapeTown          1746.406
        51   01 Jun 2027 19:34:49.698   01 Jun 2027 19:39:30.113           280.415              Murmansk2          8762.969
        52   01 Jun 2027 19:39:59.665   01 Jun 2027 19:40:43.410            43.745              Murmansk1          1367.031
        53   01 Jun 2027 19:54:36.137   01 Jun 2027 19:54:39.009             2.872               Magadan2            89.750
        54   01 Jun 2027 19:55:53.532   01 Jun 2027 19:55:55.723             2.191               Magadan1            68.469
        55   01 Jun 2027 19:56:07.521   01 Jun 2027 19:56:13.399             5.878               Magadan1           183.688
        56   01 Jun 2027 21:19:40.420   01 Jun 2027 21:23:25.692           225.272                Anadyr1          7039.750
        57   01 Jun 2027 21:23:32.823   01 Jun 2027 21:27:16.258           223.435               Magadan1          6982.344
        58   01 Jun 2027 21:27:16.258   01 Jun 2027 21:27:59.664            43.406               Magadan2          1356.437
        59   01 Jun 2027 21:29:00.682   01 Jun 2027 21:29:30.295            29.613               Magadan2           925.406
        60   01 Jun 2027 21:34:20.419   01 Jun 2027 21:34:43.833            23.414               Magadan1           731.687
        61   01 Jun 2027 22:15:15.971   01 Jun 2027 22:18:05.627           169.656            RioGallegos          5301.750
        62   01 Jun 2027 22:20:13.273   01 Jun 2027 22:20:29.009            15.736            RioGallegos           491.750
        63   01 Jun 2027 22:55:28.194   01 Jun 2027 22:56:37.442            69.248                Anadyr1          2164.000
        64   01 Jun 2027 22:56:49.292   01 Jun 2027 22:57:58.294            69.002                Anadyr1          2156.313
        65   01 Jun 2027 22:57:58.432   01 Jun 2027 22:58:30.265            31.833                Norilsk           994.781
        66   01 Jun 2027 22:59:05.049   01 Jun 2027 22:59:44.082            39.033               Magadan1          1219.781
        67   01 Jun 2027 23:00:03.256   01 Jun 2027 23:00:36.962            33.706               Magadan2          1053.312
        68   01 Jun 2027 23:01:53.294   01 Jun 2027 23:02:23.811            30.517               Magadan2           953.656
        69   01 Jun 2027 23:02:40.277   01 Jun 2027 23:02:54.078            13.801                Norilsk           431.281
        70   01 Jun 2027 23:04:15.147   01 Jun 2027 23:04:52.961            37.814                Irkutsk          1181.687
        71   01 Jun 2027 23:08:39.592   01 Jun 2027 23:09:02.411            22.819                Irkutsk           713.094
        72   01 Jun 2027 23:09:41.022   01 Jun 2027 23:10:03.932            22.910                Irkutsk           715.938
        73   01 Jun 2027 23:11:05.872   01 Jun 2027 23:11:34.612            28.740                Irkutsk           898.125
        74   01 Jun 2027 23:16:52.545   01 Jun 2027 23:18:37.220           104.675                Sumatra          3271.094
        75   01 Jun 2027 23:22:12.361   01 Jun 2027 23:22:43.608            31.247                Sumatra           976.469
        76   01 Jun 2027 23:25:49.084   01 Jun 2027 23:25:55.417             6.333                Sumatra           197.906
        77   01 Jun 2027 23:25:58.178   01 Jun 2027 23:26:45.372            47.194                Sumatra          1474.813
        78   02 Jun 2027 00:00:46.333   02 Jun 2027 00:01:18.038            31.705            RioGallegos           990.781
        79   02 Jun 2027 00:30:39.692   02 Jun 2027 00:31:02.257            22.565                Anadyr1           705.156
        80   02 Jun 2027 00:31:41.763   02 Jun 2027 00:32:46.369            64.606                Anadyr2          2018.938
        81   02 Jun 2027 00:33:39.013   02 Jun 2027 00:33:57.316            18.303                Norilsk           571.969
        82   02 Jun 2027 00:34:02.711   02 Jun 2027 00:35:37.192            94.481               Magadan1          2952.531
        83   02 Jun 2027 00:37:17.810   02 Jun 2027 00:39:27.775           129.965                Irkutsk          4061.406
        84   02 Jun 2027 00:40:42.233   02 Jun 2027 00:41:04.062            21.829                Novosib           682.156
        85   02 Jun 2027 00:43:14.389   02 Jun 2027 00:43:39.728            25.339                Novosib           791.844
        86   02 Jun 2027 00:44:19.376   02 Jun 2027 00:44:37.430            18.054                Irkutsk           564.188
        87   02 Jun 2027 00:47:02.223   02 Jun 2027 00:48:43.743           101.520                  Delhi          3172.500
        88   02 Jun 2027 00:56:02.746   02 Jun 2027 00:56:49.038            46.292                Sumatra          1446.625
        89   02 Jun 2027 00:58:36.637   02 Jun 2027 00:59:19.421            42.784                Sumatra          1337.000
        90   02 Jun 2027 01:02:40.528   02 Jun 2027 01:03:19.731            39.203                Sumatra          1225.094
        91   02 Jun 2027 01:33:29.826   02 Jun 2027 01:33:38.589             8.763            RioGallegos           273.844
        92   02 Jun 2027 01:34:06.139   02 Jun 2027 01:35:06.970            60.831            RioGallegos          1900.969
        93   02 Jun 2027 02:05:18.662   02 Jun 2027 02:05:25.775             7.113                Anadyr2           222.281
        94   02 Jun 2027 02:05:52.082   02 Jun 2027 02:06:23.495            31.413                Anadyr1           981.656
        95   02 Jun 2027 02:08:28.420   02 Jun 2027 02:08:44.259            15.839                Anadyr2           494.969
        96   02 Jun 2027 02:09:00.903   02 Jun 2027 02:09:32.601            31.698                Anadyr2           990.562
        97   02 Jun 2027 02:09:42.459   02 Jun 2027 02:10:41.059            58.600                Norilsk          1831.250
        98   02 Jun 2027 02:12:07.601   02 Jun 2027 02:13:25.489            77.888              Murmansk2          2434.000
        99   02 Jun 2027 02:13:30.566   02 Jun 2027 02:14:31.828            61.262                Irkutsk          1914.437
       100   02 Jun 2027 02:14:53.209   02 Jun 2027 02:15:11.753            18.544                Irkutsk           579.500
       101   02 Jun 2027 02:20:12.414   02 Jun 2027 02:20:29.697            17.283                Novosib           540.094
       102   02 Jun 2027 02:20:34.635   02 Jun 2027 02:20:36.885             2.250                Irkutsk            70.313
       103   02 Jun 2027 02:20:52.336   02 Jun 2027 02:22:56.260           123.924                  Delhi          3872.625
       104   02 Jun 2027 03:02:44.799   02 Jun 2027 03:06:04.303           199.504            RioGallegos          6234.500
       105   02 Jun 2027 03:07:56.474   02 Jun 2027 03:08:03.549             7.075            RioGallegos           221.094
       106   02 Jun 2027 03:51:49.483   02 Jun 2027 03:53:33.314           103.831                Irkutsk          3244.719
       107   02 Jun 2027 03:55:00.013   02 Jun 2027 03:55:17.391            17.378                Novosib           543.062
       108   02 Jun 2027 03:55:22.503   02 Jun 2027 03:56:06.548            44.045              Murmansk1          1376.406
       109   02 Jun 2027 03:56:19.445   02 Jun 2027 03:57:53.833            94.388                Norilsk          2949.625
       110   02 Jun 2027 03:58:13.634   02 Jun 2027 03:58:39.918            26.284              Murmansk2           821.375
       111   02 Jun 2027 03:59:59.701   02 Jun 2027 04:00:31.489            31.788                Novosib           993.375
       112   02 Jun 2027 04:01:53.469   02 Jun 2027 04:02:21.863            28.394                 Moscow           887.313
       113   02 Jun 2027 05:30:44.924   02 Jun 2027 05:31:10.559            25.635                Norilsk           801.094
       114   02 Jun 2027 05:31:34.611   02 Jun 2027 05:32:27.902            53.291                 Moscow          1665.344
       115   02 Jun 2027 05:32:31.532   02 Jun 2027 05:33:34.727            63.195                 Moscow          1974.844
       116   02 Jun 2027 05:33:39.593   02 Jun 2027 05:35:14.438            94.845                 Moscow          2963.906
       117   02 Jun 2027 05:35:35.980   02 Jun 2027 05:36:19.776            43.796              Murmansk2          1368.625
       118   02 Jun 2027 05:36:26.846   02 Jun 2027 05:36:46.763            19.917                 Moscow           622.406
       119   02 Jun 2027 05:38:11.884   02 Jun 2027 05:38:54.012            42.128                 Moscow          1316.500
       120   02 Jun 2027 05:52:57.628   02 Jun 2027 05:53:48.732            51.104               CapeTown          1597.000
       121   02 Jun 2027 05:54:51.638   02 Jun 2027 05:55:34.055            42.417               CapeTown          1325.531
       122   02 Jun 2027 05:57:18.506   02 Jun 2027 05:59:15.096           116.590               CapeTown          3643.438
       123   02 Jun 2027 06:54:44.169   02 Jun 2027 06:57:30.329           166.160               Magadan2          5192.500
       124   02 Jun 2027 06:58:09.345   02 Jun 2027 06:58:52.879            43.534                Anadyr2          1360.437
       125   02 Jun 2027 07:32:31.768   02 Jun 2027 07:33:50.087            78.319               CapeTown          2447.469
       126   02 Jun 2027 08:30:03.916   02 Jun 2027 08:30:25.562            21.646                Anadyr2           676.438
       127   02 Jun 2027 08:31:13.632   02 Jun 2027 08:31:39.326            25.694                Irkutsk           802.937
       128   02 Jun 2027 08:32:05.828   02 Jun 2027 08:32:36.042            30.214               Magadan1           944.188
       129   02 Jun 2027 08:33:30.207   02 Jun 2027 08:36:01.064           150.857                Anadyr2          4714.281
       130   02 Jun 2027 10:02:09.598   02 Jun 2027 10:04:07.760           118.162               Magadan2          3692.562
       131   02 Jun 2027 10:05:25.976   02 Jun 2027 10:07:52.505           146.529               Magadan2          4579.031
       132   02 Jun 2027 10:08:35.233   02 Jun 2027 10:08:54.239            19.006                Novosib           593.937
       133   02 Jun 2027 10:09:05.976   02 Jun 2027 10:10:30.770            84.794                Norilsk          2649.812
       134   02 Jun 2027 10:10:40.376   02 Jun 2027 10:13:31.176           170.800              Murmansk1          5337.500
       135   02 Jun 2027 10:14:19.539   02 Jun 2027 10:14:39.823            20.284              Murmansk1           633.875
       136   02 Jun 2027 10:14:47.380   02 Jun 2027 10:15:12.186            24.806              Murmansk2           775.188
       137   02 Jun 2027 10:46:24.503   02 Jun 2027 10:47:58.451            93.948            RioGallegos          2935.875
       138   02 Jun 2027 10:49:32.464   02 Jun 2027 10:50:02.435            29.971            RioGallegos           936.594
       139   02 Jun 2027 11:22:33.615   02 Jun 2027 11:23:54.325            80.710                Sumatra          2522.187
       140   02 Jun 2027 11:31:33.967   02 Jun 2027 11:32:25.152            51.185                Sumatra          1599.531
       141   02 Jun 2027 11:42:27.656   02 Jun 2027 11:47:36.585           308.929                Irkutsk          9654.031
       142   02 Jun 2027 12:23:13.007   02 Jun 2027 12:23:24.117            11.110            RioGallegos           347.187
       143   02 Jun 2027 12:24:13.077   02 Jun 2027 12:24:39.741            26.664            RioGallegos           833.250
       144   02 Jun 2027 12:25:11.094   02 Jun 2027 12:27:25.132           134.038            RioGallegos          4188.687
       145   02 Jun 2027 12:57:30.353   02 Jun 2027 12:58:06.221            35.868                Sumatra          1120.875
       146   02 Jun 2027 13:02:09.499   02 Jun 2027 13:02:23.009            13.510                Sumatra           422.188
       147   02 Jun 2027 13:06:53.225   02 Jun 2027 13:07:24.290            31.065                  Delhi           970.781
       148   02 Jun 2027 13:12:13.975   02 Jun 2027 13:13:43.557            89.582                Novosib          2799.438
       149   02 Jun 2027 13:14:16.996   02 Jun 2027 13:15:29.243            72.247                Novosib          2257.719
       150   02 Jun 2027 13:15:46.301   02 Jun 2027 13:16:25.895            39.594                Irkutsk          1237.312
       151   02 Jun 2027 14:42:20.042   02 Jun 2027 14:44:57.090           157.048                  Delhi          4907.750
       152   02 Jun 2027 14:46:27.174   02 Jun 2027 14:46:29.521             2.347                  Delhi            73.344
       153   02 Jun 2027 14:46:56.452   02 Jun 2027 14:47:51.231            54.779                  Delhi          1711.844
       154   02 Jun 2027 14:50:40.669   02 Jun 2027 14:53:11.595           150.926                Novosib          4716.438
       155   02 Jun 2027 14:53:46.552   02 Jun 2027 14:56:01.826           135.274                Novosib          4227.313
       156   02 Jun 2027 16:25:50.219   02 Jun 2027 16:30:01.318           251.099                 Moscow          7846.844
       157   02 Jun 2027 16:30:28.456   02 Jun 2027 16:31:48.136            79.680              Murmansk2          2490.000
       158   02 Jun 2027 16:35:35.860   02 Jun 2027 16:39:38.938           243.078                Norilsk          7596.188
       159   02 Jun 2027 17:39:29.149   02 Jun 2027 17:40:07.119            37.970               CapeTown          1186.562
       160   02 Jun 2027 17:41:04.580   02 Jun 2027 17:41:16.246            11.666               CapeTown           364.562
       161   02 Jun 2027 17:41:33.768   02 Jun 2027 17:42:01.461            27.693               CapeTown           865.406
       162   02 Jun 2027 17:43:32.641   02 Jun 2027 17:45:19.436           106.795               CapeTown          3337.344
       163   02 Jun 2027 18:04:45.102   02 Jun 2027 18:09:30.808           285.706                 Moscow          8928.313
       164   02 Jun 2027 18:16:05.327   02 Jun 2027 18:17:04.353            59.026              Murmansk2          1844.562
       165   02 Jun 2027 18:26:33.485   02 Jun 2027 18:26:51.773            18.288                Anadyr2           571.500
       166   02 Jun 2027 18:29:32.299   02 Jun 2027 18:29:42.231             9.932                Anadyr1           310.375
       167   02 Jun 2027 18:29:53.605   02 Jun 2027 18:30:07.537            13.932                Anadyr1           435.375
       168   02 Jun 2027 18:31:00.730   02 Jun 2027 18:31:05.608             4.878                Anadyr1           152.438
       169   02 Jun 2027 19:17:05.768   02 Jun 2027 19:19:49.036           163.268               CapeTown          5102.125
       170   02 Jun 2027 19:25:29.987   02 Jun 2027 19:25:56.611            26.624               CapeTown           832.000
       171   02 Jun 2027 19:26:23.838   02 Jun 2027 19:26:36.198            12.360               CapeTown           386.250
       172   02 Jun 2027 19:47:39.646   02 Jun 2027 19:52:11.965           272.319              Murmansk2          8509.969
       173   02 Jun 2027 20:06:25.431   02 Jun 2027 20:07:24.089            58.658               Magadan1          1833.062
       174   02 Jun 2027 20:08:34.409   02 Jun 2027 20:08:39.544             5.135                Anadyr1           160.469
       175   02 Jun 2027 20:08:51.069   02 Jun 2027 20:08:51.248             0.179               Magadan1             5.594
       176   02 Jun 2027 21:31:41.938   02 Jun 2027 21:35:26.694           224.756                Anadyr1          7023.625
       177   02 Jun 2027 21:35:33.629   02 Jun 2027 21:37:29.578           115.949                Anadyr2          3623.406
       178   02 Jun 2027 21:37:43.143   02 Jun 2027 21:40:01.271           138.128               Magadan2          4316.500
       179   02 Jun 2027 21:41:03.184   02 Jun 2027 21:41:28.015            24.831               Magadan1           775.969
       180   02 Jun 2027 21:41:49.253   02 Jun 2027 21:41:55.581             6.328               Magadan2           197.750
       181   02 Jun 2027 21:42:15.733   02 Jun 2027 21:42:45.931            30.198               Magadan2           943.688
       182   02 Jun 2027 21:44:17.221   02 Jun 2027 21:44:29.805            12.584               Magadan1           393.250
       183   02 Jun 2027 21:44:52.728   02 Jun 2027 21:45:02.839            10.111               Magadan1           315.969
       184   02 Jun 2027 21:45:34.644   02 Jun 2027 21:46:02.779            28.135               Magadan1           879.219
       185   02 Jun 2027 22:26:48.248   02 Jun 2027 22:27:15.497            27.249            RioGallegos           851.531
       186   02 Jun 2027 22:27:33.441   02 Jun 2027 22:28:22.503            49.062            RioGallegos          1533.188
       187   02 Jun 2027 22:30:35.411   02 Jun 2027 22:30:53.941            18.530            RioGallegos           579.063
       188   02 Jun 2027 22:32:59.962   02 Jun 2027 22:33:15.175            15.213            RioGallegos           475.406
       189   02 Jun 2027 22:33:28.961   02 Jun 2027 22:34:06.666            37.705            RioGallegos          1178.281
       190   02 Jun 2027 23:07:27.009   02 Jun 2027 23:09:45.897           138.888                Anadyr2          4340.250
       191   02 Jun 2027 23:09:45.897   02 Jun 2027 23:11:03.440            77.543                Anadyr1          2423.219
       192   02 Jun 2027 23:11:12.842   02 Jun 2027 23:12:14.223            61.381               Magadan2          1918.156
       193   02 Jun 2027 23:12:34.479   02 Jun 2027 23:12:54.562            20.083               Magadan2           627.594
       194   02 Jun 2027 23:14:06.526   02 Jun 2027 23:14:56.446            49.920               Magadan1          1560.000
       195   02 Jun 2027 23:16:12.028   02 Jun 2027 23:16:24.353            12.325                Irkutsk           385.156
       196   02 Jun 2027 23:17:27.195   02 Jun 2027 23:17:45.817            18.622                Irkutsk           581.938
       197   02 Jun 2027 23:19:12.196   02 Jun 2027 23:19:38.019            25.823                Irkutsk           806.969
       198   02 Jun 2027 23:20:10.973   02 Jun 2027 23:20:49.141            38.168                Irkutsk          1192.750
       199   02 Jun 2027 23:23:30.443   02 Jun 2027 23:23:50.535            20.092                Irkutsk           627.875
       200   02 Jun 2027 23:31:52.258   02 Jun 2027 23:33:24.351            92.093                Sumatra          2877.906
       201   02 Jun 2027 23:34:55.856   02 Jun 2027 23:35:10.115            14.259                Sumatra           445.594
       202   02 Jun 2027 23:37:52.089   02 Jun 2027 23:38:43.221            51.132                Sumatra          1597.875
       203   03 Jun 2027 00:10:12.710   03 Jun 2027 00:10:19.668             6.958            RioGallegos           217.438
       204   03 Jun 2027 00:10:59.956   03 Jun 2027 00:11:23.904            23.948            RioGallegos           748.375
       205   03 Jun 2027 00:11:47.261   03 Jun 2027 00:12:48.507            61.246            RioGallegos          1913.938
       206   03 Jun 2027 00:42:31.083   03 Jun 2027 00:42:44.514            13.431                Anadyr2           419.719
       207   03 Jun 2027 00:43:03.411   03 Jun 2027 00:43:42.972            39.561                Anadyr2          1236.281
       208   03 Jun 2027 00:44:52.075   03 Jun 2027 00:45:01.902             9.827                Anadyr1           307.094
       209   03 Jun 2027 00:45:26.058   03 Jun 2027 00:47:09.886           103.828                Norilsk          3244.625
       210   03 Jun 2027 00:47:22.104   03 Jun 2027 00:47:22.831             0.727               Magadan2            22.719
       211   03 Jun 2027 00:47:40.037   03 Jun 2027 00:47:45.157             5.120               Magadan2           160.000
       212   03 Jun 2027 00:48:19.797   03 Jun 2027 00:48:49.125            29.328               Magadan1           916.500
       213   03 Jun 2027 00:49:18.755   03 Jun 2027 00:49:40.333            21.578                Irkutsk           674.313
       214   03 Jun 2027 00:49:41.995   03 Jun 2027 00:50:06.722            24.727                Novosib           772.719
       215   03 Jun 2027 00:50:40.647   03 Jun 2027 00:50:53.084            12.437                Novosib           388.656
       216   03 Jun 2027 00:52:00.578   03 Jun 2027 00:52:36.906            36.328                Irkutsk          1135.250
       217   03 Jun 2027 00:54:00.761   03 Jun 2027 00:55:07.747            66.986                Irkutsk          2093.313
       218   03 Jun 2027 00:58:39.102   03 Jun 2027 00:58:50.626            11.524                Novosib           360.125
       219   03 Jun 2027 00:59:06.435   03 Jun 2027 00:59:18.383            11.948                Irkutsk           373.375
       220   03 Jun 2027 01:00:28.030   03 Jun 2027 01:00:56.804            28.774                Novosib           899.187
       221   03 Jun 2027 01:04:16.300   03 Jun 2027 01:05:05.790            49.490                  Delhi          1546.563
       222   03 Jun 2027 01:07:26.545   03 Jun 2027 01:07:34.191             7.646                  Delhi           238.937
       223   03 Jun 2027 01:08:47.492   03 Jun 2027 01:09:03.592            16.100                Sumatra           503.125
       224   03 Jun 2027 01:11:02.724   03 Jun 2027 01:11:54.754            52.030                Sumatra          1625.937
       225   03 Jun 2027 01:13:36.380   03 Jun 2027 01:14:39.520            63.140                Sumatra          1973.125
       226   03 Jun 2027 01:45:42.587   03 Jun 2027 01:45:55.691            13.104            RioGallegos           409.500
       227   03 Jun 2027 01:47:13.392   03 Jun 2027 01:48:13.652            60.260            RioGallegos          1883.125
       228   03 Jun 2027 02:20:27.339   03 Jun 2027 02:20:45.638            18.299                Anadyr2           571.844
       229   03 Jun 2027 02:21:26.959   03 Jun 2027 02:22:32.629            65.670                Norilsk          2052.187
       230   03 Jun 2027 02:23:33.478   03 Jun 2027 02:23:44.635            11.157               Magadan1           348.656
       231   03 Jun 2027 02:24:00.117   03 Jun 2027 02:24:31.268            31.151              Murmansk1           973.469
       232   03 Jun 2027 02:24:31.268   03 Jun 2027 02:25:19.870            48.602              Murmansk2          1518.813
       233   03 Jun 2027 02:28:32.068   03 Jun 2027 02:28:49.524            17.456                Novosib           545.500
       234   03 Jun 2027 02:29:41.045   03 Jun 2027 02:29:55.540            14.495              Murmansk2           452.969
       235   03 Jun 2027 02:30:00.193   03 Jun 2027 02:30:08.336             8.143                Irkutsk           254.469
       236   03 Jun 2027 02:31:55.673   03 Jun 2027 02:32:07.794            12.121                Novosib           378.781
       237   03 Jun 2027 02:32:39.707   03 Jun 2027 02:32:49.992            10.285                Irkutsk           321.406
       238   03 Jun 2027 02:33:22.164   03 Jun 2027 02:33:47.338            25.174                Irkutsk           786.687
       239   03 Jun 2027 02:35:19.169   03 Jun 2027 02:35:42.405            23.236                Irkutsk           726.125
       240   03 Jun 2027 02:36:42.334   03 Jun 2027 02:36:47.712             5.378                Novosib           168.063
       241   03 Jun 2027 02:37:15.708   03 Jun 2027 02:38:05.947            50.239                Novosib          1569.969
       242   03 Jun 2027 02:41:35.919   03 Jun 2027 02:42:19.317            43.398                  Delhi          1356.187
       243   03 Jun 2027 03:15:14.455   03 Jun 2027 03:17:46.293           151.838            RioGallegos          4744.937
       244   03 Jun 2027 03:18:11.173   03 Jun 2027 03:19:32.837            81.664            RioGallegos          2552.000
       245   03 Jun 2027 04:04:29.918   03 Jun 2027 04:05:20.961            51.043                Irkutsk          1595.094
       246   03 Jun 2027 04:06:00.617   03 Jun 2027 04:06:21.374            20.757              Murmansk1           648.656
       247   03 Jun 2027 04:06:25.406   03 Jun 2027 04:06:33.122             7.716              Murmansk1           241.125
       248   03 Jun 2027 04:06:54.199   03 Jun 2027 04:09:47.369           173.170                Norilsk          5411.563
       249   03 Jun 2027 04:09:50.743   03 Jun 2027 04:12:09.603           138.860                Novosib          4339.375
       250   03 Jun 2027 04:12:38.838   03 Jun 2027 04:14:04.362            85.524                 Moscow          2672.625
       251   03 Jun 2027 04:14:08.848   03 Jun 2027 04:14:37.298            28.450                 Moscow           889.062
       252   03 Jun 2027 04:37:25.073   03 Jun 2027 04:37:27.815             2.742               CapeTown            85.688
       253   03 Jun 2027 04:38:00.065   03 Jun 2027 04:38:54.173            54.108               CapeTown          1690.875
       254   03 Jun 2027 05:43:45.650   03 Jun 2027 05:44:13.570            27.920                Norilsk           872.500
       255   03 Jun 2027 05:44:13.845   03 Jun 2027 05:45:32.801            78.956                 Moscow          2467.375
       256   03 Jun 2027 05:45:42.680   03 Jun 2027 05:47:38.178           115.498              Murmansk1          3609.312
       257   03 Jun 2027 05:47:38.178   03 Jun 2027 05:48:12.603            34.425              Murmansk2          1075.781
       258   03 Jun 2027 05:49:05.790   03 Jun 2027 05:50:16.188            70.398                 Moscow          2199.938
       259   03 Jun 2027 06:13:08.192   03 Jun 2027 06:13:49.397            41.205               CapeTown          1287.656
       260   03 Jun 2027 07:07:00.067   03 Jun 2027 07:07:48.850            48.783               Magadan1          1524.469
       261   03 Jun 2027 07:07:51.733   03 Jun 2027 07:08:02.117            10.384                Anadyr1           324.500
       262   03 Jun 2027 07:08:03.691   03 Jun 2027 07:09:15.220            71.529                Anadyr1          2235.281
       263   03 Jun 2027 08:43:24.762   03 Jun 2027 08:44:19.203            54.441                Anadyr1          1701.281
       264   03 Jun 2027 08:44:41.787   03 Jun 2027 08:45:43.222            61.435               Magadan2          1919.844
       265   03 Jun 2027 08:47:03.572   03 Jun 2027 08:47:58.404            54.832                Anadyr2          1713.500
       266   03 Jun 2027 10:18:04.775   03 Jun 2027 10:19:50.010           105.235               Magadan1          3288.594
       267   03 Jun 2027 10:19:50.010   03 Jun 2027 10:23:22.580           212.570               Magadan2          6642.813
       268   03 Jun 2027 11:53:43.463   03 Jun 2027 11:55:11.131            87.668                Irkutsk          2739.625
       269   03 Jun 2027 11:55:18.727   03 Jun 2027 11:55:48.177            29.450                Novosib           920.312
       270   03 Jun 2027 11:55:50.196   03 Jun 2027 11:57:03.859            73.663                Irkutsk          2301.969
       271   03 Jun 2027 11:57:08.363   03 Jun 2027 11:57:28.237            19.874                Norilsk           621.063
       272   03 Jun 2027 11:57:29.462   03 Jun 2027 11:58:25.189            55.727                Irkutsk          1741.469
       273   03 Jun 2027 11:58:30.002   03 Jun 2027 11:58:39.341             9.339              Murmansk1           291.844
       274   03 Jun 2027 11:58:42.884   03 Jun 2027 11:59:39.074            56.190              Murmansk1          1755.938
       275   03 Jun 2027 12:00:36.245   03 Jun 2027 12:01:05.077            28.832                Novosib           901.000
       276   03 Jun 2027 12:02:20.205   03 Jun 2027 12:02:25.738             5.533                Norilsk           172.906
       277   03 Jun 2027 12:02:32.108   03 Jun 2027 12:02:39.001             6.893                Norilsk           215.406
       278   03 Jun 2027 12:03:01.545   03 Jun 2027 12:03:16.745            15.200              Murmansk1           475.000
       279   03 Jun 2027 12:03:26.614   03 Jun 2027 12:04:17.334            50.720                Norilsk          1585.000
       280   03 Jun 2027 12:05:22.192   03 Jun 2027 12:05:52.735            30.543              Murmansk2           954.469
       281   03 Jun 2027 12:06:17.679   03 Jun 2027 12:06:46.852            29.173              Murmansk2           911.656
       282   03 Jun 2027 12:40:17.516   03 Jun 2027 12:40:49.272            31.756            RioGallegos           992.375
       283   03 Jun 2027 12:41:51.615   03 Jun 2027 12:42:58.124            66.509            RioGallegos          2078.406
       284   03 Jun 2027 12:43:04.607   03 Jun 2027 12:45:08.024           123.417            RioGallegos          3856.781
       285   03 Jun 2027 13:13:47.191   03 Jun 2027 13:15:10.246            83.055                Sumatra          2595.469
       286   03 Jun 2027 13:17:49.358   03 Jun 2027 13:19:44.764           115.406                Sumatra          3606.437
       287   03 Jun 2027 13:27:59.984   03 Jun 2027 13:30:05.877           125.893                Irkutsk          3934.156
       288   03 Jun 2027 14:54:56.906   03 Jun 2027 14:57:40.854           163.948                  Delhi          5123.375
       289   03 Jun 2027 15:03:24.513   03 Jun 2027 15:08:07.772           283.259                Novosib          8851.844
       290   03 Jun 2027 15:16:21.682   03 Jun 2027 15:16:31.637             9.955                Norilsk           311.094
       291   03 Jun 2027 16:38:00.290   03 Jun 2027 16:39:41.627           101.337                 Moscow          3166.781
       292   03 Jun 2027 16:40:59.875   03 Jun 2027 16:41:58.570            58.695                 Moscow          1834.219
       293   03 Jun 2027 16:45:10.063   03 Jun 2027 16:45:14.015             3.952              Murmansk1           123.500
       294   03 Jun 2027 16:46:40.052   03 Jun 2027 16:46:50.082            10.030                 Moscow           313.437
       295   03 Jun 2027 16:47:07.137   03 Jun 2027 16:47:48.054            40.917              Murmansk2          1278.656
       296   03 Jun 2027 16:48:52.778   03 Jun 2027 16:51:07.687           134.909                Norilsk          4215.906
       297   03 Jun 2027 16:59:22.352   03 Jun 2027 16:59:23.685             1.333                Anadyr2            41.656
       298   03 Jun 2027 17:02:08.618   03 Jun 2027 17:02:20.783            12.165                Anadyr1           380.156
       299   03 Jun 2027 17:51:22.401   03 Jun 2027 17:52:15.828            53.427               CapeTown          1669.594
       300   03 Jun 2027 17:54:28.874   03 Jun 2027 17:55:00.830            31.956               CapeTown           998.625
       301   03 Jun 2027 17:58:04.092   03 Jun 2027 17:58:18.071            13.979               CapeTown           436.844
       302   03 Jun 2027 17:58:53.303   03 Jun 2027 17:59:38.970            45.667               CapeTown          1427.094
       303   03 Jun 2027 18:17:36.256   03 Jun 2027 18:22:00.943           264.687                 Moscow          8271.469
       304   03 Jun 2027 18:22:01.785   03 Jun 2027 18:22:08.707             6.922                 Moscow           216.312
       305   03 Jun 2027 18:34:47.923   03 Jun 2027 18:35:18.849            30.926                Anadyr2           966.438
       306   03 Jun 2027 19:28:00.062   03 Jun 2027 19:29:10.517            70.455               CapeTown          2201.719
       307   03 Jun 2027 19:31:01.212   03 Jun 2027 19:31:08.366             7.154               CapeTown           223.562
       308   03 Jun 2027 19:32:13.049   03 Jun 2027 19:32:55.542            42.493               CapeTown          1327.906
       309   03 Jun 2027 19:35:26.560   03 Jun 2027 19:35:53.446            26.886               CapeTown           840.188
       310   03 Jun 2027 20:00:37.526   03 Jun 2027 20:04:58.440           260.914              Murmansk2          8153.562
       311   03 Jun 2027 20:10:25.688   03 Jun 2027 20:10:47.405            21.717               Magadan1           678.656
       312   03 Jun 2027 20:10:53.843   03 Jun 2027 20:11:23.435            29.592               Magadan1           924.750
       313   03 Jun 2027 20:16:03.765   03 Jun 2027 20:16:05.943             2.178               Magadan2            68.063
       314   03 Jun 2027 20:16:14.824   03 Jun 2027 20:16:36.090            21.266               Magadan1           664.562
       315   03 Jun 2027 20:17:05.160   03 Jun 2027 20:18:10.695            65.535               Magadan2          2047.969
       316   03 Jun 2027 21:43:43.294   03 Jun 2027 21:48:50.804           307.510                Anadyr1          9609.687
       317   03 Jun 2027 21:49:03.217   03 Jun 2027 21:49:04.022             0.805                Norilsk            25.156
       318   03 Jun 2027 21:49:11.746   03 Jun 2027 21:50:12.395            60.649               Magadan1          1895.281
       319   03 Jun 2027 21:50:29.026   03 Jun 2027 21:50:38.176             9.150               Magadan2           285.938
       320   03 Jun 2027 21:51:44.661   03 Jun 2027 21:52:03.252            18.591               Magadan1           580.969
       321   03 Jun 2027 21:53:03.215   03 Jun 2027 21:53:35.505            32.290               Magadan1          1009.062
       322   03 Jun 2027 21:56:35.113   03 Jun 2027 21:56:42.411             7.298               Magadan1           228.062
       323   03 Jun 2027 21:56:53.150   03 Jun 2027 21:57:36.425            43.275               Magadan2          1352.344
       324   03 Jun 2027 22:38:28.735   03 Jun 2027 22:40:22.058           113.323            RioGallegos          3541.344
       325   03 Jun 2027 22:43:07.978   03 Jun 2027 22:43:25.954            17.976            RioGallegos           561.750
       326   03 Jun 2027 22:46:42.799   03 Jun 2027 22:47:08.565            25.766            RioGallegos           805.187
       327   03 Jun 2027 22:47:43.298   03 Jun 2027 22:47:51.336             8.038            RioGallegos           251.188
       328   03 Jun 2027 23:19:25.206   03 Jun 2027 23:21:34.843           129.637                Anadyr1          4051.156
       329   03 Jun 2027 23:21:35.199   03 Jun 2027 23:23:11.318            96.119                Norilsk          3003.719
       330   03 Jun 2027 23:23:15.597   03 Jun 2027 23:24:21.871            66.274               Magadan2          2071.062
       331   03 Jun 2027 23:25:37.161   03 Jun 2027 23:25:51.208            14.047               Magadan2           438.969
       332   03 Jun 2027 23:25:54.343   03 Jun 2027 23:26:18.982            24.639                Irkutsk           769.969
       333   03 Jun 2027 23:27:55.040   03 Jun 2027 23:29:22.477            87.437                Irkutsk          2732.406
       334   03 Jun 2027 23:39:52.452   03 Jun 2027 23:40:17.659            25.207                Sumatra           787.719
       335   03 Jun 2027 23:41:47.480   03 Jun 2027 23:43:04.138            76.658                Sumatra          2395.562
       336   04 Jun 2027 00:17:50.354   04 Jun 2027 00:17:57.186             6.832            RioGallegos           213.500
       337   04 Jun 2027 00:18:20.646   04 Jun 2027 00:18:37.447            16.801            RioGallegos           525.031
       338   04 Jun 2027 00:21:31.426   04 Jun 2027 00:22:17.814            46.388            RioGallegos          1449.625
       339   04 Jun 2027 00:54:21.175   04 Jun 2027 00:54:43.071            21.896                Anadyr2           684.250
       340   04 Jun 2027 00:55:04.430   04 Jun 2027 00:55:44.261            39.831                Anadyr1          1244.719
       341   04 Jun 2027 00:56:37.898   04 Jun 2027 00:56:57.053            19.155                Anadyr2           598.594
       342   04 Jun 2027 00:57:28.333   04 Jun 2027 00:59:11.908           103.575                Norilsk          3236.719
       343   04 Jun 2027 00:59:22.634   04 Jun 2027 01:00:28.986            66.352               Magadan2          2073.500
       344   04 Jun 2027 01:01:20.568   04 Jun 2027 01:03:17.241           116.673                Irkutsk          3646.031
       345   04 Jun 2027 01:08:32.399   04 Jun 2027 01:08:58.891            26.492                Novosib           827.875
       346   04 Jun 2027 01:12:41.845   04 Jun 2027 01:13:05.942            24.097                Novosib           753.031
       347   04 Jun 2027 01:14:24.025   04 Jun 2027 01:15:06.410            42.385                  Delhi          1324.531
       348   04 Jun 2027 01:19:18.015   04 Jun 2027 01:20:14.870            56.855                Sumatra          1776.719
       349   04 Jun 2027 01:22:52.589   04 Jun 2027 01:23:42.357            49.768                Sumatra          1555.250
       350   04 Jun 2027 01:55:20.377   04 Jun 2027 01:56:08.673            48.296            RioGallegos          1509.250
       351   04 Jun 2027 02:28:03.289   04 Jun 2027 02:28:42.038            38.749                Anadyr2          1210.906
       352   04 Jun 2027 02:33:28.930   04 Jun 2027 02:35:05.789            96.859                Norilsk          3026.844
       353   04 Jun 2027 02:35:31.972   04 Jun 2027 02:35:33.713             1.741               Magadan1            54.406
       354   04 Jun 2027 02:35:46.328   04 Jun 2027 02:35:58.911            12.583               Magadan1           393.219
       355   04 Jun 2027 02:36:39.685   04 Jun 2027 02:37:28.775            49.090              Murmansk1          1534.062
       356   04 Jun 2027 02:37:40.102   04 Jun 2027 02:37:48.006             7.904              Murmansk2           247.000
       357   04 Jun 2027 02:37:50.563   04 Jun 2027 02:39:09.058            78.495                Novosib          2452.969
       358   04 Jun 2027 02:43:14.759   04 Jun 2027 02:44:04.694            49.935                Irkutsk          1560.469
       359   04 Jun 2027 02:47:33.839   04 Jun 2027 02:48:56.019            82.180                  Delhi          2568.125
       360   04 Jun 2027 03:28:08.987   04 Jun 2027 03:28:09.414             0.427            RioGallegos            13.344
       361   04 Jun 2027 03:29:08.626   04 Jun 2027 03:30:20.418            71.792            RioGallegos          2243.500
       362   04 Jun 2027 04:17:47.733   04 Jun 2027 04:20:49.545           181.812                Novosib          5681.625
       363   04 Jun 2027 04:20:50.709   04 Jun 2027 04:23:02.267           131.558                Novosib          4111.188
       364   04 Jun 2027 04:23:09.068   04 Jun 2027 04:23:21.514            12.446              Murmansk1           388.938
       365   04 Jun 2027 04:24:09.857   04 Jun 2027 04:26:06.247           116.390                 Moscow          3637.187
       366   04 Jun 2027 05:56:28.000   04 Jun 2027 06:00:30.924           242.924              Murmansk2          7591.375
       367   04 Jun 2027 06:01:21.063   04 Jun 2027 06:03:11.126           110.063                 Moscow          3439.469
       368   04 Jun 2027 06:03:25.878   04 Jun 2027 06:03:29.094             3.216                 Moscow           100.500
       369   04 Jun 2027 06:25:19.528   04 Jun 2027 06:26:12.037            52.509               CapeTown          1640.906
       370   04 Jun 2027 07:19:47.796   04 Jun 2027 07:20:23.409            35.613                Anadyr1          1112.906
       371   04 Jun 2027 07:20:32.220   04 Jun 2027 07:21:20.010            47.790                Anadyr1          1493.437
       372   04 Jun 2027 07:22:23.686   04 Jun 2027 07:22:57.032            33.346               Magadan2          1042.063
       373   04 Jun 2027 07:28:48.878   04 Jun 2027 07:29:48.874            59.996                 Moscow          1874.875
       374   04 Jun 2027 08:54:03.729   04 Jun 2027 08:54:53.793            50.064               Magadan1          1564.500
       375   04 Jun 2027 08:55:08.804   04 Jun 2027 08:55:24.433            15.629               Magadan2           488.406
       376   04 Jun 2027 08:55:28.640   04 Jun 2027 08:59:54.497           265.857                Anadyr2          8308.031
       377   04 Jun 2027 10:28:54.580   04 Jun 2027 10:29:01.000             6.420                Norilsk           200.625
       378   04 Jun 2027 10:29:03.543   04 Jun 2027 10:30:31.295            87.752               Magadan2          2742.250
       379   04 Jun 2027 10:30:44.643   04 Jun 2027 10:31:03.472            18.829                Norilsk           588.406
       380   04 Jun 2027 10:31:30.117   04 Jun 2027 10:31:32.996             2.879                Irkutsk            89.969
       381   04 Jun 2027 10:31:45.855   04 Jun 2027 10:32:44.818            58.963                Norilsk          1842.594
       382   04 Jun 2027 10:32:45.410   04 Jun 2027 10:33:08.620            23.210                Irkutsk           725.313
       383   04 Jun 2027 10:33:16.473   04 Jun 2027 10:33:37.790            21.317                Novosib           666.156
       384   04 Jun 2027 10:33:51.043   04 Jun 2027 10:35:14.612            83.569               Magadan1          2611.531
       385   04 Jun 2027 10:35:18.440   04 Jun 2027 10:35:33.649            15.209                Irkutsk           475.281
       386   04 Jun 2027 10:35:42.584   04 Jun 2027 10:36:38.909            56.325              Murmansk1          1760.156
       387   04 Jun 2027 11:10:19.843   04 Jun 2027 11:11:17.583            57.740            RioGallegos          1804.375
       388   04 Jun 2027 11:45:42.911   04 Jun 2027 11:46:16.465            33.554                Sumatra          1048.562
       389   04 Jun 2027 11:46:40.950   04 Jun 2027 11:47:21.754            40.804                Sumatra          1275.125
       390   04 Jun 2027 12:05:41.067   04 Jun 2027 12:06:04.905            23.838                Irkutsk           744.937
       391   04 Jun 2027 12:07:31.921   04 Jun 2027 12:08:44.150            72.229                Norilsk          2257.156
       392   04 Jun 2027 12:14:19.295   04 Jun 2027 12:14:36.504            17.209              Murmansk1           537.781
       393   04 Jun 2027 12:15:34.579   04 Jun 2027 12:15:50.657            16.078              Murmansk1           502.437
       394   04 Jun 2027 12:17:20.103   04 Jun 2027 12:17:39.980            19.877              Murmansk1           621.156
       395   04 Jun 2027 12:48:12.795   04 Jun 2027 12:48:35.435            22.640            RioGallegos           707.500
       396   04 Jun 2027 12:48:54.293   04 Jun 2027 12:49:51.503            57.210            RioGallegos          1787.813
       397   04 Jun 2027 12:53:13.154   04 Jun 2027 12:53:43.951            30.797            RioGallegos           962.406
       398   04 Jun 2027 12:57:08.389   04 Jun 2027 12:58:18.052            69.663            RioGallegos          2176.969
       399   04 Jun 2027 13:23:08.024   04 Jun 2027 13:24:41.751            93.727                Sumatra          2928.969
       400   04 Jun 2027 13:38:02.878   04 Jun 2027 13:39:20.029            77.151                Irkutsk          2410.969
       401   04 Jun 2027 13:43:05.665   04 Jun 2027 13:44:53.466           107.801                Irkutsk          3368.781
       402   04 Jun 2027 15:07:47.215   04 Jun 2027 15:10:19.524           152.309                  Delhi          4759.656
       403   04 Jun 2027 15:14:40.579   04 Jun 2027 15:15:04.004            23.425                 Moscow           732.031
       404   04 Jun 2027 15:16:18.029   04 Jun 2027 15:20:28.697           250.668                Novosib          7833.375
       405   04 Jun 2027 15:24:46.889   04 Jun 2027 15:25:42.764            55.875                Norilsk          1746.094
       406   04 Jun 2027 16:50:13.745   04 Jun 2027 16:50:30.397            16.652                 Moscow           520.375
       407   04 Jun 2027 16:51:04.052   04 Jun 2027 16:51:42.312            38.260                 Moscow          1195.625
       408   04 Jun 2027 16:53:41.634   04 Jun 2027 16:54:31.882            50.248              Murmansk2          1570.250
       409   04 Jun 2027 16:54:34.547   04 Jun 2027 16:55:11.298            36.751              Murmansk1          1148.469
       410   04 Jun 2027 16:56:36.225   04 Jun 2027 16:57:56.696            80.471              Murmansk2          2514.719
       411   04 Jun 2027 17:08:50.912   04 Jun 2027 17:09:45.549            54.637                Anadyr1          1707.406
       412   04 Jun 2027 17:11:03.714   04 Jun 2027 17:11:24.642            20.928                Anadyr1           654.000
       413   04 Jun 2027 17:12:33.413   04 Jun 2027 17:12:37.732             4.319                Anadyr1           134.969
       414   04 Jun 2027 17:13:47.246   04 Jun 2027 17:13:54.267             7.021                Anadyr1           219.406
       415   04 Jun 2027 17:14:31.020   04 Jun 2027 17:14:46.607            15.587                Anadyr2           487.094
       416   04 Jun 2027 17:14:54.845   04 Jun 2027 17:15:12.970            18.125                Anadyr1           566.406
       417   04 Jun 2027 18:03:18.902   04 Jun 2027 18:04:05.960            47.058               CapeTown          1470.562
       418   04 Jun 2027 18:09:16.125   04 Jun 2027 18:09:24.256             8.131               CapeTown           254.094
       419   04 Jun 2027 18:10:34.176   04 Jun 2027 18:11:03.143            28.967               CapeTown           905.219
       420   04 Jun 2027 18:15:20.337   04 Jun 2027 18:15:21.175             0.838               CapeTown            26.188
       421   04 Jun 2027 18:30:41.068   04 Jun 2027 18:34:54.123           253.055                 Moscow          7907.969
       422   04 Jun 2027 18:36:35.645   04 Jun 2027 18:37:02.658            27.013              Murmansk1           844.156
       423   04 Jun 2027 18:45:11.284   04 Jun 2027 18:45:32.396            21.112                Anadyr2           659.750
       424   04 Jun 2027 18:49:41.644   04 Jun 2027 18:50:59.940            78.296               Magadan1          2446.750
       425   04 Jun 2027 19:40:25.003   04 Jun 2027 19:41:18.154            53.151               CapeTown          1660.969
       426   04 Jun 2027 20:13:51.298   04 Jun 2027 20:16:39.163           167.865              Murmansk1          5245.781
       427   04 Jun 2027 20:21:52.695   04 Jun 2027 20:23:07.858            75.163                Anadyr1          2348.844
       428   04 Jun 2027 20:23:24.324   04 Jun 2027 20:24:17.829            53.505               Magadan2          1672.031
       429   04 Jun 2027 20:24:54.299   04 Jun 2027 20:25:39.935            45.636               Magadan1          1426.125
       430   04 Jun 2027 20:27:03.894   04 Jun 2027 20:27:23.971            20.077               Magadan1           627.406
       431   04 Jun 2027 20:28:54.394   04 Jun 2027 20:29:31.679            37.285               Magadan2          1165.156
       432   04 Jun 2027 21:55:44.431   04 Jun 2027 21:59:31.118           226.687                Anadyr2          7083.969
       433   04 Jun 2027 22:00:02.230   04 Jun 2027 22:01:40.813            98.583               Magadan1          3080.719
       434   04 Jun 2027 22:01:40.813   04 Jun 2027 22:02:52.981            72.168               Magadan2          2255.250
       435   04 Jun 2027 22:04:41.054   04 Jun 2027 22:05:00.846            19.792               Magadan1           618.500
       436   04 Jun 2027 22:08:02.276   04 Jun 2027 22:08:07.931             5.655               Magadan1           176.719
       437   04 Jun 2027 22:08:10.679   04 Jun 2027 22:08:23.596            12.917               Magadan1           403.656
       438   04 Jun 2027 22:09:01.751   04 Jun 2027 22:09:37.753            36.002               Magadan1          1125.062
       439   04 Jun 2027 22:50:14.431   04 Jun 2027 22:51:51.108            96.677            RioGallegos          3021.156
       440   04 Jun 2027 22:51:55.326   04 Jun 2027 22:52:18.355            23.029            RioGallegos           719.656
       441   04 Jun 2027 22:53:06.111   04 Jun 2027 22:53:35.905            29.794            RioGallegos           931.063
       442   04 Jun 2027 23:31:22.687   04 Jun 2027 23:34:35.567           192.880                Anadyr1          6027.500
       443   04 Jun 2027 23:34:45.649   04 Jun 2027 23:35:13.351            27.702                Norilsk           865.688
       444   04 Jun 2027 23:35:15.859   04 Jun 2027 23:35:18.462             2.603               Magadan1            81.344
       445   04 Jun 2027 23:35:21.656   04 Jun 2027 23:36:19.171            57.515               Magadan2          1797.344
       446   04 Jun 2027 23:37:47.033   04 Jun 2027 23:38:31.218            44.185                Irkutsk          1380.781
       447   04 Jun 2027 23:38:59.562   04 Jun 2027 23:39:05.447             5.885                Irkutsk           183.906
       448   04 Jun 2027 23:39:57.535   04 Jun 2027 23:40:54.126            56.591                Novosib          1768.469
       449   04 Jun 2027 23:51:35.134   04 Jun 2027 23:53:31.696           116.562                Sumatra          3642.563
       450   04 Jun 2027 23:57:45.322   04 Jun 2027 23:57:56.626            11.304                Sumatra           353.250
       451   05 Jun 2027 00:03:30.645   05 Jun 2027 00:03:52.890            22.245                Sumatra           695.156
       452   05 Jun 2027 00:31:03.326   05 Jun 2027 00:31:15.763            12.437            RioGallegos           388.656
       453   05 Jun 2027 00:35:34.577   05 Jun 2027 00:35:41.418             6.841            RioGallegos           213.781
       454   05 Jun 2027 00:35:58.586   05 Jun 2027 00:36:45.846            47.260            RioGallegos          1476.875
       455   05 Jun 2027 01:06:09.939   05 Jun 2027 01:06:40.844            30.905                Anadyr1           965.781
       456   05 Jun 2027 01:07:05.253   05 Jun 2027 01:07:45.591            40.338                Anadyr1          1260.562
       457   05 Jun 2027 01:08:24.500   05 Jun 2027 01:08:51.016            26.516                Anadyr2           828.625
       458   05 Jun 2027 01:09:30.668   05 Jun 2027 01:10:42.069            71.401                Norilsk          2231.281
       459   05 Jun 2027 01:11:09.156   05 Jun 2027 01:11:13.819             4.663                Norilsk           145.719
       460   05 Jun 2027 01:11:18.316   05 Jun 2027 01:11:41.224            22.908               Magadan2           715.875
       461   05 Jun 2027 01:13:23.203   05 Jun 2027 01:16:35.391           192.188                Irkutsk          6005.875
       462   05 Jun 2027 01:21:24.603   05 Jun 2027 01:21:46.817            22.214                  Delhi           694.188
       463   05 Jun 2027 01:26:26.090   05 Jun 2027 01:26:28.775             2.685                  Delhi            83.906
       464   05 Jun 2027 01:27:24.588   05 Jun 2027 01:27:30.059             5.471                  Delhi           170.969
       465   05 Jun 2027 01:28:11.340   05 Jun 2027 01:28:37.312            25.972                  Delhi           811.625
       466   05 Jun 2027 01:28:48.126   05 Jun 2027 01:29:11.709            23.583                Sumatra           736.969
       467   05 Jun 2027 01:29:53.612   05 Jun 2027 01:32:11.323           137.711                Sumatra          4303.469
       468   05 Jun 2027 02:39:44.519   05 Jun 2027 02:40:43.429            58.910                Anadyr1          1840.938
       469   05 Jun 2027 02:42:41.554   05 Jun 2027 02:42:41.910             0.356                Anadyr1            11.125
       470   05 Jun 2027 02:42:45.560   05 Jun 2027 02:43:01.146            15.586                Anadyr1           487.062
       471   05 Jun 2027 02:45:30.756   05 Jun 2027 02:46:24.922            54.166                Norilsk          1692.688
       472   05 Jun 2027 02:46:26.191   05 Jun 2027 02:46:34.525             8.334                Norilsk           260.437
       473   05 Jun 2027 02:47:22.193   05 Jun 2027 02:47:25.364             3.171                Norilsk            99.094
       474   05 Jun 2027 02:47:47.744   05 Jun 2027 02:48:37.474            49.730               Magadan1          1554.062
       475   05 Jun 2027 02:48:46.388   05 Jun 2027 02:49:21.710            35.322              Murmansk2          1103.813
       476   05 Jun 2027 02:49:56.765   05 Jun 2027 02:50:53.705            56.940                Irkutsk          1779.375
       477   05 Jun 2027 02:51:43.324   05 Jun 2027 02:52:28.723            45.399                Irkutsk          1418.719
       478   05 Jun 2027 02:56:53.100   05 Jun 2027 02:57:17.896            24.796                  Delhi           774.875
       479   05 Jun 2027 04:30:05.858   05 Jun 2027 04:30:42.372            36.514                Norilsk          1141.062
       480   05 Jun 2027 04:30:51.838   05 Jun 2027 04:32:22.607            90.769                Novosib          2836.531
       481   05 Jun 2027 04:32:27.062   05 Jun 2027 04:33:01.589            34.527              Murmansk1          1078.969
       482   05 Jun 2027 04:33:01.589   05 Jun 2027 04:34:55.490           113.901              Murmansk2          3559.406
