uniorb/output/strategy_1/Drop/Drop_KinoSat_112008.txt

KinoSat_112008
-------------------------
    Access    *     Start Time (UTCG)     *     Stop Time (UTCG)  *   Duration (s)        *       Station  *  Data (Mbytes)
         1   01 Jun 2027 04:06:36.305   01 Jun 2027 04:10:21.616           225.311                Irkutsk          7040.969
         2   01 Jun 2027 04:10:27.471   01 Jun 2027 04:10:57.540            30.069              Murmansk1           939.656
         3   01 Jun 2027 04:11:26.337   01 Jun 2027 04:16:17.544           291.207                  Delhi          9100.219
         4   01 Jun 2027 05:45:10.669   01 Jun 2027 05:45:24.412            13.743              Murmansk2           429.469
         5   01 Jun 2027 05:45:30.936   01 Jun 2027 05:46:29.027            58.091                Norilsk          1815.344
         6   01 Jun 2027 05:46:36.279   01 Jun 2027 05:49:10.108           153.829              Murmansk2          4807.156
         7   01 Jun 2027 05:49:10.108   01 Jun 2027 05:50:10.677            60.569              Murmansk1          1892.781
         8   01 Jun 2027 05:50:12.439   01 Jun 2027 05:51:05.785            53.346                 Moscow          1667.062
         9   01 Jun 2027 07:22:07.356   01 Jun 2027 07:23:13.804            66.448                 Moscow          2076.500
        10   01 Jun 2027 07:23:32.117   01 Jun 2027 07:27:04.433           212.316                 Moscow          6634.875
        11   01 Jun 2027 07:27:05.239   01 Jun 2027 07:27:15.770            10.531                 Moscow           329.094
        12   01 Jun 2027 07:41:53.259   01 Jun 2027 07:47:09.462           316.203               CapeTown          9881.344
        13   01 Jun 2027 08:45:15.477   01 Jun 2027 08:47:35.088           139.611                Anadyr2          4362.844
        14   01 Jun 2027 08:47:35.088   01 Jun 2027 08:47:41.186             6.098                Anadyr1           190.562
        15   01 Jun 2027 10:17:14.365   01 Jun 2027 10:17:53.055            38.690                Anadyr1          1209.062
        16   01 Jun 2027 10:18:30.356   01 Jun 2027 10:20:31.862           121.506                Anadyr1          3797.063
        17   01 Jun 2027 10:20:31.862   01 Jun 2027 10:26:29.093           357.231                Anadyr2         11163.469
        18   01 Jun 2027 11:52:34.621   01 Jun 2027 11:55:30.886           176.265               Magadan2          5508.281
        19   01 Jun 2027 11:55:35.712   01 Jun 2027 12:01:45.907           370.195               Magadan2         11568.594
        20   01 Jun 2027 14:18:21.117   01 Jun 2027 14:21:29.915           188.798            RioGallegos          5899.937
        21   01 Jun 2027 14:49:45.586   01 Jun 2027 14:58:11.148           505.562                Sumatra         15798.812
        22   01 Jun 2027 15:05:17.197   01 Jun 2027 15:12:27.680           430.483                Irkutsk         13452.594
        23   01 Jun 2027 16:35:08.703   01 Jun 2027 16:42:04.809           416.106                  Delhi         13003.312
        24   01 Jun 2027 16:43:37.096   01 Jun 2027 16:49:45.094           367.998                Novosib         11499.938
        25   01 Jun 2027 19:58:12.951   01 Jun 2027 20:02:38.112           265.161                 Moscow          8286.281
        26   01 Jun 2027 20:02:57.108   01 Jun 2027 20:04:21.641            84.533              Murmansk1          2641.656
        27   01 Jun 2027 21:07:24.041   01 Jun 2027 21:15:24.173           480.132               CapeTown         15004.125
        28   01 Jun 2027 21:41:50.190   01 Jun 2027 21:42:25.992            35.802              Murmansk2          1118.812
        29   02 Jun 2027 02:56:01.386   02 Jun 2027 03:03:40.646           459.260                Sumatra         14351.875
        30   02 Jun 2027 04:20:33.088   02 Jun 2027 04:21:37.523            64.435                Irkutsk          2013.594
        31   02 Jun 2027 04:22:15.195   02 Jun 2027 04:24:19.275           124.080                Irkutsk          3877.500
        32   02 Jun 2027 04:25:26.035   02 Jun 2027 04:25:31.938             5.903                Irkutsk           184.469
        33   02 Jun 2027 04:25:58.431   02 Jun 2027 04:26:24.487            26.056                Novosib           814.250
        34   02 Jun 2027 04:27:16.557   02 Jun 2027 04:28:00.862            44.305                  Delhi          1384.531
        35   02 Jun 2027 04:28:19.748   02 Jun 2027 04:28:46.837            27.089                  Delhi           846.531
        36   02 Jun 2027 05:57:23.563   02 Jun 2027 05:58:09.849            46.286                Norilsk          1446.437
        37   02 Jun 2027 05:58:20.558   02 Jun 2027 05:58:52.566            32.008                Norilsk          1000.250
        38   02 Jun 2027 05:58:56.424   02 Jun 2027 06:00:42.813           106.389                Novosib          3324.656
        39   02 Jun 2027 06:01:02.274   02 Jun 2027 06:01:34.487            32.213                Novosib          1006.656
        40   02 Jun 2027 06:01:54.212   02 Jun 2027 06:02:26.964            32.752              Murmansk2          1023.500
        41   02 Jun 2027 06:03:03.288   02 Jun 2027 06:06:08.474           185.186                 Moscow          5787.063
        42   02 Jun 2027 06:17:52.092   02 Jun 2027 06:27:51.652           599.560               CapeTown         18736.250
        43   02 Jun 2027 06:28:19.628   02 Jun 2027 06:29:45.671            86.043               CapeTown          2688.844
        44   02 Jun 2027 07:33:07.847   02 Jun 2027 07:34:19.936            72.089                Norilsk          2252.781
        45   02 Jun 2027 07:34:25.912   02 Jun 2027 07:34:56.801            30.889              Murmansk1           965.281
        46   02 Jun 2027 07:34:56.801   02 Jun 2027 07:35:20.873            24.072              Murmansk2           752.250
        47   02 Jun 2027 07:35:21.698   02 Jun 2027 07:35:36.000            14.302                 Moscow           446.938
        48   02 Jun 2027 07:35:57.408   02 Jun 2027 07:37:14.675            77.267                 Moscow          2414.594
        49   02 Jun 2027 07:54:19.390   02 Jun 2027 08:00:04.471           345.081               CapeTown         10783.781
        50   02 Jun 2027 08:57:01.167   02 Jun 2027 08:59:34.092           152.925               Magadan2          4778.906
        51   02 Jun 2027 08:59:48.334   02 Jun 2027 09:00:23.403            35.069               Magadan1          1095.906
        52   02 Jun 2027 09:02:23.199   02 Jun 2027 09:02:39.947            16.748               Magadan2           523.375
        53   02 Jun 2027 10:29:53.299   02 Jun 2027 10:35:40.439           347.140                Anadyr1         10848.125
        54   02 Jun 2027 10:36:27.386   02 Jun 2027 10:38:33.573           126.187               Magadan1          3943.344
        55   02 Jun 2027 12:05:18.095   02 Jun 2027 12:13:32.846           494.751               Magadan2         15460.969
        56   02 Jun 2027 14:29:39.836   02 Jun 2027 14:35:15.300           335.464            RioGallegos         10483.250
        57   02 Jun 2027 15:02:37.098   02 Jun 2027 15:09:02.279           385.181                Sumatra         12036.906
        58   02 Jun 2027 15:18:30.727   02 Jun 2027 15:23:46.095           315.368                Irkutsk          9855.250
        59   02 Jun 2027 16:48:57.559   02 Jun 2027 16:52:31.007           213.448                  Delhi          6670.250
        60   02 Jun 2027 16:57:05.075   02 Jun 2027 17:00:52.871           227.796                Novosib          7118.625
        61   02 Jun 2027 20:12:03.288   02 Jun 2027 20:12:36.746            33.458              Murmansk2          1045.562
        62   02 Jun 2027 20:14:54.095   02 Jun 2027 20:17:03.117           129.022              Murmansk1          4031.938
        63   02 Jun 2027 20:18:23.687   02 Jun 2027 20:19:42.411            78.724              Murmansk2          2460.125
        64   02 Jun 2027 21:20:08.206   02 Jun 2027 21:26:18.356           370.150               CapeTown         11567.188
        65   03 Jun 2027 03:09:26.482   03 Jun 2027 03:14:09.950           283.468                Sumatra          8858.375
        66   03 Jun 2027 04:30:20.761   03 Jun 2027 04:30:51.977            31.216                Irkutsk           975.500
        67   03 Jun 2027 04:31:52.942   03 Jun 2027 04:34:13.582           140.640                Norilsk          4395.000
        68   03 Jun 2027 04:34:24.676   03 Jun 2027 04:35:17.158            52.482                 Moscow          1640.063
        69   03 Jun 2027 04:35:18.653   03 Jun 2027 04:37:08.562           109.909                Novosib          3434.656
        70   03 Jun 2027 04:37:21.432   03 Jun 2027 04:41:11.360           229.928                  Delhi          7185.250
        71   03 Jun 2027 06:09:28.069   03 Jun 2027 06:09:33.713             5.644                 Moscow           176.375
        72   03 Jun 2027 06:09:35.896   03 Jun 2027 06:10:20.378            44.482                 Moscow          1390.063
        73   03 Jun 2027 06:10:26.203   03 Jun 2027 06:10:54.536            28.333              Murmansk2           885.406
        74   03 Jun 2027 06:10:54.536   03 Jun 2027 06:11:26.409            31.873              Murmansk1           996.031
        75   03 Jun 2027 06:11:27.046   03 Jun 2027 06:12:21.218            54.172                 Moscow          1692.875
        76   03 Jun 2027 06:12:27.658   03 Jun 2027 06:13:04.047            36.389              Murmansk1          1137.156
        77   03 Jun 2027 06:13:20.477   03 Jun 2027 06:16:33.062           192.585                 Moscow          6018.281
        78   03 Jun 2027 06:29:39.424   03 Jun 2027 06:32:16.956           157.532               CapeTown          4922.875
        79   03 Jun 2027 06:37:31.215   03 Jun 2027 06:37:32.023             0.808               CapeTown            25.250
        80   03 Jun 2027 07:34:14.776   03 Jun 2027 07:34:56.542            41.766               Magadan2          1305.188
        81   03 Jun 2027 07:36:22.866   03 Jun 2027 07:38:29.325           126.459                Anadyr1          3951.844
        82   03 Jun 2027 07:44:45.676   03 Jun 2027 07:45:27.610            41.934              Murmansk1          1310.438
        83   03 Jun 2027 07:45:27.610   03 Jun 2027 07:46:02.189            34.579              Murmansk2          1080.594
        84   03 Jun 2027 07:46:09.388   03 Jun 2027 07:47:39.412            90.024                 Moscow          2813.250
        85   03 Jun 2027 07:49:38.414   03 Jun 2027 07:50:15.218            36.804                 Moscow          1150.125
        86   03 Jun 2027 07:51:12.960   03 Jun 2027 07:52:15.626            62.666                 Moscow          1958.313
        87   03 Jun 2027 07:52:22.380   03 Jun 2027 07:52:34.034            11.654                 Moscow           364.187
        88   03 Jun 2027 07:52:55.304   03 Jun 2027 07:53:25.713            30.409                 Moscow           950.281
        89   03 Jun 2027 08:06:54.134   03 Jun 2027 08:13:25.845           391.711               CapeTown         12240.969
        90   03 Jun 2027 09:07:42.074   03 Jun 2027 09:10:21.242           159.168                Anadyr1          4974.000
        91   03 Jun 2027 09:11:36.533   03 Jun 2027 09:12:54.099            77.566               Magadan2          2423.937
        92   03 Jun 2027 09:12:57.382   03 Jun 2027 09:13:08.696            11.314                Anadyr2           353.563
        93   03 Jun 2027 09:13:08.696   03 Jun 2027 09:14:53.865           105.169                Anadyr1          3286.531
        94   03 Jun 2027 09:20:08.746   03 Jun 2027 09:20:38.855            30.109                 Moscow           940.906
        95   03 Jun 2027 10:42:17.276   03 Jun 2027 10:42:58.022            40.746               Magadan2          1273.313
        96   03 Jun 2027 10:42:58.022   03 Jun 2027 10:43:11.380            13.358               Magadan1           417.437
        97   03 Jun 2027 10:43:13.250   03 Jun 2027 10:50:12.914           419.664                Anadyr1         13114.500
        98   03 Jun 2027 12:18:09.752   03 Jun 2027 12:25:14.414           424.662               Magadan2         13270.688
        99   03 Jun 2027 14:40:58.317   03 Jun 2027 14:47:56.922           418.605            RioGallegos         13081.406
       100   03 Jun 2027 15:17:05.664   03 Jun 2027 15:18:27.534            81.870                Sumatra          2558.437
       101   03 Jun 2027 15:32:51.019   03 Jun 2027 15:34:01.046            70.027                Irkutsk          2188.344
       102   03 Jun 2027 17:13:11.406   03 Jun 2027 17:14:32.404            80.998                Norilsk          2531.188
       103   03 Jun 2027 18:44:57.116   03 Jun 2027 18:45:29.281            32.165              Murmansk2          1005.156
       104   03 Jun 2027 18:46:25.203   03 Jun 2027 18:46:58.674            33.471                 Moscow          1045.969
       105   03 Jun 2027 18:50:03.564   03 Jun 2027 18:51:19.837            76.273                 Moscow          2383.531
       106   03 Jun 2027 19:54:01.121   03 Jun 2027 19:55:51.775           110.654               CapeTown          3457.938
       107   03 Jun 2027 19:57:05.982   03 Jun 2027 19:57:58.317            52.335               CapeTown          1635.469
       108   03 Jun 2027 20:24:08.808   03 Jun 2027 20:32:40.049           511.241              Murmansk2         15976.281
       109   03 Jun 2027 21:33:29.169   03 Jun 2027 21:36:32.592           183.423               CapeTown          5731.969
       110   03 Jun 2027 22:12:52.364   03 Jun 2027 22:13:03.069            10.705               Magadan1           334.531
       111   03 Jun 2027 22:14:07.354   03 Jun 2027 22:14:42.931            35.577               Magadan2          1111.781
       112   03 Jun 2027 22:15:19.420   03 Jun 2027 22:15:26.782             7.362               Magadan2           230.062
       113   03 Jun 2027 22:16:04.204   03 Jun 2027 22:16:31.718            27.514               Magadan1           859.812
       114   03 Jun 2027 23:46:23.899   03 Jun 2027 23:50:13.983           230.084                Anadyr2          7190.125
       115   03 Jun 2027 23:50:15.944   03 Jun 2027 23:53:10.991           175.047               Magadan1          5470.219
       116   03 Jun 2027 23:53:42.259   03 Jun 2027 23:53:50.920             8.661                Norilsk           270.656
       117   03 Jun 2027 23:54:02.971   03 Jun 2027 23:54:23.076            20.105                Irkutsk           628.281
       118   03 Jun 2027 23:55:16.593   03 Jun 2027 23:56:21.842            65.249                Irkutsk          2039.031
       119   03 Jun 2027 23:56:49.225   03 Jun 2027 23:56:59.754            10.529                Irkutsk           329.031
       120   03 Jun 2027 23:59:05.909   04 Jun 2027 00:00:21.297            75.388                Irkutsk          2355.875
       121   04 Jun 2027 00:10:19.049   04 Jun 2027 00:11:26.236            67.187                Sumatra          2099.594
       122   04 Jun 2027 00:12:58.968   04 Jun 2027 00:14:11.363            72.395                Sumatra          2262.344
       123   04 Jun 2027 00:40:29.011   04 Jun 2027 00:41:07.179            38.168            RioGallegos          1192.750
       124   04 Jun 2027 00:44:12.092   04 Jun 2027 00:44:15.421             3.329            RioGallegos           104.031
       125   04 Jun 2027 00:45:38.799   04 Jun 2027 00:46:03.261            24.462            RioGallegos           764.438
       126   04 Jun 2027 00:52:08.123   04 Jun 2027 00:52:28.609            20.486            RioGallegos           640.188
       127   04 Jun 2027 01:21:49.973   04 Jun 2027 01:22:19.791            29.818                Anadyr1           931.812
       128   04 Jun 2027 01:23:19.573   04 Jun 2027 01:23:49.602            30.029                Anadyr2           938.406
       129   04 Jun 2027 01:24:13.558   04 Jun 2027 01:26:16.771           123.213                Norilsk          3850.406
       130   04 Jun 2027 01:26:36.802   04 Jun 2027 01:28:03.001            86.199               Magadan1          2693.719
       131   04 Jun 2027 01:28:13.729   04 Jun 2027 01:29:36.444            82.715                Irkutsk          2584.844
       132   04 Jun 2027 01:29:41.078   04 Jun 2027 01:30:03.449            22.371                Irkutsk           699.094
       133   04 Jun 2027 01:33:37.389   04 Jun 2027 01:34:58.583            81.194                Novosib          2537.312
       134   04 Jun 2027 01:42:16.679   04 Jun 2027 01:44:16.772           120.093                Sumatra          3752.906
       135   04 Jun 2027 02:19:15.723   04 Jun 2027 02:19:55.768            40.045            RioGallegos          1251.406
       136   04 Jun 2027 02:22:32.226   04 Jun 2027 02:22:38.951             6.725            RioGallegos           210.156
       137   04 Jun 2027 02:25:38.898   04 Jun 2027 02:27:39.558           120.660            RioGallegos          3770.625
       138   04 Jun 2027 03:04:20.360   04 Jun 2027 03:06:24.321           123.961               Magadan1          3873.781
       139   04 Jun 2027 03:06:58.849   04 Jun 2027 03:07:10.629            11.780               Magadan1           368.125
       140   04 Jun 2027 03:07:19.963   04 Jun 2027 03:07:59.713            39.750                Irkutsk          1242.188
       141   04 Jun 2027 03:08:13.550   04 Jun 2027 03:11:18.958           185.408                Irkutsk          5794.000
       142   04 Jun 2027 03:11:30.526   04 Jun 2027 03:12:32.715            62.189                  Delhi          1943.406
       143   04 Jun 2027 03:52:58.604   04 Jun 2027 03:53:07.604             9.000            RioGallegos           281.250
       144   04 Jun 2027 03:55:19.871   04 Jun 2027 03:55:58.083            38.212            RioGallegos          1194.125
       145   04 Jun 2027 03:56:11.530   04 Jun 2027 03:57:29.862            78.332            RioGallegos          2447.875
       146   04 Jun 2027 04:42:34.620   04 Jun 2027 04:43:10.374            35.754                Novosib          1117.313
       147   04 Jun 2027 04:43:20.685   04 Jun 2027 04:43:40.134            19.449              Murmansk2           607.781
       148   04 Jun 2027 04:43:52.724   04 Jun 2027 04:46:16.570           143.846                Norilsk          4495.187
       149   04 Jun 2027 04:46:32.884   04 Jun 2027 04:49:43.478           190.594                Novosib          5956.062
       150   04 Jun 2027 04:50:29.841   04 Jun 2027 04:54:17.055           227.214                  Delhi          7100.437
       151   04 Jun 2027 06:21:07.833   04 Jun 2027 06:22:00.270            52.437                Novosib          1638.656
       152   04 Jun 2027 06:22:35.389   04 Jun 2027 06:22:39.855             4.466              Murmansk1           139.562
       153   04 Jun 2027 06:22:43.850   04 Jun 2027 06:23:42.985            59.135                Novosib          1847.969
       154   04 Jun 2027 06:23:51.370   04 Jun 2027 06:26:53.588           182.218              Murmansk1          5694.313
       155   04 Jun 2027 06:41:31.947   04 Jun 2027 06:42:38.424            66.477               CapeTown          2077.406
       156   04 Jun 2027 06:44:39.473   04 Jun 2027 06:45:26.885            47.412               CapeTown          1481.625
       157   04 Jun 2027 07:45:26.699   04 Jun 2027 07:45:27.733             1.034                Anadyr1            32.312
       158   04 Jun 2027 07:45:55.412   04 Jun 2027 07:47:06.629            71.217               Magadan2          2225.531
       159   04 Jun 2027 07:47:11.218   04 Jun 2027 07:47:47.600            36.382                Anadyr1          1136.938
       160   04 Jun 2027 07:48:14.208   04 Jun 2027 07:49:18.270            64.062                Anadyr1          2001.937
       161   04 Jun 2027 07:50:46.653   04 Jun 2027 07:50:48.365             1.712                Anadyr2            53.500
       162   04 Jun 2027 07:56:46.195   04 Jun 2027 07:57:24.396            38.201              Murmansk2          1193.781
       163   04 Jun 2027 08:19:40.368   04 Jun 2027 08:28:24.216           523.848               CapeTown         16370.250
       164   04 Jun 2027 09:18:53.314   04 Jun 2027 09:21:13.853           140.539                Anadyr2          4391.844
       165   04 Jun 2027 09:21:48.727   04 Jun 2027 09:22:23.443            34.716               Magadan1          1084.875
       166   04 Jun 2027 09:22:43.246   04 Jun 2027 09:23:27.084            43.838               Magadan1          1369.938
       167   04 Jun 2027 09:24:26.032   04 Jun 2027 09:25:26.278            60.246                Norilsk          1882.688
       168   04 Jun 2027 09:26:07.382   04 Jun 2027 09:26:58.835            51.453                Anadyr2          1607.906
       169   04 Jun 2027 09:33:04.385   04 Jun 2027 09:33:54.996            50.611                 Moscow          1581.594
       170   04 Jun 2027 10:50:33.624   04 Jun 2027 10:50:45.908            12.284               Magadan2           383.875
       171   04 Jun 2027 10:53:27.735   04 Jun 2027 10:53:36.050             8.315                Irkutsk           259.844
       172   04 Jun 2027 10:54:04.291   04 Jun 2027 10:56:42.535           158.244               Magadan2          4945.125
       173   04 Jun 2027 10:56:42.535   04 Jun 2027 10:56:46.899             4.364               Magadan1           136.375
       174   04 Jun 2027 10:56:46.899   04 Jun 2027 11:00:23.668           216.769               Magadan2          6774.031
       175   04 Jun 2027 11:00:35.532   04 Jun 2027 11:02:31.269           115.737               Magadan2          3616.781
       176   04 Jun 2027 12:25:42.562   04 Jun 2027 12:27:01.530            78.968                Irkutsk          2467.750
       177   04 Jun 2027 12:30:57.650   04 Jun 2027 12:31:33.135            35.485                Norilsk          1108.906
       178   04 Jun 2027 12:32:23.806   04 Jun 2027 12:36:46.536           262.730               Magadan2          8210.312
       179   04 Jun 2027 13:51:06.091   04 Jun 2027 13:52:22.445            76.354                Sumatra          2386.062
       180   04 Jun 2027 14:02:25.446   04 Jun 2027 14:03:00.454            35.008                Irkutsk          1094.000
       181   04 Jun 2027 14:04:19.771   04 Jun 2027 14:06:38.303           138.532                Irkutsk          4329.125
       182   04 Jun 2027 14:54:16.790   04 Jun 2027 14:59:10.170           293.380            RioGallegos          9168.125
       183   04 Jun 2027 15:40:20.332   04 Jun 2027 15:41:15.411            55.079                Novosib          1721.219
       184   04 Jun 2027 15:44:20.974   04 Jun 2027 15:44:54.810            33.836                Norilsk          1057.375
       185   04 Jun 2027 15:45:08.969   04 Jun 2027 15:45:38.671            29.702                Novosib           928.188
       186   04 Jun 2027 15:47:25.765   04 Jun 2027 15:48:31.684            65.919                Norilsk          2059.969
       187   04 Jun 2027 17:16:33.673   04 Jun 2027 17:17:57.540            83.867                 Moscow          2620.844
       188   04 Jun 2027 17:18:46.865   04 Jun 2027 17:19:43.643            56.778                 Moscow          1774.312
       189   04 Jun 2027 17:21:34.989   04 Jun 2027 17:21:52.183            17.194              Murmansk1           537.312
       190   04 Jun 2027 17:24:27.552   04 Jun 2027 17:28:08.329           220.777                Norilsk          6899.281
       191   04 Jun 2027 17:28:40.820   04 Jun 2027 17:29:41.319            60.499                Norilsk          1890.594
       192   04 Jun 2027 18:54:13.695   04 Jun 2027 18:55:38.088            84.393                 Moscow          2637.281
       193   04 Jun 2027 18:57:15.343   04 Jun 2027 18:58:42.119            86.776              Murmansk1          2711.750
       194   04 Jun 2027 18:59:28.124   04 Jun 2027 18:59:45.019            16.895                 Moscow           527.969
       195   04 Jun 2027 19:01:12.497   04 Jun 2027 19:01:36.813            24.316              Murmansk1           759.875
       196   04 Jun 2027 19:01:50.875   04 Jun 2027 19:02:46.956            56.081              Murmansk1          1752.531
       197   04 Jun 2027 20:06:08.258   04 Jun 2027 20:06:56.212            47.954               CapeTown          1498.562
       198   04 Jun 2027 20:08:57.254   04 Jun 2027 20:10:32.444            95.190               CapeTown          2974.687
       199   04 Jun 2027 20:13:34.737   04 Jun 2027 20:14:08.545            33.808               CapeTown          1056.500
       200   04 Jun 2027 20:15:18.005   04 Jun 2027 20:15:23.592             5.587               CapeTown           174.594
       201   04 Jun 2027 20:36:48.116   04 Jun 2027 20:38:47.204           119.088              Murmansk2          3721.500
       202   04 Jun 2027 20:39:12.935   04 Jun 2027 20:42:41.004           208.069              Murmansk1          6502.156
       203   04 Jun 2027 20:42:55.125   04 Jun 2027 20:44:36.750           101.625              Murmansk2          3175.781
       204   04 Jun 2027 22:22:33.096   04 Jun 2027 22:25:49.046           195.950                Anadyr1          6123.438
       205   04 Jun 2027 22:26:19.239   04 Jun 2027 22:26:37.272            18.033               Magadan2           563.531
       206   04 Jun 2027 22:26:56.037   04 Jun 2027 22:28:06.032            69.995               Magadan2          2187.344
       207   04 Jun 2027 22:28:15.156   04 Jun 2027 22:28:34.696            19.540               Magadan1           610.625
       208   04 Jun 2027 22:32:55.153   04 Jun 2027 22:33:23.045            27.892               Magadan2           871.625
       209   04 Jun 2027 22:34:11.365   04 Jun 2027 22:34:25.623            14.258               Magadan1           445.562
       210   04 Jun 2027 23:19:08.671   04 Jun 2027 23:21:26.789           138.118            RioGallegos          4316.187
       211   04 Jun 2027 23:58:23.992   04 Jun 2027 23:59:56.186            92.194                Anadyr2          2881.062
       212   04 Jun 2027 23:59:57.131   05 Jun 2027 00:00:37.526            40.395                Anadyr1          1262.344
       213   05 Jun 2027 00:00:46.368   05 Jun 2027 00:02:54.529           128.161               Magadan2          4005.031
       214   05 Jun 2027 00:02:58.969   05 Jun 2027 00:03:49.544            50.575               Magadan1          1580.469
       215   05 Jun 2027 00:05:28.368   05 Jun 2027 00:05:57.655            29.287               Magadan2           915.219
       216   05 Jun 2027 00:07:26.017   05 Jun 2027 00:07:54.274            28.257                Irkutsk           883.031
       217   05 Jun 2027 00:09:06.393   05 Jun 2027 00:09:30.144            23.751                Irkutsk           742.219
       218   05 Jun 2027 00:10:57.364   05 Jun 2027 00:13:13.471           136.107                Irkutsk          4253.344
       219   05 Jun 2027 00:20:52.276   05 Jun 2027 00:21:11.044            18.768                Sumatra           586.500
       220   05 Jun 2027 00:22:18.418   05 Jun 2027 00:22:54.620            36.202                Sumatra          1131.313
       221   05 Jun 2027 00:28:35.035   05 Jun 2027 00:28:40.347             5.312                Sumatra           166.000
       222   05 Jun 2027 00:52:24.729   05 Jun 2027 00:52:49.168            24.439            RioGallegos           763.719
       223   05 Jun 2027 00:56:24.540   05 Jun 2027 00:57:14.154            49.614            RioGallegos          1550.437
       224   05 Jun 2027 01:33:44.178   05 Jun 2027 01:34:20.853            36.675                Anadyr2          1146.094
       225   05 Jun 2027 01:34:34.090   05 Jun 2027 01:35:14.480            40.390                Anadyr2          1262.187
       226   05 Jun 2027 01:35:49.752   05 Jun 2027 01:35:58.814             9.062                Anadyr1           283.188
       227   05 Jun 2027 01:36:15.525   05 Jun 2027 01:38:01.537           106.012                Norilsk          3312.875
       228   05 Jun 2027 01:38:10.379   05 Jun 2027 01:38:36.537            26.158               Magadan2           817.437
       229   05 Jun 2027 01:40:00.260   05 Jun 2027 01:40:13.108            12.848               Magadan2           401.500
       230   05 Jun 2027 01:40:56.815   05 Jun 2027 01:43:20.622           143.807                Novosib          4493.969
       231   05 Jun 2027 01:43:56.507   05 Jun 2027 01:44:50.803            54.296                Novosib          1696.750
       232   05 Jun 2027 01:51:40.847   05 Jun 2027 01:52:20.712            39.865                  Delhi          1245.781
       233   05 Jun 2027 01:54:01.888   05 Jun 2027 01:54:50.545            48.657                Sumatra          1520.531
       234   05 Jun 2027 01:57:04.157   05 Jun 2027 01:58:34.336            90.179                Sumatra          2818.094
       235   05 Jun 2027 02:02:41.928   05 Jun 2027 02:03:44.156            62.228                Sumatra          1944.625
       236   05 Jun 2027 02:39:22.102   05 Jun 2027 02:39:41.760            19.658            RioGallegos           614.312
       237   05 Jun 2027 03:16:41.353   05 Jun 2027 03:18:24.200           102.847               Magadan1          3213.969
       238   05 Jun 2027 03:19:22.270   05 Jun 2027 03:20:12.241            49.971                Irkutsk          1561.594
       239   05 Jun 2027 03:20:13.896   05 Jun 2027 03:20:50.765            36.869                Novosib          1152.156
       240   05 Jun 2027 03:21:05.937   05 Jun 2027 03:23:52.247           166.310                Norilsk          5197.187
       241   05 Jun 2027 03:23:53.714   05 Jun 2027 03:23:58.416             4.702                Novosib           146.937
       242   05 Jun 2027 03:24:16.076   05 Jun 2027 03:24:49.697            33.621                Novosib          1050.656
       243   05 Jun 2027 03:25:17.645   05 Jun 2027 03:25:56.699            39.054                Irkutsk          1220.438
       244   05 Jun 2027 03:26:34.561   05 Jun 2027 03:27:05.529            30.968                  Delhi           967.750
       245   05 Jun 2027 03:29:01.182   05 Jun 2027 03:30:25.728            84.546                  Delhi          2642.063
       246   05 Jun 2027 04:06:54.321   05 Jun 2027 04:10:14.119           199.798            RioGallegos          6243.688
       247   05 Jun 2027 04:55:41.194   05 Jun 2027 04:55:49.732             8.538                 Moscow           266.812
       248   05 Jun 2027 04:55:50.917   05 Jun 2027 04:56:58.329            67.412                Novosib          2106.625
       249   05 Jun 2027 04:57:04.887   05 Jun 2027 04:59:21.761           136.874                Irkutsk          4277.313
       250   05 Jun 2027 04:59:48.916   05 Jun 2027 05:00:16.560            27.644                Novosib           863.875
       251   05 Jun 2027 05:00:55.968   05 Jun 2027 05:09:03.255           487.287                  Delhi         15227.719
       252   05 Jun 2027 06:34:11.249   05 Jun 2027 06:34:35.742            24.493              Murmansk1           765.406
       253   05 Jun 2027 06:34:38.359   05 Jun 2027 06:34:40.185             1.826                 Moscow            57.062
       254   05 Jun 2027 06:34:48.983   05 Jun 2027 06:35:22.543            33.560              Murmansk2          1048.750
       255   05 Jun 2027 06:35:26.443   05 Jun 2027 06:35:46.767            20.324                 Moscow           635.125
       256   05 Jun 2027 06:35:48.442   05 Jun 2027 06:36:38.056            49.614              Murmansk2          1550.437
       257   05 Jun 2027 06:36:38.574   05 Jun 2027 06:37:32.760            54.186              Murmansk2          1693.312
       258   05 Jun 2027 06:37:33.408   05 Jun 2027 06:37:48.281            14.873                 Moscow           464.781
       259   05 Jun 2027 06:39:11.670   05 Jun 2027 06:39:32.876            21.206                 Moscow           662.687
       260   05 Jun 2027 06:53:29.535   05 Jun 2027 06:56:43.062           193.527               CapeTown          6047.719
       261   05 Jun 2027 07:57:29.317   05 Jun 2027 07:57:45.683            16.366                Anadyr2           511.438
       262   05 Jun 2027 07:57:51.151   05 Jun 2027 07:58:39.022            47.871                Anadyr1          1495.969
       263   05 Jun 2027 07:59:32.706   05 Jun 2027 08:00:30.186            57.480               Magadan1          1796.250
       264   05 Jun 2027 08:11:40.681   05 Jun 2027 08:12:36.861            56.180                 Moscow          1755.625
       265   05 Jun 2027 08:32:44.494   05 Jun 2027 08:39:36.623           412.129               CapeTown         12879.031
       266   05 Jun 2027 09:32:37.674   05 Jun 2027 09:33:19.510            41.836                Anadyr1          1307.375
       267   05 Jun 2027 09:33:40.464   05 Jun 2027 09:36:48.140           187.676                Anadyr2          5864.875
       268   05 Jun 2027 09:36:48.140   05 Jun 2027 09:37:54.353            66.213                Anadyr1          2069.156
       269   05 Jun 2027 11:02:54.019   05 Jun 2027 11:03:09.915            15.896               Magadan1           496.750
       270   05 Jun 2027 11:05:46.071   05 Jun 2027 11:07:54.633           128.562               Magadan2          4017.563
       271   05 Jun 2027 11:08:29.289   05 Jun 2027 11:13:38.054           308.765                Anadyr2          9648.906
       272   05 Jun 2027 11:14:12.714   05 Jun 2027 11:14:39.803            27.089                Norilsk           846.531
       273   05 Jun 2027 11:15:05.973   05 Jun 2027 11:15:08.944             2.971              Murmansk1            92.844
       274   05 Jun 2027 11:15:55.223   05 Jun 2027 11:16:11.328            16.105              Murmansk1           503.281
       275   05 Jun 2027 11:49:28.883   05 Jun 2027 11:50:37.868            68.985            RioGallegos          2155.781
       276   05 Jun 2027 12:26:22.618   05 Jun 2027 12:28:17.948           115.330                Sumatra          3604.063
       277   05 Jun 2027 12:37:38.449   05 Jun 2027 12:39:50.752           132.303                Irkutsk          4134.469
       278   05 Jun 2027 12:43:44.522   05 Jun 2027 12:44:39.888            55.366                Norilsk          1730.187
       279   05 Jun 2027 12:44:44.454   05 Jun 2027 12:47:54.920           190.466               Magadan1          5952.063
       280   05 Jun 2027 14:00:06.534   05 Jun 2027 14:03:00.767           174.233                Sumatra          5444.781
       281   05 Jun 2027 14:14:50.895   05 Jun 2027 14:16:00.552            69.657                Irkutsk          2176.781
       282   05 Jun 2027 14:19:49.402   05 Jun 2027 14:20:14.258            24.856                Irkutsk           776.750
       283   05 Jun 2027 14:20:49.399   05 Jun 2027 14:22:37.152           107.753                Irkutsk          3367.281
       284   05 Jun 2027 14:24:30.461   05 Jun 2027 14:24:49.008            18.547                Irkutsk           579.594
       285   05 Jun 2027 15:44:41.771   05 Jun 2027 15:45:57.861            76.090                  Delhi          2377.812
       286   05 Jun 2027 15:47:03.779   05 Jun 2027 15:49:56.447           172.668                  Delhi          5395.875
       287   05 Jun 2027 15:52:49.942   05 Jun 2027 15:58:08.577           318.635                Novosib          9957.344
       288   05 Jun 2027 17:31:54.178   05 Jun 2027 17:32:10.682            16.504                 Moscow           515.750
       289   05 Jun 2027 17:33:02.825   05 Jun 2027 17:33:37.116            34.291              Murmansk1          1071.594
       290   05 Jun 2027 17:34:13.854   05 Jun 2027 17:35:15.568            61.714              Murmansk2          1928.562
       291   05 Jun 2027 17:37:16.620   05 Jun 2027 17:39:48.189           151.569                Norilsk          4736.531
       292   05 Jun 2027 17:40:39.501   05 Jun 2027 17:42:53.110           133.609                Norilsk          4175.281
       293   05 Jun 2027 19:06:47.599   05 Jun 2027 19:09:11.884           144.285                 Moscow          4508.906
       294   05 Jun 2027 19:11:22.981   05 Jun 2027 19:13:10.441           107.460              Murmansk1          3358.125
       295   05 Jun 2027 20:18:18.474   05 Jun 2027 20:19:23.030            64.556               CapeTown          2017.375
       296   05 Jun 2027 20:20:43.277   05 Jun 2027 20:22:53.218           129.941               CapeTown          4060.656
       297   05 Jun 2027 20:49:31.461   05 Jun 2027 20:56:31.530           420.069              Murmansk1         13127.156
       298   05 Jun 2027 22:34:34.912   05 Jun 2027 22:35:35.163            60.251                Anadyr1          1882.844
       299   05 Jun 2027 22:36:04.374   05 Jun 2027 22:37:45.028           100.654                Anadyr1          3145.437
       300   05 Jun 2027 22:37:57.195   05 Jun 2027 22:38:20.209            23.014               Magadan2           719.187
       301   05 Jun 2027 22:38:30.987   05 Jun 2027 22:38:40.017             9.030               Magadan2           282.187
       302   05 Jun 2027 22:38:43.718   05 Jun 2027 22:39:06.032            22.314               Magadan2           697.312
       303   05 Jun 2027 22:39:37.192   05 Jun 2027 22:39:54.575            17.383               Magadan1           543.219
       304   05 Jun 2027 22:40:08.170   05 Jun 2027 22:40:17.874             9.704               Magadan1           303.250
       305   05 Jun 2027 22:40:37.148   05 Jun 2027 22:40:44.870             7.722               Magadan1           241.312
       306   05 Jun 2027 22:41:09.803   05 Jun 2027 22:41:48.090            38.287               Magadan1          1196.469
       307   05 Jun 2027 22:46:02.241   05 Jun 2027 22:46:26.589            24.348               Magadan2           760.875
       308   05 Jun 2027 23:30:18.611   05 Jun 2027 23:32:58.121           159.510            RioGallegos          4984.687
       309   05 Jun 2027 23:32:58.390   05 Jun 2027 23:33:09.246            10.856            RioGallegos           339.250
       310   05 Jun 2027 23:35:22.191   05 Jun 2027 23:35:49.886            27.695            RioGallegos           865.469
       311   06 Jun 2027 00:10:23.624   06 Jun 2027 00:12:38.348           134.724                Anadyr1          4210.125
       312   06 Jun 2027 00:12:49.219   06 Jun 2027 00:14:32.201           102.982               Magadan2          3218.187
       313   06 Jun 2027 00:15:38.328   06 Jun 2027 00:16:14.240            35.912               Magadan2          1122.250
       314   06 Jun 2027 00:16:56.282   06 Jun 2027 00:17:21.751            25.469               Magadan2           795.906
       315   06 Jun 2027 00:17:26.311   06 Jun 2027 00:17:52.274            25.963               Magadan2           811.344
       316   06 Jun 2027 00:19:25.782   06 Jun 2027 00:19:57.995            32.213                Irkutsk          1006.656
       317   06 Jun 2027 00:22:29.362   06 Jun 2027 00:22:53.960            24.598                Irkutsk           768.688
       318   06 Jun 2027 00:23:31.397   06 Jun 2027 00:24:50.790            79.393                Irkutsk          2481.031
       319   06 Jun 2027 00:31:58.105   06 Jun 2027 00:33:45.071           106.966                Sumatra          3342.688
       320   06 Jun 2027 01:06:19.744   06 Jun 2027 01:06:48.985            29.241            RioGallegos           913.781
       321   06 Jun 2027 01:12:03.905   06 Jun 2027 01:12:15.222            11.317            RioGallegos           353.656
       322   06 Jun 2027 01:12:37.821   06 Jun 2027 01:12:50.364            12.543            RioGallegos           391.969
       323   06 Jun 2027 01:15:20.940   06 Jun 2027 01:15:57.852            36.912            RioGallegos          1153.500
       324   06 Jun 2027 01:45:37.227   06 Jun 2027 01:45:41.895             4.668                Anadyr2           145.875
       325   06 Jun 2027 01:46:05.384   06 Jun 2027 01:46:28.890            23.506                Anadyr2           734.562
       326   06 Jun 2027 01:47:07.491   06 Jun 2027 01:47:22.217            14.726                Anadyr1           460.188
       327   06 Jun 2027 01:47:49.495   06 Jun 2027 01:48:11.833            22.338                Anadyr2           698.062
       328   06 Jun 2027 01:48:17.682   06 Jun 2027 01:48:17.946             0.264                Norilsk             8.250
       329   06 Jun 2027 01:48:31.812   06 Jun 2027 01:48:39.838             8.026                Anadyr2           250.812
       330   06 Jun 2027 01:48:44.977   06 Jun 2027 01:49:04.310            19.333                Anadyr1           604.156
       331   06 Jun 2027 01:49:08.723   06 Jun 2027 01:50:35.545            86.822               Magadan1          2713.188
       332   06 Jun 2027 01:50:37.158   06 Jun 2027 01:51:52.945            75.787               Magadan1          2368.344
       333   06 Jun 2027 01:52:12.377   06 Jun 2027 01:53:28.732            76.355                Irkutsk          2386.094
       334   06 Jun 2027 01:54:10.653   06 Jun 2027 01:55:00.857            50.204                Novosib          1568.875
       335   06 Jun 2027 02:02:11.148   06 Jun 2027 02:03:48.413            97.265                  Delhi          3039.531
       336   06 Jun 2027 02:06:12.740   06 Jun 2027 02:06:44.658            31.918                Sumatra           997.437
       337   06 Jun 2027 02:08:55.873   06 Jun 2027 02:11:05.391           129.518                Sumatra          4047.437
       338   06 Jun 2027 02:47:38.111   06 Jun 2027 02:47:48.508            10.397            RioGallegos           324.906
       339   06 Jun 2027 02:52:16.706   06 Jun 2027 02:52:18.634             1.928            RioGallegos            60.250
       340   06 Jun 2027 03:29:12.818   06 Jun 2027 03:29:28.522            15.704               Magadan1           490.750
       341   06 Jun 2027 03:29:28.522   06 Jun 2027 03:30:05.342            36.820               Magadan2          1150.625
       342   06 Jun 2027 03:31:00.019   06 Jun 2027 03:32:36.002            95.983                Irkutsk          2999.469
       343   06 Jun 2027 03:32:43.247   06 Jun 2027 03:34:20.755            97.508                Irkutsk          3047.125
       344   06 Jun 2027 03:34:33.658   06 Jun 2027 03:34:59.397            25.739                Norilsk           804.344
       345   06 Jun 2027 03:35:13.639   06 Jun 2027 03:39:39.002           265.363                Irkutsk          8292.594
       346   06 Jun 2027 03:40:56.344   06 Jun 2027 03:41:00.505             4.161                Novosib           130.031
       347   06 Jun 2027 03:44:29.240   06 Jun 2027 03:45:13.441            44.201                  Delhi          1381.281
       348   06 Jun 2027 04:17:34.798   06 Jun 2027 04:20:10.825           156.027            RioGallegos          4875.844
       349   06 Jun 2027 04:20:19.795   06 Jun 2027 04:21:47.838            88.043            RioGallegos          2751.344
       350   06 Jun 2027 05:07:42.372   06 Jun 2027 05:08:53.279            70.907                Irkutsk          2215.844
       351   06 Jun 2027 05:09:04.033   06 Jun 2027 05:09:48.949            44.916                Norilsk          1403.625
       352   06 Jun 2027 05:10:11.000   06 Jun 2027 05:13:54.249           223.249                Novosib          6976.531
       353   06 Jun 2027 05:14:42.923   06 Jun 2027 05:19:54.824           311.901                  Delhi          9746.906
       354   06 Jun 2027 06:46:14.945   06 Jun 2027 06:47:32.413            77.468                 Moscow          2420.875
       355   06 Jun 2027 06:47:42.566   06 Jun 2027 06:50:45.866           183.300              Murmansk1          5728.125
       356   06 Jun 2027 06:51:00.686   06 Jun 2027 06:52:07.160            66.474                 Moscow          2077.313
       357   06 Jun 2027 07:05:32.197   06 Jun 2027 07:07:41.129           128.932               CapeTown          4029.125
       358   06 Jun 2027 07:08:43.862   06 Jun 2027 07:08:57.684            13.822               CapeTown           431.937
       359   06 Jun 2027 07:09:29.101   06 Jun 2027 07:09:54.662            25.561               CapeTown           798.781
       360   06 Jun 2027 08:08:36.093   06 Jun 2027 08:09:30.708            54.615                Anadyr2          1706.719
       361   06 Jun 2027 08:09:53.774   06 Jun 2027 08:09:58.623             4.849               Magadan2           151.531
       362   06 Jun 2027 08:10:18.780   06 Jun 2027 08:10:29.652            10.872                Anadyr2           339.750
       363   06 Jun 2027 08:10:34.425   06 Jun 2027 08:10:40.737             6.312               Magadan1           197.250
       364   06 Jun 2027 08:10:40.737   06 Jun 2027 08:11:01.892            21.155               Magadan2           661.094
       365   06 Jun 2027 08:11:41.955   06 Jun 2027 08:12:27.738            45.783               Magadan2          1430.719
       366   06 Jun 2027 08:13:19.866   06 Jun 2027 08:14:40.671            80.805                Anadyr2          2525.156
       367   06 Jun 2027 08:46:30.766   06 Jun 2027 08:50:09.362           218.596               CapeTown          6831.125
       368   06 Jun 2027 09:42:30.173   06 Jun 2027 09:43:53.371            83.198                Anadyr2          2599.937
       369   06 Jun 2027 09:44:47.832   06 Jun 2027 09:46:36.862           109.030                Anadyr2          3407.187
       370   06 Jun 2027 09:46:51.730   06 Jun 2027 09:47:32.385            40.655                Norilsk          1270.469
       371   06 Jun 2027 09:47:35.866   06 Jun 2027 09:48:06.740            30.874                Norilsk           964.813
       372   06 Jun 2027 09:48:40.500   06 Jun 2027 09:50:56.022           135.522                Anadyr1          4235.062
       373   06 Jun 2027 11:15:18.034   06 Jun 2027 11:15:55.741            37.707               Magadan1          1178.344
       374   06 Jun 2027 11:16:53.842   06 Jun 2027 11:18:29.802            95.960               Magadan2          2998.750
       375   06 Jun 2027 11:18:29.802   06 Jun 2027 11:20:29.943           120.141               Magadan1          3754.406
       376   06 Jun 2027 11:21:11.441   06 Jun 2027 11:21:17.318             5.877                Novosib           183.656
       377   06 Jun 2027 11:21:44.467   06 Jun 2027 11:22:33.118            48.651                Irkutsk          1520.344
       378   06 Jun 2027 11:23:26.552   06 Jun 2027 11:23:35.276             8.724                Irkutsk           272.625
       379   06 Jun 2027 11:23:48.389   06 Jun 2027 11:26:24.982           156.593               Magadan2          4893.531
       380   06 Jun 2027 12:37:37.497   06 Jun 2027 12:38:08.944            31.447                Sumatra           982.719
       381   06 Jun 2027 12:40:23.730   06 Jun 2027 12:41:08.195            44.465                Sumatra          1389.531
       382   06 Jun 2027 12:46:32.810   06 Jun 2027 12:46:45.369            12.559                Sumatra           392.469
       383   06 Jun 2027 12:49:37.515   06 Jun 2027 12:52:48.565           191.050                Irkutsk          5970.313
       384   06 Jun 2027 12:54:32.662   06 Jun 2027 12:55:26.470            53.808                Norilsk          1681.500
       385   06 Jun 2027 13:38:01.591   06 Jun 2027 13:38:39.655            38.064            RioGallegos          1189.500
       386   06 Jun 2027 13:39:44.443   06 Jun 2027 13:43:09.957           205.514            RioGallegos          6422.312
       387   06 Jun 2027 14:12:20.612   06 Jun 2027 14:13:27.868            67.256                Sumatra          2101.750
       388   06 Jun 2027 14:27:07.322   06 Jun 2027 14:28:24.248            76.926                Novosib          2403.938
       389   06 Jun 2027 14:30:23.911   06 Jun 2027 14:30:46.474            22.563                Novosib           705.094
       390   06 Jun 2027 14:31:31.481   06 Jun 2027 14:33:05.353            93.872                Irkutsk          2933.500
       391   06 Jun 2027 14:36:01.556   06 Jun 2027 14:37:24.840            83.284                Irkutsk          2602.625
       392   06 Jun 2027 15:57:07.054   06 Jun 2027 16:02:52.434           345.380                  Delhi         10793.125
       393   06 Jun 2027 16:05:25.113   06 Jun 2027 16:08:12.184           167.071                Novosib          5220.969
       394   06 Jun 2027 16:10:40.668   06 Jun 2027 16:11:22.510            41.842                Novosib          1307.562
       395   06 Jun 2027 17:43:55.025   06 Jun 2027 17:44:42.853            47.828                 Moscow          1494.625
       396   06 Jun 2027 17:50:12.587   06 Jun 2027 17:54:20.929           248.342                Norilsk          7760.688
       397   06 Jun 2027 19:04:33.368   06 Jun 2027 19:05:00.953            27.585               CapeTown           862.031
       398   06 Jun 2027 19:19:27.943   06 Jun 2027 19:25:50.548           382.605                 Moscow         11956.406
       399   06 Jun 2027 20:30:32.193   06 Jun 2027 20:30:48.273            16.080               CapeTown           502.500
       400   06 Jun 2027 20:32:21.417   06 Jun 2027 20:34:09.815           108.398               CapeTown          3387.438
       401   06 Jun 2027 20:34:54.125   06 Jun 2027 20:35:20.731            26.606               CapeTown           831.438
       402   06 Jun 2027 20:38:44.736   06 Jun 2027 20:40:20.205            95.469               CapeTown          2983.406
       403   06 Jun 2027 21:02:19.800   06 Jun 2027 21:08:23.418           363.618              Murmansk2         11363.063
       404   06 Jun 2027 22:46:36.600   06 Jun 2027 22:48:04.961            88.361                Anadyr1          2761.281
       405   06 Jun 2027 22:48:52.633   06 Jun 2027 22:49:54.180            61.547               Magadan1          1923.344
       406   06 Jun 2027 22:49:54.180   06 Jun 2027 22:50:50.676            56.496               Magadan2          1765.500
       407   06 Jun 2027 22:52:04.086   06 Jun 2027 22:52:35.865            31.779               Magadan1           993.094
       408   06 Jun 2027 22:52:40.002   06 Jun 2027 22:53:19.362            39.360               Magadan2          1230.000
       409   06 Jun 2027 22:55:33.257   06 Jun 2027 22:55:56.671            23.414               Magadan1           731.687
       410   06 Jun 2027 23:41:48.244   06 Jun 2027 23:44:56.332           188.088            RioGallegos          5877.750
       411   06 Jun 2027 23:47:55.063   06 Jun 2027 23:48:24.343            29.280            RioGallegos           915.000
       412   07 Jun 2027 00:22:22.725   07 Jun 2027 00:23:45.345            82.620                Anadyr1          2581.875
       413   07 Jun 2027 00:24:27.102   07 Jun 2027 00:26:04.952            97.850                Norilsk          3057.812
       414   07 Jun 2027 00:27:22.113   07 Jun 2027 00:28:16.722            54.609               Magadan2          1706.531
       415   07 Jun 2027 00:28:16.722   07 Jun 2027 00:28:20.619             3.897               Magadan1           121.781
       416   07 Jun 2027 00:28:24.035   07 Jun 2027 00:28:34.037            10.002               Magadan1           312.563
       417   07 Jun 2027 00:28:54.384   07 Jun 2027 00:29:22.695            28.311               Magadan2           884.719
       418   07 Jun 2027 00:30:59.722   07 Jun 2027 00:33:29.081           149.359                Irkutsk          4667.469
       419   07 Jun 2027 00:43:20.052   07 Jun 2027 00:44:02.400            42.348                Sumatra          1323.375
       420   07 Jun 2027 00:44:14.151   07 Jun 2027 00:46:17.015           122.864                Sumatra          3839.500
       421   07 Jun 2027 01:23:31.162   07 Jun 2027 01:23:40.318             9.156            RioGallegos           286.125
       422   07 Jun 2027 01:24:09.300   07 Jun 2027 01:24:47.677            38.377            RioGallegos          1199.281
       423   07 Jun 2027 01:28:48.663   07 Jun 2027 01:28:59.159            10.496            RioGallegos           328.000
       424   07 Jun 2027 01:57:29.039   07 Jun 2027 01:57:48.871            19.832                Anadyr2           619.750
       425   07 Jun 2027 01:58:25.392   07 Jun 2027 01:58:57.868            32.476                Anadyr2          1014.875
       426   07 Jun 2027 01:59:48.742   07 Jun 2027 01:59:56.070             7.328                Anadyr2           229.000
       427   07 Jun 2027 02:00:19.983   07 Jun 2027 02:01:56.150            96.167                Norilsk          3005.219
       428   07 Jun 2027 02:02:14.267   07 Jun 2027 02:02:33.636            19.369                Norilsk           605.281
       429   07 Jun 2027 02:03:23.837   07 Jun 2027 02:03:51.029            27.192               Magadan1           849.750
       430   07 Jun 2027 02:04:13.239   07 Jun 2027 02:07:06.181           172.942                Irkutsk          5404.437
       431   07 Jun 2027 02:16:04.827   07 Jun 2027 02:16:12.019             7.192                  Delhi           224.750
       432   07 Jun 2027 02:16:43.194   07 Jun 2027 02:17:22.553            39.359                  Delhi          1229.969
       433   07 Jun 2027 02:18:30.290   07 Jun 2027 02:20:36.634           126.344                Sumatra          3948.250
       434   07 Jun 2027 02:23:17.026   07 Jun 2027 02:23:49.818            32.792                Sumatra          1024.750
       435   07 Jun 2027 02:53:18.983   07 Jun 2027 02:53:30.866            11.883            RioGallegos           371.344
       436   07 Jun 2027 02:54:30.046   07 Jun 2027 02:54:56.237            26.191            RioGallegos           818.469
       437   07 Jun 2027 02:57:38.712   07 Jun 2027 02:57:54.455            15.743            RioGallegos           491.969
       438   07 Jun 2027 02:59:14.776   07 Jun 2027 02:59:56.753            41.977            RioGallegos          1311.781
       439   07 Jun 2027 03:00:11.695   07 Jun 2027 03:00:33.458            21.763            RioGallegos           680.094
       440   07 Jun 2027 03:41:30.276   07 Jun 2027 03:41:33.222             2.946               Magadan1            92.063
       441   07 Jun 2027 03:42:00.309   07 Jun 2027 03:43:34.986            94.677                Irkutsk          2958.656
       442   07 Jun 2027 03:44:17.751   07 Jun 2027 03:45:56.466            98.715              Murmansk1          3084.844
       443   07 Jun 2027 03:45:57.142   07 Jun 2027 03:49:18.545           201.403                Norilsk          6293.844
       444   07 Jun 2027 03:49:39.048   07 Jun 2027 03:49:43.567             4.519                Novosib           141.219
       445   07 Jun 2027 03:49:57.048   07 Jun 2027 03:50:36.114            39.066                Novosib          1220.812
       446   07 Jun 2027 03:50:37.799   07 Jun 2027 03:51:32.620            54.821                  Delhi          1713.156
       447   07 Jun 2027 03:54:00.810   07 Jun 2027 03:54:45.654            44.844                  Delhi          1401.375
       448   07 Jun 2027 04:30:02.284   07 Jun 2027 04:34:58.078           295.794            RioGallegos          9243.563
       449   07 Jun 2027 05:20:17.496   07 Jun 2027 05:21:41.630            84.134                Novosib          2629.187
       450   07 Jun 2027 05:21:54.909   07 Jun 2027 05:23:27.771            92.862              Murmansk1          2901.938
       451   07 Jun 2027 05:23:34.392   07 Jun 2027 05:24:04.363            29.971                Novosib           936.594
       452   07 Jun 2027 05:24:11.784   07 Jun 2027 05:24:43.798            32.014                Norilsk          1000.438
       453   07 Jun 2027 05:24:53.647   07 Jun 2027 05:25:51.668            58.021              Murmansk2          1813.156
       454   07 Jun 2027 05:27:20.940   07 Jun 2027 05:29:56.027           155.087                  Delhi          4846.469
       455   07 Jun 2027 06:59:05.687   07 Jun 2027 06:59:10.965             5.278                Norilsk           164.938
       456   07 Jun 2027 06:59:13.497   07 Jun 2027 06:59:52.293            38.796              Murmansk1          1212.375
       457   07 Jun 2027 07:00:02.839   07 Jun 2027 07:01:16.336            73.497              Murmansk2          2296.781
       458   07 Jun 2027 07:01:16.336   07 Jun 2027 07:02:38.144            81.808              Murmansk1          2556.500
       459   07 Jun 2027 07:03:03.294   07 Jun 2027 07:03:34.044            30.750                 Moscow           960.937
       460   07 Jun 2027 07:17:40.102   07 Jun 2027 07:20:11.556           151.454               CapeTown          4732.938
       461   07 Jun 2027 07:23:57.190   07 Jun 2027 07:27:08.229           191.039               CapeTown          5969.969
       462   07 Jun 2027 08:20:49.130   07 Jun 2027 08:21:46.236            57.106               Magadan2          1784.562
       463   07 Jun 2027 08:21:49.811   07 Jun 2027 08:22:59.345            69.534               Magadan1          2172.937
       464   07 Jun 2027 08:23:05.729   07 Jun 2027 08:25:20.087           134.358                Anadyr2          4198.687
       465   07 Jun 2027 09:51:20.310   07 Jun 2027 09:52:22.735            62.425               Magadan1          1950.781
       466   07 Jun 2027 09:53:20.851   07 Jun 2027 09:55:02.316           101.465                Anadyr2          3170.781
       467   07 Jun 2027 09:56:42.383   07 Jun 2027 09:58:26.521           104.138                Anadyr2          3254.313
       468   07 Jun 2027 09:58:36.800   07 Jun 2027 10:02:28.209           231.409                Anadyr1          7231.531
       469   07 Jun 2027 11:28:49.807   07 Jun 2027 11:28:50.758             0.951               Magadan2            29.719
       470   07 Jun 2027 11:31:16.794   07 Jun 2027 11:32:21.681            64.887               Magadan2          2027.719
       471   07 Jun 2027 11:32:21.681   07 Jun 2027 11:33:11.061            49.380               Magadan1          1543.125
       472   07 Jun 2027 11:33:52.430   07 Jun 2027 11:34:05.379            12.949                Norilsk           404.656
       473   07 Jun 2027 11:34:44.635   07 Jun 2027 11:35:05.515            20.880                Irkutsk           652.500
       474   07 Jun 2027 11:35:27.326   07 Jun 2027 11:38:19.726           172.400               Magadan2          5387.500
       475   07 Jun 2027 12:13:16.158   07 Jun 2027 12:14:37.487            81.329            RioGallegos          2541.531
       476   07 Jun 2027 12:49:05.266   07 Jun 2027 12:50:20.952            75.686                Sumatra          2365.188
       477   07 Jun 2027 12:55:50.510   07 Jun 2027 12:55:54.937             4.427                Sumatra           138.344
       478   07 Jun 2027 12:57:40.499   07 Jun 2027 12:58:20.671            40.172                Sumatra          1255.375
       479   07 Jun 2027 13:01:39.839   07 Jun 2027 13:03:06.695            86.856                Irkutsk          2714.250
       480   07 Jun 2027 13:04:57.199   07 Jun 2027 13:05:52.254            55.055                Irkutsk          1720.469
       481   07 Jun 2027 13:06:32.797   07 Jun 2027 13:07:47.343            74.546                Norilsk          2329.563
       482   07 Jun 2027 13:19:29.044   07 Jun 2027 13:19:50.052            21.008              Murmansk2           656.500
