uniorb/output/strategy_1/Drop/Drop_KinoSat_110107.txt

KinoSat_110107
-------------------------
    Access    *     Start Time (UTCG)     *     Stop Time (UTCG)  *   Duration (s)        *       Station  *  Data (Mbytes)
         1   01 Jun 2027 03:49:58.094   01 Jun 2027 03:50:30.260            32.166                Norilsk          4020.750
         2   01 Jun 2027 03:50:57.056   01 Jun 2027 03:51:21.780            24.724              Murmansk1          3090.500
         3   01 Jun 2027 03:51:21.780   01 Jun 2027 03:51:59.529            37.749              Murmansk2          4718.625
         4   01 Jun 2027 03:52:19.985   01 Jun 2027 03:54:07.391           107.406                Irkutsk         13425.750
         5   01 Jun 2027 03:54:21.726   01 Jun 2027 03:54:43.530            21.804                Norilsk          2725.500
         6   01 Jun 2027 04:30:32.994   01 Jun 2027 04:31:34.232            61.238            RioGallegos          7654.750
         7   01 Jun 2027 04:32:25.036   01 Jun 2027 04:33:42.068            77.032            RioGallegos          9629.000
         8   01 Jun 2027 05:05:53.068   01 Jun 2027 05:08:34.188           161.120                Sumatra         20140.000
         9   01 Jun 2027 05:28:20.883   01 Jun 2027 05:28:37.598            16.715                Novosib          2089.375
        10   01 Jun 2027 05:29:15.250   01 Jun 2027 05:30:18.874            63.624                Norilsk          7953.000
        11   01 Jun 2027 05:30:28.346   01 Jun 2027 05:31:32.411            64.065              Murmansk2          8008.125
        12   01 Jun 2027 05:33:55.483   01 Jun 2027 05:34:34.471            38.988                Norilsk          4873.500
        13   01 Jun 2027 06:49:56.985   01 Jun 2027 06:51:09.078            72.093                  Delhi          9011.625
        14   01 Jun 2027 07:03:34.756   01 Jun 2027 07:04:11.887            37.131                Norilsk          4641.375
        15   01 Jun 2027 07:04:19.346   01 Jun 2027 07:04:43.844            24.498              Murmansk2          3062.250
        16   01 Jun 2027 07:04:54.269   01 Jun 2027 07:05:07.933            13.664                 Moscow          1708.000
        17   01 Jun 2027 07:05:18.531   01 Jun 2027 07:06:13.428            54.897                Novosib          6862.125
        18   01 Jun 2027 07:06:37.331   01 Jun 2027 07:07:02.863            25.532                Norilsk          3191.500
        19   01 Jun 2027 10:26:35.046   01 Jun 2027 10:27:16.347            41.301                Anadyr2          5162.625
        20   01 Jun 2027 12:05:01.008   01 Jun 2027 12:09:06.662           245.654               Magadan1         30706.750
        21   01 Jun 2027 13:40:36.288   01 Jun 2027 13:42:36.092           119.804               Magadan2         14975.500
        22   01 Jun 2027 15:24:46.960   01 Jun 2027 15:26:40.130           113.170                Irkutsk         14146.250
        23   01 Jun 2027 15:34:19.351   01 Jun 2027 15:40:44.872           385.521                Sumatra         48190.125
        24   01 Jun 2027 17:03:50.962   01 Jun 2027 17:05:42.994           112.032                Novosib         14004.000
        25   01 Jun 2027 17:06:02.267   01 Jun 2027 17:11:07.537           305.270                  Delhi         36445.000
        26   02 Jun 2027 04:43:08.944   02 Jun 2027 04:44:08.285            59.341            RioGallegos          7417.625
        27   02 Jun 2027 04:44:26.137   02 Jun 2027 04:44:39.322            13.185            RioGallegos          1648.125
        28   02 Jun 2027 04:45:06.067   02 Jun 2027 04:45:51.684            45.617            RioGallegos          5702.125
        29   02 Jun 2027 05:17:23.424   02 Jun 2027 05:18:51.245            87.821                Sumatra         10977.625
        30   02 Jun 2027 05:20:10.602   02 Jun 2027 05:20:45.493            34.891                Sumatra          4361.375
        31   02 Jun 2027 05:24:05.477   02 Jun 2027 05:24:10.542             5.065                  Delhi           633.125
        32   02 Jun 2027 05:28:03.063   02 Jun 2027 05:29:31.252            88.189                  Delhi         11023.625
        33   02 Jun 2027 05:31:35.563   02 Jun 2027 05:33:38.808           123.245                  Delhi         15405.625
        34   02 Jun 2027 05:41:22.413   02 Jun 2027 05:41:50.206            27.793                Norilsk          3474.125
        35   02 Jun 2027 05:42:43.432   02 Jun 2027 05:43:11.224            27.792                Novosib          3474.000
        36   02 Jun 2027 05:45:29.566   02 Jun 2027 05:45:52.245            22.679                Norilsk          2834.875
        37   02 Jun 2027 07:02:56.636   02 Jun 2027 07:05:13.337           136.701                  Delhi         17087.625
        38   02 Jun 2027 07:16:06.275   02 Jun 2027 07:16:48.970            42.695                Norilsk          5336.875
        39   02 Jun 2027 07:16:51.608   02 Jun 2027 07:17:40.899            49.291              Murmansk1          6161.375
        40   02 Jun 2027 07:18:03.910   02 Jun 2027 07:19:27.669            83.759                Norilsk         10469.875
        41   02 Jun 2027 07:19:35.487   02 Jun 2027 07:19:53.910            18.423                 Moscow          2302.875
        42   02 Jun 2027 10:41:39.088   02 Jun 2027 10:43:27.057           107.969                Anadyr1         13496.125
        43   02 Jun 2027 10:47:49.399   02 Jun 2027 10:48:08.777            19.378                Anadyr2          2422.250
        44   02 Jun 2027 12:16:56.820   02 Jun 2027 12:18:29.207            92.387               Magadan1         11548.375
        45   02 Jun 2027 12:21:52.197   02 Jun 2027 12:22:03.727            11.530               Magadan1          1441.250
        46   02 Jun 2027 12:22:53.074   02 Jun 2027 12:24:16.040            82.966               Magadan2         10370.750
        47   02 Jun 2027 12:24:37.768   02 Jun 2027 12:26:28.843           111.075               Magadan1         13884.375
        48   02 Jun 2027 14:47:50.029   02 Jun 2027 14:48:48.613            58.584            RioGallegos          7323.000
        49   02 Jun 2027 15:32:21.175   02 Jun 2027 15:34:23.043           121.868                Irkutsk         15233.500
        50   02 Jun 2027 15:46:05.165   02 Jun 2027 15:52:02.350           357.185                Sumatra         44648.125
        51   02 Jun 2027 17:14:06.873   02 Jun 2027 17:16:55.257           168.384                Novosib         21048.000
        52   02 Jun 2027 17:17:39.034   02 Jun 2027 17:22:08.699           269.665                  Delhi         33708.125
        53   02 Jun 2027 20:21:36.520   02 Jun 2027 20:22:42.429            65.909                 Moscow          8238.625
        54   02 Jun 2027 20:31:07.028   02 Jun 2027 20:31:09.606             2.578                 Moscow           322.250
        55   02 Jun 2027 21:57:28.303   02 Jun 2027 21:58:32.369            64.066                 Moscow          8008.250
        56   02 Jun 2027 22:22:13.494   02 Jun 2027 22:23:58.019           104.525               CapeTown         13065.625
        57   03 Jun 2027 03:52:00.408   03 Jun 2027 03:57:45.756           345.348                Sumatra         43168.500
        58   03 Jun 2027 07:16:33.410   03 Jun 2027 07:17:59.104            85.694                  Delhi         10711.750
        59   03 Jun 2027 07:18:54.044   03 Jun 2027 07:20:06.274            72.230                  Delhi          9028.750
        60   03 Jun 2027 07:25:50.581   03 Jun 2027 07:26:04.875            14.294              Murmansk1          1786.750
        61   03 Jun 2027 07:26:04.875   03 Jun 2027 07:26:21.479            16.604              Murmansk2          2075.500
        62   03 Jun 2027 07:26:22.096   03 Jun 2027 07:27:19.132            57.036                 Moscow          7129.500
        63   03 Jun 2027 07:27:41.152   03 Jun 2027 07:28:34.326            53.174                Novosib          6646.750
        64   03 Jun 2027 07:28:43.201   03 Jun 2027 07:28:44.637             1.436                 Moscow           179.500
        65   03 Jun 2027 07:28:47.460   03 Jun 2027 07:29:33.402            45.942              Murmansk2          5742.750
        66   03 Jun 2027 07:30:06.726   03 Jun 2027 07:31:36.236            89.510                 Moscow         11188.750
        67   03 Jun 2027 08:35:55.740   03 Jun 2027 08:37:58.690           122.950               CapeTown         15368.750
        68   03 Jun 2027 08:43:54.460   03 Jun 2027 08:44:23.401            28.941               CapeTown          3617.625
        69   03 Jun 2027 10:57:49.852   03 Jun 2027 10:57:53.473             3.621               Magadan1           452.625
        70   03 Jun 2027 12:28:53.815   03 Jun 2027 12:30:02.517            68.702               Magadan1          8587.750
        71   03 Jun 2027 12:31:02.164   03 Jun 2027 12:33:55.908           173.744               Magadan1         21718.000
        72   03 Jun 2027 12:37:16.874   03 Jun 2027 12:39:22.092           125.218               Magadan1         15652.250
        73   03 Jun 2027 15:00:51.530   03 Jun 2027 15:02:07.003            75.473            RioGallegos          9434.125
        74   03 Jun 2027 15:44:16.317   03 Jun 2027 15:46:01.759           105.442                Irkutsk         13180.250
        75   03 Jun 2027 15:52:45.174   03 Jun 2027 15:53:48.039            62.865                Irkutsk          7858.125
        76   03 Jun 2027 15:57:57.112   03 Jun 2027 16:01:00.692           183.580                Sumatra         22947.500
        77   03 Jun 2027 17:20:05.338   03 Jun 2027 17:21:07.702            62.364                Novosib          7795.500
        78   03 Jun 2027 17:25:05.854   03 Jun 2027 17:26:36.420            90.566                Novosib         11320.750
        79   03 Jun 2027 17:27:39.300   03 Jun 2027 17:30:03.064           143.764                  Delhi         17970.500
        80   03 Jun 2027 17:33:04.841   03 Jun 2027 17:33:30.171            25.330                  Delhi          3166.250
        81   03 Jun 2027 19:05:24.635   03 Jun 2027 19:06:48.205            83.570                  Delhi         10446.250
        82   03 Jun 2027 20:33:34.837   03 Jun 2027 20:35:35.718           120.881                 Moscow         15110.125
        83   03 Jun 2027 20:36:32.602   03 Jun 2027 20:38:32.239           119.637                 Moscow         14954.625
        84   03 Jun 2027 22:34:46.128   03 Jun 2027 22:35:24.627            38.499               CapeTown          4812.375
        85   03 Jun 2027 22:35:40.770   03 Jun 2027 22:36:22.017            41.247               CapeTown          5155.875
        86   04 Jun 2027 04:03:55.236   04 Jun 2027 04:07:26.914           211.678                Sumatra         26459.750
        87   04 Jun 2027 05:44:11.827   04 Jun 2027 05:45:01.569            49.742                Sumatra          6217.750
        88   04 Jun 2027 05:48:08.980   04 Jun 2027 05:49:38.602            89.622                  Delhi         11202.750
        89   04 Jun 2027 05:50:20.533   04 Jun 2027 05:51:15.797            55.264                  Delhi          6908.000
        90   04 Jun 2027 05:55:57.630   04 Jun 2027 05:56:58.826            61.196                  Delhi          7649.500
        91   04 Jun 2027 06:05:23.489   04 Jun 2027 06:05:53.846            30.357              Murmansk1          3794.625
        92   04 Jun 2027 06:06:02.722   04 Jun 2027 06:06:37.911            35.189                Novosib          4398.625
        93   04 Jun 2027 07:37:32.464   04 Jun 2027 07:38:27.153            54.689                 Moscow          6836.125
        94   04 Jun 2027 07:39:17.511   04 Jun 2027 07:42:33.284           195.773              Murmansk1         24471.625
        95   04 Jun 2027 07:42:51.008   04 Jun 2027 07:44:12.377            81.369                Norilsk         10171.125
        96   04 Jun 2027 08:47:21.388   04 Jun 2027 08:55:42.015           500.627               CapeTown         62578.375
        97   04 Jun 2027 12:40:51.769   04 Jun 2027 12:41:55.361            63.592               Magadan1          7949.000
        98   04 Jun 2027 12:43:21.021   04 Jun 2027 12:45:43.993           142.972               Magadan2         17871.500
        99   04 Jun 2027 14:16:40.884   04 Jun 2027 14:16:43.859             2.975               Magadan1           371.875
       100   04 Jun 2027 14:20:44.341   04 Jun 2027 14:21:24.604            40.263               Magadan2          5032.875
       101   04 Jun 2027 15:08:29.409   04 Jun 2027 15:11:13.618           164.209            RioGallegos         20526.125
       102   04 Jun 2027 15:13:39.598   04 Jun 2027 15:13:49.203             9.605            RioGallegos          1200.625
       103   04 Jun 2027 15:56:12.972   04 Jun 2027 15:57:31.777            78.805                Irkutsk          9850.625
       104   04 Jun 2027 15:59:00.171   04 Jun 2027 16:01:17.197           137.026                Irkutsk         17128.250
       105   04 Jun 2027 16:09:54.759   04 Jun 2027 16:12:48.780           174.021                Sumatra         21752.625
       106   04 Jun 2027 16:17:21.543   04 Jun 2027 16:19:31.391           129.848                Sumatra         16231.000
       107   04 Jun 2027 17:39:01.166   04 Jun 2027 17:41:37.803           156.637                Novosib         19579.625
       108   04 Jun 2027 17:47:04.163   04 Jun 2027 17:49:00.276           116.113                  Delhi         14514.125
       109   04 Jun 2027 20:42:18.586   04 Jun 2027 20:42:19.876             1.290              Murmansk2           161.250
       110   04 Jun 2027 20:44:36.750   04 Jun 2027 20:45:04.613            27.863              Murmansk2          3482.875
       111   04 Jun 2027 20:45:34.054   04 Jun 2027 20:46:12.918            38.864                 Moscow          4858.000
       112   04 Jun 2027 20:46:26.162   04 Jun 2027 20:46:56.218            30.056              Murmansk2          3757.000
       113   04 Jun 2027 20:48:42.686   04 Jun 2027 20:50:28.080           105.394                 Moscow         13174.250
       114   05 Jun 2027 03:04:24.757   05 Jun 2027 03:04:44.184            19.427               Magadan2          2428.375
       115   05 Jun 2027 03:04:47.062   05 Jun 2027 03:04:59.558            12.496                Irkutsk          1562.000
       116   05 Jun 2027 03:05:00.407   05 Jun 2027 03:05:35.416            35.009                Norilsk          4376.125
       117   05 Jun 2027 03:05:49.201   05 Jun 2027 03:06:11.147            21.946              Murmansk2          2743.250
       118   05 Jun 2027 03:06:23.720   05 Jun 2027 03:06:31.213             7.493              Murmansk1           936.625
       119   05 Jun 2027 03:06:31.213   05 Jun 2027 03:06:34.520             3.307              Murmansk2           413.375
       120   05 Jun 2027 03:08:02.608   05 Jun 2027 03:08:21.263            18.655              Murmansk2          2331.875
       121   05 Jun 2027 03:09:00.384   05 Jun 2027 03:09:34.644            34.260                Norilsk          4282.500
       122   05 Jun 2027 03:41:19.946   05 Jun 2027 03:44:00.069           160.123            RioGallegos         20015.375
       123   05 Jun 2027 04:15:55.676   05 Jun 2027 04:18:18.319           142.643                Sumatra         17830.375
       124   05 Jun 2027 04:38:06.215   05 Jun 2027 04:38:15.746             9.531                Norilsk          1191.375
       125   05 Jun 2027 04:38:26.350   05 Jun 2027 04:38:54.717            28.367                Novosib          3545.875
       126   05 Jun 2027 04:39:00.602   05 Jun 2027 04:39:40.640            40.038              Murmansk1          5004.750
       127   05 Jun 2027 04:39:50.389   05 Jun 2027 04:40:13.537            23.148                 Moscow          2893.500
       128   05 Jun 2027 04:40:26.699   05 Jun 2027 04:40:29.347             2.648                Norilsk           331.000
       129   05 Jun 2027 04:40:34.230   05 Jun 2027 04:41:00.202            25.972              Murmansk2          3246.500
       130   05 Jun 2027 04:41:00.202   05 Jun 2027 04:41:06.648             6.446              Murmansk1           805.750
       131   05 Jun 2027 04:41:19.608   05 Jun 2027 04:41:58.128            38.520                 Moscow          4815.000
       132   05 Jun 2027 04:42:03.003   05 Jun 2027 04:42:49.274            46.271              Murmansk1          5783.875
       133   05 Jun 2027 04:44:38.290   05 Jun 2027 04:44:45.070             6.780              Murmansk2           847.500
       134   05 Jun 2027 06:00:19.044   05 Jun 2027 06:03:10.979           171.935                  Delhi         21491.875
       135   05 Jun 2027 06:06:18.567   05 Jun 2027 06:07:56.234            97.667                  Delhi         12208.375
       136   05 Jun 2027 06:16:20.383   05 Jun 2027 06:17:20.609            60.226                 Moscow          7528.250
       137   05 Jun 2027 06:17:34.207   05 Jun 2027 06:18:10.802            36.595                Novosib          4574.375
       138   05 Jun 2027 06:18:33.524   05 Jun 2027 06:19:10.270            36.746                Novosib          4593.250
       139   05 Jun 2027 07:51:13.256   05 Jun 2027 07:51:55.842            42.586              Murmansk2          5323.250
       140   05 Jun 2027 07:51:58.659   05 Jun 2027 07:52:22.041            23.382              Murmansk2          2922.750
       141   05 Jun 2027 07:52:33.493   05 Jun 2027 07:53:46.770            73.277                 Moscow          9159.625
       142   05 Jun 2027 08:58:56.818   05 Jun 2027 09:05:42.830           406.012               CapeTown         50751.500
       143   05 Jun 2027 12:52:50.516   05 Jun 2027 12:53:31.294            40.778               Magadan1          5097.250
       144   05 Jun 2027 12:54:56.063   05 Jun 2027 12:59:25.610           269.547               Magadan2         33693.375
       145   05 Jun 2027 13:02:48.017   05 Jun 2027 13:02:57.828             9.811               Magadan2          1226.375
       146   05 Jun 2027 14:28:42.924   05 Jun 2027 14:28:43.300             0.376               Magadan2            47.000
       147   05 Jun 2027 15:20:24.187   05 Jun 2027 15:22:17.730           113.543            RioGallegos         14192.875
       148   05 Jun 2027 15:28:47.070   05 Jun 2027 15:31:24.956           157.886            RioGallegos         19735.750
       149   05 Jun 2027 16:11:12.710   05 Jun 2027 16:13:10.249           117.539                Irkutsk         14692.375
       150   05 Jun 2027 16:21:57.999   05 Jun 2027 16:23:53.117           115.118                Sumatra         14389.750
       151   05 Jun 2027 16:29:38.217   05 Jun 2027 16:31:39.217           121.000                Sumatra         15125.000
       152   05 Jun 2027 17:51:25.012   05 Jun 2027 17:54:10.393           165.381                  Delhi         20672.625
       153   05 Jun 2027 18:00:57.009   05 Jun 2027 18:00:57.881             0.872                  Delhi           109.000
       154   05 Jun 2027 19:28:43.815   05 Jun 2027 19:29:09.815            26.000                  Delhi          3250.000
       155   05 Jun 2027 20:55:13.783   05 Jun 2027 20:55:42.047            28.264              Murmansk2          3533.000
       156   05 Jun 2027 20:56:31.530   05 Jun 2027 20:57:16.551            45.021              Murmansk1          5627.625
       157   05 Jun 2027 20:57:34.062   05 Jun 2027 21:00:49.584           195.522                 Moscow         24440.250
       158   06 Jun 2027 02:54:58.729   06 Jun 2027 02:56:13.292            74.563                Sumatra          9320.375
       159   06 Jun 2027 03:14:59.564   06 Jun 2027 03:15:22.604            23.040               Magadan2          2880.000
       160   06 Jun 2027 03:15:22.604   06 Jun 2027 03:15:38.476            15.872               Magadan1          1984.000
       161   06 Jun 2027 03:16:43.285   06 Jun 2027 03:16:59.790            16.505                Novosib          2063.125
       162   06 Jun 2027 03:17:17.592   06 Jun 2027 03:18:26.460            68.868                Irkutsk          8608.500
       163   06 Jun 2027 03:18:31.168   06 Jun 2027 03:18:44.425            13.257                Novosib          1657.125
       164   06 Jun 2027 03:53:35.200   06 Jun 2027 03:56:09.205           154.005            RioGallegos         19250.625
       165   06 Jun 2027 04:28:01.765   06 Jun 2027 04:29:31.890            90.125                Sumatra         11265.625
       166   06 Jun 2027 04:30:59.449   06 Jun 2027 04:32:49.677           110.228                Sumatra         13778.500
       167   06 Jun 2027 04:51:02.392   06 Jun 2027 04:51:47.970            45.578              Murmansk1          5697.250
       168   06 Jun 2027 04:51:51.069   06 Jun 2027 04:52:05.127            14.058              Murmansk1          1757.250
       169   06 Jun 2027 04:52:18.595   06 Jun 2027 04:53:00.989            42.394                Norilsk          5299.250
       170   06 Jun 2027 04:53:19.062   06 Jun 2027 04:53:40.053            20.991              Murmansk2          2623.875
       171   06 Jun 2027 04:53:40.053   06 Jun 2027 04:54:03.586            23.533              Murmansk1          2941.625
       172   06 Jun 2027 04:55:11.063   06 Jun 2027 04:55:32.165            21.102                Norilsk          2637.750
       173   06 Jun 2027 04:55:41.128   06 Jun 2027 04:55:54.846            13.718                Novosib          1714.750
       174   06 Jun 2027 06:12:35.230   06 Jun 2027 06:15:02.356           147.126                  Delhi         18390.750
       175   06 Jun 2027 06:20:05.466   06 Jun 2027 06:20:39.550            34.084                  Delhi          4260.500
       176   06 Jun 2027 06:27:10.845   06 Jun 2027 06:27:36.844            25.999                Novosib          3249.875
       177   06 Jun 2027 06:27:57.175   06 Jun 2027 06:28:30.316            33.141                Norilsk          4142.625
       178   06 Jun 2027 06:28:33.628   06 Jun 2027 06:30:43.279           129.651                Novosib         16206.375
       179   06 Jun 2027 08:03:15.569   06 Jun 2027 08:03:50.611            35.042                 Moscow          4380.250
       180   06 Jun 2027 08:03:56.742   06 Jun 2027 08:04:19.543            22.801              Murmansk2          2850.125
       181   06 Jun 2027 08:04:19.543   06 Jun 2027 08:04:42.952            23.409              Murmansk1          2926.125
       182   06 Jun 2027 08:05:09.920   06 Jun 2027 08:05:42.590            32.670                Norilsk          4083.750
       183   06 Jun 2027 08:06:40.398   06 Jun 2027 08:07:00.279            19.881                Norilsk          2485.125
       184   06 Jun 2027 09:10:38.917   06 Jun 2027 09:16:48.656           369.739               CapeTown         46217.375
       185   06 Jun 2027 11:26:35.929   06 Jun 2027 11:26:46.376            10.447                Anadyr2          1305.875
       186   06 Jun 2027 11:27:45.310   06 Jun 2027 11:29:40.644           115.334                Anadyr2         14416.750
       187   06 Jun 2027 11:30:10.699   06 Jun 2027 11:30:36.166            25.467               Magadan1          3183.375
       188   06 Jun 2027 11:35:55.182   06 Jun 2027 11:38:50.288           175.106               Magadan2         21888.250
       189   06 Jun 2027 13:04:49.938   06 Jun 2027 13:05:21.552            31.614               Magadan2          3951.750
       190   06 Jun 2027 13:07:49.244   06 Jun 2027 13:09:42.531           113.287               Magadan1         14160.875
       191   06 Jun 2027 15:00:31.053   06 Jun 2027 15:02:49.926           138.873                Sumatra         17359.125
       192   06 Jun 2027 15:32:20.589   06 Jun 2027 15:33:44.818            84.229            RioGallegos         10528.625
       193   06 Jun 2027 15:41:47.896   06 Jun 2027 15:43:00.647            72.751            RioGallegos          9093.875
       194   06 Jun 2027 16:25:05.182   06 Jun 2027 16:26:55.808           110.626                Irkutsk         13828.250
       195   06 Jun 2027 16:34:07.030   06 Jun 2027 16:35:13.857            66.827                Sumatra          8353.375
       196   06 Jun 2027 16:35:35.216   06 Jun 2027 16:36:54.222            79.006                  Delhi          9875.750
       197   06 Jun 2027 17:57:34.247   06 Jun 2027 17:59:19.879           105.632                Novosib         13204.000
       198   06 Jun 2027 18:03:23.303   06 Jun 2027 18:05:17.965           114.662                  Delhi         14332.750
       199   06 Jun 2027 21:08:23.418   06 Jun 2027 21:09:26.649            63.231              Murmansk2          7903.875
       200   06 Jun 2027 21:09:34.759   06 Jun 2027 21:09:56.291            21.532                 Moscow          2691.500
       201   06 Jun 2027 21:11:27.884   06 Jun 2027 21:12:53.449            85.565                 Moscow         10695.625
       202   06 Jun 2027 21:34:39.240   06 Jun 2027 21:35:12.499            33.259               CapeTown          4157.375
       203   07 Jun 2027 03:05:56.964   07 Jun 2027 03:09:41.262           224.298                Sumatra         28037.250
       204   07 Jun 2027 03:14:12.777   07 Jun 2027 03:14:49.176            36.399                Sumatra          4549.875
       205   07 Jun 2027 03:28:54.401   07 Jun 2027 03:29:35.708            41.307                Irkutsk          5163.375
       206   07 Jun 2027 03:29:38.580   07 Jun 2027 03:30:11.206            32.626                Irkutsk          4078.250
       207   07 Jun 2027 04:09:54.505   07 Jun 2027 04:09:56.023             1.518            RioGallegos           189.750
       208   07 Jun 2027 04:14:38.849   07 Jun 2027 04:15:27.879            49.030            RioGallegos          6128.750
       209   07 Jun 2027 04:40:13.880   07 Jun 2027 04:40:58.500            44.620                Sumatra          5577.500
       210   07 Jun 2027 04:42:48.911   07 Jun 2027 04:44:18.392            89.481                Sumatra         11185.125
       211   07 Jun 2027 05:02:57.854   07 Jun 2027 05:03:04.076             6.222                Novosib           777.750
       212   07 Jun 2027 05:03:04.338   07 Jun 2027 05:03:41.886            37.548              Murmansk2          4693.500
       213   07 Jun 2027 05:03:45.301   07 Jun 2027 05:04:08.256            22.955                Norilsk          2869.375
       214   07 Jun 2027 05:04:23.226   07 Jun 2027 05:04:51.727            28.501                Norilsk          3562.625
       215   07 Jun 2027 05:04:59.336   07 Jun 2027 05:05:40.407            41.071                Irkutsk          5133.875
       216   07 Jun 2027 05:06:31.578   07 Jun 2027 05:06:39.340             7.762                Norilsk           970.250
       217   07 Jun 2027 05:07:39.904   07 Jun 2027 05:07:49.055             9.151                Novosib          1143.875
       218   07 Jun 2027 05:08:47.175   07 Jun 2027 05:08:58.414            11.239                Norilsk          1404.875
       219   07 Jun 2027 05:09:19.345   07 Jun 2027 05:09:55.990            36.645                Norilsk          4580.625
       220   07 Jun 2027 06:24:58.422   07 Jun 2027 06:28:56.617           238.195                  Delhi         29774.375
       221   07 Jun 2027 06:39:55.908   07 Jun 2027 06:40:20.089            24.181                Norilsk          3022.625
       222   07 Jun 2027 06:40:22.138   07 Jun 2027 06:40:31.162             9.024                 Moscow          1128.000
       223   07 Jun 2027 06:40:43.477   07 Jun 2027 06:40:50.864             7.387              Murmansk1           923.375
       224   07 Jun 2027 06:40:51.550   07 Jun 2027 06:43:03.094           131.544                Novosib         16443.000
       225   07 Jun 2027 08:16:44.297   07 Jun 2027 08:16:48.184             3.887              Murmansk2           485.875
       226   07 Jun 2027 08:17:36.324   07 Jun 2027 08:18:01.749            25.425                 Moscow          3178.125
       227   07 Jun 2027 09:22:26.031   07 Jun 2027 09:28:12.940           346.909               CapeTown         43363.625
       228   07 Jun 2027 11:38:36.958   07 Jun 2027 11:38:44.467             7.509                Anadyr1           938.625
       229   07 Jun 2027 11:41:49.013   07 Jun 2027 11:43:50.160           121.147                Anadyr1         15143.375
       230   07 Jun 2027 13:16:49.927   07 Jun 2027 13:17:14.228            24.301               Magadan2          3037.625
       231   07 Jun 2027 13:17:55.746   07 Jun 2027 13:21:03.660           187.914               Magadan1         23489.250
       232   07 Jun 2027 15:11:24.479   07 Jun 2027 15:19:45.667           501.188                Sumatra         62648.500
       233   07 Jun 2027 16:37:45.269   07 Jun 2027 16:38:41.320            56.051                Novosib          7006.375
       234   07 Jun 2027 16:46:31.101   07 Jun 2027 16:50:01.697           210.596                  Delhi         26324.500
       235   07 Jun 2027 18:15:24.902   07 Jun 2027 18:16:42.622            77.720                  Delhi          9715.000
       236   07 Jun 2027 18:18:35.339   07 Jun 2027 18:20:19.376           104.037                  Delhi         13004.625
       237   07 Jun 2027 19:50:26.423   07 Jun 2027 19:51:23.693            57.270                 Moscow          7158.750
       238   07 Jun 2027 21:30:32.463   07 Jun 2027 21:31:12.060            39.597                 Moscow          4949.625
       239   07 Jun 2027 21:33:43.555   07 Jun 2027 21:34:27.597            44.042                 Moscow          5505.250
       240   07 Jun 2027 21:48:03.097   07 Jun 2027 21:50:19.764           136.667               CapeTown         17083.375
       241   08 Jun 2027 03:17:08.542   08 Jun 2027 03:17:25.713            17.171                Sumatra          2146.375
       242   08 Jun 2027 03:18:11.844   08 Jun 2027 03:24:42.790           390.946                Sumatra         48868.250
       243   08 Jun 2027 04:21:22.634   08 Jun 2027 04:22:06.930            44.296            RioGallegos          5537.000
       244   08 Jun 2027 04:52:32.869   08 Jun 2027 04:52:34.430             1.561                Sumatra           195.125
       245   08 Jun 2027 04:54:31.942   08 Jun 2027 04:56:43.707           131.765                Sumatra         16470.625
       246   08 Jun 2027 05:16:16.225   08 Jun 2027 05:17:26.487            70.262                Irkutsk          8782.750
       247   08 Jun 2027 05:17:50.553   08 Jun 2027 05:19:02.624            72.071              Murmansk2          9008.875
       248   08 Jun 2027 05:19:27.410   08 Jun 2027 05:19:52.816            25.406                Novosib          3175.750
       249   08 Jun 2027 06:37:30.106   08 Jun 2027 06:41:06.045           215.939                  Delhi         26992.375
       250   08 Jun 2027 06:51:52.720   08 Jun 2027 06:52:25.615            32.895                 Moscow          4111.875
       251   08 Jun 2027 06:52:43.659   08 Jun 2027 06:52:46.055             2.396              Murmansk1           299.500
       252   08 Jun 2027 06:52:53.122   08 Jun 2027 06:53:18.159            25.037              Murmansk2          3129.625
       253   08 Jun 2027 06:53:18.159   08 Jun 2027 06:54:12.731            54.572              Murmansk1          6821.500
       254   08 Jun 2027 09:34:17.183   08 Jun 2027 09:38:15.984           238.801               CapeTown         29850.125
       255   08 Jun 2027 10:14:51.206   08 Jun 2027 10:15:02.291            11.085                Anadyr1          1385.625
       256   08 Jun 2027 11:50:38.147   08 Jun 2027 11:50:43.278             5.131                Anadyr2           641.375
       257   08 Jun 2027 11:52:31.604   08 Jun 2027 11:53:55.258            83.654                Anadyr1         10456.750
       258   08 Jun 2027 11:55:38.472   08 Jun 2027 11:56:19.288            40.816               Magadan2          5102.000
       259   08 Jun 2027 12:02:46.157   08 Jun 2027 12:02:51.384             5.227               Magadan2           653.375
       260   08 Jun 2027 13:28:50.399   08 Jun 2027 13:31:11.982           141.583               Magadan2         17697.875
       261   08 Jun 2027 13:32:05.984   08 Jun 2027 13:33:49.755           103.771               Magadan1         12971.375
       262   08 Jun 2027 15:10:23.387   08 Jun 2027 15:13:30.288           186.901                Irkutsk         23362.625
       263   08 Jun 2027 15:24:27.097   08 Jun 2027 15:29:59.714           332.617                Sumatra         41577.125
       264   08 Jun 2027 16:47:29.199   08 Jun 2027 16:47:43.382            14.183                Irkutsk          1772.875
       265   08 Jun 2027 16:49:05.353   08 Jun 2027 16:49:49.827            44.474                Novosib          5559.250
       266   08 Jun 2027 16:52:52.702   08 Jun 2027 17:01:39.126           526.424                  Delhi         65803.000
       267   08 Jun 2027 20:03:09.923   08 Jun 2027 20:03:10.304             0.381                 Moscow            47.625
       268   08 Jun 2027 20:05:21.649   08 Jun 2027 20:07:12.359           110.710                 Moscow         13838.750
       269   08 Jun 2027 21:57:46.702   08 Jun 2027 21:58:17.423            30.721               CapeTown          3840.125
       270   08 Jun 2027 22:00:18.999   08 Jun 2027 22:00:33.664            14.665               CapeTown          1833.125
       271   08 Jun 2027 22:04:21.281   08 Jun 2027 22:04:43.779            22.498               CapeTown          2812.250
       272   08 Jun 2027 22:07:34.881   08 Jun 2027 22:07:36.832             1.951               CapeTown           243.875
       273   09 Jun 2027 03:28:43.529   09 Jun 2027 03:35:26.202           402.673                Sumatra         50334.125
       274   09 Jun 2027 05:06:07.456   09 Jun 2027 05:06:54.350            46.894                Sumatra          5861.750
       275   09 Jun 2027 05:11:48.529   09 Jun 2027 05:13:43.657           115.128                Sumatra         14391.000
       276   09 Jun 2027 05:28:52.204   09 Jun 2027 05:29:34.444            42.240                Novosib          5280.000
       277   09 Jun 2027 05:29:56.222   09 Jun 2027 05:30:54.847            58.625                Novosib          7328.125
       278   09 Jun 2027 05:30:57.675   09 Jun 2027 05:31:46.956            49.281              Murmansk1          6160.125
       279   09 Jun 2027 06:50:13.012   09 Jun 2027 06:53:21.522           188.510                  Delhi         23563.750
       280   09 Jun 2027 07:03:14.613   09 Jun 2027 07:03:49.671            35.058                Novosib          4382.250
       281   09 Jun 2027 07:04:44.316   09 Jun 2027 07:05:09.382            25.066                 Moscow          3133.250
       282   09 Jun 2027 07:05:24.837   09 Jun 2027 07:05:57.075            32.238                 Moscow          4029.750
       283   09 Jun 2027 07:06:03.755   09 Jun 2027 07:06:53.969            50.214              Murmansk2          6276.750
       284   09 Jun 2027 08:14:40.572   09 Jun 2027 08:17:35.120           174.548               CapeTown         21818.500
       285   09 Jun 2027 09:46:11.756   09 Jun 2027 09:48:47.146           155.390               CapeTown         19423.750
       286   09 Jun 2027 12:02:39.440   09 Jun 2027 12:02:42.670             3.230                Anadyr1           403.750
       287   09 Jun 2027 12:04:54.594   09 Jun 2027 12:05:40.671            46.077                Anadyr1          5759.625
       288   09 Jun 2027 12:05:40.671   09 Jun 2027 12:05:59.444            18.773                Anadyr2          2346.625
       289   09 Jun 2027 12:06:29.223   09 Jun 2027 12:09:25.836           176.613               Magadan2         22076.625
       290   09 Jun 2027 12:11:26.664   09 Jun 2027 12:14:10.929           164.265               Magadan2         20533.125
       291   09 Jun 2027 13:48:36.332   09 Jun 2027 13:49:36.518            60.186               Magadan2          7523.250
       292   09 Jun 2027 15:25:02.679   09 Jun 2027 15:27:10.864           128.185                Irkutsk         16023.125
       293   09 Jun 2027 15:34:33.966   09 Jun 2027 15:40:58.839           384.873                Sumatra         48109.125
       294   09 Jun 2027 17:04:06.742   09 Jun 2027 17:05:57.893           111.151                Novosib         13893.875
       295   09 Jun 2027 17:06:20.447   09 Jun 2027 17:11:21.049           300.602                  Delhi         37575.250
       296   09 Jun 2027 20:09:54.160   09 Jun 2027 20:11:20.414            86.254                 Moscow         10781.750
       297   09 Jun 2027 20:12:17.509   09 Jun 2027 20:15:00.239           162.730                 Moscow         20341.250
       298   09 Jun 2027 22:10:04.486   09 Jun 2027 22:12:25.171           140.685               CapeTown         17585.625
       299   10 Jun 2027 03:40:26.135   10 Jun 2027 03:42:59.343           153.208                Sumatra         19151.000
       300   10 Jun 2027 03:46:15.018   10 Jun 2027 03:46:35.951            20.933                Sumatra          2616.625
       301   10 Jun 2027 04:10:01.630   10 Jun 2027 04:10:30.365            28.735              Murmansk1          3591.875
       302   10 Jun 2027 04:11:02.249   10 Jun 2027 04:11:41.481            39.232              Murmansk1          4904.000
       303   10 Jun 2027 04:43:24.745   10 Jun 2027 04:44:22.995            58.250            RioGallegos          7281.250
       304   10 Jun 2027 04:46:40.760   10 Jun 2027 04:48:07.444            86.684            RioGallegos         10835.500
       305   10 Jun 2027 05:17:39.388   10 Jun 2027 05:19:06.077            86.689                Sumatra         10836.125
       306   10 Jun 2027 05:24:20.386   10 Jun 2027 05:25:23.415            63.029                  Delhi          7878.625
       307   10 Jun 2027 05:41:06.855   10 Jun 2027 05:41:17.392            10.537                Novosib          1317.125
       308   10 Jun 2027 05:41:46.706   10 Jun 2027 05:43:26.689            99.983                Novosib         12497.875
       309   10 Jun 2027 05:46:06.842   10 Jun 2027 05:46:10.001             3.159                Norilsk           394.875
       310   10 Jun 2027 05:46:44.104   10 Jun 2027 05:47:24.363            40.259                Norilsk          5032.375
       311   10 Jun 2027 07:03:13.123   10 Jun 2027 07:05:27.818           134.695                  Delhi         16836.875
       312   10 Jun 2027 07:15:11.230   10 Jun 2027 07:15:19.365             8.135                 Moscow          1016.875
       313   10 Jun 2027 07:15:26.739   10 Jun 2027 07:16:22.752            56.013                Norilsk          7001.625
       314   10 Jun 2027 07:16:26.529   10 Jun 2027 07:17:04.972            38.443                Norilsk          4805.375
       315   10 Jun 2027 07:17:14.309   10 Jun 2027 07:17:21.839             7.530                 Moscow           941.250
       316   10 Jun 2027 07:17:31.804   10 Jun 2027 07:17:45.460            13.656                Novosib          1707.000
       317   10 Jun 2027 07:17:55.514   10 Jun 2027 07:18:54.820            59.306              Murmansk2          7413.250
       318   10 Jun 2027 08:25:00.789   10 Jun 2027 08:25:07.861             7.072               CapeTown           884.000
       319   10 Jun 2027 09:58:09.374   10 Jun 2027 09:59:58.725           109.351               CapeTown         13668.875
       320   10 Jun 2027 10:07:44.004   10 Jun 2027 10:08:38.793            54.789               CapeTown          6848.625
       321   10 Jun 2027 10:38:49.382   10 Jun 2027 10:39:20.619            31.237                Anadyr1          3904.625
       322   10 Jun 2027 10:39:54.018   10 Jun 2027 10:43:41.827           227.809                Anadyr2         28476.125
       323   10 Jun 2027 12:14:40.814   10 Jun 2027 12:15:28.098            47.284                Anadyr1          5910.500
       324   10 Jun 2027 12:17:11.715   10 Jun 2027 12:18:43.430            91.715               Magadan1         11464.375
       325   10 Jun 2027 12:22:07.692   10 Jun 2027 12:22:18.384            10.692               Magadan1          1336.500
       326   10 Jun 2027 12:23:08.988   10 Jun 2027 12:23:53.271            44.283               Magadan2          5535.375
       327   10 Jun 2027 12:24:29.850   10 Jun 2027 12:26:17.485           107.635               Magadan2         13454.375
       328   10 Jun 2027 13:52:52.537   10 Jun 2027 13:53:01.747             9.210               Magadan1          1151.250
       329   10 Jun 2027 13:53:46.207   10 Jun 2027 13:54:22.142            35.935               Magadan2          4491.875
       330   10 Jun 2027 13:55:12.963   10 Jun 2027 13:56:12.262            59.299               Magadan1          7412.375
       331   10 Jun 2027 14:45:52.995   10 Jun 2027 14:49:14.155           201.160            RioGallegos         25145.000
       332   10 Jun 2027 15:34:38.511   10 Jun 2027 15:35:04.318            25.807                Irkutsk          3225.875
       333   10 Jun 2027 15:37:49.064   10 Jun 2027 15:37:53.403             4.339                Irkutsk           542.375
       334   10 Jun 2027 15:39:41.246   10 Jun 2027 15:42:06.552           145.306                Irkutsk         18163.250
       335   10 Jun 2027 15:46:19.916   10 Jun 2027 15:49:06.404           166.488                Sumatra         20811.000
       336   10 Jun 2027 17:08:22.751   10 Jun 2027 17:10:50.581           147.830                Novosib         18478.750
       337   10 Jun 2027 17:16:07.512   10 Jun 2027 17:22:22.724           375.212                  Delhi         46901.500
       338   10 Jun 2027 20:21:51.450   10 Jun 2027 20:22:56.847            65.397                 Moscow          8174.625
       339   10 Jun 2027 21:58:47.461   10 Jun 2027 21:58:49.464             2.003                 Moscow           250.375
       340   10 Jun 2027 21:59:16.018   10 Jun 2027 21:59:22.433             6.415              Murmansk2           801.875
       341   10 Jun 2027 22:22:29.067   10 Jun 2027 22:24:12.705           103.638               CapeTown         12954.750
       342   11 Jun 2027 03:52:15.222   11 Jun 2027 03:58:00.062           344.840                Sumatra         43105.000
       343   11 Jun 2027 05:30:37.758   11 Jun 2027 05:31:06.434            28.676                Sumatra          3584.500
       344   11 Jun 2027 05:35:40.725   11 Jun 2027 05:37:27.283           106.558                Sumatra         13319.750
       345   11 Jun 2027 05:38:05.869   11 Jun 2027 05:38:30.890            25.021                  Delhi          3127.625
       346   11 Jun 2027 05:39:32.128   11 Jun 2027 05:41:27.856           115.728                  Delhi         14466.000
       347   11 Jun 2027 05:53:36.174   11 Jun 2027 05:54:01.830            25.656                Novosib          3207.000
       348   11 Jun 2027 05:54:23.324   11 Jun 2027 05:54:29.500             6.176              Murmansk2           772.000
       349   11 Jun 2027 07:16:51.312   11 Jun 2027 07:19:21.369           150.057                  Delhi         18757.125
       350   11 Jun 2027 07:25:35.563   11 Jun 2027 07:27:10.337            94.774                Novosib         11846.750
       351   11 Jun 2027 07:27:34.610   11 Jun 2027 07:28:10.812            36.202              Murmansk1          4525.250
       352   11 Jun 2027 07:28:18.661   11 Jun 2027 07:28:33.923            15.262              Murmansk1          1907.750
       353   11 Jun 2027 07:28:41.918   11 Jun 2027 07:29:02.227            20.309              Murmansk1          2538.625
       354   11 Jun 2027 07:29:02.227   11 Jun 2027 07:29:48.028            45.801              Murmansk2          5725.125
       355   11 Jun 2027 07:30:20.641   11 Jun 2027 07:30:55.378            34.737              Murmansk1          4342.125
       356   11 Jun 2027 07:31:07.033   11 Jun 2027 07:31:58.899            51.866              Murmansk2          6483.250
       357   11 Jun 2027 08:36:09.848   11 Jun 2027 08:38:25.601           135.753               CapeTown         16969.125
       358   11 Jun 2027 08:44:05.096   11 Jun 2027 08:44:39.548            34.452               CapeTown          4306.500
       359   11 Jun 2027 10:11:14.628   11 Jun 2027 10:11:25.909            11.281               CapeTown          1410.125
       360   11 Jun 2027 10:17:48.660   11 Jun 2027 10:18:52.644            63.984               CapeTown          7998.000
       361   11 Jun 2027 10:50:49.255   11 Jun 2027 10:53:04.362           135.107                Anadyr1         16888.375
       362   11 Jun 2027 10:59:53.123   11 Jun 2027 11:00:32.101            38.978                Anadyr2          4872.250
       363   11 Jun 2027 12:26:42.218   11 Jun 2027 12:27:23.785            41.567                Anadyr2          5195.875
       364   11 Jun 2027 12:29:08.736   11 Jun 2027 12:30:16.904            68.168               Magadan2          8521.000
       365   11 Jun 2027 12:30:16.904   11 Jun 2027 12:31:17.583            60.679               Magadan1          7584.875
       366   11 Jun 2027 12:34:42.553   11 Jun 2027 12:39:36.045           293.492               Magadan2         36686.500
       367   11 Jun 2027 15:01:07.280   11 Jun 2027 15:02:21.460            74.180            RioGallegos          9272.500
       368   11 Jun 2027 15:44:31.207   11 Jun 2027 15:46:15.936           104.729                Irkutsk         13091.125
       369   11 Jun 2027 15:53:00.834   11 Jun 2027 15:54:02.954            62.120                Irkutsk          7765.000
       370   11 Jun 2027 15:58:11.987   11 Jun 2027 16:01:15.810           183.823                Sumatra         22977.875
       371   11 Jun 2027 17:20:20.274   11 Jun 2027 17:21:22.139            61.865                Novosib          7733.125
       372   11 Jun 2027 17:27:54.040   11 Jun 2027 17:33:44.441           350.401                  Delhi         43800.125
       373   11 Jun 2027 20:33:49.789   11 Jun 2027 20:34:39.988            50.199                 Moscow          6274.875
       374   11 Jun 2027 20:35:51.739   11 Jun 2027 20:38:46.973           175.234                 Moscow         21904.250
       375   11 Jun 2027 22:35:01.893   11 Jun 2027 22:36:36.079            94.186               CapeTown         11773.250
       376   12 Jun 2027 04:04:10.171   12 Jun 2027 04:07:18.305           188.134                Sumatra         23516.750
       377   12 Jun 2027 04:30:17.019   12 Jun 2027 04:30:43.126            26.107              Murmansk1          3263.375
       378   12 Jun 2027 05:44:31.027   12 Jun 2027 05:45:16.055            45.028                Sumatra          5628.500
       379   12 Jun 2027 05:48:24.119   12 Jun 2027 05:50:35.599           131.480                  Delhi         16435.000
       380   12 Jun 2027 05:51:30.718   12 Jun 2027 05:53:15.737           105.019                  Delhi         13127.375
       381   12 Jun 2027 06:03:40.416   12 Jun 2027 06:04:08.023            27.607                Novosib          3450.875
       382   12 Jun 2027 06:05:43.662   12 Jun 2027 06:06:06.556            22.894                Norilsk          2861.750
       383   12 Jun 2027 06:06:08.274   12 Jun 2027 06:06:24.541            16.267                Norilsk          2033.375
       384   12 Jun 2027 07:37:29.686   12 Jun 2027 07:38:45.288            75.602                 Moscow          9450.250
       385   12 Jun 2027 07:39:10.707   12 Jun 2027 07:40:21.286            70.579              Murmansk1          8822.375
       386   12 Jun 2027 07:40:22.092   12 Jun 2027 07:40:59.381            37.289              Murmansk2          4661.125
       387   12 Jun 2027 07:41:10.118   12 Jun 2027 07:41:25.536            15.418                Norilsk          1927.250
       388   12 Jun 2027 07:41:41.290   12 Jun 2027 07:42:55.611            74.321              Murmansk2          9290.125
       389   12 Jun 2027 07:42:55.611   12 Jun 2027 07:42:56.387             0.776              Murmansk1            97.000
       390   12 Jun 2027 07:43:06.037   12 Jun 2027 07:43:23.837            17.800                Norilsk          2225.000
       391   12 Jun 2027 07:43:25.477   12 Jun 2027 07:44:20.169            54.692                 Moscow          6836.500
       392   12 Jun 2027 08:47:35.757   12 Jun 2027 08:55:52.210           496.453               CapeTown         62056.625
       393   12 Jun 2027 12:41:06.710   12 Jun 2027 12:43:36.369           149.659               Magadan1         18707.375
       394   12 Jun 2027 12:43:36.369   12 Jun 2027 12:45:55.589           139.220               Magadan2         17402.500
       395   12 Jun 2027 14:20:59.738   12 Jun 2027 14:21:39.445            39.707               Magadan2          4963.375
       396   12 Jun 2027 15:08:44.254   12 Jun 2027 15:11:27.172           162.918            RioGallegos         20364.750
       397   12 Jun 2027 15:56:27.893   12 Jun 2027 15:57:46.128            78.235                Irkutsk          9779.375
       398   12 Jun 2027 16:02:58.352   12 Jun 2027 16:05:58.759           180.407                Irkutsk         22550.875
       399   12 Jun 2027 16:10:09.752   12 Jun 2027 16:13:02.530           172.778                Sumatra         21597.250
       400   12 Jun 2027 17:39:45.058   12 Jun 2027 17:44:01.745           256.687                  Delhi         32085.875
       401   12 Jun 2027 19:16:29.265   12 Jun 2027 19:17:09.109            39.844                  Delhi          4980.500
       402   12 Jun 2027 20:42:33.598   12 Jun 2027 20:43:03.696            30.098              Murmansk1          3762.250
       403   12 Jun 2027 20:45:49.026   12 Jun 2027 20:46:27.467            38.441                 Moscow          4805.125
       404   12 Jun 2027 20:48:57.848   12 Jun 2027 20:50:42.841           104.993                 Moscow         13124.125
       405   12 Jun 2027 21:13:29.122   12 Jun 2027 21:15:17.358           108.236               CapeTown         13529.500
       406   13 Jun 2027 03:04:15.897   13 Jun 2027 03:05:02.166            46.269                Irkutsk          5783.625
       407   13 Jun 2027 03:05:32.664   13 Jun 2027 03:06:11.306            38.642              Murmansk2          4830.250
       408   13 Jun 2027 03:06:24.934   13 Jun 2027 03:06:48.777            23.843                Novosib          2980.375
       409   13 Jun 2027 03:41:35.206   13 Jun 2027 03:44:27.313           172.107            RioGallegos         21513.375
       410   13 Jun 2027 04:16:10.730   13 Jun 2027 04:18:32.245           141.515                Sumatra         17689.375
       411   13 Jun 2027 04:38:20.524   13 Jun 2027 04:38:30.297             9.773              Murmansk1          1221.625
       412   13 Jun 2027 04:38:30.351   13 Jun 2027 04:38:56.255            25.904                Norilsk          3238.000
       413   13 Jun 2027 04:39:02.145   13 Jun 2027 04:39:06.215             4.070              Murmansk1           508.750
       414   13 Jun 2027 04:39:09.928   13 Jun 2027 04:39:13.006             3.078                 Moscow           384.750
       415   13 Jun 2027 04:39:17.022   13 Jun 2027 04:40:28.632            71.610                Irkutsk          8951.250
       416   13 Jun 2027 04:40:49.886   13 Jun 2027 04:41:17.717            27.831                Novosib          3478.875
       417   13 Jun 2027 04:41:31.781   13 Jun 2027 04:42:40.618            68.837              Murmansk2          8604.625
       418   13 Jun 2027 06:00:34.297   13 Jun 2027 06:02:57.527           143.230                  Delhi         17903.750
       419   13 Jun 2027 06:06:33.805   13 Jun 2027 06:08:10.204            96.399                  Delhi         12049.875
       420   13 Jun 2027 06:16:37.042   13 Jun 2027 06:16:47.329            10.287                Norilsk          1285.875
       421   13 Jun 2027 06:16:57.948   13 Jun 2027 06:18:21.549            83.601                Norilsk         10450.125
       422   13 Jun 2027 07:51:29.467   13 Jun 2027 07:52:10.773            41.306              Murmansk1          5163.250
       423   13 Jun 2027 07:52:13.253   13 Jun 2027 07:52:38.463            25.210              Murmansk1          3151.250
       424   13 Jun 2027 07:52:46.487   13 Jun 2027 07:53:55.142            68.655                 Moscow          8581.875
       425   13 Jun 2027 08:59:11.355   13 Jun 2027 09:05:56.457           405.102               CapeTown         50637.750
       426   13 Jun 2027 11:15:31.029   13 Jun 2027 11:16:49.020            77.991                Anadyr2          9748.875
       427   13 Jun 2027 12:53:05.475   13 Jun 2027 12:55:51.924           166.449               Magadan2         20806.125
       428   13 Jun 2027 13:02:39.479   13 Jun 2027 13:05:36.666           177.187               Magadan1         22148.375
       429   13 Jun 2027 14:49:43.607   13 Jun 2027 14:50:07.414            23.807                Sumatra          2975.875
       430   13 Jun 2027 15:20:39.073   13 Jun 2027 15:22:31.854           112.781            RioGallegos         14097.625
       431   13 Jun 2027 15:30:10.612   13 Jun 2027 15:31:39.248            88.636            RioGallegos         11079.500
       432   13 Jun 2027 16:11:27.919   13 Jun 2027 16:13:24.967           117.048                Irkutsk         14631.000
       433   13 Jun 2027 16:22:13.113   13 Jun 2027 16:24:07.171           114.058                Sumatra         14257.250
       434   13 Jun 2027 17:47:28.770   13 Jun 2027 17:49:11.387           102.617                Novosib         12827.125
       435   13 Jun 2027 17:51:39.923   13 Jun 2027 17:54:24.162           164.239                  Delhi         20529.875
       436   13 Jun 2027 18:01:12.838   13 Jun 2027 18:01:12.851             0.013                  Delhi             1.625
       437   13 Jun 2027 19:28:59.558   13 Jun 2027 19:29:24.048            24.490                  Delhi          3061.250
       438   13 Jun 2027 20:55:29.288   13 Jun 2027 20:56:05.887            36.599              Murmansk1          4574.875
       439   13 Jun 2027 20:57:31.769   13 Jun 2027 20:59:15.851           104.082              Murmansk2         13010.250
       440   13 Jun 2027 21:01:04.681   13 Jun 2027 21:02:39.976            95.295                 Moscow         11911.875
       441   13 Jun 2027 21:24:55.216   13 Jun 2027 21:26:57.727           122.511               CapeTown         15313.875
