uniorb/output/strategy_1/Drop/Drop_KinoSat_110710.txt

KinoSat_110710
-------------------------
    Access    *     Start Time (UTCG)     *     Stop Time (UTCG)  *   Duration (s)        *       Station  *  Data (Mbytes)
         1   01 Jun 2027 04:29:53.992   01 Jun 2027 04:30:43.239            49.247               Magadan2          1538.969
         2   01 Jun 2027 04:30:43.239   01 Jun 2027 04:30:57.673            14.434               Magadan1           451.062
         3   01 Jun 2027 04:31:14.438   01 Jun 2027 04:32:18.998            64.560                Irkutsk          2017.500
         4   01 Jun 2027 04:32:19.562   01 Jun 2027 04:32:50.922            31.360               Magadan2           980.000
         5   01 Jun 2027 04:33:07.653   01 Jun 2027 04:33:19.062            11.409               Magadan2           356.531
         6   01 Jun 2027 04:33:33.445   01 Jun 2027 04:33:58.580            25.135                Anadyr1           785.469
         7   01 Jun 2027 05:10:19.587   01 Jun 2027 05:12:10.904           111.317            RioGallegos          3478.656
         8   01 Jun 2027 06:04:47.911   01 Jun 2027 06:05:11.626            23.715                Novosib           741.094
         9   01 Jun 2027 06:05:15.318   01 Jun 2027 06:08:58.300           222.982                Irkutsk          6968.188
        10   01 Jun 2027 06:09:11.145   01 Jun 2027 06:09:43.925            32.780              Murmansk1          1024.375
        11   01 Jun 2027 06:09:43.925   01 Jun 2027 06:10:09.506            25.581              Murmansk2           799.406
        12   01 Jun 2027 06:10:41.058   01 Jun 2027 06:10:49.878             8.820                Novosib           275.625
        13   01 Jun 2027 06:12:25.388   01 Jun 2027 06:12:50.019            24.631              Murmansk2           769.719
        14   01 Jun 2027 06:13:37.924   01 Jun 2027 06:14:04.801            26.877              Murmansk2           839.906
        15   01 Jun 2027 06:44:27.298   01 Jun 2027 06:45:40.426            73.128            RioGallegos          2285.250
        16   01 Jun 2027 07:19:51.505   01 Jun 2027 07:22:05.637           134.132                Sumatra          4191.625
        17   01 Jun 2027 07:32:54.879   01 Jun 2027 07:33:49.752            54.873                  Delhi          1714.781
        18   01 Jun 2027 07:41:25.005   01 Jun 2027 07:43:56.831           151.826                Irkutsk          4744.563
        19   01 Jun 2027 07:44:07.434   01 Jun 2027 07:44:31.976            24.542                Novosib           766.938
        20   01 Jun 2027 07:44:44.984   01 Jun 2027 07:44:51.484             6.500                Norilsk           203.125
        21   01 Jun 2027 07:44:55.886   01 Jun 2027 07:46:20.216            84.330              Murmansk1          2635.312
        22   01 Jun 2027 07:46:20.216   01 Jun 2027 07:47:51.686            91.470              Murmansk2          2858.438
        23   01 Jun 2027 07:48:56.062   01 Jun 2027 07:49:16.142            20.080                Norilsk           627.500
        24   01 Jun 2027 07:51:05.146   01 Jun 2027 07:51:11.554             6.408              Murmansk2           200.250
        25   01 Jun 2027 07:51:22.385   01 Jun 2027 07:51:46.616            24.231              Murmansk2           757.219
        26   01 Jun 2027 08:22:19.885   01 Jun 2027 08:23:23.540            63.655            RioGallegos          1989.219
        27   01 Jun 2027 08:24:25.409   01 Jun 2027 08:24:56.198            30.789            RioGallegos           962.156
        28   01 Jun 2027 08:26:13.733   01 Jun 2027 08:26:15.815             2.082            RioGallegos            65.062
        29   01 Jun 2027 08:30:58.762   01 Jun 2027 08:31:40.508            41.746            RioGallegos          1304.562
        30   01 Jun 2027 08:56:31.779   01 Jun 2027 08:56:37.395             5.616                Sumatra           175.500
        31   01 Jun 2027 08:57:10.312   01 Jun 2027 08:57:32.738            22.426                Sumatra           700.812
        32   01 Jun 2027 09:03:39.516   01 Jun 2027 09:05:18.825            99.309                  Delhi          3103.406
        33   01 Jun 2027 09:06:50.678   01 Jun 2027 09:06:52.423             1.745                  Delhi            54.531
        34   01 Jun 2027 09:19:04.345   01 Jun 2027 09:20:24.799            80.454                Novosib          2514.187
        35   01 Jun 2027 09:20:33.449   01 Jun 2027 09:21:54.063            80.614                Novosib          2519.187
        36   01 Jun 2027 09:22:01.108   01 Jun 2027 09:23:50.469           109.361              Murmansk2          3417.531
        37   01 Jun 2027 10:41:52.752   01 Jun 2027 10:45:31.366           218.614                  Delhi          6831.687
        38   01 Jun 2027 10:54:43.621   01 Jun 2027 10:55:34.205            50.584                 Moscow          1580.750
        39   01 Jun 2027 10:55:38.661   01 Jun 2027 10:55:45.985             7.324              Murmansk2           228.875
        40   01 Jun 2027 10:55:58.334   01 Jun 2027 10:57:26.849            88.515                 Moscow          2766.094
        41   01 Jun 2027 10:57:36.188   01 Jun 2027 11:01:18.557           222.369              Murmansk1          6949.031
        42   01 Jun 2027 11:01:32.250   01 Jun 2027 11:01:49.170            16.920                Norilsk           528.750
        43   01 Jun 2027 12:05:02.002   01 Jun 2027 12:06:51.419           109.417               CapeTown          3419.281
        44   01 Jun 2027 12:24:20.966   01 Jun 2027 12:25:13.773            52.807                 Moscow          1650.219
        45   01 Jun 2027 12:27:49.076   01 Jun 2027 12:30:42.833           173.757              Murmansk1          5429.906
        46   01 Jun 2027 12:31:06.322   01 Jun 2027 12:32:56.291           109.969              Murmansk1          3436.531
        47   01 Jun 2027 12:43:03.332   01 Jun 2027 12:49:53.226           409.894                Anadyr1         12809.188
        48   01 Jun 2027 14:06:11.503   01 Jun 2027 14:06:36.180            24.677              Murmansk2           771.156
        49   01 Jun 2027 14:18:06.140   01 Jun 2027 14:19:45.576            99.436                Anadyr1          3107.375
        50   01 Jun 2027 14:19:52.279   01 Jun 2027 14:23:25.039           212.760                Anadyr2          6648.750
        51   01 Jun 2027 15:48:06.940   01 Jun 2027 15:49:26.169            79.229              Murmansk2          2475.906
        52   01 Jun 2027 15:53:56.359   01 Jun 2027 15:56:50.034           173.675                Anadyr1          5427.344
        53   01 Jun 2027 15:57:57.213   01 Jun 2027 15:59:44.305           107.092               Magadan1          3346.625
        54   01 Jun 2027 15:59:44.305   01 Jun 2027 16:01:56.789           132.484               Magadan2          4140.125
        55   01 Jun 2027 17:29:50.829   01 Jun 2027 17:32:03.900           133.071                Anadyr1          4158.469
        56   01 Jun 2027 17:32:08.110   01 Jun 2027 17:34:44.410           156.300               Magadan1          4884.375
        57   01 Jun 2027 17:34:44.410   01 Jun 2027 17:35:05.921            21.511               Magadan2           672.219
        58   01 Jun 2027 17:35:27.814   01 Jun 2027 17:35:50.037            22.223               Magadan2           694.469
        59   01 Jun 2027 18:24:24.320   01 Jun 2027 18:28:11.144           226.824            RioGallegos          7088.250
        60   01 Jun 2027 18:28:26.527   01 Jun 2027 18:30:31.198           124.671            RioGallegos          3895.969
        61   01 Jun 2027 19:07:42.992   01 Jun 2027 19:09:39.260           116.268                Norilsk          3633.375
        62   01 Jun 2027 19:09:57.413   01 Jun 2027 19:13:11.378           193.965                Norilsk          6061.406
        63   01 Jun 2027 19:13:57.668   01 Jun 2027 19:14:39.354            41.686                Irkutsk          1302.687
        64   01 Jun 2027 19:14:59.331   01 Jun 2027 19:17:56.262           176.931                Novosib          5529.094
        65   01 Jun 2027 19:29:40.690   01 Jun 2027 19:30:31.579            50.889                Sumatra          1590.281
        66   01 Jun 2027 20:47:41.121   01 Jun 2027 20:48:36.064            54.943                Novosib          1716.969
        67   01 Jun 2027 20:55:33.947   01 Jun 2027 21:00:38.641           304.694                  Delhi          9521.688
        68   01 Jun 2027 22:22:02.747   01 Jun 2027 22:26:11.472           248.725              Murmansk2          7772.656
        69   01 Jun 2027 22:27:06.002   01 Jun 2027 22:33:08.673           362.671                 Moscow         11333.469
        70   02 Jun 2027 00:01:09.264   02 Jun 2027 00:02:46.015            96.751                 Moscow          3023.469
        71   02 Jun 2027 00:25:34.075   02 Jun 2027 00:27:04.601            90.526               CapeTown          2828.938
        72   02 Jun 2027 00:27:46.313   02 Jun 2027 00:29:12.824            86.511               CapeTown          2703.469
        73   02 Jun 2027 01:24:56.799   02 Jun 2027 01:25:05.477             8.678               Magadan1           271.187
        74   02 Jun 2027 01:25:42.313   02 Jun 2027 01:26:47.359            65.046               Magadan2          2032.687
        75   02 Jun 2027 01:33:44.103   02 Jun 2027 01:35:05.562            81.459              Murmansk1          2545.594
        76   02 Jun 2027 01:36:57.872   02 Jun 2027 01:37:38.531            40.659                 Moscow          1270.594
        77   02 Jun 2027 01:40:13.544   02 Jun 2027 01:40:33.592            20.048                 Moscow           626.500
        78   02 Jun 2027 01:45:59.885   02 Jun 2027 01:46:10.956            11.071                 Moscow           345.969
        79   02 Jun 2027 02:01:30.551   02 Jun 2027 02:02:11.150            40.599               CapeTown          1268.719
        80   02 Jun 2027 02:02:56.378   02 Jun 2027 02:03:36.489            40.111               CapeTown          1253.469
        81   02 Jun 2027 02:57:40.637   02 Jun 2027 03:00:19.390           158.753               Magadan2          4961.031
        82   02 Jun 2027 03:03:18.374   02 Jun 2027 03:03:29.190            10.816                Anadyr2           338.000
        83   02 Jun 2027 03:03:33.309   02 Jun 2027 03:05:00.578            87.269               Magadan2          2727.156
        84   02 Jun 2027 03:05:00.578   02 Jun 2027 03:05:16.081            15.503               Magadan1           484.469
        85   02 Jun 2027 03:05:21.856   02 Jun 2027 03:05:53.667            31.811                Anadyr1           994.094
        86   02 Jun 2027 03:05:54.467   02 Jun 2027 03:06:51.331            56.864               Magadan1          1777.000
        87   02 Jun 2027 03:06:55.241   02 Jun 2027 03:07:19.124            23.883               Magadan1           746.344
        88   02 Jun 2027 03:07:32.391   02 Jun 2027 03:09:04.438            92.047               Magadan2          2876.469
        89   02 Jun 2027 04:41:05.398   02 Jun 2027 04:42:36.120            90.722                Irkutsk          2835.062
        90   02 Jun 2027 04:42:53.722   02 Jun 2027 04:43:38.410            44.688                Irkutsk          1396.500
        91   02 Jun 2027 04:43:42.670   02 Jun 2027 04:45:35.612           112.942                Anadyr2          3529.437
        92   02 Jun 2027 05:21:55.980   02 Jun 2027 05:23:55.195           119.215            RioGallegos          3725.469
        93   02 Jun 2027 06:15:44.200   02 Jun 2027 06:15:47.261             3.061                Irkutsk            95.656
        94   02 Jun 2027 06:16:08.550   02 Jun 2027 06:17:10.165            61.615                Novosib          1925.469
        95   02 Jun 2027 06:17:18.192   02 Jun 2027 06:17:36.088            17.896                Norilsk           559.250
        96   02 Jun 2027 06:17:44.466   02 Jun 2027 06:18:12.218            27.752                Irkutsk           867.250
        97   02 Jun 2027 06:18:17.246   02 Jun 2027 06:18:49.932            32.686                Norilsk          1021.438
        98   02 Jun 2027 06:18:56.164   02 Jun 2027 06:19:31.092            34.928                Norilsk          1091.500
        99   02 Jun 2027 06:19:33.198   02 Jun 2027 06:21:08.700            95.502               Magadan1          2984.438
       100   02 Jun 2027 06:21:28.916   02 Jun 2027 06:22:57.295            88.379                Novosib          2761.844
       101   02 Jun 2027 06:23:00.353   02 Jun 2027 06:24:41.574           101.221              Murmansk2          3163.156
       102   02 Jun 2027 06:25:25.988   02 Jun 2027 06:25:45.043            19.055              Murmansk1           595.469
       103   02 Jun 2027 06:56:29.574   02 Jun 2027 06:59:46.095           196.521            RioGallegos          6141.281
       104   02 Jun 2027 07:00:59.255   02 Jun 2027 07:01:12.961            13.706            RioGallegos           428.313
       105   02 Jun 2027 07:31:36.987   02 Jun 2027 07:35:43.179           246.192                Sumatra          7693.500
       106   02 Jun 2027 07:53:02.244   02 Jun 2027 07:54:41.762            99.518                Novosib          3109.938
       107   02 Jun 2027 07:54:54.183   02 Jun 2027 07:55:03.628             9.445                Irkutsk           295.156
       108   02 Jun 2027 07:55:13.114   02 Jun 2027 07:55:48.874            35.760                Norilsk          1117.500
       109   02 Jun 2027 07:55:50.499   02 Jun 2027 07:56:14.727            24.228                Novosib           757.125
       110   02 Jun 2027 07:56:29.858   02 Jun 2027 07:57:41.464            71.606                Irkutsk          2237.687
       111   02 Jun 2027 07:58:21.316   02 Jun 2027 07:59:56.306            94.990              Murmansk2          2968.437
       112   02 Jun 2027 07:59:56.306   02 Jun 2027 08:00:02.978             6.672              Murmansk1           208.500
       113   02 Jun 2027 08:00:15.363   02 Jun 2027 08:00:35.337            19.974              Murmansk2           624.187
       114   02 Jun 2027 08:02:05.556   02 Jun 2027 08:02:54.813            49.257              Murmansk1          1539.281
       115   02 Jun 2027 08:34:59.197   02 Jun 2027 08:35:26.552            27.355            RioGallegos           854.844
       116   02 Jun 2027 09:09:17.664   02 Jun 2027 09:10:02.905            45.241                Sumatra          1413.781
       117   02 Jun 2027 09:12:54.533   02 Jun 2027 09:13:23.002            28.469                Sumatra           889.656
       118   02 Jun 2027 09:15:35.669   02 Jun 2027 09:18:17.235           161.566                  Delhi          5048.937
       119   02 Jun 2027 09:31:25.705   02 Jun 2027 09:32:51.399            85.694                 Moscow          2677.937
       120   02 Jun 2027 09:33:09.566   02 Jun 2027 09:35:06.476           116.910                Novosib          3653.438
       121   02 Jun 2027 09:35:08.799   02 Jun 2027 09:35:37.385            28.586                 Moscow           893.313
       122   02 Jun 2027 09:35:47.880   02 Jun 2027 09:36:16.112            28.232              Murmansk2           882.250
       123   02 Jun 2027 09:36:16.405   02 Jun 2027 09:36:52.719            36.314                Norilsk          1134.812
       124   02 Jun 2027 10:55:04.551   02 Jun 2027 10:57:40.265           155.714                  Delhi          4866.063
       125   02 Jun 2027 11:04:16.813   02 Jun 2027 11:04:22.799             5.986                 Moscow           187.062
       126   02 Jun 2027 11:04:38.712   02 Jun 2027 11:05:08.775            30.063              Murmansk1           939.469
       127   02 Jun 2027 11:05:14.425   02 Jun 2027 11:05:29.896            15.471              Murmansk2           483.469
       128   02 Jun 2027 11:05:29.896   02 Jun 2027 11:05:54.537            24.641              Murmansk1           770.031
       129   02 Jun 2027 11:05:58.360   02 Jun 2027 11:06:35.893            37.533                Novosib          1172.906
       130   02 Jun 2027 11:06:39.077   02 Jun 2027 11:06:50.964            11.887                Norilsk           371.469
       131   02 Jun 2027 11:06:52.083   02 Jun 2027 11:07:07.675            15.592                Novosib           487.250
       132   02 Jun 2027 11:07:25.933   02 Jun 2027 11:11:19.027           233.094              Murmansk2          7284.188
       133   02 Jun 2027 11:11:19.027   02 Jun 2027 11:12:11.663            52.636              Murmansk1          1644.875
       134   02 Jun 2027 12:15:52.460   02 Jun 2027 12:18:30.847           158.387               CapeTown          4949.594
       135   02 Jun 2027 12:36:37.552   02 Jun 2027 12:37:14.438            36.886                 Moscow          1152.687
       136   02 Jun 2027 12:40:01.455   02 Jun 2027 12:42:46.447           164.992              Murmansk1          5156.000
       137   02 Jun 2027 12:54:50.369   02 Jun 2027 12:58:42.669           232.300                Anadyr2          7259.375
       138   02 Jun 2027 12:58:49.523   02 Jun 2027 13:00:53.690           124.167                Anadyr1          3880.219
       139   02 Jun 2027 14:18:41.867   02 Jun 2027 14:18:52.645            10.778              Murmansk1           336.812
       140   02 Jun 2027 14:19:51.779   02 Jun 2027 14:20:21.380            29.601              Murmansk1           925.031
       141   02 Jun 2027 14:21:40.106   02 Jun 2027 14:21:59.399            19.293              Murmansk1           602.906
       142   02 Jun 2027 14:30:05.698   02 Jun 2027 14:34:20.377           254.679                Anadyr1          7958.719
       143   02 Jun 2027 14:34:34.199   02 Jun 2027 14:39:02.275           268.076               Magadan2          8377.375
       144   02 Jun 2027 16:05:57.698   02 Jun 2027 16:07:18.100            80.402                Anadyr1          2512.562
       145   02 Jun 2027 16:07:52.330   02 Jun 2027 16:07:52.502             0.172                Anadyr2             5.375
       146   02 Jun 2027 16:08:26.737   02 Jun 2027 16:12:34.954           248.217               Magadan1          7756.781
       147   02 Jun 2027 16:16:33.659   02 Jun 2027 16:16:43.216             9.557               Magadan2           298.656
       148   02 Jun 2027 17:41:51.284   02 Jun 2027 17:45:00.668           189.384                Anadyr2          5918.250
       149   02 Jun 2027 17:45:08.389   02 Jun 2027 17:48:16.467           188.078                Norilsk          5877.438
       150   02 Jun 2027 17:51:39.068   02 Jun 2027 17:53:29.579           110.511                Irkutsk          3453.469
       151   02 Jun 2027 18:36:12.981   02 Jun 2027 18:39:19.004           186.023            RioGallegos          5813.219
       152   02 Jun 2027 19:19:43.375   02 Jun 2027 19:21:14.274            90.899                Norilsk          2840.594
       153   02 Jun 2027 19:21:26.967   02 Jun 2027 19:21:43.971            17.004               Magadan1           531.375
       154   02 Jun 2027 19:21:59.389   02 Jun 2027 19:22:22.835            23.446               Magadan1           732.688
       155   02 Jun 2027 19:23:43.686   02 Jun 2027 19:23:59.433            15.747               Magadan2           492.094
       156   02 Jun 2027 19:24:27.876   02 Jun 2027 19:25:59.617            91.741                Irkutsk          2866.906
       157   02 Jun 2027 19:27:01.867   02 Jun 2027 19:31:52.169           290.302                Novosib          9071.937
       158   02 Jun 2027 19:37:32.072   02 Jun 2027 19:41:17.143           225.071                Sumatra          7033.469
       159   02 Jun 2027 21:01:24.006   02 Jun 2027 21:01:53.817            29.811                Novosib           931.594
       160   02 Jun 2027 21:02:14.245   02 Jun 2027 21:03:12.145            57.900                Novosib          1809.375
       161   02 Jun 2027 21:05:28.331   02 Jun 2027 21:05:50.551            22.220                Novosib           694.375
       162   02 Jun 2027 21:07:17.464   02 Jun 2027 21:11:54.599           277.135                  Delhi          8660.469
       163   02 Jun 2027 22:34:00.190   02 Jun 2027 22:40:10.277           370.087              Murmansk1         11565.219
       164   02 Jun 2027 22:40:35.002   02 Jun 2027 22:45:22.181           287.179                 Moscow          8974.344
       165   03 Jun 2027 00:09:47.509   03 Jun 2027 00:10:45.227            57.718              Murmansk2          1803.688
       166   03 Jun 2027 00:13:06.975   03 Jun 2027 00:14:58.581           111.606                 Moscow          3487.687
       167   03 Jun 2027 00:37:17.440   03 Jun 2027 00:39:03.617           106.177               CapeTown          3318.031
       168   03 Jun 2027 00:39:38.979   03 Jun 2027 00:41:04.538            85.559               CapeTown          2673.719
       169   03 Jun 2027 01:36:28.994   03 Jun 2027 01:37:07.074            38.080               Magadan2          1190.000
       170   03 Jun 2027 01:45:45.582   03 Jun 2027 01:46:06.786            21.204              Murmansk2           662.625
       171   03 Jun 2027 01:46:17.499   03 Jun 2027 01:46:26.543             9.044              Murmansk2           282.625
       172   03 Jun 2027 01:49:00.964   03 Jun 2027 01:51:36.322           155.358                 Moscow          4854.938
       173   03 Jun 2027 02:13:58.435   03 Jun 2027 02:14:09.742            11.307               CapeTown           353.344
       174   03 Jun 2027 03:09:32.351   03 Jun 2027 03:09:45.208            12.857               Magadan2           401.781
       175   03 Jun 2027 03:09:52.309   03 Jun 2027 03:10:15.494            23.185               Magadan1           724.531
       176   03 Jun 2027 03:10:15.494   03 Jun 2027 03:10:59.863            44.369               Magadan2          1386.531
       177   03 Jun 2027 03:15:10.629   03 Jun 2027 03:22:26.820           436.191                Anadyr2         13630.969
       178   03 Jun 2027 04:50:42.689   03 Jun 2027 04:50:54.822            12.133               Magadan1           379.156
       179   03 Jun 2027 04:51:25.402   03 Jun 2027 04:54:09.994           164.592                Irkutsk          5143.500
       180   03 Jun 2027 04:54:12.092   03 Jun 2027 04:54:34.365            22.273                Norilsk           696.031
       181   03 Jun 2027 04:54:36.143   03 Jun 2027 04:54:51.908            15.765                Irkutsk           492.656
       182   03 Jun 2027 04:55:09.600   03 Jun 2027 04:57:45.200           155.600                Anadyr2          4862.500
       183   03 Jun 2027 05:33:35.769   03 Jun 2027 05:34:13.914            38.145            RioGallegos          1192.031
       184   03 Jun 2027 05:34:58.727   03 Jun 2027 05:36:26.237            87.510            RioGallegos          2734.687
       185   03 Jun 2027 06:27:27.933   03 Jun 2027 06:28:42.834            74.901               Magadan2          2340.656
       186   03 Jun 2027 06:28:56.067   03 Jun 2027 06:29:01.997             5.930               Magadan2           185.313
       187   03 Jun 2027 06:29:13.361   03 Jun 2027 06:29:18.191             4.830                Norilsk           150.937
       188   03 Jun 2027 06:29:21.217   03 Jun 2027 06:31:29.164           127.947               Magadan2          3998.344
       189   03 Jun 2027 06:31:39.088   03 Jun 2027 06:31:47.663             8.575                Irkutsk           267.969
       190   03 Jun 2027 06:31:48.244   03 Jun 2027 06:34:03.643           135.399              Murmansk2          4231.219
       191   03 Jun 2027 06:34:16.709   03 Jun 2027 06:34:29.755            13.046                Novosib           407.688
       192   03 Jun 2027 07:08:35.258   03 Jun 2027 07:10:06.126            90.868            RioGallegos          2839.625
       193   03 Jun 2027 07:43:28.621   03 Jun 2027 07:44:36.342            67.721                Sumatra          2116.281
       194   03 Jun 2027 07:45:40.463   03 Jun 2027 07:46:50.350            69.887                Sumatra          2183.969
       195   03 Jun 2027 07:54:26.085   03 Jun 2027 07:55:25.664            59.579                  Delhi          1861.844
       196   03 Jun 2027 08:05:25.176   03 Jun 2027 08:06:04.852            39.676                Novosib          1239.875
       197   03 Jun 2027 08:06:14.577   03 Jun 2027 08:07:32.511            77.934              Murmansk1          2435.438
       198   03 Jun 2027 08:07:35.397   03 Jun 2027 08:07:51.653            16.256                Irkutsk           508.000
       199   03 Jun 2027 08:08:02.680   03 Jun 2027 08:11:26.355           203.675              Murmansk2          6364.844
       200   03 Jun 2027 09:27:37.123   03 Jun 2027 09:29:49.970           132.847                  Delhi          4151.469
       201   03 Jun 2027 09:43:03.613   03 Jun 2027 09:43:55.619            52.006                Novosib          1625.187
       202   03 Jun 2027 09:44:04.326   03 Jun 2027 09:44:32.377            28.051              Murmansk2           876.594
       203   03 Jun 2027 09:44:36.140   03 Jun 2027 09:45:19.930            43.790                Norilsk          1368.438
       204   03 Jun 2027 09:45:51.820   03 Jun 2027 09:46:52.040            60.220                 Moscow          1881.875
       205   03 Jun 2027 11:15:26.388   03 Jun 2027 11:16:04.485            38.097              Murmansk1          1190.531
       206   03 Jun 2027 11:16:10.758   03 Jun 2027 11:16:27.713            16.955              Murmansk2           529.844
       207   03 Jun 2027 11:16:27.714   03 Jun 2027 11:17:05.307            37.593                 Moscow          1174.781
       208   03 Jun 2027 11:17:12.274   03 Jun 2027 11:17:30.711            18.437              Murmansk2           576.156
       209   03 Jun 2027 11:17:30.711   03 Jun 2027 11:17:56.197            25.486              Murmansk1           796.438
       210   03 Jun 2027 11:18:07.862   03 Jun 2027 11:18:24.700            16.838                Novosib           526.187
       211   03 Jun 2027 11:18:32.189   03 Jun 2027 11:18:38.204             6.015                Novosib           187.969
       212   03 Jun 2027 11:18:47.937   03 Jun 2027 11:19:13.317            25.380              Murmansk1           793.125
       213   03 Jun 2027 11:19:13.317   03 Jun 2027 11:19:25.040            11.723              Murmansk2           366.344
       214   03 Jun 2027 11:19:36.067   03 Jun 2027 11:21:15.941            99.874                 Moscow          3121.062
       215   03 Jun 2027 11:21:37.061   03 Jun 2027 11:22:28.280            51.219                 Moscow          1600.594
       216   03 Jun 2027 12:27:10.142   03 Jun 2027 12:30:15.890           185.748               CapeTown          5804.625
       217   03 Jun 2027 12:34:14.451   03 Jun 2027 12:34:46.726            32.275               CapeTown          1008.594
       218   03 Jun 2027 12:52:15.753   03 Jun 2027 12:54:42.871           147.118              Murmansk1          4597.437
       219   03 Jun 2027 12:55:48.732   03 Jun 2027 12:56:02.796            14.064              Murmansk1           439.500
       220   03 Jun 2027 12:56:39.545   03 Jun 2027 12:56:42.417             2.872              Murmansk1            89.750
       221   03 Jun 2027 12:57:04.313   03 Jun 2027 12:57:14.572            10.259              Murmansk2           320.594
       222   03 Jun 2027 13:03:12.325   03 Jun 2027 13:03:24.491            12.166              Murmansk1           380.187
       223   03 Jun 2027 13:06:41.137   03 Jun 2027 13:12:33.162           352.025                Anadyr1         11000.781
       224   03 Jun 2027 14:34:36.115   03 Jun 2027 14:35:24.116            48.001              Murmansk1          1500.031
       225   03 Jun 2027 14:42:05.689   03 Jun 2027 14:43:37.271            91.582                Anadyr1          2861.937
       226   03 Jun 2027 14:43:39.567   03 Jun 2027 14:44:40.217            60.650                Anadyr2          1895.312
       227   03 Jun 2027 14:45:26.682   03 Jun 2027 14:45:41.533            14.851                Anadyr2           464.094
       228   03 Jun 2027 14:45:56.846   03 Jun 2027 14:50:41.553           284.707               Magadan2          8897.094
       229   03 Jun 2027 14:50:41.553   03 Jun 2027 14:52:15.711            94.158               Magadan1          2942.437
       230   03 Jun 2027 16:20:24.135   03 Jun 2027 16:22:16.824           112.689               Magadan2          3521.531
       231   03 Jun 2027 16:22:40.875   03 Jun 2027 16:24:34.645           113.770               Magadan1          3555.312
       232   03 Jun 2027 17:53:51.444   03 Jun 2027 17:55:14.463            83.019                Anadyr2          2594.344
       233   03 Jun 2027 17:55:28.992   03 Jun 2027 17:56:20.882            51.890                Anadyr1          1621.562
       234   03 Jun 2027 17:56:42.462   03 Jun 2027 18:02:13.774           331.312                Norilsk         10353.500
       235   03 Jun 2027 18:03:10.443   03 Jun 2027 18:06:07.632           177.189                Irkutsk          5537.156
       236   03 Jun 2027 19:32:15.403   03 Jun 2027 19:32:36.216            20.813               Magadan2           650.406
       237   03 Jun 2027 19:32:39.632   03 Jun 2027 19:33:11.497            31.865                Norilsk           995.781
       238   03 Jun 2027 19:35:15.247   03 Jun 2027 19:35:46.106            30.859               Magadan2           964.344
       239   03 Jun 2027 19:36:01.984   03 Jun 2027 19:37:06.189            64.205                Norilsk          2006.406
       240   03 Jun 2027 19:37:24.151   03 Jun 2027 19:37:54.305            30.154                Irkutsk           942.312
       241   03 Jun 2027 19:39:04.906   03 Jun 2027 19:44:28.244           323.338                Novosib         10104.312
       242   03 Jun 2027 21:11:35.860   03 Jun 2027 21:13:51.173           135.313                Novosib          4228.531
       243   03 Jun 2027 21:15:48.506   03 Jun 2027 21:17:09.108            80.602                Novosib          2518.813
       244   03 Jun 2027 21:19:05.982   03 Jun 2027 21:21:37.247           151.265                  Delhi          4727.031
       245   03 Jun 2027 21:21:42.741   03 Jun 2027 21:22:39.339            56.598                  Delhi          1768.688
       246   03 Jun 2027 22:45:58.651   03 Jun 2027 22:51:30.541           331.890              Murmansk1         10371.562
       247   03 Jun 2027 22:51:37.454   03 Jun 2027 22:56:39.835           302.381                 Moscow          9449.406
       248   03 Jun 2027 23:18:23.569   03 Jun 2027 23:19:24.056            60.487               CapeTown          1890.219
       249   03 Jun 2027 23:21:34.239   03 Jun 2027 23:22:15.096            40.857               CapeTown          1276.781
       250   04 Jun 2027 00:25:13.597   04 Jun 2027 00:26:15.039            61.442                 Moscow          1920.063
       251   04 Jun 2027 00:29:10.492   04 Jun 2027 00:29:20.130             9.638                 Moscow           301.187
       252   04 Jun 2027 00:31:07.814   04 Jun 2027 00:32:29.766            81.952                 Moscow          2561.000
       253   04 Jun 2027 00:49:06.043   04 Jun 2027 00:50:54.870           108.827               CapeTown          3400.844
       254   04 Jun 2027 01:47:28.128   04 Jun 2027 01:48:03.700            35.572               Magadan2          1111.625
       255   04 Jun 2027 01:49:03.393   04 Jun 2027 01:49:45.491            42.098               Magadan2          1315.563
       256   04 Jun 2027 01:54:43.074   04 Jun 2027 01:55:21.016            37.942               Magadan2          1185.688
       257   04 Jun 2027 01:57:46.949   04 Jun 2027 01:58:04.855            17.906              Murmansk2           559.563
       258   04 Jun 2027 01:58:15.001   04 Jun 2027 01:59:02.427            47.426              Murmansk1          1482.063
       259   04 Jun 2027 02:00:35.056   04 Jun 2027 02:00:45.844            10.788              Murmansk2           337.125
       260   04 Jun 2027 02:01:04.524   04 Jun 2027 02:02:17.941            73.417                 Moscow          2294.281
       261   04 Jun 2027 02:03:16.323   04 Jun 2027 02:03:24.475             8.152                 Moscow           254.750
       262   04 Jun 2027 02:03:41.477   04 Jun 2027 02:05:12.252            90.775                 Moscow          2836.719
       263   04 Jun 2027 02:30:54.066   04 Jun 2027 02:31:23.160            29.094               CapeTown           909.188
       264   04 Jun 2027 02:36:02.437   04 Jun 2027 02:36:15.386            12.949               CapeTown           404.656
       265   04 Jun 2027 03:26:11.407   04 Jun 2027 03:27:55.026           103.619                Anadyr1          3238.094
       266   04 Jun 2027 03:27:58.073   04 Jun 2027 03:30:54.871           176.798               Magadan2          5524.938
       267   04 Jun 2027 03:30:57.581   04 Jun 2027 03:31:24.719            27.138               Magadan1           848.062
       268   04 Jun 2027 03:31:51.967   04 Jun 2027 03:32:22.150            30.183                Anadyr2           943.219
       269   04 Jun 2027 03:32:24.444   04 Jun 2027 03:33:20.157            55.713               Magadan2          1741.031
       270   04 Jun 2027 05:02:50.863   04 Jun 2027 05:04:12.573            81.710               Magadan2          2553.437
       271   04 Jun 2027 05:04:18.724   04 Jun 2027 05:07:08.646           169.922                Irkutsk          5310.063
       272   04 Jun 2027 05:07:24.757   04 Jun 2027 05:08:27.070            62.313               Magadan2          1947.281
       273   04 Jun 2027 05:08:27.070   04 Jun 2027 05:09:16.092            49.022               Magadan1          1531.938
       274   04 Jun 2027 05:09:24.428   04 Jun 2027 05:09:50.900            26.472               Magadan2           827.250
       275   04 Jun 2027 05:11:15.696   04 Jun 2027 05:12:11.285            55.589                Norilsk          1737.156
       276   04 Jun 2027 05:45:18.843   04 Jun 2027 05:46:33.916            75.073            RioGallegos          2346.031
       277   04 Jun 2027 05:46:59.898   04 Jun 2027 05:47:42.679            42.781            RioGallegos          1336.906
       278   04 Jun 2027 05:48:23.780   04 Jun 2027 05:48:26.085             2.305            RioGallegos            72.031
       279   04 Jun 2027 06:24:19.414   04 Jun 2027 06:25:06.901            47.487                Sumatra          1483.969
       280   04 Jun 2027 06:38:11.913   04 Jun 2027 06:39:08.545            56.632                Irkutsk          1769.750
       281   04 Jun 2027 06:40:53.039   04 Jun 2027 06:41:04.053            11.014                Novosib           344.187
       282   04 Jun 2027 06:41:18.501   04 Jun 2027 06:41:49.730            31.229                Norilsk           975.906
       283   04 Jun 2027 06:42:00.621   04 Jun 2027 06:43:23.699            83.078                Novosib          2596.188
       284   04 Jun 2027 06:43:29.806   04 Jun 2027 06:45:48.213           138.407                Novosib          4325.219
       285   04 Jun 2027 06:45:57.428   04 Jun 2027 06:46:29.620            32.192              Murmansk2          1006.000
       286   04 Jun 2027 07:20:44.513   04 Jun 2027 07:21:58.768            74.255            RioGallegos          2320.469
       287   04 Jun 2027 07:23:44.688   04 Jun 2027 07:24:44.274            59.586            RioGallegos          1862.062
       288   04 Jun 2027 07:55:25.960   04 Jun 2027 07:58:08.870           162.910                Sumatra          5090.938
       289   04 Jun 2027 08:05:40.844   04 Jun 2027 08:07:38.705           117.861                  Delhi          3683.156
       290   04 Jun 2027 08:16:46.455   04 Jun 2027 08:17:36.387            49.932                Irkutsk          1560.375
       291   04 Jun 2027 08:17:41.469   04 Jun 2027 08:18:05.328            23.859                Novosib           745.594
       292   04 Jun 2027 08:18:13.224   04 Jun 2027 08:19:28.038            74.814              Murmansk2          2337.938
       293   04 Jun 2027 08:19:37.933   04 Jun 2027 08:20:13.967            36.034              Murmansk2          1126.062
       294   04 Jun 2027 08:20:15.806   04 Jun 2027 08:20:35.120            19.314                Norilsk           603.563
       295   04 Jun 2027 08:20:48.353   04 Jun 2027 08:21:33.189            44.836                Irkutsk          1401.125
       296   04 Jun 2027 08:22:16.771   04 Jun 2027 08:22:58.410            41.639              Murmansk2          1301.219
       297   04 Jun 2027 08:23:16.646   04 Jun 2027 08:23:48.606            31.960                 Moscow           998.750
       298   04 Jun 2027 08:26:32.201   04 Jun 2027 08:26:44.050            11.849              Murmansk1           370.281
       299   04 Jun 2027 09:00:49.959   04 Jun 2027 09:01:38.880            48.921            RioGallegos          1528.781
       300   04 Jun 2027 09:04:16.946   04 Jun 2027 09:04:19.469             2.523            RioGallegos            78.844
       301   04 Jun 2027 09:39:44.022   04 Jun 2027 09:41:47.040           123.018                  Delhi          3844.312
       302   04 Jun 2027 09:42:45.229   04 Jun 2027 09:43:37.185            51.956                  Delhi          1623.625
       303   04 Jun 2027 09:53:35.973   04 Jun 2027 09:54:00.162            24.189              Murmansk2           755.906
       304   04 Jun 2027 09:54:00.162   04 Jun 2027 09:54:18.868            18.706              Murmansk1           584.563
       305   04 Jun 2027 09:54:25.413   04 Jun 2027 09:54:57.643            32.230              Murmansk1          1007.188
       306   04 Jun 2027 09:54:57.643   04 Jun 2027 09:55:01.301             3.658              Murmansk2           114.312
       307   04 Jun 2027 09:55:02.876   04 Jun 2027 09:55:25.516            22.640                 Moscow           707.500
       308   04 Jun 2027 09:55:42.836   04 Jun 2027 09:56:15.348            32.512                Novosib          1016.000
       309   04 Jun 2027 09:56:17.831   04 Jun 2027 09:56:26.157             8.326                Novosib           260.187
       310   04 Jun 2027 09:56:28.605   04 Jun 2027 09:56:45.898            17.293                 Moscow           540.406
       311   04 Jun 2027 09:56:56.585   04 Jun 2027 09:57:22.891            26.306              Murmansk1           822.062
       312   04 Jun 2027 09:57:26.565   04 Jun 2027 09:57:28.425             1.860                Novosib            58.125
       313   04 Jun 2027 09:57:42.232   04 Jun 2027 09:57:50.105             7.873              Murmansk1           246.031
       314   04 Jun 2027 09:58:32.086   04 Jun 2027 09:58:33.739             1.653              Murmansk2            51.656
       315   04 Jun 2027 09:58:37.291   04 Jun 2027 09:59:07.236            29.945                 Moscow           935.781
       316   04 Jun 2027 10:03:51.071   04 Jun 2027 10:04:19.408            28.337              Murmansk2           885.531
       317   04 Jun 2027 11:27:20.424   04 Jun 2027 11:28:27.652            67.228                 Moscow          2100.875
       318   04 Jun 2027 11:28:32.125   04 Jun 2027 11:29:24.631            52.506                 Moscow          1640.812
       319   04 Jun 2027 11:29:31.182   04 Jun 2027 11:29:57.823            26.641              Murmansk2           832.531
       320   04 Jun 2027 11:30:13.240   04 Jun 2027 11:30:37.787            24.547              Murmansk1           767.094
       321   04 Jun 2027 11:30:49.390   04 Jun 2027 11:31:00.922            11.532              Murmansk1           360.375
       322   04 Jun 2027 11:31:00.922   04 Jun 2027 11:31:39.601            38.679              Murmansk2          1208.719
       323   04 Jun 2027 11:31:44.329   04 Jun 2027 11:32:43.034            58.705                 Moscow          1834.531
       324   04 Jun 2027 11:32:51.010   04 Jun 2027 11:33:37.759            46.749                Norilsk          1460.906
       325   04 Jun 2027 11:33:57.436   04 Jun 2027 11:34:08.378            10.942              Murmansk1           341.938
       326   04 Jun 2027 11:34:22.023   04 Jun 2027 11:34:29.778             7.755              Murmansk2           242.344
       327   04 Jun 2027 11:35:24.644   04 Jun 2027 11:36:05.716            41.072                Norilsk          1283.500
       328   04 Jun 2027 12:38:40.702   04 Jun 2027 12:41:20.058           159.356               CapeTown          4979.875
       329   04 Jun 2027 12:41:51.760   04 Jun 2027 12:44:03.366           131.606               CapeTown          4112.688
       330   04 Jun 2027 13:04:32.049   04 Jun 2027 13:05:49.832            77.783              Murmansk2          2430.719
       331   04 Jun 2027 13:05:49.832   04 Jun 2027 13:05:56.603             6.771              Murmansk1           211.594
       332   04 Jun 2027 13:06:39.927   04 Jun 2027 13:06:47.420             7.493              Murmansk2           234.156
       333   04 Jun 2027 13:13:56.333   04 Jun 2027 13:14:06.723            10.390              Murmansk1           324.688
       334   04 Jun 2027 13:18:34.418   04 Jun 2027 13:21:19.240           164.822                Anadyr2          5150.688
       335   04 Jun 2027 13:21:35.131   04 Jun 2027 13:22:36.860            61.729                Anadyr1          1929.031
       336   04 Jun 2027 13:26:54.229   04 Jun 2027 13:27:59.627            65.398                Anadyr1          2043.688
       337   04 Jun 2027 14:44:19.292   04 Jun 2027 14:45:12.531            53.239              Murmansk1          1663.719
       338   04 Jun 2027 14:46:28.003   04 Jun 2027 14:47:41.299            73.296              Murmansk1          2290.500
       339   04 Jun 2027 14:54:06.044   04 Jun 2027 14:54:31.157            25.113                Anadyr1           784.781
       340   04 Jun 2027 14:55:30.856   04 Jun 2027 14:56:32.012            61.156                Anadyr2          1911.125
       341   04 Jun 2027 14:56:43.869   04 Jun 2027 14:57:26.642            42.773                Anadyr2          1336.656
       342   04 Jun 2027 14:57:33.617   04 Jun 2027 15:01:09.448           215.831               Magadan2          6744.719
       343   04 Jun 2027 15:01:28.712   04 Jun 2027 15:04:37.291           188.579               Magadan1          5893.094
       344   04 Jun 2027 16:32:22.419   04 Jun 2027 16:34:22.783           120.364               Magadan1          3761.375
       345   04 Jun 2027 16:35:52.430   04 Jun 2027 16:36:34.852            42.422               Magadan1          1325.688
       346   04 Jun 2027 18:05:51.249   04 Jun 2027 18:08:48.442           177.193                Anadyr2          5537.281
       347   04 Jun 2027 18:08:58.900   04 Jun 2027 18:14:24.594           325.694                Norilsk         10177.938
       348   04 Jun 2027 18:15:14.568   04 Jun 2027 18:16:41.274            86.706                Irkutsk          2709.562
       349   04 Jun 2027 18:19:58.911   04 Jun 2027 18:20:44.000            45.089                Irkutsk          1409.031
       350   04 Jun 2027 18:29:20.042   04 Jun 2027 18:31:58.817           158.775                Sumatra          4961.719
       351   04 Jun 2027 18:34:17.667   04 Jun 2027 18:35:16.985            59.318                Sumatra          1853.688
       352   04 Jun 2027 19:48:39.713   04 Jun 2027 19:53:38.982           299.269                Novosib          9352.156
       353   04 Jun 2027 20:09:53.214   04 Jun 2027 20:10:30.046            36.832                Sumatra          1151.000
       354   04 Jun 2027 21:23:12.015   04 Jun 2027 21:26:43.857           211.842              Murmansk2          6620.062
       355   04 Jun 2027 21:30:58.660   04 Jun 2027 21:32:31.358            92.698                  Delhi          2896.812
       356   04 Jun 2027 21:32:49.419   04 Jun 2027 21:33:53.965            64.546                  Delhi          2017.062
       357   04 Jun 2027 21:40:29.991   04 Jun 2027 21:41:21.877            51.886                  Delhi          1621.437
       358   04 Jun 2027 22:57:57.880   04 Jun 2027 22:59:38.231           100.351              Murmansk1          3135.969
       359   04 Jun 2027 22:59:46.841   04 Jun 2027 23:03:47.611           240.770              Murmansk2          7524.062
       360   04 Jun 2027 23:04:42.310   04 Jun 2027 23:05:45.117            62.807                 Moscow          1962.719
       361   04 Jun 2027 23:07:08.142   04 Jun 2027 23:08:06.600            58.458                 Moscow          1826.812
       362   04 Jun 2027 23:28:59.345   04 Jun 2027 23:30:49.060           109.715               CapeTown          3428.594
       363   04 Jun 2027 23:31:53.095   04 Jun 2027 23:33:52.671           119.576               CapeTown          3736.750
       364   05 Jun 2027 00:34:22.921   05 Jun 2027 00:35:34.334            71.413              Murmansk2          2231.656
       365   05 Jun 2027 00:37:19.085   05 Jun 2027 00:38:43.582            84.497                 Moscow          2640.531
       366   05 Jun 2027 01:00:59.670   05 Jun 2027 01:01:55.243            55.573               CapeTown          1736.656
       367   05 Jun 2027 01:09:22.234   05 Jun 2027 01:10:28.304            66.070               CapeTown          2064.687
       368   05 Jun 2027 01:59:07.771   05 Jun 2027 02:00:34.365            86.594               Magadan2          2706.063
       369   05 Jun 2027 02:01:36.825   05 Jun 2027 02:01:37.583             0.758               Magadan1            23.687
       370   05 Jun 2027 02:01:47.634   05 Jun 2027 02:02:26.959            39.325               Magadan2          1228.906
       371   05 Jun 2027 02:08:01.169   05 Jun 2027 02:08:32.123            30.954               Magadan2           967.313
       372   05 Jun 2027 02:09:48.165   05 Jun 2027 02:10:51.481            63.316              Murmansk1          1978.625
       373   05 Jun 2027 02:11:22.771   05 Jun 2027 02:11:41.367            18.596              Murmansk1           581.125
       374   05 Jun 2027 02:12:29.681   05 Jun 2027 02:12:47.438            17.757              Murmansk1           554.906
       375   05 Jun 2027 02:13:08.569   05 Jun 2027 02:13:35.303            26.734                 Moscow           835.437
       376   05 Jun 2027 02:14:44.916   05 Jun 2027 02:15:01.818            16.902                 Moscow           528.188
       377   05 Jun 2027 02:19:03.200   05 Jun 2027 02:19:22.837            19.637                 Moscow           613.656
       378   05 Jun 2027 02:21:29.675   05 Jun 2027 02:22:21.606            51.931                 Moscow          1622.844
       379   05 Jun 2027 02:40:10.115   05 Jun 2027 02:41:19.526            69.411               CapeTown          2169.094
       380   05 Jun 2027 03:38:12.141   05 Jun 2027 03:38:44.445            32.304                Anadyr2          1009.500
       381   05 Jun 2027 03:38:44.445   05 Jun 2027 03:41:51.868           187.423                Anadyr1          5856.969
       382   05 Jun 2027 03:42:01.761   05 Jun 2027 03:42:16.344            14.583               Magadan2           455.719
       383   05 Jun 2027 03:42:19.640   05 Jun 2027 03:42:30.263            10.623                Anadyr1           331.969
       384   05 Jun 2027 03:42:36.697   05 Jun 2027 03:45:43.921           187.224                Anadyr2          5850.750
       385   05 Jun 2027 05:14:38.917   05 Jun 2027 05:16:03.635            84.718                Irkutsk          2647.438
       386   05 Jun 2027 05:16:11.402   05 Jun 2027 05:21:27.060           315.658               Magadan1          9864.312
       387   05 Jun 2027 05:21:32.173   05 Jun 2027 05:21:57.852            25.679               Magadan1           802.469
       388   05 Jun 2027 05:59:00.116   05 Jun 2027 05:59:47.873            47.757            RioGallegos          1492.406
       389   05 Jun 2027 06:34:38.361   05 Jun 2027 06:35:19.279            40.918                Sumatra          1278.687
       390   05 Jun 2027 06:40:15.383   05 Jun 2027 06:41:14.885            59.502                Sumatra          1859.438
       391   05 Jun 2027 06:52:25.440   05 Jun 2027 06:53:03.422            37.982                Norilsk          1186.938
       392   05 Jun 2027 06:53:19.078   05 Jun 2027 06:56:41.508           202.430                Norilsk          6325.937
       393   05 Jun 2027 06:56:43.181   05 Jun 2027 06:58:17.548            94.367              Murmansk2          2948.969
       394   05 Jun 2027 06:58:32.769   05 Jun 2027 06:58:49.012            16.243              Murmansk2           507.594
       395   05 Jun 2027 07:32:57.546   05 Jun 2027 07:33:50.443            52.897            RioGallegos          1653.031
       396   05 Jun 2027 07:35:42.208   05 Jun 2027 07:35:49.073             6.865            RioGallegos           214.531
       397   05 Jun 2027 07:36:09.540   05 Jun 2027 07:36:25.849            16.309            RioGallegos           509.656
       398   05 Jun 2027 08:07:28.875   05 Jun 2027 08:09:11.295           102.420                Sumatra          3200.625
       399   05 Jun 2027 08:17:05.687   05 Jun 2027 08:18:02.398            56.711                  Delhi          1772.219
       400   05 Jun 2027 08:18:06.408   05 Jun 2027 08:19:58.250           111.842                  Delhi          3495.062
       401   05 Jun 2027 08:28:11.100   05 Jun 2027 08:28:54.281            43.181                Novosib          1349.406
       402   05 Jun 2027 08:29:31.209   05 Jun 2027 08:29:40.321             9.112              Murmansk2           284.750
       403   05 Jun 2027 08:29:41.761   05 Jun 2027 08:29:42.470             0.709              Murmansk1            22.156
       404   05 Jun 2027 08:29:49.110   05 Jun 2027 08:31:07.229            78.119                 Moscow          2441.219
       405   05 Jun 2027 08:31:12.836   05 Jun 2027 08:32:00.807            47.971                Novosib          1499.094
       406   05 Jun 2027 08:32:03.920   05 Jun 2027 08:32:50.892            46.972                 Moscow          1467.875
       407   05 Jun 2027 08:32:54.158   05 Jun 2027 08:33:26.463            32.305                Irkutsk          1009.531
       408   05 Jun 2027 08:33:35.156   05 Jun 2027 08:33:48.564            13.408                Norilsk           419.000
       409   05 Jun 2027 08:34:12.541   05 Jun 2027 08:34:25.596            13.055              Murmansk1           407.969
       410   05 Jun 2027 08:34:41.860   05 Jun 2027 08:34:51.556             9.696                 Moscow           303.000
       411   05 Jun 2027 08:39:09.362   05 Jun 2027 08:39:15.752             6.390              Murmansk1           199.688
       412   05 Jun 2027 08:39:15.752   05 Jun 2027 08:39:18.349             2.597              Murmansk2            81.156
       413   05 Jun 2027 08:40:41.259   05 Jun 2027 08:40:44.159             2.900              Murmansk2            90.625
       414   05 Jun 2027 08:40:44.159   05 Jun 2027 08:40:56.129            11.970              Murmansk1           374.062
       415   05 Jun 2027 09:14:20.627   05 Jun 2027 09:15:53.994            93.367            RioGallegos          2917.719
       416   05 Jun 2027 09:51:56.725   05 Jun 2027 09:53:14.808            78.083                  Delhi          2440.094
       417   05 Jun 2027 09:55:28.718   05 Jun 2027 09:56:01.384            32.666                  Delhi          1020.812
       418   05 Jun 2027 10:05:06.106   05 Jun 2027 10:05:15.982             9.876                 Moscow           308.625
       419   05 Jun 2027 10:05:37.644   05 Jun 2027 10:06:14.545            36.901              Murmansk2          1153.156
       420   05 Jun 2027 10:06:24.471   05 Jun 2027 10:06:33.780             9.309                 Moscow           290.906
       421   05 Jun 2027 10:06:35.821   05 Jun 2027 10:06:59.287            23.466                Novosib           733.313
       422   05 Jun 2027 10:07:03.534   05 Jun 2027 10:07:44.699            41.165                 Moscow          1286.406
       423   05 Jun 2027 10:07:48.345   05 Jun 2027 10:08:25.163            36.818                Novosib          1150.562
       424   05 Jun 2027 10:08:26.417   05 Jun 2027 10:08:51.792            25.375                 Moscow           792.969
       425   05 Jun 2027 10:09:01.287   05 Jun 2027 10:09:22.514            21.227                 Moscow           663.344
       426   05 Jun 2027 10:09:32.891   05 Jun 2027 10:10:23.535            50.644              Murmansk1          1582.625
       427   05 Jun 2027 11:39:21.754   05 Jun 2027 11:39:34.990            13.236                 Moscow           413.625
       428   05 Jun 2027 11:39:42.915   05 Jun 2027 11:40:13.454            30.539              Murmansk1           954.344
       429   05 Jun 2027 11:40:37.761   05 Jun 2027 11:41:32.555            54.794                 Moscow          1712.312
       430   05 Jun 2027 11:41:59.380   05 Jun 2027 11:42:48.859            49.479              Murmansk1          1546.219
       431   05 Jun 2027 11:43:07.364   05 Jun 2027 11:43:31.662            24.298              Murmansk2           759.312
       432   05 Jun 2027 11:43:33.595   05 Jun 2027 11:43:35.116             1.521                 Moscow            47.531
       433   05 Jun 2027 11:43:59.194   05 Jun 2027 11:44:39.866            40.672                 Moscow          1271.000
       434   05 Jun 2027 11:50:16.186   05 Jun 2027 11:50:20.985             4.799                Norilsk           149.969
       435   05 Jun 2027 12:50:19.358   05 Jun 2027 12:53:30.426           191.068               CapeTown          5970.875
       436   05 Jun 2027 12:53:58.412   05 Jun 2027 12:56:43.366           164.954               CapeTown          5154.812
       437   05 Jun 2027 13:16:50.418   05 Jun 2027 13:17:04.981            14.563              Murmansk2           455.094
       438   05 Jun 2027 13:17:16.731   05 Jun 2027 13:17:48.814            32.083              Murmansk1          1002.594
       439   05 Jun 2027 13:17:57.771   05 Jun 2027 13:18:16.012            18.241              Murmansk1           570.031
       440   05 Jun 2027 13:25:00.201   05 Jun 2027 13:25:29.206            29.005              Murmansk1           906.406
       441   05 Jun 2027 13:30:29.520   05 Jun 2027 13:32:47.805           138.285                Anadyr1          4321.406
       442   05 Jun 2027 13:33:36.462   05 Jun 2027 13:34:35.737            59.275                Anadyr2          1852.344
       443   05 Jun 2027 13:38:24.477   05 Jun 2027 13:40:01.123            96.646                Anadyr1          3020.188
       444   05 Jun 2027 14:56:31.829   05 Jun 2027 14:56:36.080             4.251              Murmansk2           132.844
       445   05 Jun 2027 14:57:46.550   05 Jun 2027 14:58:02.950            16.400              Murmansk1           512.500
       446   05 Jun 2027 14:58:15.607   05 Jun 2027 14:59:43.204            87.597              Murmansk1          2737.406
       447   05 Jun 2027 15:06:06.688   05 Jun 2027 15:06:13.049             6.361                Anadyr1           198.781
       448   05 Jun 2027 15:06:45.369   05 Jun 2027 15:07:33.260            47.891                Anadyr2          1496.594
       449   05 Jun 2027 15:08:32.186   05 Jun 2027 15:09:26.220            54.034                Anadyr1          1688.563
       450   05 Jun 2027 15:09:35.568   05 Jun 2027 15:15:28.907           353.339               Magadan2         11041.844
       451   05 Jun 2027 16:42:01.677   05 Jun 2027 16:42:25.457            23.780                Anadyr2           743.125
       452   05 Jun 2027 16:43:18.198   05 Jun 2027 16:43:21.381             3.183                Anadyr1            99.469
       453   05 Jun 2027 16:43:27.029   05 Jun 2027 16:43:33.480             6.451                Anadyr2           201.594
       454   05 Jun 2027 16:44:21.431   05 Jun 2027 16:46:01.445           100.014               Magadan1          3125.437
       455   05 Jun 2027 16:46:41.910   05 Jun 2027 16:47:13.807            31.897               Magadan2           996.781
       456   05 Jun 2027 16:47:55.137   05 Jun 2027 16:48:10.387            15.250               Magadan2           476.563
       457   05 Jun 2027 16:48:10.387   05 Jun 2027 16:48:41.531            31.144               Magadan1           973.250
       458   05 Jun 2027 16:56:53.231   05 Jun 2027 16:56:57.556             4.325               Magadan1           135.156
       459   05 Jun 2027 17:38:28.448   05 Jun 2027 17:41:05.495           157.047            RioGallegos          4907.719
       460   05 Jun 2027 18:17:50.647   05 Jun 2027 18:18:01.219            10.572                Anadyr1           330.375
       461   05 Jun 2027 18:18:01.219   05 Jun 2027 18:18:58.504            57.285                Anadyr2          1790.156
       462   05 Jun 2027 18:19:12.096   05 Jun 2027 18:19:16.543             4.447                Anadyr2           138.969
       463   05 Jun 2027 18:19:29.988   05 Jun 2027 18:20:01.169            31.181                Anadyr1           974.406
       464   05 Jun 2027 18:20:03.211   05 Jun 2027 18:24:11.421           248.210                Norilsk          7756.563
       465   05 Jun 2027 18:25:30.123   05 Jun 2027 18:29:43.581           253.458                Irkutsk          7920.562
       466   05 Jun 2027 18:40:05.682   05 Jun 2027 18:42:26.818           141.136                Sumatra          4410.500
       467   05 Jun 2027 18:44:26.117   05 Jun 2027 18:46:14.497           108.380                Sumatra          3386.875
       468   05 Jun 2027 18:47:57.333   05 Jun 2027 18:48:24.995            27.662                Sumatra           864.437
       469   05 Jun 2027 20:01:31.006   05 Jun 2027 20:03:12.411           101.405                Novosib          3168.906
       470   05 Jun 2027 20:03:47.629   05 Jun 2027 20:04:13.256            25.627                Novosib           800.844
       471   05 Jun 2027 20:06:05.114   05 Jun 2027 20:06:34.067            28.953                Novosib           904.781
       472   05 Jun 2027 20:10:43.471   05 Jun 2027 20:12:21.627            98.156                  Delhi          3067.375
       473   05 Jun 2027 20:13:48.352   05 Jun 2027 20:15:30.582           102.230                  Delhi          3194.688
       474   05 Jun 2027 21:34:49.115   05 Jun 2027 21:39:49.339           300.224              Murmansk1          9382.000
       475   05 Jun 2027 23:09:57.713   05 Jun 2027 23:11:59.003           121.290              Murmansk2          3790.312
       476   05 Jun 2027 23:11:59.003   05 Jun 2027 23:13:24.094            85.091              Murmansk1          2659.094
       477   05 Jun 2027 23:13:24.139   05 Jun 2027 23:15:04.528           100.389              Murmansk1          3137.156
       478   05 Jun 2027 23:15:18.556   05 Jun 2027 23:17:24.325           125.769                 Moscow          3930.281
       479   05 Jun 2027 23:40:00.567   05 Jun 2027 23:42:21.328           140.761               CapeTown          4398.781
       480   05 Jun 2027 23:45:51.342   05 Jun 2027 23:47:56.784           125.442               CapeTown          3920.062
       481   06 Jun 2027 00:45:52.283   06 Jun 2027 00:46:10.939            18.656              Murmansk1           583.000
       482   06 Jun 2027 00:48:52.429   06 Jun 2027 00:48:59.695             7.266              Murmansk2           227.063
