uniorb/output/strategy_1/Drop/Drop_KinoSat_110403.txt

KinoSat_110403
-------------------------
    Access    *     Start Time (UTCG)     *     Stop Time (UTCG)  *   Duration (s)        *       Station  *  Data (Mbytes)
         1   01 Jun 2027 04:13:31.568   01 Jun 2027 04:15:45.680           134.112               Magadan1         16764.000
         2   01 Jun 2027 04:16:12.013   01 Jun 2027 04:16:34.983            22.970               Magadan1          2871.250
         3   01 Jun 2027 04:16:55.750   01 Jun 2027 04:17:24.485            28.735              Murmansk2          3591.875
         4   01 Jun 2027 04:17:48.430   01 Jun 2027 04:17:56.904             8.474               Magadan2          1059.250
         5   01 Jun 2027 04:17:58.971   01 Jun 2027 04:18:11.052            12.081                Irkutsk          1510.125
         6   01 Jun 2027 04:18:14.133   01 Jun 2027 04:18:48.844            34.711                Norilsk          4338.875
         7   01 Jun 2027 04:19:18.513   01 Jun 2027 04:19:46.389            27.876                Norilsk          3484.500
         8   01 Jun 2027 04:52:59.484   01 Jun 2027 04:53:48.107            48.623            RioGallegos          6077.875
         9   01 Jun 2027 04:54:49.526   01 Jun 2027 04:55:44.037            54.511            RioGallegos          6813.875
        10   01 Jun 2027 05:28:34.238   01 Jun 2027 05:30:24.224           109.986                Sumatra         13748.250
        11   01 Jun 2027 05:43:01.302   01 Jun 2027 05:44:00.517            59.215                  Delhi          7401.875
        12   01 Jun 2027 05:51:00.498   01 Jun 2027 05:52:22.153            81.655                Irkutsk         10206.875
        13   01 Jun 2027 05:52:51.113   01 Jun 2027 05:53:58.534            67.421              Murmansk2          8427.625
        14   01 Jun 2027 06:32:50.670   01 Jun 2027 06:33:52.443            61.773            RioGallegos          7721.625
        15   01 Jun 2027 07:12:15.835   01 Jun 2027 07:12:54.720            38.885                  Delhi          4860.625
        16   01 Jun 2027 07:14:23.783   01 Jun 2027 07:15:12.744            48.961                  Delhi          6120.125
        17   01 Jun 2027 07:28:12.219   01 Jun 2027 07:28:30.635            18.416                 Moscow          2302.000
        18   01 Jun 2027 07:28:38.571   01 Jun 2027 07:29:19.994            41.423              Murmansk2          5177.875
        19   01 Jun 2027 07:29:28.214   01 Jun 2027 07:30:01.164            32.950                 Moscow          4118.750
        20   01 Jun 2027 07:31:06.625   01 Jun 2027 07:32:10.264            63.639                 Moscow          7954.875
        21   01 Jun 2027 09:03:24.451   01 Jun 2027 09:03:32.094             7.643              Murmansk1           955.375
        22   01 Jun 2027 09:03:33.387   01 Jun 2027 09:04:11.523            38.136                 Moscow          4767.000
        23   01 Jun 2027 09:04:34.525   01 Jun 2027 09:05:17.244            42.719              Murmansk2          5339.875
        24   01 Jun 2027 09:05:23.246   01 Jun 2027 09:05:37.049            13.803                Novosib          1725.375
        25   01 Jun 2027 09:05:56.136   01 Jun 2027 09:05:59.246             3.110                Novosib           388.750
        26   01 Jun 2027 09:06:00.578   01 Jun 2027 09:06:39.029            38.451              Murmansk1          4806.375
        27   01 Jun 2027 09:07:04.745   01 Jun 2027 09:07:27.504            22.759              Murmansk1          2844.875
        28   01 Jun 2027 10:14:52.611   01 Jun 2027 10:15:44.897            52.286               CapeTown          6535.750
        29   01 Jun 2027 10:51:44.817   01 Jun 2027 10:57:55.965           371.148                Anadyr2         46393.500
        30   01 Jun 2027 14:05:05.014   01 Jun 2027 14:07:16.767           131.753               Magadan2         16469.125
        31   01 Jun 2027 14:07:45.103   01 Jun 2027 14:09:23.260            98.157               Magadan1         12269.625
        32   01 Jun 2027 14:09:49.091   01 Jun 2027 14:10:32.548            43.457               Magadan1          5432.125
        33   01 Jun 2027 14:12:48.011   01 Jun 2027 14:14:35.952           107.941               Magadan2         13492.625
        34   01 Jun 2027 16:35:07.751   01 Jun 2027 16:39:15.236           247.485            RioGallegos         30935.625
        35   01 Jun 2027 17:20:32.099   01 Jun 2027 17:23:10.964           158.865                Irkutsk         19858.125
        36   01 Jun 2027 17:23:36.478   01 Jun 2027 17:25:54.328           137.850                Novosib         17231.250
        37   01 Jun 2027 17:36:14.969   01 Jun 2027 17:38:15.176           120.207                Sumatra         15025.875
        38   01 Jun 2027 17:40:15.480   01 Jun 2027 17:40:49.716            34.236                Sumatra          4279.500
        39   01 Jun 2027 18:56:15.442   01 Jun 2027 18:58:16.098           120.656                Novosib         15082.000
        40   01 Jun 2027 19:04:17.437   01 Jun 2027 19:06:15.825           118.388                  Delhi         14798.500
        41   01 Jun 2027 19:07:21.197   01 Jun 2027 19:08:04.090            42.893                  Delhi          5361.625
        42   01 Jun 2027 19:09:57.311   01 Jun 2027 19:11:04.578            67.267                  Delhi          8408.375
        43   01 Jun 2027 20:34:43.358   01 Jun 2027 20:35:01.104            17.746              Murmansk2          1471.625
        44   02 Jun 2027 04:25:31.938   02 Jun 2027 04:26:26.780            54.842                Irkutsk          6855.250
        45   02 Jun 2027 05:04:59.960   02 Jun 2027 05:06:14.805            74.845            RioGallegos          9355.625
        46   02 Jun 2027 05:40:16.059   02 Jun 2027 05:40:27.074            11.015                Sumatra          1376.875
        47   02 Jun 2027 05:42:03.865   02 Jun 2027 05:42:46.013            42.148                Sumatra          5268.500
        48   02 Jun 2027 05:52:40.311   02 Jun 2027 05:52:55.757            15.446                  Delhi          1930.750
        49   02 Jun 2027 06:01:48.586   02 Jun 2027 06:03:46.500           117.914                Irkutsk         14739.250
        50   02 Jun 2027 06:03:52.951   02 Jun 2027 06:05:00.651            67.700                Irkutsk          8462.500
        51   02 Jun 2027 06:06:22.995   02 Jun 2027 06:07:08.603            45.608                Novosib          5701.000
        52   02 Jun 2027 07:18:49.902   02 Jun 2027 07:19:32.012            42.110                Sumatra          5263.750
        53   02 Jun 2027 07:24:09.123   02 Jun 2027 07:25:31.215            82.092                  Delhi         10261.500
        54   02 Jun 2027 07:40:40.687   02 Jun 2027 07:41:02.603            21.916              Murmansk2          2739.500
        55   02 Jun 2027 07:41:25.884   02 Jun 2027 07:42:34.276            68.392              Murmansk1          8549.000
        56   02 Jun 2027 07:42:42.730   02 Jun 2027 07:43:02.345            19.615              Murmansk1          2451.875
        57   02 Jun 2027 07:43:14.116   02 Jun 2027 07:43:40.059            25.943                Novosib          3242.875
        58   02 Jun 2027 09:02:53.978   02 Jun 2027 09:03:51.583            57.605                  Delhi          7200.625
        59   02 Jun 2027 09:15:42.662   02 Jun 2027 09:16:27.586            44.924                 Moscow          5615.500
        60   02 Jun 2027 09:16:35.309   02 Jun 2027 09:16:39.837             4.528                Novosib           566.000
        61   02 Jun 2027 09:16:50.865   02 Jun 2027 09:17:08.851            17.986                Norilsk          2248.250
        62   02 Jun 2027 09:17:12.319   02 Jun 2027 09:17:23.899            11.580              Murmansk1          1447.500
        63   02 Jun 2027 09:17:43.251   02 Jun 2027 09:17:50.355             7.104              Murmansk1           888.000
        64   02 Jun 2027 09:18:08.405   02 Jun 2027 09:19:27.354            78.949                Norilsk          9868.625
        65   02 Jun 2027 09:20:21.631   02 Jun 2027 09:21:06.422            44.791                 Moscow          5598.875
        66   02 Jun 2027 10:24:56.732   02 Jun 2027 10:27:23.975           147.243               CapeTown         18405.375
        67   02 Jun 2027 11:03:28.927   02 Jun 2027 11:09:43.297           374.370                Anadyr1         46796.250
        68   02 Jun 2027 12:43:41.907   02 Jun 2027 12:46:37.945           176.038               Magadan2         22004.750
        69   02 Jun 2027 14:17:00.642   02 Jun 2027 14:19:50.846           170.204               Magadan1         21275.500
        70   02 Jun 2027 14:25:51.099   02 Jun 2027 14:26:05.283            14.184               Magadan2          1773.000
        71   02 Jun 2027 14:27:51.189   02 Jun 2027 14:28:33.800            42.611               Magadan2          5326.375
        72   02 Jun 2027 16:48:37.373   02 Jun 2027 16:50:44.053           126.680            RioGallegos         15835.000
        73   02 Jun 2027 17:32:25.151   02 Jun 2027 17:34:24.262           119.111                Irkutsk         14888.875
        74   02 Jun 2027 17:36:47.021   02 Jun 2027 17:39:44.651           177.630                Novosib         22203.750
        75   02 Jun 2027 17:46:09.481   02 Jun 2027 17:47:50.700           101.219                Sumatra         12652.375
        76   02 Jun 2027 17:50:38.799   02 Jun 2027 17:51:20.659            41.860                Sumatra          5232.500
        77   02 Jun 2027 19:15:57.730   02 Jun 2027 19:20:00.660           242.930                  Delhi         30366.250
        78   02 Jun 2027 19:20:49.546   02 Jun 2027 19:21:07.946            18.400                  Delhi          2300.000
        79   02 Jun 2027 19:21:24.382   02 Jun 2027 19:22:15.158            50.776                  Delhi          6347.000
        80   02 Jun 2027 20:43:20.874   02 Jun 2027 20:44:04.562            43.688              Murmansk1          5461.000
        81   02 Jun 2027 20:47:22.255   02 Jun 2027 20:50:17.474           175.219                 Moscow         21902.375
        82   02 Jun 2027 22:48:12.525   02 Jun 2027 22:50:04.083           111.558               CapeTown         13944.750
        83   03 Jun 2027 04:37:34.935   03 Jun 2027 04:38:27.268            52.333                Irkutsk          6541.625
        84   03 Jun 2027 04:38:41.212   03 Jun 2027 04:39:29.774            48.562                Irkutsk          6070.250
        85   03 Jun 2027 04:39:56.423   03 Jun 2027 04:40:53.777            57.354               Magadan1          7169.250
        86   03 Jun 2027 04:41:03.555   03 Jun 2027 04:41:34.160            30.605               Magadan2          3825.625
        87   03 Jun 2027 04:42:09.656   03 Jun 2027 04:42:20.713            11.057                Irkutsk          1382.125
        88   03 Jun 2027 04:42:25.735   03 Jun 2027 04:42:27.989             2.254                Norilsk           281.750
        89   03 Jun 2027 04:43:25.265   03 Jun 2027 04:43:26.138             0.873              Murmansk2           109.125
        90   03 Jun 2027 04:44:17.576   03 Jun 2027 04:44:34.218            16.642                Norilsk          2080.250
        91   03 Jun 2027 04:49:16.877   03 Jun 2027 04:49:28.268            11.391              Murmansk1          1423.875
        92   03 Jun 2027 05:17:03.784   03 Jun 2027 05:18:15.791            72.007            RioGallegos          9000.875
        93   03 Jun 2027 05:52:04.441   03 Jun 2027 05:52:59.405            54.964                Sumatra          6870.500
        94   03 Jun 2027 05:54:59.144   03 Jun 2027 05:56:22.485            83.341                Sumatra         10417.625
        95   03 Jun 2027 06:03:28.127   03 Jun 2027 06:05:08.149           100.022                  Delhi         12502.750
        96   03 Jun 2027 06:14:14.294   03 Jun 2027 06:14:34.275            19.981                Novosib          2497.625
        97   03 Jun 2027 06:14:34.886   03 Jun 2027 06:15:14.833            39.947                Irkutsk          4993.375
        98   03 Jun 2027 06:15:23.756   03 Jun 2027 06:15:25.238             1.482                Norilsk           185.250
        99   03 Jun 2027 06:15:25.979   03 Jun 2027 06:15:49.527            23.548              Murmansk2          2943.500
       100   03 Jun 2027 06:15:57.003   03 Jun 2027 06:18:05.519           128.516                Irkutsk         16064.500
       101   03 Jun 2027 07:36:07.700   03 Jun 2027 07:37:04.395            56.695                  Delhi          7086.875
       102   03 Jun 2027 07:52:34.034   03 Jun 2027 07:52:55.304            21.270                 Moscow          2658.750
       103   03 Jun 2027 07:53:14.402   03 Jun 2027 07:53:22.345             7.943                Novosib           992.875
       104   03 Jun 2027 07:53:25.713   03 Jun 2027 07:53:44.673            18.960                 Moscow          2370.000
       105   03 Jun 2027 07:53:57.697   03 Jun 2027 07:54:30.259            32.562                Novosib          4070.250
       106   03 Jun 2027 07:55:12.978   03 Jun 2027 07:55:17.668             4.690                 Moscow           586.250
       107   03 Jun 2027 07:55:33.407   03 Jun 2027 07:55:36.846             3.439                Novosib           429.875
       108   03 Jun 2027 09:16:25.431   03 Jun 2027 09:16:47.490            22.059                  Delhi          2757.375
       109   03 Jun 2027 09:24:48.615   03 Jun 2027 09:25:12.608            23.993                 Moscow          2999.125
       110   03 Jun 2027 09:25:41.398   03 Jun 2027 09:26:30.127            48.729                Novosib          6091.125
       111   03 Jun 2027 09:26:47.275   03 Jun 2027 09:28:02.116            74.841              Murmansk2          9355.125
       112   03 Jun 2027 09:28:09.463   03 Jun 2027 09:28:48.629            39.166                 Moscow          4895.750
       113   03 Jun 2027 09:28:59.270   03 Jun 2027 09:32:01.621           182.351                 Moscow         22793.875
       114   03 Jun 2027 10:36:02.977   03 Jun 2027 10:39:08.755           185.778               CapeTown         23222.250
       115   03 Jun 2027 11:15:17.854   03 Jun 2027 11:19:31.545           253.691                Anadyr1         31711.375
       116   03 Jun 2027 11:20:11.526   03 Jun 2027 11:22:17.997           126.471                Anadyr2         15808.875
       117   03 Jun 2027 12:54:46.530   03 Jun 2027 12:58:10.695           204.165               Magadan1         25520.625
       118   03 Jun 2027 16:11:16.002   03 Jun 2027 16:15:12.494           236.492                Irkutsk         29561.500
       119   03 Jun 2027 16:56:40.815   03 Jun 2027 16:58:05.940            85.125            RioGallegos         10640.625
       120   03 Jun 2027 16:59:18.224   03 Jun 2027 17:00:08.963            50.739            RioGallegos          6342.375
       121   03 Jun 2027 17:45:45.331   03 Jun 2027 17:49:19.707           214.376                Novosib         26797.000
       122   03 Jun 2027 17:49:58.180   03 Jun 2027 17:51:59.955           121.775                Novosib         15221.875
       123   03 Jun 2027 19:27:43.663   03 Jun 2027 19:32:00.603           256.940                  Delhi         32117.500
       124   03 Jun 2027 20:55:06.826   03 Jun 2027 20:56:03.008            56.182              Murmansk1          7022.750
       125   03 Jun 2027 20:58:56.619   03 Jun 2027 21:02:17.762           201.143                 Moscow         25142.875
       126   04 Jun 2027 03:14:54.973   04 Jun 2027 03:16:36.667           101.694                Anadyr1         12711.750
       127   04 Jun 2027 03:17:34.939   04 Jun 2027 03:17:41.430             6.491                Anadyr2           811.375
       128   04 Jun 2027 03:17:43.892   04 Jun 2027 03:18:00.137            16.245                Anadyr2          2030.625
       129   04 Jun 2027 04:48:58.005   04 Jun 2027 04:50:02.844            64.839               Magadan2          8104.875
       130   04 Jun 2027 04:50:12.426   04 Jun 2027 04:50:53.475            41.049               Magadan2          5131.125
       131   04 Jun 2027 04:51:01.749   04 Jun 2027 04:53:45.591           163.842                Irkutsk         20480.250
       132   04 Jun 2027 05:29:11.080   04 Jun 2027 05:30:03.731            52.651            RioGallegos          6581.375
       133   04 Jun 2027 06:03:58.718   04 Jun 2027 06:05:46.022           107.304                Sumatra         13413.000
       134   04 Jun 2027 06:14:35.832   04 Jun 2027 06:15:13.985            38.153                  Delhi          4769.125
       135   04 Jun 2027 06:25:49.459   04 Jun 2027 06:26:39.385            49.926                Irkutsk          6240.750
       136   04 Jun 2027 06:27:24.845   04 Jun 2027 06:28:12.547            47.702              Murmansk2          5962.750
       137   04 Jun 2027 06:28:26.459   04 Jun 2027 06:29:16.886            50.427                 Moscow          6303.375
       138   04 Jun 2027 06:29:32.632   04 Jun 2027 06:29:57.649            25.017                 Moscow          3127.125
       139   04 Jun 2027 06:30:12.261   04 Jun 2027 06:30:57.137            44.876              Murmansk1          5609.500
       140   04 Jun 2027 07:08:46.230   04 Jun 2027 07:08:58.952            12.722            RioGallegos          1590.250
       141   04 Jun 2027 07:43:59.120   04 Jun 2027 07:45:53.106           113.986                Sumatra         14248.250
       142   04 Jun 2027 08:03:48.793   04 Jun 2027 08:05:01.671            72.878              Murmansk2          9109.750
       143   04 Jun 2027 08:05:12.730   04 Jun 2027 08:05:44.687            31.957                Novosib          3994.625
       144   04 Jun 2027 08:05:54.618   04 Jun 2027 08:06:30.648            36.030                 Moscow          4503.750
       145   04 Jun 2027 08:06:38.954   04 Jun 2027 08:07:04.505            25.551                Novosib          3193.875
       146   04 Jun 2027 09:35:51.479   04 Jun 2027 09:36:57.997            66.518                 Moscow          8314.750
       147   04 Jun 2027 09:36:58.537   04 Jun 2027 09:37:25.197            26.660              Murmansk1          3332.500
       148   04 Jun 2027 09:37:50.716   04 Jun 2027 09:39:37.260           106.544                 Moscow         13318.000
       149   04 Jun 2027 09:39:49.982   04 Jun 2027 09:40:28.229            38.247                 Moscow          4780.875
       150   04 Jun 2027 09:40:33.607   04 Jun 2027 09:40:52.103            18.496                 Moscow          2312.000
       151   04 Jun 2027 09:41:06.235   04 Jun 2027 09:42:08.388            62.153              Murmansk1          7769.125
       152   04 Jun 2027 09:42:10.531   04 Jun 2027 09:42:55.024            44.493                 Moscow          5561.625
       153   04 Jun 2027 10:47:27.446   04 Jun 2027 10:50:57.984           210.538               CapeTown         26317.250
       154   04 Jun 2027 10:53:20.896   04 Jun 2027 10:55:01.421           100.525               CapeTown         12565.625
       155   04 Jun 2027 11:28:50.421   04 Jun 2027 11:31:19.818           149.397                Anadyr2         18674.625
       156   04 Jun 2027 13:06:17.131   04 Jun 2027 13:09:33.377           196.246               Magadan1         24530.750
       157   04 Jun 2027 14:45:29.581   04 Jun 2027 14:46:10.774            41.193               Magadan1          5149.125
       158   04 Jun 2027 16:22:19.736   04 Jun 2027 16:28:07.655           347.919                Irkutsk         43489.875
       159   04 Jun 2027 16:38:57.770   04 Jun 2027 16:39:45.090            47.320                Sumatra          5915.000
       160   04 Jun 2027 16:40:49.194   04 Jun 2027 16:41:33.827            44.633                Sumatra          5579.125
       161   04 Jun 2027 17:57:21.599   04 Jun 2027 18:00:47.155           205.556                Novosib         25694.500
       162   04 Jun 2027 19:41:34.438   04 Jun 2027 19:42:21.937            47.499                  Delhi          5937.375
       163   04 Jun 2027 21:06:30.274   04 Jun 2027 21:07:21.991            51.717              Murmansk2          6464.625
       164   04 Jun 2027 21:10:38.503   04 Jun 2027 21:16:21.734           343.231                 Moscow         42903.875
       165   04 Jun 2027 21:40:34.775   04 Jun 2027 21:41:23.915            49.140               CapeTown          6142.500
       166   05 Jun 2027 03:24:42.169   05 Jun 2027 03:25:01.734            19.565                Anadyr2          2445.625
       167   05 Jun 2027 03:25:19.282   05 Jun 2027 03:26:37.979            78.697               Magadan1          9837.125
       168   05 Jun 2027 03:26:49.519   05 Jun 2027 03:27:02.667            13.148               Magadan2          1643.500
       169   05 Jun 2027 03:27:17.695   05 Jun 2027 03:28:37.163            79.468                Anadyr1          9933.500
       170   05 Jun 2027 03:29:18.912   05 Jun 2027 03:29:21.645             2.733               Magadan1           341.625
       171   05 Jun 2027 03:29:22.854   05 Jun 2027 03:29:58.495            35.641                Anadyr1          4455.125
       172   05 Jun 2027 03:30:14.266   05 Jun 2027 03:30:31.279            17.013               Magadan2          2126.625
       173   05 Jun 2027 04:43:56.017   05 Jun 2027 04:45:03.974            67.957                Sumatra          8494.625
       174   05 Jun 2027 04:47:26.547   05 Jun 2027 04:49:26.704           120.157                Sumatra         15019.625
       175   05 Jun 2027 05:01:24.739   05 Jun 2027 05:01:37.312            12.573               Magadan2          1571.625
       176   05 Jun 2027 05:01:46.980   05 Jun 2027 05:02:02.628            15.648                Irkutsk          1956.000
       177   05 Jun 2027 05:02:05.628   05 Jun 2027 05:02:14.474             8.846               Magadan1          1105.750
       178   05 Jun 2027 05:02:34.790   05 Jun 2027 05:05:21.384           166.594                Irkutsk         20824.250
       179   05 Jun 2027 05:05:48.097   05 Jun 2027 05:06:20.372            32.275              Murmansk1          4034.375
       180   05 Jun 2027 05:06:47.883   05 Jun 2027 05:07:44.465            56.582                Novosib          7072.750
       181   05 Jun 2027 05:41:22.026   05 Jun 2027 05:41:54.831            32.805            RioGallegos          4100.625
       182   05 Jun 2027 06:15:58.604   05 Jun 2027 06:18:06.258           127.654                Sumatra         15956.750
       183   05 Jun 2027 06:38:09.944   05 Jun 2027 06:38:52.536            42.592              Murmansk1          5324.000
       184   05 Jun 2027 06:39:04.062   05 Jun 2027 06:39:32.914            28.852              Murmansk1          3606.500
       185   05 Jun 2027 06:39:42.633   05 Jun 2027 06:42:02.320           139.687                Irkutsk         17460.875
       186   05 Jun 2027 06:42:30.500   05 Jun 2027 06:43:08.592            38.092                 Moscow          4761.500
       187   05 Jun 2027 08:00:21.109   05 Jun 2027 08:01:31.416            70.307                  Delhi          8788.375
       188   05 Jun 2027 08:14:56.812   05 Jun 2027 08:16:06.161            69.349                Novosib          8668.625
       189   05 Jun 2027 08:16:13.710   05 Jun 2027 08:16:48.865            35.155              Murmansk2          4394.375
       190   05 Jun 2027 08:16:50.262   05 Jun 2027 08:16:56.589             6.327              Murmansk2           790.875
       191   05 Jun 2027 08:17:05.817   05 Jun 2027 08:17:43.249            37.432                 Moscow          4679.000
       192   05 Jun 2027 08:17:47.343   05 Jun 2027 08:17:53.848             6.505                Norilsk           813.125
       193   05 Jun 2027 08:18:00.365   05 Jun 2027 08:18:49.745            49.380              Murmansk1          6172.500
       194   05 Jun 2027 09:49:49.336   05 Jun 2027 09:50:14.637            25.301                 Moscow          3162.625
       195   05 Jun 2027 09:50:21.747   05 Jun 2027 09:51:12.274            50.527              Murmansk2          6315.875
       196   05 Jun 2027 09:51:22.084   05 Jun 2027 09:52:02.626            40.542              Murmansk2          5067.750
       197   05 Jun 2027 09:52:10.634   05 Jun 2027 09:52:18.735             8.101                 Moscow          1012.625
       198   05 Jun 2027 09:52:21.227   05 Jun 2027 09:52:56.270            35.043                Norilsk          4380.375
       199   05 Jun 2027 09:53:07.543   05 Jun 2027 09:53:37.828            30.285                Norilsk          3785.625
       200   05 Jun 2027 09:53:53.533   05 Jun 2027 09:54:45.606            52.073                Norilsk          6509.125
       201   05 Jun 2027 09:55:07.100   05 Jun 2027 09:55:49.832            42.732              Murmansk1          5341.500
       202   05 Jun 2027 10:59:02.096   05 Jun 2027 11:01:04.722           122.626               CapeTown         15328.250
       203   05 Jun 2027 11:02:01.466   05 Jun 2027 11:03:14.108            72.642               CapeTown          9080.250
       204   05 Jun 2027 11:05:00.173   05 Jun 2027 11:05:42.049            41.876               CapeTown          5234.500
       205   05 Jun 2027 11:39:04.034   05 Jun 2027 11:41:58.903           174.869                Anadyr1         21858.625
       206   05 Jun 2027 11:46:35.225   05 Jun 2027 11:48:06.616            91.391                Anadyr2         11423.875
       207   05 Jun 2027 13:17:57.594   05 Jun 2027 13:21:33.565           215.971               Magadan2         26996.375
       208   05 Jun 2027 15:47:42.646   05 Jun 2027 15:49:58.552           135.906            RioGallegos         16988.250
       209   05 Jun 2027 16:33:47.025   05 Jun 2027 16:37:23.737           216.712                Irkutsk         27089.000
       210   05 Jun 2027 16:40:11.794   05 Jun 2027 16:41:42.126            90.332                Irkutsk         11291.500
       211   05 Jun 2027 16:49:13.374   05 Jun 2027 16:51:20.156           126.782                Sumatra         15847.750
       212   05 Jun 2027 18:10:38.086   05 Jun 2027 18:12:48.241           130.155                Novosib         16269.375
       213   05 Jun 2027 18:20:48.300   05 Jun 2027 18:21:15.213            26.913                  Delhi          3364.125
       214   05 Jun 2027 21:18:29.777   05 Jun 2027 21:20:55.168           145.391              Murmansk1         18173.875
       215   05 Jun 2027 21:22:25.131   05 Jun 2027 21:24:35.336           130.205                 Moscow         16275.625
       216   05 Jun 2027 21:26:32.874   05 Jun 2027 21:28:44.581           131.707                 Moscow         16463.375
       217   05 Jun 2027 21:49:02.224   05 Jun 2027 21:50:22.363            80.139               CapeTown         10017.375
       218   06 Jun 2027 03:38:19.725   06 Jun 2027 03:39:04.627            44.902                Anadyr2          5612.750
       219   06 Jun 2027 03:39:08.680   06 Jun 2027 03:39:09.990             1.310                Anadyr2           163.750
       220   06 Jun 2027 03:39:14.070   06 Jun 2027 03:39:47.011            32.941               Magadan1          4117.625
       221   06 Jun 2027 03:40:00.510   06 Jun 2027 03:40:19.834            19.324               Magadan2          2415.500
       222   06 Jun 2027 03:40:37.954   06 Jun 2027 03:41:37.913            59.959                Anadyr1          7494.875
       223   06 Jun 2027 03:41:50.056   06 Jun 2027 03:42:28.351            38.295               Magadan1          4786.875
       224   06 Jun 2027 04:54:40.117   06 Jun 2027 04:57:10.620           150.503                Sumatra         18812.875
       225   06 Jun 2027 05:13:51.762   06 Jun 2027 05:15:12.312            80.550                Irkutsk         10068.750
       226   06 Jun 2027 05:15:36.043   06 Jun 2027 05:16:03.743            27.700               Magadan1          3462.500
       227   06 Jun 2027 05:16:13.324   06 Jun 2027 05:17:59.208           105.884                Irkutsk         13235.500
       228   06 Jun 2027 05:18:22.366   06 Jun 2027 05:19:10.719            48.353                Novosib          6044.125
       229   06 Jun 2027 06:28:04.106   06 Jun 2027 06:28:20.642            16.536                Sumatra          2067.000
       230   06 Jun 2027 06:36:09.753   06 Jun 2027 06:36:49.811            40.058                Sumatra          5007.250
       231   06 Jun 2027 06:37:24.267   06 Jun 2027 06:38:48.324            84.057                  Delhi         10507.125
       232   06 Jun 2027 06:50:35.437   06 Jun 2027 06:50:54.933            19.496                Novosib          2437.000
       233   06 Jun 2027 06:51:12.730   06 Jun 2027 06:51:54.687            41.957              Murmansk1          5244.625
       234   06 Jun 2027 06:52:07.160   06 Jun 2027 06:52:26.411            19.251                 Moscow          2406.375
       235   06 Jun 2027 06:52:28.907   06 Jun 2027 06:53:33.902            64.995                Norilsk          8124.375
       236   06 Jun 2027 06:53:50.602   06 Jun 2027 06:54:32.035            41.433              Murmansk2          5179.125
       237   06 Jun 2027 08:12:36.663   06 Jun 2027 08:14:38.685           122.022                  Delhi         15252.750
       238   06 Jun 2027 08:25:44.731   06 Jun 2027 08:26:05.765            21.034              Murmansk2          2629.250
       239   06 Jun 2027 08:26:11.428   06 Jun 2027 08:27:06.738            55.310              Murmansk1          6913.750
       240   06 Jun 2027 08:27:29.194   06 Jun 2027 08:28:01.126            31.932                Norilsk          3991.500
       241   06 Jun 2027 08:28:03.348   06 Jun 2027 08:28:17.936            14.588              Murmansk2          1823.500
       242   06 Jun 2027 08:28:21.721   06 Jun 2027 08:28:39.416            17.695              Murmansk2          2211.875
       243   06 Jun 2027 08:28:45.188   06 Jun 2027 08:30:03.367            78.179                 Moscow          9772.375
       244   06 Jun 2027 10:02:05.636   06 Jun 2027 10:03:20.919            75.283                 Moscow          9410.375
       245   06 Jun 2027 10:03:50.310   06 Jun 2027 10:04:42.578            52.268                 Moscow          6533.500
       246   06 Jun 2027 10:04:57.588   06 Jun 2027 10:06:14.443            76.855                 Moscow          9606.875
       247   06 Jun 2027 11:10:43.612   06 Jun 2027 11:14:47.009           243.397               CapeTown         30424.625
       248   06 Jun 2027 11:15:27.130   06 Jun 2027 11:16:33.310            66.180               CapeTown          8272.500
       249   06 Jun 2027 11:50:59.783   06 Jun 2027 11:53:21.125           141.342                Anadyr1         17667.750
       250   06 Jun 2027 11:54:46.677   06 Jun 2027 11:55:22.149            35.472                Anadyr1          4434.000
       251   06 Jun 2027 13:29:43.602   06 Jun 2027 13:33:34.213           230.611               Magadan1         28826.375
       252   06 Jun 2027 15:58:36.625   06 Jun 2027 16:01:43.791           187.166            RioGallegos         23395.750
       253   06 Jun 2027 16:04:15.336   06 Jun 2027 16:04:41.620            26.284            RioGallegos          3285.500
       254   06 Jun 2027 16:45:37.787   06 Jun 2027 16:51:03.462           325.675                Irkutsk         40709.375
       255   06 Jun 2027 17:00:12.916   06 Jun 2027 17:03:02.809           169.893                Sumatra         21236.625
       256   06 Jun 2027 17:07:31.863   06 Jun 2027 17:09:12.784           100.921                Sumatra         12615.125
       257   06 Jun 2027 18:24:49.917   06 Jun 2027 18:25:01.300            11.383                Novosib          1422.875
       258   06 Jun 2027 18:30:34.914   06 Jun 2027 18:32:16.163           101.249                  Delhi         12656.125
       259   06 Jun 2027 18:35:09.511   06 Jun 2027 18:36:49.440            99.929                  Delhi         12491.125
       260   06 Jun 2027 21:32:03.200   06 Jun 2027 21:33:08.044            64.844              Murmansk1          8105.500
       261   06 Jun 2027 21:38:16.533   06 Jun 2027 21:39:43.406            86.873                 Moscow         10859.125
       262   06 Jun 2027 22:00:10.373   06 Jun 2027 22:02:36.460           146.087               CapeTown         18260.875
       263   07 Jun 2027 03:51:06.019   07 Jun 2027 03:52:02.396            56.377               Magadan2          7047.125
       264   07 Jun 2027 03:52:12.797   07 Jun 2027 03:52:21.704             8.907               Magadan2          1113.375
       265   07 Jun 2027 03:52:38.191   07 Jun 2027 03:52:56.372            18.181               Magadan1          2272.625
       266   07 Jun 2027 03:52:56.372   07 Jun 2027 03:53:25.972            29.600               Magadan2          3700.000
       267   07 Jun 2027 03:53:43.192   07 Jun 2027 03:54:24.273            41.081               Magadan1          5135.125
       268   07 Jun 2027 03:59:20.463   07 Jun 2027 03:59:28.256             7.793                Norilsk           974.125
       269   07 Jun 2027 04:37:21.106   07 Jun 2027 04:37:29.560             8.454            RioGallegos          1056.750
       270   07 Jun 2027 04:38:25.047   07 Jun 2027 04:38:52.325            27.278            RioGallegos          3409.750
       271   07 Jun 2027 05:05:50.151   07 Jun 2027 05:08:56.605           186.454                Sumatra         23306.750
       272   07 Jun 2027 05:26:23.087   07 Jun 2027 05:28:23.699           120.612                Irkutsk         15076.500
       273   07 Jun 2027 05:29:07.629   07 Jun 2027 05:30:00.885            53.256                Norilsk          6657.000
       274   07 Jun 2027 05:31:23.470   07 Jun 2027 05:31:38.195            14.725                Norilsk          1840.625
       275   07 Jun 2027 05:31:51.750   07 Jun 2027 05:31:54.173             2.423                Novosib           302.875
       276   07 Jun 2027 05:32:00.989   07 Jun 2027 05:32:16.450            15.461                Norilsk          1932.625
       277   07 Jun 2027 06:08:33.584   07 Jun 2027 06:09:03.762            30.178            RioGallegos          3772.250
       278   07 Jun 2027 06:40:15.580   07 Jun 2027 06:41:19.780            64.200                Sumatra          8025.000
       279   07 Jun 2027 06:51:04.585   07 Jun 2027 06:52:56.075           111.490                  Delhi         13936.250
       280   07 Jun 2027 06:55:13.040   07 Jun 2027 06:55:17.579             4.539                  Delhi           567.375
       281   07 Jun 2027 07:02:54.467   07 Jun 2027 07:03:17.760            23.293                Novosib          2911.625
       282   07 Jun 2027 07:03:31.334   07 Jun 2027 07:03:51.728            20.394              Murmansk1          2549.250
       283   07 Jun 2027 07:03:59.075   07 Jun 2027 07:04:49.145            50.070              Murmansk1          6258.750
       284   07 Jun 2027 07:05:05.762   07 Jun 2027 07:05:40.873            35.111              Murmansk2          4388.875
       285   07 Jun 2027 07:06:30.053   07 Jun 2027 07:06:57.072            27.019                 Moscow          3377.375
       286   07 Jun 2027 08:24:59.111   07 Jun 2027 08:26:53.682           114.571                  Delhi         14321.375
       287   07 Jun 2027 08:38:04.425   07 Jun 2027 08:39:01.987            57.562              Murmansk2          7195.250
       288   07 Jun 2027 08:39:17.205   07 Jun 2027 08:39:29.165            11.960              Murmansk1          1495.000
       289   07 Jun 2027 08:39:30.074   07 Jun 2027 08:39:50.287            20.213              Murmansk1          2526.625
       290   07 Jun 2027 08:39:54.696   07 Jun 2027 08:40:24.860            30.164                Norilsk          3770.500
       291   07 Jun 2027 08:40:32.758   07 Jun 2027 08:40:44.554            11.796                 Moscow          1474.500
       292   07 Jun 2027 08:40:59.427   07 Jun 2027 08:42:06.452            67.025                 Moscow          8378.125
       293   07 Jun 2027 10:15:32.629   07 Jun 2027 10:16:22.971            50.342                 Moscow          6292.750
       294   07 Jun 2027 10:29:12.855   07 Jun 2027 10:29:53.291            40.436                Anadyr1          5054.500
       295   07 Jun 2027 10:29:53.291   07 Jun 2027 10:31:37.707           104.416                Anadyr2         13052.000
       296   07 Jun 2027 11:22:30.254   07 Jun 2027 11:24:44.745           134.491               CapeTown         16811.375
       297   07 Jun 2027 11:26:46.025   07 Jun 2027 11:27:22.992            36.967               CapeTown          4620.875
       298   07 Jun 2027 12:02:56.742   07 Jun 2027 12:05:32.865           156.123                Anadyr1         19515.375
       299   07 Jun 2027 13:41:33.236   07 Jun 2027 13:47:43.795           370.559               Magadan1         46319.875
       300   07 Jun 2027 16:10:00.542   07 Jun 2027 16:13:32.697           212.155            RioGallegos         26519.375
       301   07 Jun 2027 16:16:19.122   07 Jun 2027 16:17:46.234            87.112            RioGallegos         10889.000
       302   07 Jun 2027 16:59:39.416   07 Jun 2027 17:01:10.240            90.824                Irkutsk         11353.000
       303   07 Jun 2027 17:11:30.856   07 Jun 2027 17:14:51.921           201.065                Sumatra         25133.125
       304   07 Jun 2027 17:16:18.024   07 Jun 2027 17:17:48.732            90.708                Sumatra         11338.500
       305   07 Jun 2027 18:41:35.440   07 Jun 2027 18:42:11.186            35.746                Novosib          4468.250
       306   07 Jun 2027 18:42:31.164   07 Jun 2027 18:44:36.885           125.721                  Delhi         15715.125
       307   07 Jun 2027 18:46:44.479   07 Jun 2027 18:48:55.287           130.808                  Delhi         16351.000
       308   07 Jun 2027 21:45:02.983   07 Jun 2027 21:47:08.092           125.109              Murmansk1         15638.625
       309   07 Jun 2027 21:51:05.697   07 Jun 2027 21:53:18.419           132.722                 Moscow         16590.250
       310   08 Jun 2027 04:04:22.319   08 Jun 2027 04:04:24.802             2.483               Magadan2           310.375
       311   08 Jun 2027 04:04:29.884   08 Jun 2027 04:05:06.403            36.519               Magadan2          4564.875
       312   08 Jun 2027 04:05:37.118   08 Jun 2027 04:06:18.770            41.652               Magadan1          5206.500
       313   08 Jun 2027 04:06:41.112   08 Jun 2027 04:06:59.512            18.400                Norilsk          2300.000
       314   08 Jun 2027 04:09:57.380   08 Jun 2027 04:10:37.079            39.699                Norilsk          4962.375
       315   08 Jun 2027 05:17:14.432   08 Jun 2027 05:18:11.904            57.472                Sumatra          7184.000
       316   08 Jun 2027 05:18:52.367   08 Jun 2027 05:20:28.426            96.059                Sumatra         12007.375
       317   08 Jun 2027 05:38:45.967   08 Jun 2027 05:39:31.097            45.130                Novosib          5641.250
       318   08 Jun 2027 05:39:44.092   08 Jun 2027 05:41:43.346           119.254                Irkutsk         14906.750
       319   08 Jun 2027 05:41:45.962   08 Jun 2027 05:42:19.240            33.278                Novosib          4159.750
       320   08 Jun 2027 07:00:42.408   08 Jun 2027 07:00:42.998             0.590                  Delhi            73.750
       321   08 Jun 2027 07:02:53.858   08 Jun 2027 07:03:18.557            24.699                  Delhi          3087.375
       322   08 Jun 2027 07:08:08.540   08 Jun 2027 07:08:28.143            19.603                  Delhi          2450.375
       323   08 Jun 2027 07:15:53.976   08 Jun 2027 07:15:58.490             4.514                 Moscow           564.250
       324   08 Jun 2027 07:15:59.865   08 Jun 2027 07:16:12.866            13.001                Novosib          1625.125
       325   08 Jun 2027 07:16:21.088   08 Jun 2027 07:16:39.825            18.737                 Moscow          2342.125
       326   08 Jun 2027 07:16:43.164   08 Jun 2027 07:17:38.884            55.720                 Moscow          6965.000
       327   08 Jun 2027 07:17:45.935   08 Jun 2027 07:18:06.328            20.393              Murmansk1          2549.125
       328   08 Jun 2027 08:37:29.867   08 Jun 2027 08:38:29.348            59.481                  Delhi          7435.125
       329   08 Jun 2027 08:50:03.988   08 Jun 2027 08:50:30.991            27.003                 Moscow          3375.375
       330   08 Jun 2027 08:50:56.052   08 Jun 2027 08:52:19.689            83.637              Murmansk1         10454.625
       331   08 Jun 2027 08:52:30.202   08 Jun 2027 08:52:39.172             8.970                 Moscow          1121.250
       332   08 Jun 2027 08:52:50.014   08 Jun 2027 08:53:10.436            20.422                 Moscow          2552.750
       333   08 Jun 2027 08:53:14.814   08 Jun 2027 08:54:26.912            72.098              Murmansk1          9012.250
       334   08 Jun 2027 08:59:11.730   08 Jun 2027 08:59:12.858             1.128              Murmansk2           141.000
       335   08 Jun 2027 10:25:25.775   08 Jun 2027 10:25:42.061            16.286                 Moscow          2035.750
       336   08 Jun 2027 10:40:23.764   08 Jun 2027 10:44:00.993           217.229                Anadyr2         27153.625
       337   08 Jun 2027 11:36:33.000   08 Jun 2027 11:37:38.845            65.845               CapeTown          8230.625
       338   08 Jun 2027 12:14:54.645   08 Jun 2027 12:19:24.870           270.225                Anadyr1         33778.125
       339   08 Jun 2027 13:53:25.445   08 Jun 2027 13:55:51.682           146.237               Magadan1         18279.625
       340   08 Jun 2027 13:55:51.682   08 Jun 2027 13:56:22.779            31.097               Magadan2          3887.125
       341   08 Jun 2027 13:57:17.743   08 Jun 2027 13:57:36.616            18.873               Magadan1          2359.125
       342   08 Jun 2027 13:57:44.443   08 Jun 2027 13:58:59.596            75.153               Magadan1          9394.125
       343   08 Jun 2027 16:21:36.147   08 Jun 2027 16:27:11.214           335.067            RioGallegos         41883.375
       344   08 Jun 2027 16:28:19.561   08 Jun 2027 16:28:20.159             0.598            RioGallegos            74.750
       345   08 Jun 2027 17:12:49.765   08 Jun 2027 17:14:45.638           115.873                Irkutsk         14484.125
       346   08 Jun 2027 17:23:00.446   08 Jun 2027 17:24:27.603            87.157                Sumatra         10894.625
       347   08 Jun 2027 17:26:46.880   08 Jun 2027 17:29:13.657           146.777                Sumatra         18347.125
       348   08 Jun 2027 18:44:35.367   08 Jun 2027 18:46:06.810            91.443                Novosib         11430.375
       349   08 Jun 2027 18:52:58.878   08 Jun 2027 18:56:39.775           220.897                  Delhi         27612.125
       350   08 Jun 2027 20:26:06.978   08 Jun 2027 20:26:47.435            40.457                 Moscow          5057.125
       351   08 Jun 2027 21:54:31.106   08 Jun 2027 21:56:13.382           102.276              Murmansk1         12784.500
       352   08 Jun 2027 21:59:57.453   08 Jun 2027 22:00:51.605            54.152                 Moscow          6769.000
       353   08 Jun 2027 22:22:57.291   08 Jun 2027 22:24:09.027            71.736               CapeTown          8967.000
       354   08 Jun 2027 22:28:50.029   08 Jun 2027 22:29:25.921            35.892               CapeTown          4486.500
       355   09 Jun 2027 04:16:45.817   09 Jun 2027 04:18:03.978            78.161               Magadan1          9770.125
       356   09 Jun 2027 04:18:19.671   09 Jun 2027 04:18:25.761             6.090                Irkutsk           761.250
       357   09 Jun 2027 05:28:48.601   09 Jun 2027 05:30:38.765           110.164                Sumatra         13770.500
       358   09 Jun 2027 05:43:11.842   09 Jun 2027 05:44:15.476            63.634                  Delhi          7954.250
       359   09 Jun 2027 05:51:15.845   09 Jun 2027 05:52:16.157            60.312                Irkutsk          7539.000
       360   09 Jun 2027 05:52:36.325   09 Jun 2027 05:54:30.861           114.536                Irkutsk         14317.000
       361   09 Jun 2027 07:07:17.123   09 Jun 2027 07:07:47.037            29.914                Sumatra          3739.250
       362   09 Jun 2027 07:12:30.358   09 Jun 2027 07:13:10.078            39.720                  Delhi          4965.000
       363   09 Jun 2027 07:27:53.295   09 Jun 2027 07:28:08.670            15.375                 Moscow          1921.875
       364   09 Jun 2027 07:28:21.347   09 Jun 2027 07:29:12.333            50.986                Irkutsk          6373.250
       365   09 Jun 2027 07:29:24.098   09 Jun 2027 07:29:53.533            29.435              Murmansk2          3679.375
       366   09 Jun 2027 07:30:09.229   09 Jun 2027 07:30:18.285             9.056                 Moscow          1132.000
       367   09 Jun 2027 07:30:24.225   09 Jun 2027 07:30:53.558            29.333                Novosib          3666.625
       368   09 Jun 2027 07:31:21.542   09 Jun 2027 07:31:52.881            31.339              Murmansk2          3917.375
       369   09 Jun 2027 08:50:11.490   09 Jun 2027 08:51:16.931            65.441                  Delhi          8180.125
       370   09 Jun 2027 09:02:09.397   09 Jun 2027 09:02:54.712            45.315                Novosib          5664.375
       371   09 Jun 2027 09:03:09.900   09 Jun 2027 09:04:16.967            67.067                Novosib          8383.375
       372   09 Jun 2027 09:04:26.426   09 Jun 2027 09:04:41.022            14.596                 Moscow          1824.500
       373   09 Jun 2027 09:04:47.129   09 Jun 2027 09:05:05.952            18.823                Novosib          2352.875
       374   09 Jun 2027 09:05:09.116   09 Jun 2027 09:05:26.635            17.519                Norilsk          2189.875
       375   09 Jun 2027 09:05:31.795   09 Jun 2027 09:06:17.413            45.618              Murmansk2          5702.250
       376   09 Jun 2027 09:06:34.303   09 Jun 2027 09:06:55.154            20.851                Norilsk          2606.375
       377   09 Jun 2027 09:07:19.299   09 Jun 2027 09:07:32.629            13.330              Murmansk2          1666.250
       378   09 Jun 2027 10:15:04.096   09 Jun 2027 10:15:59.255            55.159               CapeTown          6894.875
       379   09 Jun 2027 10:51:59.208   09 Jun 2027 10:55:54.435           235.227                Anadyr2         29403.375
       380   09 Jun 2027 10:57:48.333   09 Jun 2027 10:58:11.319            22.986                Anadyr2          2873.250
       381   09 Jun 2027 12:26:53.303   09 Jun 2027 12:28:04.341            71.038                Anadyr1          8879.750
       382   09 Jun 2027 12:29:23.110   09 Jun 2027 12:31:26.276           123.166                Anadyr2         15395.750
       383   09 Jun 2027 14:05:19.588   09 Jun 2027 14:07:30.980           131.392               Magadan2         16424.000
       384   09 Jun 2027 14:08:00.049   09 Jun 2027 14:09:42.784           102.735               Magadan1         12841.875
       385   09 Jun 2027 14:13:03.547   09 Jun 2027 14:14:22.452            78.905               Magadan2          9863.125
       386   09 Jun 2027 16:33:18.470   09 Jun 2027 16:39:29.403           370.933            RioGallegos         46366.625
       387   09 Jun 2027 17:20:46.636   09 Jun 2027 17:22:13.440            86.804                Irkutsk         10850.500
       388   09 Jun 2027 17:23:25.827   09 Jun 2027 17:23:57.279            31.452                Irkutsk          3931.500
       389   09 Jun 2027 17:24:51.223   09 Jun 2027 17:25:58.888            67.665                Novosib          8458.125
       390   09 Jun 2027 17:34:38.681   09 Jun 2027 17:36:29.450           110.769                Sumatra         13846.125
       391   09 Jun 2027 17:38:28.410   09 Jun 2027 17:40:30.730           122.320                Sumatra         15290.000
       392   09 Jun 2027 18:56:30.023   09 Jun 2027 18:58:31.390           121.367                Novosib         15170.875
       393   09 Jun 2027 19:05:21.458   09 Jun 2027 19:06:30.555            69.097                  Delhi          8637.125
       394   09 Jun 2027 20:34:58.586   09 Jun 2027 20:35:16.112            17.526              Murmansk2          2190.750
       395   09 Jun 2027 20:36:16.523   09 Jun 2027 20:38:58.223           161.700                 Moscow         20212.500
       396   09 Jun 2027 22:09:57.625   09 Jun 2027 22:12:18.637           141.012                 Moscow         17626.500
       397   09 Jun 2027 22:34:31.760   09 Jun 2027 22:36:25.834           114.074               CapeTown         14259.250
       398   10 Jun 2027 04:29:40.933   10 Jun 2027 04:30:38.051            57.118              Murmansk1          7139.750
       399   10 Jun 2027 04:31:03.179   10 Jun 2027 04:31:10.369             7.190                Novosib           898.750
       400   10 Jun 2027 05:05:14.626   10 Jun 2027 05:06:30.128            75.502            RioGallegos          9437.750
       401   10 Jun 2027 05:40:30.514   10 Jun 2027 05:42:18.279           107.765                Sumatra         13470.625
       402   10 Jun 2027 05:43:38.568   10 Jun 2027 05:44:49.816            71.248                Sumatra          8906.000
       403   10 Jun 2027 05:52:53.852   10 Jun 2027 05:53:10.938            17.086                  Delhi          2135.750
       404   10 Jun 2027 06:02:54.721   10 Jun 2027 06:06:05.774           191.053                Novosib         23881.625
       405   10 Jun 2027 07:24:23.712   10 Jun 2027 07:25:46.760            83.048                  Delhi         10381.000
       406   10 Jun 2027 07:40:20.453   10 Jun 2027 07:40:47.630            27.177                 Moscow          3397.125
       407   10 Jun 2027 07:41:14.575   10 Jun 2027 07:42:24.506            69.931                Norilsk          8741.375
       408   10 Jun 2027 07:42:36.556   10 Jun 2027 07:42:48.752            12.196              Murmansk1          1524.500
       409   10 Jun 2027 07:43:15.530   10 Jun 2027 07:43:54.666            39.136                Novosib          4892.000
       410   10 Jun 2027 09:03:09.490   10 Jun 2027 09:04:06.187            56.697                  Delhi          7087.125
       411   10 Jun 2027 09:14:24.418   10 Jun 2027 09:16:15.863           111.445                Novosib         13930.625
       412   10 Jun 2027 09:16:42.310   10 Jun 2027 09:18:50.999           128.689                 Moscow         16086.125
       413   10 Jun 2027 10:25:10.511   10 Jun 2027 10:27:38.431           147.920               CapeTown         18490.000
       414   10 Jun 2027 10:30:00.905   10 Jun 2027 10:31:27.863            86.958               CapeTown         10869.750
       415   10 Jun 2027 11:03:43.399   10 Jun 2027 11:06:51.068           187.669                Anadyr2         23458.625
       416   10 Jun 2027 12:43:55.430   10 Jun 2027 12:45:49.641           114.211               Magadan2         14276.375
       417   10 Jun 2027 14:17:15.234   10 Jun 2027 14:19:02.587           107.353               Magadan2         13419.125
       418   10 Jun 2027 14:20:05.747   10 Jun 2027 14:22:37.676           151.929               Magadan1         18991.125
       419   10 Jun 2027 16:45:05.274   10 Jun 2027 16:50:58.370           353.096            RioGallegos         44137.000
       420   10 Jun 2027 17:34:35.539   10 Jun 2027 17:37:44.832           189.293                Novosib         23661.625
       421   10 Jun 2027 17:46:23.976   10 Jun 2027 17:48:05.040           101.064                Sumatra         12633.000
       422   10 Jun 2027 17:49:08.194   10 Jun 2027 17:50:53.638           105.444                Sumatra         13180.500
       423   10 Jun 2027 19:16:12.161   10 Jun 2027 19:18:22.287           130.126                  Delhi         16265.750
       424   10 Jun 2027 19:20:15.341   10 Jun 2027 19:21:04.974            49.633                  Delhi          6204.125
       425   10 Jun 2027 20:43:37.502   10 Jun 2027 20:44:48.679            71.177              Murmansk1          8897.125
       426   10 Jun 2027 20:47:36.503   10 Jun 2027 20:51:06.999           210.496                 Moscow         26312.000
       427   11 Jun 2027 03:04:15.165   11 Jun 2027 03:04:26.789            11.624               Magadan1          1453.000
       428   11 Jun 2027 03:04:27.019   11 Jun 2027 03:04:34.165             7.146                Novosib           893.250
       429   11 Jun 2027 03:04:52.804   11 Jun 2027 03:05:59.449            66.645                Anadyr2          8330.625
       430   11 Jun 2027 03:06:00.602   11 Jun 2027 03:06:10.625            10.023               Magadan1          1252.875
       431   11 Jun 2027 03:42:32.662   11 Jun 2027 03:43:53.992            81.330            RioGallegos         10166.250
       432   11 Jun 2027 03:44:19.609   11 Jun 2027 03:44:59.136            39.527            RioGallegos          4940.875
       433   11 Jun 2027 04:36:56.265   11 Jun 2027 04:37:07.715            11.450               Magadan2          1431.250
       434   11 Jun 2027 04:37:08.403   11 Jun 2027 04:37:43.087            34.684                Irkutsk          4335.500
       435   11 Jun 2027 04:37:54.280   11 Jun 2027 04:38:15.812            21.532               Magadan2          2691.500
       436   11 Jun 2027 04:38:27.794   11 Jun 2027 04:38:51.748            23.954                Norilsk          2994.250
       437   11 Jun 2027 04:38:51.849   11 Jun 2027 04:39:02.604            10.755                Novosib          1344.375
       438   11 Jun 2027 04:39:17.223   11 Jun 2027 04:40:04.221            46.998                Novosib          5874.750
       439   11 Jun 2027 04:40:04.619   11 Jun 2027 04:42:16.910           132.291                Irkutsk         16536.375
       440   11 Jun 2027 05:18:20.334   11 Jun 2027 05:18:30.260             9.926            RioGallegos          1240.750
       441   11 Jun 2027 05:52:18.972   11 Jun 2027 05:53:14.891            55.919                Sumatra          6989.875
       442   11 Jun 2027 05:55:13.908   11 Jun 2027 05:56:35.936            82.028                Sumatra         10253.500
       443   11 Jun 2027 06:03:42.014   11 Jun 2027 06:05:23.457           101.443                  Delhi         12680.375
       444   11 Jun 2027 06:14:49.680   11 Jun 2027 06:15:40.158            50.478                Irkutsk          6309.750
       445   11 Jun 2027 06:15:48.072   11 Jun 2027 06:16:01.904            13.832                Irkutsk          1729.000
       446   11 Jun 2027 06:16:05.089   11 Jun 2027 06:16:28.073            22.984                Novosib          2873.000
       447   11 Jun 2027 06:17:06.559   11 Jun 2027 06:18:56.739           110.180                Novosib         13772.500
       448   11 Jun 2027 07:36:22.355   11 Jun 2027 07:37:17.787            55.432                  Delhi          6929.000
       449   11 Jun 2027 07:52:01.609   11 Jun 2027 07:54:12.051           130.442                Novosib         16305.250
       450   11 Jun 2027 09:23:46.289   11 Jun 2027 09:24:03.978            17.689                 Moscow          2211.125
       451   11 Jun 2027 09:24:12.505   11 Jun 2027 09:25:19.485            66.980              Murmansk1          8372.500
       452   11 Jun 2027 09:25:30.339   11 Jun 2027 09:26:31.940            61.601              Murmansk1          7700.125
       453   11 Jun 2027 09:27:03.511   11 Jun 2027 09:28:58.603           115.092              Murmansk2         14386.500
       454   11 Jun 2027 09:29:13.590   11 Jun 2027 09:29:35.203            21.613                 Moscow          2701.625
       455   11 Jun 2027 09:30:12.311   11 Jun 2027 09:30:50.354            38.043                 Moscow          4755.375
       456   11 Jun 2027 09:30:59.293   11 Jun 2027 09:31:30.989            31.696              Murmansk1          3962.000
       457   11 Jun 2027 10:36:17.087   11 Jun 2027 10:39:23.279           186.192               CapeTown         23274.000
       458   11 Jun 2027 11:15:32.375   11 Jun 2027 11:16:06.433            34.058                Anadyr2          4257.250
       459   11 Jun 2027 11:16:06.433   11 Jun 2027 11:19:33.898           207.465                Anadyr1         25933.125
       460   11 Jun 2027 12:55:00.701   11 Jun 2027 12:57:48.685           167.984               Magadan2         20998.000
       461   11 Jun 2027 12:57:56.372   11 Jun 2027 12:58:25.254            28.882               Magadan1          3610.250
       462   11 Jun 2027 14:31:06.145   11 Jun 2027 14:32:08.887            62.742               Magadan2          7842.750
       463   11 Jun 2027 14:33:41.532   11 Jun 2027 14:34:30.628            49.096               Magadan2          6137.000
       464   11 Jun 2027 16:11:29.617   11 Jun 2027 16:15:28.575           238.958                Irkutsk         29869.750
       465   11 Jun 2027 16:58:20.945   11 Jun 2027 16:59:33.080            72.135            RioGallegos          9016.875
       466   11 Jun 2027 17:44:34.662   11 Jun 2027 17:46:32.239           117.577                Irkutsk         14697.125
       467   11 Jun 2027 17:46:38.080   11 Jun 2027 17:49:34.280           176.200                Novosib         22025.000
       468   11 Jun 2027 18:01:18.104   11 Jun 2027 18:01:55.054            36.950                Sumatra          4618.750
       469   11 Jun 2027 19:27:58.157   11 Jun 2027 19:32:15.335           257.178                  Delhi         32147.250
       470   11 Jun 2027 20:55:22.771   11 Jun 2027 20:56:17.410            54.639              Murmansk2          6829.875
       471   11 Jun 2027 20:59:10.987   11 Jun 2027 21:00:23.492            72.505                 Moscow          9063.125
       472   11 Jun 2027 23:00:16.837   11 Jun 2027 23:01:44.980            88.143               CapeTown         11017.875
       473   12 Jun 2027 03:13:39.116   12 Jun 2027 03:14:22.434            43.318               Magadan1          5414.750
       474   12 Jun 2027 03:14:36.355   12 Jun 2027 03:15:15.391            39.036               Magadan1          4879.500
       475   12 Jun 2027 03:15:23.991   12 Jun 2027 03:15:29.997             6.006                Anadyr2           750.750
       476   12 Jun 2027 03:16:14.714   12 Jun 2027 03:17:49.111            94.397               Magadan1         11799.625
       477   12 Jun 2027 03:17:49.111   12 Jun 2027 03:18:47.894            58.783               Magadan2          7347.875
       478   12 Jun 2027 04:48:59.297   12 Jun 2027 04:50:01.829            62.532                Novosib          7816.500
       479   12 Jun 2027 04:50:04.402   12 Jun 2027 04:53:59.901           235.499                Irkutsk         29437.375
       480   12 Jun 2027 06:14:49.901   12 Jun 2027 06:17:36.988           167.087                  Delhi         20885.875
       481   12 Jun 2027 06:27:12.247   12 Jun 2027 06:27:33.265            21.018                Novosib          2627.250
       482   12 Jun 2027 06:27:39.649   12 Jun 2027 06:28:17.002            37.353              Murmansk2          4669.125
