uniorb/output/strategy_1/Drop/Drop_KinoSat_111808.txt

KinoSat_111808
-------------------------
    Access    *     Start Time (UTCG)     *     Stop Time (UTCG)  *   Duration (s)        *       Station  *  Data (Mbytes)
         1   01 Jun 2027 04:15:56.668   01 Jun 2027 04:16:22.093            25.425                Irkutsk           794.531
         2   01 Jun 2027 04:16:28.153   01 Jun 2027 04:16:31.538             3.385                Norilsk           105.781
         3   01 Jun 2027 04:16:43.470   01 Jun 2027 04:17:09.703            26.233                Novosib           819.781
         4   01 Jun 2027 04:17:24.485   01 Jun 2027 04:19:40.921           136.436              Murmansk2          4263.625
         5   01 Jun 2027 04:19:46.389   01 Jun 2027 04:20:27.990            41.601                Norilsk          1300.031
         6   01 Jun 2027 04:20:41.539   01 Jun 2027 04:20:44.897             3.358              Murmansk2           104.937
         7   01 Jun 2027 04:21:00.543   01 Jun 2027 04:21:07.622             7.079              Murmansk2           221.219
         8   01 Jun 2027 04:21:20.732   01 Jun 2027 04:21:32.252            11.520                Novosib           360.000
         9   01 Jun 2027 04:23:23.635   01 Jun 2027 04:25:58.224           154.589                  Delhi          4830.906
        10   01 Jun 2027 05:53:58.534   01 Jun 2027 05:56:10.226           131.692              Murmansk2          4115.375
        11   01 Jun 2027 05:56:16.060   01 Jun 2027 05:57:46.758            90.698              Murmansk2          2834.312
        12   01 Jun 2027 05:57:46.758   01 Jun 2027 05:58:11.129            24.371              Murmansk1           761.594
        13   01 Jun 2027 07:17:41.779   01 Jun 2027 07:18:02.507            20.728               Magadan2           647.750
        14   01 Jun 2027 07:18:02.507   01 Jun 2027 07:20:09.308           126.801               Magadan1          3962.531
        15   01 Jun 2027 07:20:28.016   01 Jun 2027 07:22:24.464           116.448               Magadan1          3639.000
        16   01 Jun 2027 07:22:28.809   01 Jun 2027 07:22:49.512            20.703                Anadyr1           646.969
        17   01 Jun 2027 08:53:54.050   01 Jun 2027 08:56:20.886           146.836               Magadan2          4588.625
        18   01 Jun 2027 08:57:09.574   01 Jun 2027 08:57:24.745            15.171               Magadan1           474.094
        19   01 Jun 2027 10:27:56.304   01 Jun 2027 10:32:53.153           296.849               Magadan1          9276.531
        20   01 Jun 2027 10:33:18.807   01 Jun 2027 10:34:02.634            43.827               Magadan2          1369.594
        21   01 Jun 2027 10:34:13.476   01 Jun 2027 10:34:41.210            27.734              Murmansk1           866.688
        22   01 Jun 2027 10:34:41.210   01 Jun 2027 10:35:11.280            30.070              Murmansk2           939.687
        23   01 Jun 2027 11:08:58.768   01 Jun 2027 11:10:24.051            85.283            RioGallegos          2665.094
        24   01 Jun 2027 11:45:14.655   01 Jun 2027 11:46:51.454            96.799                Sumatra          3024.969
        25   01 Jun 2027 11:49:17.009   01 Jun 2027 11:49:43.116            26.107                Sumatra           815.844
        26   01 Jun 2027 12:05:24.142   01 Jun 2027 12:06:16.370            52.228                Irkutsk          1632.125
        27   01 Jun 2027 12:51:09.483   01 Jun 2027 12:52:29.936            80.453            RioGallegos          2514.156
        28   01 Jun 2027 12:55:34.672   01 Jun 2027 12:57:14.691           100.019            RioGallegos          3125.594
        29   01 Jun 2027 13:26:44.097   01 Jun 2027 13:29:49.676           185.579                Sumatra          5799.344
        30   01 Jun 2027 13:41:27.794   01 Jun 2027 13:41:54.926            27.132                Irkutsk           847.875
        31   01 Jun 2027 13:45:04.238   01 Jun 2027 13:45:20.704            16.466                Irkutsk           514.563
        32   01 Jun 2027 15:10:06.128   01 Jun 2027 15:14:46.664           280.536                  Delhi          8766.750
        33   01 Jun 2027 15:18:31.835   01 Jun 2027 15:18:45.523            13.688                Novosib           427.750
        34   01 Jun 2027 16:55:59.968   01 Jun 2027 16:57:03.574            63.606                 Moscow          1987.687
        35   01 Jun 2027 16:57:53.605   01 Jun 2027 16:58:42.384            48.779                Norilsk          1524.344
        36   01 Jun 2027 17:01:40.400   01 Jun 2027 17:02:16.946            36.546                Norilsk          1142.062
        37   01 Jun 2027 17:02:40.390   01 Jun 2027 17:03:05.853            25.463              Murmansk1           795.719
        38   01 Jun 2027 17:04:15.238   01 Jun 2027 17:04:40.420            25.182              Murmansk1           786.938
        39   01 Jun 2027 17:09:40.871   01 Jun 2027 17:09:53.535            12.664                Anadyr1           395.750
        40   01 Jun 2027 17:10:40.547   01 Jun 2027 17:11:05.692            25.145                Anadyr2           785.781
        41   01 Jun 2027 17:12:00.647   01 Jun 2027 17:12:00.744             0.097                Anadyr1             3.031
        42   01 Jun 2027 18:06:21.057   01 Jun 2027 18:07:52.051            90.994               CapeTown          2843.563
        43   01 Jun 2027 18:11:32.019   01 Jun 2027 18:12:28.719            56.700               CapeTown          1771.875
        44   01 Jun 2027 18:27:17.474   01 Jun 2027 18:32:44.269           326.795                 Moscow         10212.344
        45   01 Jun 2027 18:38:45.345   01 Jun 2027 18:39:26.227            40.882              Murmansk2          1277.563
        46   01 Jun 2027 19:42:31.267   01 Jun 2027 19:42:43.967            12.700               CapeTown           396.875
        47   01 Jun 2027 19:44:02.117   01 Jun 2027 19:46:18.160           136.043               CapeTown          4251.344
        48   01 Jun 2027 20:10:00.100   01 Jun 2027 20:16:00.233           360.133              Murmansk1         11254.156
        49   01 Jun 2027 21:54:14.586   01 Jun 2027 21:57:39.092           204.506                Anadyr1          6390.813
        50   01 Jun 2027 21:57:39.092   01 Jun 2027 21:57:59.627            20.535                Anadyr2           641.719
        51   01 Jun 2027 21:58:18.956   01 Jun 2027 21:59:02.777            43.821               Magadan2          1369.406
        52   01 Jun 2027 21:59:42.327   01 Jun 2027 22:00:05.365            23.038               Magadan1           719.937
        53   01 Jun 2027 22:00:05.365   01 Jun 2027 22:00:19.164            13.799               Magadan2           431.219
        54   01 Jun 2027 22:00:49.159   01 Jun 2027 22:01:13.506            24.347               Magadan1           760.844
        55   01 Jun 2027 22:03:53.071   01 Jun 2027 22:04:10.970            17.899               Magadan1           559.344
        56   01 Jun 2027 22:06:38.278   01 Jun 2027 22:06:53.599            15.321               Magadan2           478.781
        57   01 Jun 2027 22:07:17.447   01 Jun 2027 22:07:40.226            22.779               Magadan2           711.844
        58   01 Jun 2027 22:49:26.210   01 Jun 2027 22:50:39.802            73.592            RioGallegos          2299.750
        59   01 Jun 2027 22:53:04.253   01 Jun 2027 22:53:29.535            25.282            RioGallegos           790.062
        60   01 Jun 2027 22:54:35.043   01 Jun 2027 22:55:24.927            49.884            RioGallegos          1558.875
        61   01 Jun 2027 23:30:00.434   01 Jun 2027 23:33:16.463           196.029                Anadyr1          6125.906
        62   01 Jun 2027 23:33:31.743   01 Jun 2027 23:34:38.886            67.143               Magadan1          2098.219
        63   01 Jun 2027 23:34:53.911   01 Jun 2027 23:35:09.884            15.973               Magadan2           499.156
        64   01 Jun 2027 23:36:39.586   01 Jun 2027 23:36:57.236            17.650                Irkutsk           551.562
        65   01 Jun 2027 23:37:40.298   01 Jun 2027 23:37:48.928             8.630               Magadan2           269.687
        66   01 Jun 2027 23:38:59.292   01 Jun 2027 23:40:35.406            96.114                Irkutsk          3003.562
        67   01 Jun 2027 23:53:49.998   01 Jun 2027 23:54:29.945            39.947                Sumatra          1248.344
        68   01 Jun 2027 23:57:18.624   01 Jun 2027 23:57:35.601            16.977                Sumatra           530.531
        69   01 Jun 2027 23:57:56.049   01 Jun 2027 23:59:53.859           117.810                Sumatra          3681.562
        70   02 Jun 2027 00:34:38.595   02 Jun 2027 00:35:24.265            45.670            RioGallegos          1427.187
        71   02 Jun 2027 01:05:06.365   02 Jun 2027 01:05:16.864            10.499                Anadyr1           328.094
        72   02 Jun 2027 01:05:19.419   02 Jun 2027 01:05:46.363            26.944                Anadyr2           842.000
        73   02 Jun 2027 01:06:27.760   02 Jun 2027 01:06:44.263            16.503                Anadyr2           515.719
        74   02 Jun 2027 01:06:44.263   02 Jun 2027 01:07:08.795            24.532                Anadyr1           766.625
        75   02 Jun 2027 01:07:49.168   02 Jun 2027 01:08:16.611            27.443                Anadyr2           857.594
        76   02 Jun 2027 01:08:38.292   02 Jun 2027 01:10:20.650           102.358               Magadan1          3198.688
        77   02 Jun 2027 01:11:51.354   02 Jun 2027 01:12:45.942            54.588                Irkutsk          1705.875
        78   02 Jun 2027 01:13:27.027   02 Jun 2027 01:13:44.617            17.590                Novosib           549.687
        79   02 Jun 2027 01:14:38.934   02 Jun 2027 01:14:53.273            14.339                Novosib           448.094
        80   02 Jun 2027 01:16:37.278   02 Jun 2027 01:17:37.569            60.291                Irkutsk          1884.094
        81   02 Jun 2027 01:22:28.670   02 Jun 2027 01:23:12.696            44.026                Novosib          1375.813
        82   02 Jun 2027 01:26:08.833   02 Jun 2027 01:27:21.138            72.305                Sumatra          2259.531
        83   02 Jun 2027 01:30:36.132   02 Jun 2027 01:31:13.563            37.431                Sumatra          1169.719
        84   02 Jun 2027 02:02:18.777   02 Jun 2027 02:02:47.915            29.138            RioGallegos           910.563
        85   02 Jun 2027 02:04:55.638   02 Jun 2027 02:05:13.636            17.998            RioGallegos           562.438
        86   02 Jun 2027 02:11:22.020   02 Jun 2027 02:11:38.870            16.850            RioGallegos           526.562
        87   02 Jun 2027 02:38:58.957   02 Jun 2027 02:39:25.180            26.223                Anadyr1           819.469
        88   02 Jun 2027 02:40:54.514   02 Jun 2027 02:41:41.612            47.098                Anadyr2          1471.813
        89   02 Jun 2027 02:43:59.379   02 Jun 2027 02:45:01.384            62.005                Norilsk          1937.656
        90   02 Jun 2027 02:45:11.594   02 Jun 2027 02:45:45.374            33.780                Norilsk          1055.625
        91   02 Jun 2027 02:46:33.951   02 Jun 2027 02:47:24.701            50.750              Murmansk1          1585.938
        92   02 Jun 2027 02:47:36.255   02 Jun 2027 02:47:48.639            12.384              Murmansk1           387.000
        93   02 Jun 2027 02:48:09.406   02 Jun 2027 02:48:47.609            38.203                Irkutsk          1193.844
        94   02 Jun 2027 02:49:37.948   02 Jun 2027 02:51:07.276            89.328                Irkutsk          2791.500
        95   02 Jun 2027 02:58:38.739   02 Jun 2027 02:59:12.453            33.714                  Delhi          1053.563
        96   02 Jun 2027 03:37:40.164   02 Jun 2027 03:39:56.974           136.810            RioGallegos          4275.313
        97   02 Jun 2027 03:40:53.529   02 Jun 2027 03:42:35.342           101.813            RioGallegos          3181.656
        98   02 Jun 2027 04:26:33.567   02 Jun 2027 04:27:35.800            62.233                Irkutsk          1944.781
        99   02 Jun 2027 04:28:56.839   02 Jun 2027 04:29:37.168            40.329                Novosib          1260.281
       100   02 Jun 2027 04:30:02.583   02 Jun 2027 04:32:21.768           139.185                Norilsk          4349.531
       101   02 Jun 2027 04:32:29.389   02 Jun 2027 04:33:17.648            48.259              Murmansk1          1508.094
       102   02 Jun 2027 04:35:02.377   02 Jun 2027 04:37:11.494           129.117                  Delhi          4034.906
       103   02 Jun 2027 06:07:02.018   02 Jun 2027 06:07:59.812            57.794                 Moscow          1806.063
       104   02 Jun 2027 06:08:03.276   02 Jun 2027 06:09:00.798            57.522              Murmansk1          1797.563
       105   02 Jun 2027 07:30:00.490   02 Jun 2027 07:34:51.004           290.514                Anadyr1          9078.563
       106   02 Jun 2027 07:34:56.801   02 Jun 2027 07:35:20.873            24.072              Murmansk1           752.250
       107   02 Jun 2027 07:35:20.873   02 Jun 2027 07:36:38.337            77.464              Murmansk2          2420.750
       108   02 Jun 2027 07:38:33.260   02 Jun 2027 07:40:05.700            92.440                 Moscow          2888.750
       109   02 Jun 2027 09:00:08.808   02 Jun 2027 09:00:28.142            19.334                Anadyr2           604.187
       110   02 Jun 2027 09:04:35.487   02 Jun 2027 09:05:11.241            35.754                Anadyr2          1117.312
       111   02 Jun 2027 09:06:14.203   02 Jun 2027 09:09:04.409           170.206               Magadan2          5318.938
       112   02 Jun 2027 09:09:13.653   02 Jun 2027 09:10:25.337            71.684               Magadan1          2240.125
       113   02 Jun 2027 10:40:27.280   02 Jun 2027 10:40:36.496             9.216               Magadan2           288.000
       114   02 Jun 2027 10:42:06.320   02 Jun 2027 10:44:11.290           124.970                Irkutsk          3905.313
       115   02 Jun 2027 10:44:16.981   02 Jun 2027 10:45:25.384            68.403                Novosib          2137.594
       116   02 Jun 2027 10:45:34.511   02 Jun 2027 10:45:57.225            22.714               Magadan2           709.812
       117   02 Jun 2027 10:46:11.342   02 Jun 2027 10:46:57.684            46.342              Murmansk1          1448.187
       118   02 Jun 2027 10:46:57.684   02 Jun 2027 10:47:07.112             9.428              Murmansk2           294.625
       119   02 Jun 2027 10:47:35.771   02 Jun 2027 10:48:26.584            50.813              Murmansk2          1587.906
       120   02 Jun 2027 10:54:40.303   02 Jun 2027 10:55:13.552            33.249              Murmansk1          1039.031
       121   02 Jun 2027 11:20:54.080   02 Jun 2027 11:23:03.736           129.656            RioGallegos          4051.750
       122   02 Jun 2027 11:56:42.681   02 Jun 2027 11:57:23.846            41.165                Sumatra          1286.406
       123   02 Jun 2027 11:59:44.399   02 Jun 2027 12:00:25.334            40.935                Sumatra          1279.219
       124   02 Jun 2027 12:09:17.983   02 Jun 2027 12:12:30.419           192.436                Irkutsk          6013.625
       125   02 Jun 2027 12:17:51.422   02 Jun 2027 12:18:01.002             9.580                Norilsk           299.375
       126   02 Jun 2027 12:19:09.470   02 Jun 2027 12:19:18.206             8.736                Norilsk           273.000
       127   02 Jun 2027 12:19:22.494   02 Jun 2027 12:19:32.532            10.038                Norilsk           313.688
       128   02 Jun 2027 12:20:55.550   02 Jun 2027 12:21:19.585            24.035              Murmansk1           751.094
       129   02 Jun 2027 12:58:06.221   02 Jun 2027 13:01:50.868           224.647            RioGallegos          7020.219
       130   02 Jun 2027 13:02:55.767   02 Jun 2027 13:03:12.782            17.015            RioGallegos           531.719
       131   02 Jun 2027 13:32:20.554   02 Jun 2027 13:36:31.322           250.768                Sumatra          7836.500
       132   02 Jun 2027 13:47:38.374   02 Jun 2027 13:50:10.679           152.305                Irkutsk          4759.531
       133   02 Jun 2027 15:17:20.464   02 Jun 2027 15:20:52.292           211.828                  Delhi          6619.625
       134   02 Jun 2027 15:22:14.938   02 Jun 2027 15:23:34.573            79.635                  Delhi          2488.594
       135   02 Jun 2027 15:25:46.577   02 Jun 2027 15:27:35.691           109.114                Novosib          3409.812
       136   02 Jun 2027 15:28:59.023   02 Jun 2027 15:31:58.297           179.274                Novosib          5602.312
       137   02 Jun 2027 18:22:01.543   02 Jun 2027 18:22:40.303            38.760               CapeTown          1211.250
       138   02 Jun 2027 18:39:56.383   02 Jun 2027 18:43:44.560           228.177                 Moscow          7130.531
       139   02 Jun 2027 18:44:26.259   02 Jun 2027 18:47:42.899           196.640                 Moscow          6145.000
       140   02 Jun 2027 19:54:13.117   02 Jun 2027 19:54:41.369            28.252               CapeTown           882.875
       141   02 Jun 2027 19:59:09.087   02 Jun 2027 19:59:56.258            47.171               CapeTown          1474.094
       142   02 Jun 2027 20:22:55.726   02 Jun 2027 20:27:46.808           291.082              Murmansk1          9096.313
       143   02 Jun 2027 20:42:27.634   02 Jun 2027 20:42:30.043             2.409               Magadan2            75.281
       144   02 Jun 2027 20:42:55.174   02 Jun 2027 20:43:01.588             6.414               Magadan2           200.437
       145   02 Jun 2027 22:06:16.029   02 Jun 2027 22:10:02.583           226.554                Anadyr1          7079.812
       146   02 Jun 2027 22:10:07.262   02 Jun 2027 22:11:27.143            79.881                Anadyr2          2496.281
       147   02 Jun 2027 22:11:48.200   02 Jun 2027 22:13:38.418           110.218               Magadan2          3444.313
       148   02 Jun 2027 22:18:26.528   02 Jun 2027 22:18:37.305            10.777               Magadan2           336.781
       149   02 Jun 2027 22:19:21.960   02 Jun 2027 22:20:00.393            38.433               Magadan2          1201.031
       150   02 Jun 2027 23:01:05.266   02 Jun 2027 23:01:59.876            54.610            RioGallegos          1706.563
       151   02 Jun 2027 23:02:56.161   02 Jun 2027 23:03:23.316            27.155            RioGallegos           848.594
       152   02 Jun 2027 23:05:29.771   02 Jun 2027 23:05:37.983             8.212            RioGallegos           256.625
       153   02 Jun 2027 23:06:22.659   02 Jun 2027 23:07:30.778            68.119            RioGallegos          2128.719
       154   02 Jun 2027 23:41:58.827   02 Jun 2027 23:43:15.558            76.731                Anadyr1          2397.844
       155   02 Jun 2027 23:44:05.450   02 Jun 2027 23:45:44.270            98.820                Norilsk          3088.125
       156   02 Jun 2027 23:46:29.690   02 Jun 2027 23:47:53.941            84.251               Magadan2          2632.844
       157   02 Jun 2027 23:48:53.381   02 Jun 2027 23:49:33.037            39.656                Irkutsk          1239.250
       158   02 Jun 2027 23:56:40.803   02 Jun 2027 23:57:56.980            76.177                Irkutsk          2380.531
       159   03 Jun 2027 00:02:30.277   03 Jun 2027 00:02:54.080            23.803                Sumatra           743.844
       160   03 Jun 2027 00:04:14.658   03 Jun 2027 00:05:40.322            85.664                Sumatra          2677.000
       161   03 Jun 2027 00:44:44.091   03 Jun 2027 00:45:04.992            20.901            RioGallegos           653.156
       162   03 Jun 2027 00:45:33.398   03 Jun 2027 00:45:43.567            10.169            RioGallegos           317.781
       163   03 Jun 2027 00:47:34.726   03 Jun 2027 00:48:15.602            40.876            RioGallegos          1277.375
       164   03 Jun 2027 01:16:56.792   03 Jun 2027 01:17:16.180            19.388                Anadyr1           605.875
       165   03 Jun 2027 01:17:47.593   03 Jun 2027 01:18:08.674            21.081                Anadyr1           658.781
       166   03 Jun 2027 01:18:40.417   03 Jun 2027 01:19:15.150            34.733                Anadyr2          1085.406
       167   03 Jun 2027 01:19:20.692   03 Jun 2027 01:19:37.502            16.810                Anadyr2           525.312
       168   03 Jun 2027 01:20:00.632   03 Jun 2027 01:21:18.348            77.716                Norilsk          2428.625
       169   03 Jun 2027 01:21:37.636   03 Jun 2027 01:22:24.053            46.417               Magadan1          1450.531
       170   03 Jun 2027 01:23:53.032   03 Jun 2027 01:25:48.348           115.316                Irkutsk          3603.625
       171   03 Jun 2027 01:31:20.683   03 Jun 2027 01:31:23.924             3.241                Novosib           101.281
       172   03 Jun 2027 01:32:25.546   03 Jun 2027 01:32:54.965            29.419                  Delhi           919.344
       173   03 Jun 2027 01:36:07.251   03 Jun 2027 01:36:27.477            20.226                  Delhi           632.063
       174   03 Jun 2027 01:38:34.543   03 Jun 2027 01:39:30.939            56.396                Sumatra          1762.375
       175   03 Jun 2027 01:42:04.055   03 Jun 2027 01:43:43.224            99.169                Sumatra          3099.031
       176   03 Jun 2027 02:16:51.256   03 Jun 2027 02:17:28.708            37.452            RioGallegos          1170.375
       177   03 Jun 2027 02:50:40.696   03 Jun 2027 02:51:03.681            22.985                Anadyr1           718.281
       178   03 Jun 2027 02:51:23.219   03 Jun 2027 02:51:28.652             5.433                Anadyr1           169.781
       179   03 Jun 2027 02:52:51.511   03 Jun 2027 02:52:55.239             3.728                Anadyr1           116.500
       180   03 Jun 2027 02:56:01.430   03 Jun 2027 02:57:42.318           100.888                Norilsk          3152.750
       181   03 Jun 2027 02:58:28.682   03 Jun 2027 02:59:03.732            35.050              Murmansk2          1095.313
       182   03 Jun 2027 02:59:03.732   03 Jun 2027 02:59:13.947            10.215              Murmansk1           319.219
       183   03 Jun 2027 02:59:47.884   03 Jun 2027 03:01:27.965           100.081                Novosib          3127.531
       184   03 Jun 2027 03:01:44.963   03 Jun 2027 03:02:09.022            24.059                Norilsk           751.844
       185   03 Jun 2027 03:02:14.920   03 Jun 2027 03:02:48.311            33.391                Novosib          1043.469
       186   03 Jun 2027 03:03:04.625   03 Jun 2027 03:04:14.008            69.383                Novosib          2168.219
       187   03 Jun 2027 03:04:20.172   03 Jun 2027 03:05:12.404            52.232                Novosib          1632.250
       188   03 Jun 2027 03:05:26.980   03 Jun 2027 03:06:18.171            51.191              Murmansk2          1599.719
       189   03 Jun 2027 03:06:23.990   03 Jun 2027 03:07:16.189            52.199                Novosib          1631.219
       190   03 Jun 2027 03:07:16.880   03 Jun 2027 03:07:24.013             7.133                Norilsk           222.906
       191   03 Jun 2027 03:07:26.784   03 Jun 2027 03:07:38.975            12.191                Irkutsk           380.969
       192   03 Jun 2027 03:08:21.333   03 Jun 2027 03:10:09.053           107.720                  Delhi          3366.250
       193   03 Jun 2027 03:50:25.698   03 Jun 2027 03:50:29.632             3.934            RioGallegos           122.937
       194   03 Jun 2027 04:39:39.323   03 Jun 2027 04:39:52.386            13.063              Murmansk2           408.219
       195   03 Jun 2027 04:40:07.143   03 Jun 2027 04:41:42.532            95.389                Novosib          2980.906
       196   03 Jun 2027 04:41:51.092   03 Jun 2027 04:42:10.355            19.263                Norilsk           601.969
       197   03 Jun 2027 04:42:12.941   03 Jun 2027 04:43:02.511            49.570                Novosib          1549.063
       198   03 Jun 2027 04:43:21.313   03 Jun 2027 04:44:14.600            53.287                Norilsk          1665.219
       199   03 Jun 2027 04:44:15.793   03 Jun 2027 04:46:00.738           104.945                 Moscow          3279.531
       200   03 Jun 2027 04:46:18.881   03 Jun 2027 04:46:23.569             4.688                Novosib           146.500
       201   03 Jun 2027 05:02:27.019   03 Jun 2027 05:03:02.619            35.600               CapeTown          1112.500
       202   03 Jun 2027 06:17:38.081   03 Jun 2027 06:19:00.055            81.974              Murmansk1          2561.687
       203   03 Jun 2027 06:19:03.625   03 Jun 2027 06:19:15.823            12.198                 Moscow           381.188
       204   03 Jun 2027 06:19:34.035   03 Jun 2027 06:20:44.587            70.552                 Moscow          2204.750
       205   03 Jun 2027 06:20:46.520   03 Jun 2027 06:20:59.840            13.320              Murmansk1           416.250
       206   03 Jun 2027 06:20:59.840   03 Jun 2027 06:21:25.549            25.709              Murmansk2           803.406
       207   03 Jun 2027 06:21:55.291   03 Jun 2027 06:22:23.359            28.068              Murmansk1           877.125
       208   03 Jun 2027 06:37:32.023   03 Jun 2027 06:39:07.301            95.278               CapeTown          2977.438
       209   03 Jun 2027 07:41:37.737   03 Jun 2027 07:45:50.628           252.891                Anadyr1          7902.844
       210   03 Jun 2027 07:46:06.350   03 Jun 2027 07:46:30.581            24.231               Magadan1           757.219
       211   03 Jun 2027 09:17:36.719   03 Jun 2027 09:18:48.400            71.681                Anadyr2          2240.031
       212   03 Jun 2027 09:19:21.005   03 Jun 2027 09:20:18.055            57.050               Magadan2          1782.812
       213   03 Jun 2027 09:20:58.469   03 Jun 2027 09:22:28.999            90.530               Magadan1          2829.063
       214   03 Jun 2027 10:47:57.685   03 Jun 2027 10:48:03.995             6.310               Magadan1           197.187
       215   03 Jun 2027 10:52:52.632   03 Jun 2027 10:57:49.852           297.220               Magadan1          9288.125
       216   03 Jun 2027 11:00:24.914   03 Jun 2027 11:00:32.588             7.674              Murmansk2           239.812
       217   03 Jun 2027 11:00:34.837   03 Jun 2027 11:00:39.824             4.987              Murmansk2           155.844
       218   03 Jun 2027 11:02:38.669   03 Jun 2027 11:02:51.580            12.911              Murmansk2           403.469
       219   03 Jun 2027 11:32:52.667   03 Jun 2027 11:34:02.015            69.348            RioGallegos          2167.125
       220   03 Jun 2027 11:45:06.608   03 Jun 2027 11:45:34.618            28.010            RioGallegos           875.313
       221   03 Jun 2027 12:08:19.902   03 Jun 2027 12:09:55.388            95.486                Sumatra          2983.937
       222   03 Jun 2027 12:21:23.693   03 Jun 2027 12:23:18.030           114.337                Irkutsk          3573.031
       223   03 Jun 2027 12:24:35.791   03 Jun 2027 12:25:36.083            60.292                Irkutsk          1884.125
       224   03 Jun 2027 12:26:12.341   03 Jun 2027 12:27:18.391            66.050                Norilsk          2064.063
       225   03 Jun 2027 13:10:37.664   03 Jun 2027 13:12:11.720            94.056            RioGallegos          2939.250
       226   03 Jun 2027 13:13:49.657   03 Jun 2027 13:14:37.110            47.453            RioGallegos          1482.906
       227   03 Jun 2027 13:44:51.176   03 Jun 2027 13:47:30.581           159.405                Sumatra          4981.406
       228   03 Jun 2027 14:00:23.944   03 Jun 2027 14:02:04.325           100.381                Irkutsk          3136.906
       229   03 Jun 2027 14:04:59.279   03 Jun 2027 14:05:39.068            39.789                Irkutsk          1243.406
       230   03 Jun 2027 14:08:47.098   03 Jun 2027 14:08:50.027             2.929                Novosib            91.531
       231   03 Jun 2027 14:11:17.886   03 Jun 2027 14:11:45.966            28.080                Norilsk           877.500
       232   03 Jun 2027 15:30:07.270   03 Jun 2027 15:32:48.178           160.908                  Delhi          5028.375
       233   03 Jun 2027 15:36:09.339   03 Jun 2027 15:38:46.088           156.749                  Delhi          4898.406
       234   03 Jun 2027 15:39:15.342   03 Jun 2027 15:42:29.329           193.987                Novosib          6062.094
       235   03 Jun 2027 17:12:43.328   03 Jun 2027 17:12:45.985             2.657                 Moscow            83.031
       236   03 Jun 2027 17:14:07.604   03 Jun 2027 17:15:32.102            84.498                 Moscow          2640.562
       237   03 Jun 2027 17:16:11.926   03 Jun 2027 17:16:28.887            16.961              Murmansk2           530.031
       238   03 Jun 2027 17:17:35.452   03 Jun 2027 17:18:39.707            64.255              Murmansk1          2007.969
       239   03 Jun 2027 17:24:33.698   03 Jun 2027 17:24:52.277            18.579              Murmansk1           580.594
       240   03 Jun 2027 17:31:26.679   03 Jun 2027 17:32:04.050            37.371                Anadyr2          1167.844
       241   03 Jun 2027 17:32:37.167   03 Jun 2027 17:32:45.181             8.014                Anadyr1           250.437
       242   03 Jun 2027 17:33:31.674   03 Jun 2027 17:33:36.636             4.962                Anadyr1           155.062
       243   03 Jun 2027 17:35:24.836   03 Jun 2027 17:35:51.599            26.763                Anadyr1           836.344
       244   03 Jun 2027 17:37:54.466   03 Jun 2027 17:38:10.554            16.088                Anadyr1           502.750
       245   03 Jun 2027 18:25:52.352   03 Jun 2027 18:27:57.483           125.131               CapeTown          3910.344
       246   03 Jun 2027 18:52:57.392   03 Jun 2027 18:56:22.908           205.516                 Moscow          6422.375
       247   03 Jun 2027 18:58:39.226   03 Jun 2027 18:59:18.688            39.462              Murmansk1          1233.187
       248   03 Jun 2027 18:59:26.543   03 Jun 2027 18:59:31.268             4.725              Murmansk2           147.656
       249   03 Jun 2027 19:04:01.324   03 Jun 2027 19:04:38.476            37.152              Murmansk1          1161.000
       250   03 Jun 2027 19:15:27.382   03 Jun 2027 19:15:38.929            11.547                Anadyr2           360.844
       251   03 Jun 2027 20:02:51.931   03 Jun 2027 20:03:40.733            48.802               CapeTown          1525.063
       252   03 Jun 2027 20:04:45.514   03 Jun 2027 20:06:33.716           108.202               CapeTown          3381.312
       253   03 Jun 2027 20:36:04.055   03 Jun 2027 20:39:22.756           198.701              Murmansk2          6209.406
       254   03 Jun 2027 20:44:54.940   03 Jun 2027 20:46:01.929            66.989               Magadan1          2093.406
       255   03 Jun 2027 20:49:44.428   03 Jun 2027 20:50:07.015            22.587               Magadan1           705.844
       256   03 Jun 2027 20:52:01.373   03 Jun 2027 20:52:52.004            50.631               Magadan1          1582.219
       257   03 Jun 2027 22:18:17.273   03 Jun 2027 22:21:23.605           186.332                Anadyr1          5822.875
       258   03 Jun 2027 22:21:23.605   03 Jun 2027 22:21:38.565            14.960                Anadyr2           467.500
       259   03 Jun 2027 22:21:43.586   03 Jun 2027 22:24:34.144           170.558               Magadan1          5329.937
       260   03 Jun 2027 22:24:56.148   03 Jun 2027 22:25:40.166            44.018               Magadan1          1375.563
       261   03 Jun 2027 22:25:40.166   03 Jun 2027 22:25:48.192             8.026               Magadan2           250.813
       262   03 Jun 2027 22:31:48.171   03 Jun 2027 22:31:59.837            11.666               Magadan1           364.563
       263   03 Jun 2027 23:12:50.031   03 Jun 2027 23:16:11.982           201.951            RioGallegos          6310.969
       264   03 Jun 2027 23:53:56.526   03 Jun 2027 23:55:58.220           121.694                Anadyr1          3802.937
       265   03 Jun 2027 23:56:05.872   03 Jun 2027 23:57:45.635            99.763                Norilsk          3117.594
       266   03 Jun 2027 23:58:03.843   03 Jun 2027 23:59:37.501            93.658               Magadan1          2926.813
       267   04 Jun 2027 00:00:21.297   04 Jun 2027 00:01:01.371            40.074                Irkutsk          1252.312
       268   04 Jun 2027 00:02:44.214   04 Jun 2027 00:03:26.720            42.506                Novosib          1328.312
       269   04 Jun 2027 00:04:37.767   04 Jun 2027 00:04:55.275            17.508                Novosib           547.125
       270   04 Jun 2027 00:14:11.363   04 Jun 2027 00:14:51.143            39.780                Sumatra          1243.125
       271   04 Jun 2027 00:15:19.090   04 Jun 2027 00:16:06.332            47.242                Sumatra          1476.313
       272   04 Jun 2027 00:24:19.001   04 Jun 2027 00:26:01.199           102.198                Sumatra          3193.688
       273   04 Jun 2027 01:00:37.504   04 Jun 2027 01:00:52.628            15.124            RioGallegos           472.625
       274   04 Jun 2027 01:28:45.881   04 Jun 2027 01:30:46.657           120.776                Anadyr2          3774.250
       275   04 Jun 2027 01:32:03.009   04 Jun 2027 01:33:49.303           106.294                Norilsk          3321.688
       276   04 Jun 2027 01:33:58.529   04 Jun 2027 01:34:19.120            20.591               Magadan2           643.469
       277   04 Jun 2027 01:35:55.545   04 Jun 2027 01:37:46.875           111.330                Irkutsk          3479.062
       278   04 Jun 2027 01:41:02.645   04 Jun 2027 01:41:18.989            16.344                Irkutsk           510.750
       279   04 Jun 2027 01:41:42.089   04 Jun 2027 01:41:59.108            17.019                Irkutsk           531.844
       280   04 Jun 2027 01:44:01.798   04 Jun 2027 01:44:22.277            20.479                  Delhi           639.969
       281   04 Jun 2027 01:46:51.998   04 Jun 2027 01:47:13.819            21.821                  Delhi           681.906
       282   04 Jun 2027 01:49:02.138   04 Jun 2027 01:49:42.779            40.641                  Delhi          1270.031
       283   04 Jun 2027 01:51:11.023   04 Jun 2027 01:51:34.598            23.575                Sumatra           736.719
       284   04 Jun 2027 01:52:47.418   04 Jun 2027 01:54:39.355           111.937                Sumatra          3498.031
       285   04 Jun 2027 02:00:04.405   04 Jun 2027 02:00:26.522            22.117                Sumatra           691.156
       286   04 Jun 2027 02:31:26.538   04 Jun 2027 02:32:00.268            33.730            RioGallegos          1054.063
       287   04 Jun 2027 03:12:01.300   04 Jun 2027 03:12:12.355            11.055               Magadan1           345.469
       288   04 Jun 2027 03:13:18.665   04 Jun 2027 03:13:26.521             7.856              Murmansk2           245.500
       289   04 Jun 2027 03:13:34.692   04 Jun 2027 03:17:07.915           213.223                Irkutsk          6663.219
       290   04 Jun 2027 03:17:19.908   04 Jun 2027 03:17:32.614            12.706              Murmansk2           397.063
       291   04 Jun 2027 03:17:32.614   04 Jun 2027 03:18:52.271            79.657              Murmansk1          2489.281
       292   04 Jun 2027 03:19:23.415   04 Jun 2027 03:21:56.812           153.397                  Delhi          4793.656
       293   04 Jun 2027 04:52:10.490   04 Jun 2027 04:52:13.791             3.301                Norilsk           103.156
       294   04 Jun 2027 04:52:16.088   04 Jun 2027 04:52:39.098            23.010                Novosib           719.063
       295   04 Jun 2027 04:52:53.216   04 Jun 2027 04:53:16.096            22.880              Murmansk2           715.000
       296   04 Jun 2027 04:53:20.195   04 Jun 2027 04:56:06.569           166.374                Norilsk          5199.188
       297   04 Jun 2027 04:56:21.826   04 Jun 2027 04:58:47.082           145.256                 Moscow          4539.250
       298   04 Jun 2027 05:00:17.960   04 Jun 2027 05:00:18.655             0.695                 Moscow            21.719
       299   04 Jun 2027 05:00:44.898   04 Jun 2027 05:00:47.999             3.101                 Moscow            96.906
       300   04 Jun 2027 05:01:21.725   04 Jun 2027 05:01:26.602             4.877                 Moscow           152.406
       301   04 Jun 2027 05:15:06.080   04 Jun 2027 05:16:07.218            61.138               CapeTown          1910.563
       302   04 Jun 2027 05:17:14.739   04 Jun 2027 05:18:07.880            53.141               CapeTown          1660.656
       303   04 Jun 2027 05:19:39.149   04 Jun 2027 05:20:16.533            37.384               CapeTown          1168.250
       304   04 Jun 2027 05:20:52.988   04 Jun 2027 05:21:08.625            15.637               CapeTown           488.656
       305   04 Jun 2027 05:21:25.656   04 Jun 2027 05:21:27.210             1.554               CapeTown            48.562
       306   04 Jun 2027 06:29:16.886   04 Jun 2027 06:29:32.632            15.746                 Moscow           492.063
       307   04 Jun 2027 06:29:32.929   04 Jun 2027 06:29:56.971            24.042                Norilsk           751.313
       308   04 Jun 2027 06:29:57.649   04 Jun 2027 06:31:05.454            67.805                 Moscow          2118.906
       309   04 Jun 2027 06:31:13.762   04 Jun 2027 06:32:10.150            56.388              Murmansk2          1762.125
       310   04 Jun 2027 06:32:23.971   04 Jun 2027 06:32:57.504            33.533              Murmansk2          1047.906
       311   04 Jun 2027 06:35:45.663   04 Jun 2027 06:36:45.555            59.892                 Moscow          1871.625
       312   04 Jun 2027 06:49:51.798   04 Jun 2027 06:51:03.832            72.034               CapeTown          2251.062
       313   04 Jun 2027 07:54:00.874   04 Jun 2027 07:55:19.527            78.653                Norilsk          2457.906
       314   04 Jun 2027 07:57:25.196   04 Jun 2027 07:58:53.316            88.120                Anadyr2          2753.750
       315   04 Jun 2027 08:09:14.500   04 Jun 2027 08:10:07.516            53.016                 Moscow          1656.750
       316   04 Jun 2027 09:26:58.835   04 Jun 2027 09:30:05.465           186.630                Anadyr2          5832.188
       317   04 Jun 2027 09:30:35.134   04 Jun 2027 09:30:40.467             5.333               Magadan2           166.656
       318   04 Jun 2027 09:30:46.548   04 Jun 2027 09:34:23.692           217.144                Anadyr2          6785.750
       319   04 Jun 2027 11:02:31.269   04 Jun 2027 11:03:24.706            53.437               Magadan2          1669.906
       320   04 Jun 2027 11:03:39.188   04 Jun 2027 11:03:50.903            11.715                Novosib           366.094
       321   04 Jun 2027 11:04:23.921   04 Jun 2027 11:04:27.894             3.973                Irkutsk           124.156
       322   04 Jun 2027 11:04:37.397   04 Jun 2027 11:04:43.402             6.005                Novosib           187.656
       323   04 Jun 2027 11:04:58.933   04 Jun 2027 11:06:04.605            65.672                Irkutsk          2052.250
       324   04 Jun 2027 11:06:10.224   04 Jun 2027 11:06:17.598             7.374                Norilsk           230.438
       325   04 Jun 2027 11:06:20.981   04 Jun 2027 11:09:39.851           198.870               Magadan1          6214.687
       326   04 Jun 2027 11:09:54.199   04 Jun 2027 11:10:09.613            15.414                Norilsk           481.687
       327   04 Jun 2027 11:10:21.205   04 Jun 2027 11:10:46.131            24.926              Murmansk1           778.938
       328   04 Jun 2027 11:10:56.607   04 Jun 2027 11:11:07.707            11.100              Murmansk1           346.875
       329   04 Jun 2027 11:44:54.595   04 Jun 2027 11:45:58.870            64.275            RioGallegos          2008.594
       330   04 Jun 2027 12:20:04.519   04 Jun 2027 12:22:05.915           121.396                Sumatra          3793.625
       331   04 Jun 2027 12:33:32.902   04 Jun 2027 12:35:13.258           100.356                Irkutsk          3136.125
       332   04 Jun 2027 12:36:35.355   04 Jun 2027 12:37:28.210            52.855                Irkutsk          1651.719
       333   04 Jun 2027 12:38:15.291   04 Jun 2027 12:39:18.837            63.546                Norilsk          1985.812
       334   04 Jun 2027 13:23:15.880   04 Jun 2027 13:25:47.114           151.234            RioGallegos          4726.062
       335   04 Jun 2027 13:26:10.815   04 Jun 2027 13:28:02.794           111.979            RioGallegos          3499.344
       336   04 Jun 2027 13:57:34.940   04 Jun 2027 13:57:38.614             3.674                Sumatra           114.813
       337   04 Jun 2027 14:00:36.580   04 Jun 2027 14:02:16.529            99.949                Sumatra          3123.406
       338   04 Jun 2027 14:11:15.926   04 Jun 2027 14:11:29.873            13.947                Novosib           435.844
       339   04 Jun 2027 14:13:20.926   04 Jun 2027 14:17:26.716           245.790                Irkutsk          7680.937
       340   04 Jun 2027 15:43:14.014   04 Jun 2027 15:47:21.165           247.151                  Delhi          7723.469
       341   04 Jun 2027 15:51:42.108   04 Jun 2027 15:55:32.162           230.054                Novosib          7189.188
       342   04 Jun 2027 17:29:40.381   04 Jun 2027 17:30:37.767            57.386              Murmansk2          1793.312
       343   04 Jun 2027 17:43:14.001   04 Jun 2027 17:44:05.489            51.488                Anadyr1          1609.000
       344   04 Jun 2027 17:44:20.927   04 Jun 2027 17:44:29.152             8.225                Anadyr2           257.031
       345   04 Jun 2027 17:44:56.721   04 Jun 2027 17:45:23.634            26.913                Anadyr2           841.031
       346   04 Jun 2027 17:46:17.724   04 Jun 2027 17:46:29.009            11.285                Anadyr2           352.656
       347   04 Jun 2027 17:49:25.181   04 Jun 2027 17:49:46.572            21.391                Anadyr2           668.469
       348   04 Jun 2027 18:37:51.220   04 Jun 2027 18:40:14.615           143.395               CapeTown          4481.094
       349   04 Jun 2027 19:06:21.887   04 Jun 2027 19:10:01.440           219.553                 Moscow          6861.031
       350   04 Jun 2027 19:10:45.252   04 Jun 2027 19:11:51.534            66.282              Murmansk1          2071.313
       351   04 Jun 2027 19:12:50.947   04 Jun 2027 19:14:16.547            85.600              Murmansk2          2675.000
       352   04 Jun 2027 20:15:23.592   04 Jun 2027 20:15:50.273            26.681               CapeTown           833.781
       353   04 Jun 2027 20:18:20.861   04 Jun 2027 20:20:22.640           121.779               CapeTown          3805.594
       354   04 Jun 2027 20:55:25.401   04 Jun 2027 20:57:32.601           127.200                Anadyr1          3975.000
       355   04 Jun 2027 20:57:34.288   04 Jun 2027 20:58:21.736            47.448               Magadan1          1482.750
       356   04 Jun 2027 20:59:08.002   04 Jun 2027 20:59:52.871            44.869               Magadan2          1402.156
       357   04 Jun 2027 21:01:40.414   04 Jun 2027 21:01:59.670            19.256               Magadan2           601.750
       358   04 Jun 2027 21:03:14.498   04 Jun 2027 21:03:44.080            29.582               Magadan2           924.437
       359   04 Jun 2027 22:30:18.276   04 Jun 2027 22:35:20.302           302.026                Anadyr2          9438.313
       360   04 Jun 2027 22:35:24.920   04 Jun 2027 22:35:31.721             6.801                Norilsk           212.531
       361   04 Jun 2027 22:35:36.912   04 Jun 2027 22:36:47.423            70.511                Norilsk          2203.469
       362   04 Jun 2027 22:37:17.670   04 Jun 2027 22:37:26.439             8.769               Magadan2           274.031
       363   04 Jun 2027 22:37:51.833   04 Jun 2027 22:38:12.107            20.274               Magadan2           633.562
       364   04 Jun 2027 22:39:28.120   04 Jun 2027 22:39:46.509            18.389               Magadan1           574.656
       365   04 Jun 2027 22:40:30.341   04 Jun 2027 22:41:22.191            51.850                Irkutsk          1620.313
       366   04 Jun 2027 23:24:38.740   04 Jun 2027 23:27:41.080           182.340            RioGallegos          5698.125
       367   05 Jun 2027 00:05:53.450   05 Jun 2027 00:07:23.827            90.377                Anadyr2          2824.281
       368   05 Jun 2027 00:08:06.803   05 Jun 2027 00:09:51.617           104.814                Norilsk          3275.438
       369   05 Jun 2027 00:10:27.276   05 Jun 2027 00:10:52.090            24.814               Magadan1           775.437
       370   05 Jun 2027 00:11:07.611   05 Jun 2027 00:11:23.063            15.452               Magadan1           482.875
       371   05 Jun 2027 00:12:09.197   05 Jun 2027 00:12:30.260            21.063               Magadan1           658.219
       372   05 Jun 2027 00:13:13.471   05 Jun 2027 00:13:43.567            30.096                Irkutsk           940.500
       373   05 Jun 2027 00:13:54.595   05 Jun 2027 00:15:51.303           116.708                Novosib          3647.125
       374   05 Jun 2027 00:23:43.749   05 Jun 2027 00:24:09.512            25.763                Irkutsk           805.094
       375   05 Jun 2027 00:25:59.265   05 Jun 2027 00:28:35.035           155.770                Sumatra          4867.813
       376   05 Jun 2027 01:07:47.480   05 Jun 2027 01:08:47.724            60.244            RioGallegos          1882.625
       377   05 Jun 2027 01:40:33.646   05 Jun 2027 01:41:50.246            76.600                Anadyr2          2393.750
       378   05 Jun 2027 01:42:43.226   05 Jun 2027 01:43:05.634            22.408                Anadyr2           700.250
       379   05 Jun 2027 01:43:10.510   05 Jun 2027 01:43:13.077             2.567                Anadyr1            80.219
       380   05 Jun 2027 01:44:05.419   05 Jun 2027 01:45:51.423           106.004                Norilsk          3312.625
       381   05 Jun 2027 01:47:58.853   05 Jun 2027 01:49:46.526           107.673                Irkutsk          3364.781
       382   05 Jun 2027 01:50:37.840   05 Jun 2027 01:51:14.745            36.905                Novosib          1153.281
       383   05 Jun 2027 01:53:26.061   05 Jun 2027 01:53:40.904            14.843                Irkutsk           463.844
       384   05 Jun 2027 01:55:32.771   05 Jun 2027 01:56:52.239            79.468                Irkutsk          2483.375
       385   05 Jun 2027 02:04:04.408   05 Jun 2027 02:06:32.318           147.910                Sumatra          4622.188
       386   05 Jun 2027 02:39:41.760   05 Jun 2027 02:40:32.764            51.004            RioGallegos          1593.875
       387   05 Jun 2027 02:43:40.939   05 Jun 2027 02:44:45.944            65.005            RioGallegos          2031.406
       388   05 Jun 2027 03:26:20.612   05 Jun 2027 03:29:28.449           187.837                Novosib          5869.906
       389   05 Jun 2027 03:29:35.842   05 Jun 2027 03:30:41.981            66.139                Novosib          2066.844
       390   05 Jun 2027 03:30:44.041   05 Jun 2027 03:31:30.230            46.189                Novosib          1443.406
       391   05 Jun 2027 03:31:54.461   05 Jun 2027 03:32:51.668            57.207                Irkutsk          1787.719
       392   05 Jun 2027 03:33:38.684   05 Jun 2027 03:36:10.881           152.197                  Delhi          4756.156
       393   05 Jun 2027 05:04:50.527   05 Jun 2027 05:05:54.968            64.441                Novosib          2013.781
       394   05 Jun 2027 05:06:14.293   05 Jun 2027 05:07:23.050            68.757                Norilsk          2148.656
       395   05 Jun 2027 05:07:28.023   05 Jun 2027 05:08:22.576            54.553              Murmansk1          1704.781
       396   05 Jun 2027 05:08:30.754   05 Jun 2027 05:09:00.192            29.438              Murmansk1           919.938
       397   05 Jun 2027 05:09:10.080   05 Jun 2027 05:09:21.798            11.718              Murmansk2           366.188
       398   05 Jun 2027 05:09:33.643   05 Jun 2027 05:10:24.358            50.715              Murmansk1          1584.844
       399   05 Jun 2027 05:10:51.806   05 Jun 2027 05:14:05.577           193.771                 Moscow          6055.344
       400   05 Jun 2027 05:25:46.103   05 Jun 2027 05:32:05.898           379.795               CapeTown         11868.594
       401   05 Jun 2027 05:35:10.351   05 Jun 2027 05:35:42.956            32.605               CapeTown          1018.906
       402   05 Jun 2027 05:37:18.977   05 Jun 2027 05:38:00.762            41.785               CapeTown          1305.781
       403   05 Jun 2027 06:29:46.372   05 Jun 2027 06:31:40.301           113.929                Anadyr2          3560.281
       404   05 Jun 2027 06:31:40.301   05 Jun 2027 06:32:48.178            67.877                Anadyr1          2121.156
       405   05 Jun 2027 06:33:51.026   05 Jun 2027 06:33:53.521             2.495                Anadyr1            77.969
       406   05 Jun 2027 06:40:32.731   05 Jun 2027 06:40:58.018            25.287                 Moscow           790.219
       407   05 Jun 2027 06:41:18.271   05 Jun 2027 06:44:53.856           215.585              Murmansk2          6737.031
       408   05 Jun 2027 07:02:18.751   05 Jun 2027 07:03:05.422            46.671               CapeTown          1458.469
       409   05 Jun 2027 07:04:28.143   05 Jun 2027 07:06:18.134           109.991               CapeTown          3437.219
       410   05 Jun 2027 08:03:39.411   05 Jun 2027 08:03:48.936             9.525               Magadan2           297.656
       411   05 Jun 2027 08:03:50.394   05 Jun 2027 08:04:06.062            15.668               Magadan2           489.625
       412   05 Jun 2027 08:04:49.759   05 Jun 2027 08:07:29.147           159.388               Magadan1          4980.875
       413   05 Jun 2027 08:07:35.174   05 Jun 2027 08:08:04.197            29.023               Magadan2           906.969
       414   05 Jun 2027 08:09:31.337   05 Jun 2027 08:10:54.024            82.687                Anadyr2          2583.969
       415   05 Jun 2027 09:37:54.353   05 Jun 2027 09:38:58.240            63.887                Anadyr1          1996.469
       416   05 Jun 2027 09:39:14.606   05 Jun 2027 09:42:41.583           206.977               Magadan1          6468.031
       417   05 Jun 2027 09:42:43.666   05 Jun 2027 09:44:13.936            90.270                Anadyr2          2820.937
       418   05 Jun 2027 09:45:00.881   05 Jun 2027 09:45:33.094            32.213                Novosib          1006.656
       419   05 Jun 2027 09:46:50.417   05 Jun 2027 09:47:08.033            17.616              Murmansk1           550.500
       420   05 Jun 2027 09:48:53.281   05 Jun 2027 09:49:22.265            28.984              Murmansk1           905.750
       421   05 Jun 2027 10:22:05.829   05 Jun 2027 10:22:42.711            36.882            RioGallegos          1152.562
       422   05 Jun 2027 10:25:11.242   05 Jun 2027 10:25:13.579             2.337            RioGallegos            73.031
       423   05 Jun 2027 10:30:38.846   05 Jun 2027 10:30:46.690             7.844            RioGallegos           245.125
       424   05 Jun 2027 11:13:19.803   05 Jun 2027 11:14:28.729            68.926               Magadan1          2153.937
       425   05 Jun 2027 11:14:59.808   05 Jun 2027 11:17:52.515           172.707               Magadan1          5397.094
       426   05 Jun 2027 11:17:52.515   05 Jun 2027 11:17:56.357             3.842               Magadan2           120.063
       427   05 Jun 2027 11:18:06.678   05 Jun 2027 11:19:35.356            88.678               Magadan2          2771.187
       428   05 Jun 2027 11:19:53.870   05 Jun 2027 11:20:37.189            43.319                Norilsk          1353.719
       429   05 Jun 2027 11:20:51.012   05 Jun 2027 11:21:04.421            13.409              Murmansk1           419.031
       430   05 Jun 2027 11:21:09.233   05 Jun 2027 11:21:29.884            20.651                Norilsk           645.344
       431   05 Jun 2027 11:21:31.234   05 Jun 2027 11:22:15.537            44.303                Irkutsk          1384.469
       432   05 Jun 2027 11:22:35.138   05 Jun 2027 11:22:45.849            10.711                Norilsk           334.719
       433   05 Jun 2027 11:56:59.968   05 Jun 2027 11:57:54.098            54.130            RioGallegos          1691.562
       434   05 Jun 2027 12:31:55.524   05 Jun 2027 12:34:53.620           178.096                Sumatra          5565.500
       435   05 Jun 2027 12:45:45.801   05 Jun 2027 12:46:22.913            37.112                Irkutsk          1159.750
       436   05 Jun 2027 12:47:04.822   05 Jun 2027 12:48:02.699            57.877                Novosib          1808.656
       437   05 Jun 2027 12:50:19.733   05 Jun 2027 12:51:18.746            59.013                Norilsk          1844.156
       438   05 Jun 2027 13:36:02.770   05 Jun 2027 13:37:30.398            87.628            RioGallegos          2738.375
       439   05 Jun 2027 13:41:13.678   05 Jun 2027 13:42:56.985           103.307            RioGallegos          3228.344
       440   05 Jun 2027 14:10:42.364   05 Jun 2027 14:12:26.522           104.158                Sumatra          3254.938
       441   05 Jun 2027 14:25:59.099   05 Jun 2027 14:26:32.074            32.975                Novosib          1030.469
       442   05 Jun 2027 14:26:37.798   05 Jun 2027 14:30:27.939           230.141                Irkutsk          7191.906
       443   05 Jun 2027 15:57:15.715   05 Jun 2027 16:00:05.796           170.081                  Delhi          5315.031
       444   05 Jun 2027 16:03:52.321   05 Jun 2027 16:04:31.099            38.778              Murmansk1          1211.813
       445   05 Jun 2027 16:05:16.126   05 Jun 2027 16:08:37.353           201.227                Novosib          6288.344
       446   05 Jun 2027 16:12:23.721   05 Jun 2027 16:12:32.580             8.859                Norilsk           276.844
       447   05 Jun 2027 17:15:39.880   05 Jun 2027 17:15:41.489             1.609               CapeTown            50.281
       448   05 Jun 2027 17:16:26.770   05 Jun 2027 17:16:35.978             9.208               CapeTown           287.750
       449   05 Jun 2027 17:19:23.460   05 Jun 2027 17:19:25.668             2.208               CapeTown            69.000
       450   05 Jun 2027 17:37:19.694   05 Jun 2027 17:38:15.597            55.903                 Moscow          1746.969
       451   05 Jun 2027 17:39:42.718   05 Jun 2027 17:41:29.117           106.399                 Moscow          3324.969
       452   05 Jun 2027 17:43:13.012   05 Jun 2027 17:43:25.641            12.629              Murmansk2           394.656
       453   05 Jun 2027 17:44:53.113   05 Jun 2027 17:45:00.117             7.004              Murmansk1           218.875
       454   05 Jun 2027 17:45:18.841   05 Jun 2027 17:46:10.602            51.761                 Moscow          1617.531
       455   05 Jun 2027 17:55:05.146   05 Jun 2027 17:56:19.918            74.772                Anadyr1          2336.625
       456   05 Jun 2027 18:03:42.352   05 Jun 2027 18:03:44.927             2.575                Anadyr1            80.469
       457   05 Jun 2027 18:49:52.922   05 Jun 2027 18:52:02.266           129.344               CapeTown          4042.000
       458   05 Jun 2027 19:02:34.482   05 Jun 2027 19:02:36.512             2.030               CapeTown            63.437
       459   05 Jun 2027 19:19:33.085   05 Jun 2027 19:24:48.412           315.327              Murmansk2          9853.969
       460   05 Jun 2027 19:26:07.745   05 Jun 2027 19:26:27.591            19.846              Murmansk2           620.188
       461   05 Jun 2027 19:34:22.451   05 Jun 2027 19:34:43.978            21.527               Magadan1           672.719
       462   05 Jun 2027 19:37:22.339   05 Jun 2027 19:37:31.240             8.901               Magadan2           278.156
       463   05 Jun 2027 19:37:44.827   05 Jun 2027 19:38:06.283            21.456               Magadan1           670.500
       464   05 Jun 2027 19:39:25.115   05 Jun 2027 19:39:46.672            21.557               Magadan2           673.656
       465   05 Jun 2027 20:28:09.691   05 Jun 2027 20:29:46.568            96.877               CapeTown          3027.406
       466   05 Jun 2027 20:31:55.380   05 Jun 2027 20:32:48.519            53.139               CapeTown          1660.594
       467   05 Jun 2027 21:06:25.200   05 Jun 2027 21:07:23.374            58.174                Anadyr2          1817.937
       468   05 Jun 2027 21:07:33.107   05 Jun 2027 21:08:13.712            40.605                Anadyr2          1268.906
       469   05 Jun 2027 21:08:49.437   05 Jun 2027 21:09:51.492            62.055               Magadan1          1939.219
       470   05 Jun 2027 21:09:51.492   05 Jun 2027 21:11:02.700            71.208               Magadan2          2225.250
       471   05 Jun 2027 21:11:06.045   05 Jun 2027 21:11:20.789            14.744               Magadan1           460.750
       472   05 Jun 2027 21:11:32.932   05 Jun 2027 21:11:45.717            12.785               Magadan2           399.531
       473   05 Jun 2027 21:13:11.522   05 Jun 2027 21:13:43.480            31.958               Magadan2           998.688
       474   05 Jun 2027 22:42:18.983   05 Jun 2027 22:47:15.538           296.555                Anadyr2          9267.344
       475   05 Jun 2027 22:47:30.970   05 Jun 2027 22:48:09.768            38.798                Norilsk          1212.438
       476   05 Jun 2027 22:48:28.346   05 Jun 2027 22:49:36.536            68.190               Magadan1          2130.937
       477   05 Jun 2027 22:49:54.492   05 Jun 2027 22:49:58.071             3.579               Magadan1           111.844
       478   05 Jun 2027 22:50:10.555   05 Jun 2027 22:50:20.599            10.044               Magadan2           313.875
       479   05 Jun 2027 22:50:53.239   05 Jun 2027 22:51:47.794            54.555                Irkutsk          1704.844
       480   05 Jun 2027 22:52:27.735   05 Jun 2027 22:53:04.980            37.245                Irkutsk          1163.906
       481   05 Jun 2027 23:36:30.397   05 Jun 2027 23:38:11.441           101.044            RioGallegos          3157.625
       482   05 Jun 2027 23:38:31.365   05 Jun 2027 23:39:27.847            56.482            RioGallegos          1765.063
