uniorb/output/strategy_1/Drop/Drop_KinoSat_111401.txt

KinoSat_111401
-------------------------
    Access    *     Start Time (UTCG)     *     Stop Time (UTCG)  *   Duration (s)        *       Station  *  Data (Mbytes)
         1   01 Jun 2027 04:04:57.183   01 Jun 2027 04:05:45.563            48.380                Novosib          1511.875
         2   01 Jun 2027 04:05:59.554   01 Jun 2027 04:08:24.765           145.211              Murmansk1          4537.844
         3   01 Jun 2027 04:08:37.026   01 Jun 2027 04:09:11.214            34.188                 Moscow          1068.375
         4   01 Jun 2027 04:09:45.160   01 Jun 2027 04:10:02.988            17.828                 Moscow           557.125
         5   01 Jun 2027 05:27:22.158   01 Jun 2027 05:27:48.740            26.582               Magadan2           830.688
         6   01 Jun 2027 05:28:24.151   01 Jun 2027 05:31:29.999           185.848                Anadyr1          5807.750
         7   01 Jun 2027 05:31:32.511   01 Jun 2027 05:32:44.561            72.050               Magadan2          2251.563
         8   01 Jun 2027 07:04:19.687   01 Jun 2027 07:06:34.804           135.117                Anadyr1          4222.406
         9   01 Jun 2027 07:06:34.804   01 Jun 2027 07:08:30.301           115.497                Anadyr2          3609.281
        10   01 Jun 2027 07:12:33.829   01 Jun 2027 07:12:41.298             7.469                 Moscow           233.406
        11   01 Jun 2027 08:37:43.015   01 Jun 2027 08:43:51.324           368.309               Magadan1         11509.656
        12   01 Jun 2027 08:43:51.324   01 Jun 2027 08:44:27.937            36.613               Magadan2          1144.156
        13   01 Jun 2027 10:15:06.322   01 Jun 2027 10:15:36.553            30.231               Magadan2           944.719
        14   01 Jun 2027 10:15:51.688   01 Jun 2027 10:16:01.604             9.916                Norilsk           309.875
        15   01 Jun 2027 10:16:05.598   01 Jun 2027 10:16:16.838            11.240                Novosib           351.250
        16   01 Jun 2027 10:16:23.410   01 Jun 2027 10:18:09.132           105.722                Novosib          3303.812
        17   01 Jun 2027 10:18:20.949   01 Jun 2027 10:20:04.779           103.830                Irkutsk          3244.687
        18   01 Jun 2027 10:20:06.376   01 Jun 2027 10:20:07.577             1.201                Norilsk            37.531
        19   01 Jun 2027 10:20:09.846   01 Jun 2027 10:20:26.081            16.235                Novosib           507.344
        20   01 Jun 2027 10:20:26.584   01 Jun 2027 10:20:30.158             3.574                Irkutsk           111.687
        21   01 Jun 2027 10:21:05.045   01 Jun 2027 10:21:36.814            31.769                Norilsk           992.781
        22   01 Jun 2027 10:21:44.957   01 Jun 2027 10:21:52.228             7.271              Murmansk2           227.219
        23   01 Jun 2027 10:55:43.665   01 Jun 2027 10:57:12.884            89.219            RioGallegos          2788.094
        24   01 Jun 2027 10:58:11.664   01 Jun 2027 10:59:30.521            78.857            RioGallegos          2464.281
        25   01 Jun 2027 11:32:20.435   01 Jun 2027 11:33:00.207            39.772                Sumatra          1242.875
        26   01 Jun 2027 11:39:14.169   01 Jun 2027 11:40:13.694            59.525                  Delhi          1860.156
        27   01 Jun 2027 11:51:47.216   01 Jun 2027 11:52:10.559            23.343                 Moscow           729.469
        28   01 Jun 2027 11:52:27.163   01 Jun 2027 11:53:36.328            69.165                Irkutsk          2161.406
        29   01 Jun 2027 11:53:52.707   01 Jun 2027 11:55:08.602            75.895              Murmansk2          2371.719
        30   01 Jun 2027 11:55:08.602   01 Jun 2027 11:55:28.969            20.367              Murmansk1           636.469
        31   01 Jun 2027 11:55:36.769   01 Jun 2027 11:57:34.446           117.677                Norilsk          3677.406
        32   01 Jun 2027 12:03:13.979   01 Jun 2027 12:03:25.065            11.086              Murmansk1           346.437
        33   01 Jun 2027 13:14:44.713   01 Jun 2027 13:16:06.711            81.998                  Delhi          2562.437
        34   01 Jun 2027 13:16:50.530   01 Jun 2027 13:19:31.144           160.614                  Delhi          5019.188
        35   01 Jun 2027 13:22:19.468   01 Jun 2027 13:23:09.022            49.554                  Delhi          1548.563
        36   01 Jun 2027 13:23:36.097   01 Jun 2027 13:23:59.297            23.200                Novosib           725.000
        37   01 Jun 2027 13:24:20.208   01 Jun 2027 13:24:38.947            18.739                  Delhi           585.594
        38   01 Jun 2027 13:25:08.072   01 Jun 2027 13:27:17.513           129.441                Novosib          4045.031
        39   01 Jun 2027 13:27:49.115   01 Jun 2027 13:28:52.176            63.061                Norilsk          1970.656
        40   01 Jun 2027 13:29:44.292   01 Jun 2027 13:30:11.171            26.879                Novosib           839.969
        41   01 Jun 2027 13:30:54.357   01 Jun 2027 13:32:12.368            78.011                Novosib          2437.844
        42   01 Jun 2027 13:35:15.155   01 Jun 2027 13:35:43.594            28.439                Norilsk           888.719
        43   01 Jun 2027 13:36:07.158   01 Jun 2027 13:36:24.106            16.948              Murmansk1           529.625
        44   01 Jun 2027 13:36:45.083   01 Jun 2027 13:37:24.437            39.354                Norilsk          1229.812
        45   01 Jun 2027 13:37:33.597   01 Jun 2027 13:37:34.976             1.379              Murmansk2            43.094
        46   01 Jun 2027 13:37:51.916   01 Jun 2027 13:38:32.659            40.743              Murmansk1          1273.219
        47   01 Jun 2027 13:38:32.659   01 Jun 2027 13:39:04.543            31.884              Murmansk2           996.375
        48   01 Jun 2027 14:58:37.860   01 Jun 2027 15:01:48.375           190.515                 Moscow          5953.594
        49   01 Jun 2027 15:02:08.729   01 Jun 2027 15:03:19.268            70.539              Murmansk1          2204.344
        50   01 Jun 2027 15:05:24.648   01 Jun 2027 15:05:44.286            19.638              Murmansk1           613.687
        51   01 Jun 2027 15:05:50.413   01 Jun 2027 15:06:43.418            53.005                 Moscow          1656.406
        52   01 Jun 2027 15:07:14.467   01 Jun 2027 15:07:27.520            13.053              Murmansk2           407.906
        53   01 Jun 2027 15:07:35.831   01 Jun 2027 15:10:57.973           202.142                Norilsk          6316.938
        54   01 Jun 2027 15:11:40.067   01 Jun 2027 15:12:04.966            24.899                Norilsk           778.094
        55   01 Jun 2027 15:14:53.291   01 Jun 2027 15:15:00.562             7.271              Murmansk1           227.219
        56   01 Jun 2027 16:15:02.407   01 Jun 2027 16:15:58.603            56.196               CapeTown          1756.125
        57   01 Jun 2027 16:18:56.521   01 Jun 2027 16:22:02.248           185.727               CapeTown          5803.969
        58   01 Jun 2027 16:24:04.302   01 Jun 2027 16:24:23.746            19.444               CapeTown           607.625
        59   01 Jun 2027 16:43:17.781   01 Jun 2027 16:43:44.582            26.801                 Moscow           837.531
        60   01 Jun 2027 16:44:18.433   01 Jun 2027 16:44:29.616            11.183              Murmansk2           349.469
        61   01 Jun 2027 16:44:29.616   01 Jun 2027 16:45:02.155            32.539              Murmansk1          1016.844
        62   01 Jun 2027 16:45:42.394   01 Jun 2027 16:46:37.062            54.668                 Moscow          1708.375
        63   01 Jun 2027 16:47:51.345   01 Jun 2027 16:48:49.449            58.104              Murmansk1          1815.750
        64   01 Jun 2027 16:49:17.760   01 Jun 2027 16:49:31.484            13.724              Murmansk1           428.875
        65   01 Jun 2027 16:49:40.065   01 Jun 2027 16:50:17.616            37.551              Murmansk1          1173.469
        66   01 Jun 2027 16:55:30.878   01 Jun 2027 16:55:46.236            15.358                Anadyr1           479.937
        67   01 Jun 2027 16:56:07.522   01 Jun 2027 16:56:35.320            27.798                Anadyr1           868.687
        68   01 Jun 2027 16:56:54.428   01 Jun 2027 16:57:23.755            29.327                Anadyr1           916.469
        69   01 Jun 2027 16:58:14.370   01 Jun 2027 16:58:55.919            41.549                Anadyr2          1298.406
        70   01 Jun 2027 16:59:19.192   01 Jun 2027 16:59:35.071            15.879                Anadyr1           496.219
        71   01 Jun 2027 17:00:00.780   01 Jun 2027 17:00:06.861             6.081                Anadyr1           190.031
        72   01 Jun 2027 17:00:11.015   01 Jun 2027 17:00:35.299            24.284                Anadyr1           758.875
        73   01 Jun 2027 17:01:39.911   01 Jun 2027 17:02:25.027            45.116                Anadyr2          1409.875
        74   01 Jun 2027 17:03:26.217   01 Jun 2027 17:03:30.255             4.038                Anadyr1           126.187
        75   01 Jun 2027 17:58:53.830   01 Jun 2027 17:59:04.584            10.754               CapeTown           336.062
        76   01 Jun 2027 17:59:44.642   01 Jun 2027 18:00:00.865            16.223               CapeTown           506.969
        77   01 Jun 2027 18:19:39.379   01 Jun 2027 18:22:58.725           199.346              Murmansk1          6229.562
        78   01 Jun 2027 18:22:58.725   01 Jun 2027 18:24:27.039            88.314              Murmansk2          2759.812
        79   01 Jun 2027 18:35:12.476   01 Jun 2027 18:35:30.933            18.457               Magadan2           576.781
        80   01 Jun 2027 18:35:39.486   01 Jun 2027 18:36:05.590            26.104               Magadan2           815.750
        81   01 Jun 2027 18:37:33.098   01 Jun 2027 18:38:05.396            32.298                Anadyr2          1009.312
        82   01 Jun 2027 18:38:34.338   01 Jun 2027 18:38:52.935            18.597               Magadan2           581.156
        83   01 Jun 2027 18:39:49.316   01 Jun 2027 18:40:49.060            59.744               Magadan2          1867.000
        84   01 Jun 2027 20:04:35.193   01 Jun 2027 20:08:06.452           211.259                Anadyr2          6601.844
        85   01 Jun 2027 20:08:07.661   01 Jun 2027 20:09:12.346            64.685               Magadan1          2021.406
        86   01 Jun 2027 20:09:55.976   01 Jun 2027 20:10:10.677            14.701               Magadan1           459.406
        87   01 Jun 2027 20:10:10.677   01 Jun 2027 20:11:05.451            54.774               Magadan2          1711.688
        88   01 Jun 2027 20:13:54.823   01 Jun 2027 20:14:14.655            19.832               Magadan2           619.750
        89   01 Jun 2027 20:14:34.643   01 Jun 2027 20:15:06.695            32.052               Magadan2          1001.625
        90   01 Jun 2027 20:16:38.871   01 Jun 2027 20:17:04.028            25.157                Anadyr2           786.156
        91   01 Jun 2027 20:17:41.372   01 Jun 2027 20:18:07.628            26.256               Magadan1           820.500
        92   01 Jun 2027 20:19:13.651   01 Jun 2027 20:19:37.745            24.094               Magadan1           752.938
        93   01 Jun 2027 21:00:17.831   01 Jun 2027 21:01:44.910            87.079            RioGallegos          2721.219
        94   01 Jun 2027 21:02:33.688   01 Jun 2027 21:03:03.614            29.926            RioGallegos           935.188
        95   01 Jun 2027 21:05:40.364   01 Jun 2027 21:06:20.250            39.886            RioGallegos          1246.437
        96   01 Jun 2027 21:06:54.725   01 Jun 2027 21:07:11.561            16.836            RioGallegos           526.125
        97   01 Jun 2027 21:41:28.826   01 Jun 2027 21:42:35.793            66.967                Anadyr2          2092.719
        98   01 Jun 2027 21:42:49.517   01 Jun 2027 21:43:40.519            51.002               Magadan1          1593.813
        99   01 Jun 2027 21:44:11.506   01 Jun 2027 21:44:50.139            38.633                Norilsk          1207.281
       100   01 Jun 2027 21:45:32.283   01 Jun 2027 21:45:50.006            17.723                Norilsk           553.844
       101   01 Jun 2027 21:47:06.400   01 Jun 2027 21:47:11.455             5.055               Magadan2           157.969
       102   01 Jun 2027 21:47:15.998   01 Jun 2027 21:48:08.649            52.651                Irkutsk          1645.344
       103   01 Jun 2027 21:50:20.350   01 Jun 2027 21:50:33.611            13.261                Norilsk           414.406
       104   01 Jun 2027 21:51:05.946   01 Jun 2027 21:51:07.726             1.780                Irkutsk            55.625
       105   01 Jun 2027 21:51:08.710   01 Jun 2027 21:51:17.690             8.980               Magadan2           280.625
       106   01 Jun 2027 21:51:46.323   01 Jun 2027 21:52:00.856            14.533               Magadan1           454.156
       107   01 Jun 2027 21:52:00.856   01 Jun 2027 21:52:01.949             1.093               Magadan2            34.156
       108   01 Jun 2027 21:52:43.044   01 Jun 2027 21:53:03.363            20.319               Magadan2           634.969
       109   01 Jun 2027 21:53:16.576   01 Jun 2027 21:53:37.316            20.740                Irkutsk           648.125
       110   01 Jun 2027 21:54:22.504   01 Jun 2027 21:54:43.473            20.969               Magadan2           655.281
       111   01 Jun 2027 21:55:59.690   01 Jun 2027 21:56:30.381            30.691                Irkutsk           959.094
       112   01 Jun 2027 22:05:13.687   01 Jun 2027 22:06:17.999            64.312                Sumatra          2009.750
       113   01 Jun 2027 22:08:23.484   01 Jun 2027 22:09:16.821            53.337                Sumatra          1666.781
       114   01 Jun 2027 22:45:22.750   01 Jun 2027 22:45:46.463            23.713            RioGallegos           741.031
       115   01 Jun 2027 23:15:35.105   01 Jun 2027 23:18:06.553           151.448                Anadyr1          4732.750
       116   01 Jun 2027 23:18:56.593   01 Jun 2027 23:19:08.751            12.158               Magadan1           379.938
       117   01 Jun 2027 23:19:35.923   01 Jun 2027 23:19:58.731            22.808               Magadan2           712.750
       118   01 Jun 2027 23:21:48.856   01 Jun 2027 23:22:12.621            23.765               Magadan1           742.656
       119   01 Jun 2027 23:22:13.056   01 Jun 2027 23:22:49.575            36.519                Irkutsk          1141.219
       120   01 Jun 2027 23:25:40.586   01 Jun 2027 23:25:54.666            14.080                Novosib           440.000
       121   01 Jun 2027 23:26:12.646   01 Jun 2027 23:26:13.061             0.415                Novosib            12.969
       122   01 Jun 2027 23:26:47.908   01 Jun 2027 23:27:22.052            34.144                Irkutsk          1067.000
       123   01 Jun 2027 23:28:08.855   01 Jun 2027 23:28:52.072            43.217                Novosib          1350.531
       124   01 Jun 2027 23:32:06.869   01 Jun 2027 23:34:19.388           132.519                  Delhi          4141.219
       125   02 Jun 2027 00:15:35.846   02 Jun 2027 00:15:56.309            20.463            RioGallegos           639.469
       126   02 Jun 2027 00:17:21.272   02 Jun 2027 00:17:41.953            20.681            RioGallegos           646.281
       127   02 Jun 2027 00:18:39.024   02 Jun 2027 00:19:05.519            26.495            RioGallegos           827.969
       128   02 Jun 2027 00:21:55.559   02 Jun 2027 00:22:17.757            22.198            RioGallegos           693.687
       129   02 Jun 2027 00:49:36.303   02 Jun 2027 00:50:52.806            76.503                Anadyr1          2390.719
       130   02 Jun 2027 00:52:03.825   02 Jun 2027 00:52:07.720             3.895                Anadyr1           121.719
       131   02 Jun 2027 00:54:19.829   02 Jun 2027 00:54:52.834            33.005                Norilsk          1031.406
       132   02 Jun 2027 00:54:53.427   02 Jun 2027 00:55:37.171            43.744               Magadan1          1367.000
       133   02 Jun 2027 00:55:37.171   02 Jun 2027 00:56:34.047            56.876               Magadan2          1777.375
       134   02 Jun 2027 00:56:58.425   02 Jun 2027 00:57:39.403            40.978               Magadan2          1280.562
       135   02 Jun 2027 00:57:49.441   02 Jun 2027 00:58:23.451            34.010              Murmansk1          1062.813
       136   02 Jun 2027 00:58:27.069   02 Jun 2027 00:58:34.540             7.471              Murmansk2           233.469
       137   02 Jun 2027 00:58:46.530   02 Jun 2027 00:58:58.837            12.307              Murmansk2           384.594
       138   02 Jun 2027 00:59:39.466   02 Jun 2027 01:00:33.089            53.623              Murmansk1          1675.719
       139   02 Jun 2027 01:05:31.290   02 Jun 2027 01:05:38.006             6.716                Irkutsk           209.875
       140   02 Jun 2027 01:06:02.122   02 Jun 2027 01:07:08.313            66.191                Novosib          2068.469
       141   02 Jun 2027 01:14:20.330   02 Jun 2027 01:14:25.165             4.835                  Delhi           151.094
       142   02 Jun 2027 01:15:03.160   02 Jun 2027 01:15:24.543            21.383                  Delhi           668.219
       143   02 Jun 2027 01:17:17.762   02 Jun 2027 01:18:12.798            55.036                  Delhi          1719.875
       144   02 Jun 2027 01:47:34.827   02 Jun 2027 01:48:49.575            74.748            RioGallegos          2335.875
       145   02 Jun 2027 01:52:05.154   02 Jun 2027 01:52:51.005            45.851            RioGallegos          1432.844
       146   02 Jun 2027 02:22:53.176   02 Jun 2027 02:22:57.693             4.517                Anadyr2           141.156
       147   02 Jun 2027 02:23:19.549   02 Jun 2027 02:23:50.482            30.933                Anadyr1           966.656
       148   02 Jun 2027 02:25:55.572   02 Jun 2027 02:25:55.731             0.159                Anadyr1             4.969
       149   02 Jun 2027 02:27:55.491   02 Jun 2027 02:28:54.663            59.172                Anadyr2          1849.125
       150   02 Jun 2027 02:29:41.562   02 Jun 2027 02:30:24.477            42.915               Magadan2          1341.094
       151   02 Jun 2027 02:30:36.999   02 Jun 2027 02:30:42.354             5.355               Magadan2           167.344
       152   02 Jun 2027 02:31:47.200   02 Jun 2027 02:31:58.091            10.891                Norilsk           340.344
       153   02 Jun 2027 02:32:29.003   02 Jun 2027 02:33:37.527            68.524              Murmansk1          2141.375
       154   02 Jun 2027 02:33:53.409   02 Jun 2027 02:34:04.516            11.107              Murmansk2           347.094
       155   02 Jun 2027 02:34:57.574   02 Jun 2027 02:35:40.509            42.935                Novosib          1341.719
       156   02 Jun 2027 02:38:42.147   02 Jun 2027 02:39:09.137            26.990                Irkutsk           843.438
       157   02 Jun 2027 02:41:02.663   02 Jun 2027 02:41:05.991             3.328                Novosib           104.000
       158   02 Jun 2027 02:42:12.325   02 Jun 2027 02:42:28.506            16.181                Novosib           505.656
       159   02 Jun 2027 02:43:49.667   02 Jun 2027 02:43:57.285             7.618                  Delhi           238.063
       160   02 Jun 2027 02:44:38.138   02 Jun 2027 02:45:30.398            52.260                  Delhi          1633.125
       161   02 Jun 2027 02:48:42.975   02 Jun 2027 02:49:28.862            45.887                  Delhi          1433.969
       162   02 Jun 2027 04:16:11.518   02 Jun 2027 04:17:02.244            50.726                Novosib          1585.187
       163   02 Jun 2027 04:17:10.767   02 Jun 2027 04:21:13.735           242.968              Murmansk1          7592.750
       164   02 Jun 2027 04:22:06.906   02 Jun 2027 04:22:59.603            52.697                 Moscow          1646.781
       165   02 Jun 2027 05:39:06.433   02 Jun 2027 05:39:20.708            14.275               Magadan1           446.094
       166   02 Jun 2027 05:39:20.708   02 Jun 2027 05:39:27.706             6.998               Magadan2           218.688
       167   02 Jun 2027 05:39:35.209   02 Jun 2027 05:42:54.456           199.247                Anadyr2          6226.469
       168   02 Jun 2027 07:16:55.659   02 Jun 2027 07:20:49.147           233.488               Magadan1          7296.500
       169   02 Jun 2027 07:58:09.911   02 Jun 2027 07:59:46.719            96.808            RioGallegos          3025.250
       170   02 Jun 2027 08:50:17.534   02 Jun 2027 08:52:50.834           153.300               Magadan2          4790.625
       171   02 Jun 2027 08:53:03.545   02 Jun 2027 08:55:04.439           120.894               Magadan2          3777.938
       172   02 Jun 2027 08:55:18.243   02 Jun 2027 08:55:50.865            32.622               Magadan1          1019.437
       173   02 Jun 2027 08:55:50.865   02 Jun 2027 08:56:05.296            14.431               Magadan2           450.969
       174   02 Jun 2027 08:56:08.953   02 Jun 2027 08:56:23.683            14.730               Magadan2           460.312
       175   02 Jun 2027 09:31:20.444   02 Jun 2027 09:33:16.485           116.041            RioGallegos          3626.281
       176   02 Jun 2027 10:07:34.347   02 Jun 2027 10:07:57.415            23.068                Sumatra           720.875
       177   02 Jun 2027 10:27:34.301   02 Jun 2027 10:31:31.175           236.874                Novosib          7402.312
       178   02 Jun 2027 10:31:49.073   02 Jun 2027 10:34:19.807           150.734              Murmansk1          4710.437
       179   02 Jun 2027 10:34:19.807   02 Jun 2027 10:34:46.220            26.413              Murmansk2           825.406
       180   02 Jun 2027 11:08:04.760   02 Jun 2027 11:10:06.669           121.909            RioGallegos          3809.656
       181   02 Jun 2027 11:10:32.046   02 Jun 2027 11:11:23.272            51.226            RioGallegos          1600.813
       182   02 Jun 2027 11:12:30.006   02 Jun 2027 11:12:57.142            27.136            RioGallegos           848.000
       183   02 Jun 2027 11:42:22.543   02 Jun 2027 11:42:55.515            32.972                Sumatra          1030.375
       184   02 Jun 2027 11:44:12.290   02 Jun 2027 11:46:06.867           114.577                Sumatra          3580.531
       185   02 Jun 2027 13:35:01.619   02 Jun 2027 13:37:11.902           130.283                  Delhi          4071.344
       186   02 Jun 2027 13:41:45.768   02 Jun 2027 13:42:53.839            68.071                Novosib          2127.219
       187   02 Jun 2027 13:44:11.580   02 Jun 2027 13:45:03.648            52.068                Novosib          1627.125
       188   02 Jun 2027 15:20:25.803   02 Jun 2027 15:20:45.985            20.182                 Moscow           630.687
       189   02 Jun 2027 15:21:09.825   02 Jun 2027 15:23:29.262           139.437                 Moscow          4357.406
       190   02 Jun 2027 15:23:40.230   02 Jun 2027 15:24:33.934            53.704                Norilsk          1678.250
       191   02 Jun 2027 15:31:53.063   02 Jun 2027 15:32:08.788            15.725                Anadyr2           491.406
       192   02 Jun 2027 15:33:00.920   02 Jun 2027 15:33:58.961            58.041                Anadyr2          1813.781
       193   02 Jun 2027 16:32:08.340   02 Jun 2027 16:33:43.749            95.409               CapeTown          2981.531
       194   02 Jun 2027 16:34:49.462   02 Jun 2027 16:35:51.350            61.888               CapeTown          1934.000
       195   02 Jun 2027 16:35:55.715   02 Jun 2027 16:36:41.656            45.941               CapeTown          1435.656
       196   02 Jun 2027 16:55:10.317   02 Jun 2027 16:55:47.818            37.501                 Moscow          1171.906
       197   02 Jun 2027 16:56:26.013   02 Jun 2027 16:57:40.850            74.837                 Moscow          2338.656
       198   02 Jun 2027 17:02:45.997   02 Jun 2027 17:02:58.820            12.823              Murmansk1           400.719
       199   02 Jun 2027 17:12:06.154   02 Jun 2027 17:13:06.202            60.048                Anadyr2          1876.500
       200   02 Jun 2027 17:13:28.780   02 Jun 2027 17:13:42.507            13.727                Anadyr1           428.969
       201   02 Jun 2027 17:13:45.452   02 Jun 2027 17:14:26.433            40.981                Anadyr1          1280.656
       202   02 Jun 2027 17:15:26.075   02 Jun 2027 17:15:54.781            28.706                Anadyr2           897.063
       203   02 Jun 2027 18:32:28.512   02 Jun 2027 18:37:08.577           280.065              Murmansk1          8752.031
       204   02 Jun 2027 18:48:30.242   02 Jun 2027 18:48:39.149             8.907               Magadan2           278.344
       205   02 Jun 2027 18:48:48.129   02 Jun 2027 18:49:07.529            19.400                Anadyr1           606.250
       206   02 Jun 2027 18:49:47.841   02 Jun 2027 18:50:16.079            28.238                Anadyr1           882.437
       207   02 Jun 2027 18:51:06.483   02 Jun 2027 18:51:16.526            10.043                Anadyr1           313.844
       208   02 Jun 2027 18:51:22.837   02 Jun 2027 18:51:56.322            33.485               Magadan2          1046.406
       209   02 Jun 2027 18:53:07.691   02 Jun 2027 18:53:37.642            29.951               Magadan2           935.969
       210   02 Jun 2027 20:16:36.565   02 Jun 2027 20:19:49.096           192.531                Anadyr2          6016.594
       211   02 Jun 2027 20:19:50.832   02 Jun 2027 20:20:05.089            14.257                Anadyr2           445.531
       212   02 Jun 2027 20:20:06.520   02 Jun 2027 20:20:27.071            20.551               Magadan2           642.219
       213   02 Jun 2027 20:20:56.068   02 Jun 2027 20:21:18.599            22.531               Magadan2           704.094
       214   02 Jun 2027 20:21:58.709   02 Jun 2027 20:23:04.805            66.096               Magadan2          2065.500
       215   02 Jun 2027 20:25:08.877   02 Jun 2027 20:25:44.827            35.950               Magadan2          1123.437
       216   02 Jun 2027 20:25:57.628   02 Jun 2027 20:26:29.092            31.464               Magadan1           983.250
       217   02 Jun 2027 20:28:07.971   02 Jun 2027 20:28:27.317            19.346               Magadan1           604.562
       218   02 Jun 2027 20:28:44.530   02 Jun 2027 20:28:54.720            10.190               Magadan1           318.437
       219   02 Jun 2027 20:29:32.369   02 Jun 2027 20:29:37.312             4.943               Magadan1           154.469
       220   02 Jun 2027 20:30:16.181   02 Jun 2027 20:30:47.548            31.367               Magadan1           980.219
       221   02 Jun 2027 21:13:36.720   02 Jun 2027 21:13:45.870             9.150            RioGallegos           285.938
       222   02 Jun 2027 21:13:59.061   02 Jun 2027 21:14:37.876            38.815            RioGallegos          1212.969
       223   02 Jun 2027 21:15:15.344   02 Jun 2027 21:16:05.771            50.427            RioGallegos          1575.844
       224   02 Jun 2027 21:17:32.232   02 Jun 2027 21:18:13.412            41.180            RioGallegos          1286.875
       225   02 Jun 2027 21:52:21.670   02 Jun 2027 21:54:17.976           116.306                Anadyr1          3634.563
       226   02 Jun 2027 21:55:10.600   02 Jun 2027 21:55:26.301            15.701               Magadan1           490.656
       227   02 Jun 2027 21:56:28.012   02 Jun 2027 21:56:48.611            20.599               Magadan1           643.719
       228   02 Jun 2027 21:57:03.270   02 Jun 2027 21:57:23.782            20.512                Norilsk           641.000
       229   02 Jun 2027 21:57:59.747   02 Jun 2027 21:58:11.295            11.548                Norilsk           360.875
       230   02 Jun 2027 21:59:01.846   02 Jun 2027 21:59:21.730            19.884                Irkutsk           621.375
       231   02 Jun 2027 21:59:51.704   02 Jun 2027 22:00:01.325             9.621               Magadan1           300.656
       232   02 Jun 2027 22:00:44.242   02 Jun 2027 22:00:55.104            10.862                Norilsk           339.438
       233   02 Jun 2027 22:01:19.212   02 Jun 2027 22:01:51.858            32.646                Norilsk          1020.188
       234   02 Jun 2027 22:03:01.156   02 Jun 2027 22:03:09.828             8.672                Norilsk           271.000
       235   02 Jun 2027 22:03:17.477   02 Jun 2027 22:03:53.955            36.478                Irkutsk          1139.938
       236   02 Jun 2027 22:06:55.190   02 Jun 2027 22:06:56.261             1.071               Magadan1            33.469
       237   02 Jun 2027 22:07:17.695   02 Jun 2027 22:08:11.923            54.228                Irkutsk          1694.625
       238   02 Jun 2027 22:16:09.478   02 Jun 2027 22:16:54.711            45.233                Sumatra          1413.531
       239   02 Jun 2027 22:18:47.256   02 Jun 2027 22:19:39.731            52.475                Sumatra          1639.844
       240   02 Jun 2027 22:20:12.644   02 Jun 2027 22:21:56.621           103.977                Sumatra          3249.281
       241   02 Jun 2027 23:27:26.567   02 Jun 2027 23:27:36.636            10.069                Anadyr1           314.656
       242   02 Jun 2027 23:28:22.614   02 Jun 2027 23:28:40.635            18.021                Anadyr1           563.156
       243   02 Jun 2027 23:29:50.582   02 Jun 2027 23:30:05.838            15.256                Anadyr2           476.750
       244   02 Jun 2027 23:30:10.546   02 Jun 2027 23:30:23.126            12.580                Anadyr1           393.125
       245   02 Jun 2027 23:30:32.366   02 Jun 2027 23:32:09.976            97.610                Norilsk          3050.313
       246   02 Jun 2027 23:33:20.072   02 Jun 2027 23:33:41.686            21.614               Magadan1           675.438
       247   02 Jun 2027 23:34:32.986   02 Jun 2027 23:34:46.627            13.641                Irkutsk           426.281
       248   02 Jun 2027 23:35:16.568   02 Jun 2027 23:35:50.972            34.404                Novosib          1075.125
       249   02 Jun 2027 23:37:31.559   02 Jun 2027 23:38:02.206            30.647                Irkutsk           957.719
       250   02 Jun 2027 23:39:16.297   02 Jun 2027 23:40:14.797            58.500                Novosib          1828.125
       251   02 Jun 2027 23:43:19.053   02 Jun 2027 23:44:06.770            47.717                  Delhi          1491.156
       252   02 Jun 2027 23:46:38.925   02 Jun 2027 23:46:53.319            14.394                  Delhi           449.813
       253   02 Jun 2027 23:47:30.680   02 Jun 2027 23:49:14.338           103.658                  Delhi          3239.312
       254   03 Jun 2027 00:30:55.263   03 Jun 2027 00:32:07.562            72.299            RioGallegos          2259.344
       255   03 Jun 2027 01:01:50.882   03 Jun 2027 01:02:14.022            23.140                Anadyr1           723.125
       256   03 Jun 2027 01:03:38.499   03 Jun 2027 01:04:10.961            32.462                Anadyr1          1014.438
       257   03 Jun 2027 01:06:21.792   03 Jun 2027 01:07:05.845            44.053                Norilsk          1376.656
       258   03 Jun 2027 01:07:37.743   03 Jun 2027 01:08:25.900            48.157                Norilsk          1504.906
       259   03 Jun 2027 01:08:41.419   03 Jun 2027 01:09:07.102            25.683               Magadan2           802.594
       260   03 Jun 2027 01:09:48.524   03 Jun 2027 01:10:16.524            28.000              Murmansk2           875.000
       261   03 Jun 2027 01:10:16.524   03 Jun 2027 01:10:23.607             7.083              Murmansk1           221.344
       262   03 Jun 2027 01:10:46.272   03 Jun 2027 01:10:49.930             3.658                Novosib           114.313
       263   03 Jun 2027 01:10:59.214   03 Jun 2027 01:11:17.614            18.400              Murmansk2           575.000
       264   03 Jun 2027 01:11:40.940   03 Jun 2027 01:12:29.908            48.968              Murmansk2          1530.250
       265   03 Jun 2027 01:15:12.630   03 Jun 2027 01:15:49.256            36.626                Irkutsk          1144.563
       266   03 Jun 2027 01:18:48.545   03 Jun 2027 01:19:08.297            19.752                Irkutsk           617.250
       267   03 Jun 2027 01:20:03.295   03 Jun 2027 01:21:14.711            71.416                Irkutsk          2231.750
       268   03 Jun 2027 01:27:08.722   03 Jun 2027 01:27:42.650            33.928                  Delhi          1060.250
       269   03 Jun 2027 02:00:01.984   03 Jun 2027 02:01:26.392            84.408            RioGallegos          2637.750
       270   03 Jun 2027 02:03:13.775   03 Jun 2027 02:03:21.167             7.392            RioGallegos           231.000
       271   03 Jun 2027 02:04:07.861   03 Jun 2027 02:04:41.002            33.141            RioGallegos          1035.656
       272   03 Jun 2027 02:34:35.910   03 Jun 2027 02:34:47.696            11.786                Anadyr2           368.313
       273   03 Jun 2027 02:35:00.919   03 Jun 2027 02:35:49.243            48.324                Anadyr1          1510.125
       274   03 Jun 2027 02:40:21.765   03 Jun 2027 02:41:28.277            66.512               Magadan1          2078.500
       275   03 Jun 2027 02:42:14.660   03 Jun 2027 02:42:32.835            18.175                Norilsk           567.969
       276   03 Jun 2027 02:44:13.915   03 Jun 2027 02:44:24.319            10.404                Norilsk           325.125
       277   03 Jun 2027 02:44:29.963   03 Jun 2027 02:44:38.683             8.720              Murmansk2           272.500
       278   03 Jun 2027 02:44:43.177   03 Jun 2027 02:45:05.702            22.525              Murmansk2           703.906
       279   03 Jun 2027 02:45:59.169   03 Jun 2027 02:46:01.517             2.348              Murmansk2            73.375
       280   03 Jun 2027 02:46:21.069   03 Jun 2027 02:47:18.273            57.204                Novosib          1787.625
       281   03 Jun 2027 02:49:11.456   03 Jun 2027 02:49:54.682            43.226                Irkutsk          1350.812
       282   03 Jun 2027 02:54:56.132   03 Jun 2027 02:55:21.361            25.229                Novosib           788.406
       283   03 Jun 2027 02:57:02.259   03 Jun 2027 02:57:08.382             6.123                Novosib           191.344
       284   03 Jun 2027 02:57:35.530   03 Jun 2027 02:59:35.198           119.668                  Delhi          3739.625
       285   03 Jun 2027 04:28:50.787   03 Jun 2027 04:29:31.100            40.313                 Moscow          1259.781
       286   03 Jun 2027 04:29:38.817   03 Jun 2027 04:31:21.197           102.380                 Moscow          3199.375
       287   03 Jun 2027 04:31:21.831   03 Jun 2027 04:32:01.058            39.227              Murmansk1          1225.844
       288   03 Jun 2027 05:51:45.117   03 Jun 2027 05:54:08.846           143.729                Anadyr1          4491.531
       289   03 Jun 2027 05:54:08.846   03 Jun 2027 05:54:44.548            35.702                Anadyr2          1115.688
       290   03 Jun 2027 05:54:51.657   03 Jun 2027 05:56:05.082            73.425               Magadan1          2294.531
       291   03 Jun 2027 05:56:40.813   03 Jun 2027 05:57:12.954            32.141                Anadyr1          1004.406
       292   03 Jun 2027 07:29:06.243   03 Jun 2027 07:31:50.450           164.207               Magadan2          5131.469
       293   03 Jun 2027 09:03:18.927   03 Jun 2027 09:04:05.025            46.098               Magadan1          1440.562
       294   03 Jun 2027 09:04:45.352   03 Jun 2027 09:05:51.507            66.155                Novosib          2067.344
       295   03 Jun 2027 09:06:11.488   03 Jun 2027 09:09:25.623           194.135                Novosib          6066.719
       296   03 Jun 2027 09:09:26.820   03 Jun 2027 09:10:16.626            49.806              Murmansk2          1556.437
       297   03 Jun 2027 09:10:24.341   03 Jun 2027 09:10:47.946            23.605              Murmansk2           737.656
       298   03 Jun 2027 09:11:25.716   03 Jun 2027 09:11:51.404            25.688              Murmansk1           802.750
       299   03 Jun 2027 09:12:20.613   03 Jun 2027 09:12:24.203             3.590                Norilsk           112.188
       300   03 Jun 2027 09:17:33.212   03 Jun 2027 09:17:35.613             2.401              Murmansk2            75.031
       301   03 Jun 2027 09:43:15.915   03 Jun 2027 09:44:24.404            68.489            RioGallegos          2140.281
       302   03 Jun 2027 09:45:32.980   03 Jun 2027 09:45:47.432            14.452            RioGallegos           451.625
       303   03 Jun 2027 09:54:43.118   03 Jun 2027 09:55:24.748            41.630            RioGallegos          1300.938
       304   03 Jun 2027 10:19:03.078   03 Jun 2027 10:20:08.221            65.143                Sumatra          2035.719
       305   03 Jun 2027 10:39:10.512   03 Jun 2027 10:39:54.461            43.949                Norilsk          1373.406
       306   03 Jun 2027 10:39:57.976   03 Jun 2027 10:41:19.147            81.171                Irkutsk          2536.594
       307   03 Jun 2027 10:41:24.001   03 Jun 2027 10:42:02.121            38.120                Norilsk          1191.250
       308   03 Jun 2027 10:42:03.439   03 Jun 2027 10:42:37.144            33.705              Murmansk2          1053.281
       309   03 Jun 2027 10:42:45.430   03 Jun 2027 10:44:31.963           106.533                Irkutsk          3329.156
       310   03 Jun 2027 11:20:30.801   03 Jun 2027 11:21:17.306            46.505            RioGallegos          1453.281
       311   03 Jun 2027 11:22:37.473   03 Jun 2027 11:23:19.261            41.788            RioGallegos          1305.875
       312   03 Jun 2027 11:54:44.280   03 Jun 2027 11:56:09.934            85.654                Sumatra          2676.687
       313   03 Jun 2027 11:59:19.557   03 Jun 2027 12:00:01.654            42.097                Sumatra          1315.531
       314   03 Jun 2027 12:10:04.156   03 Jun 2027 12:10:23.225            19.069                Irkutsk           595.906
       315   03 Jun 2027 12:11:44.637   03 Jun 2027 12:12:47.642            63.005                Irkutsk          1968.906
       316   03 Jun 2027 12:15:01.166   03 Jun 2027 12:15:50.079            48.913                Irkutsk          1528.531
       317   03 Jun 2027 12:19:24.323   03 Jun 2027 12:19:30.560             6.237              Murmansk2           194.906
       318   03 Jun 2027 12:19:58.327   03 Jun 2027 12:20:27.634            29.307                Norilsk           915.844
       319   03 Jun 2027 13:39:45.605   03 Jun 2027 13:43:29.619           224.014                  Delhi          7000.438
       320   03 Jun 2027 13:48:12.935   03 Jun 2027 13:49:19.992            67.057                Novosib          2095.531
       321   03 Jun 2027 13:50:12.301   03 Jun 2027 13:51:04.900            52.599                Novosib          1643.719
       322   03 Jun 2027 13:51:45.543   03 Jun 2027 13:52:00.055            14.512                Norilsk           453.500
       323   03 Jun 2027 13:52:28.322   03 Jun 2027 13:53:35.627            67.305                Novosib          2103.281
       324   03 Jun 2027 14:00:02.161   03 Jun 2027 14:01:25.666            83.505                Norilsk          2609.531
       325   03 Jun 2027 15:22:53.638   03 Jun 2027 15:24:46.432           112.794                 Moscow          3524.813
       326   03 Jun 2027 15:26:24.384   03 Jun 2027 15:27:26.929            62.545              Murmansk2          1954.531
       327   03 Jun 2027 15:27:47.343   03 Jun 2027 15:28:12.521            25.178              Murmansk2           786.812
       328   03 Jun 2027 15:29:28.325   03 Jun 2027 15:29:45.207            16.882              Murmansk2           527.563
       329   03 Jun 2027 15:31:33.544   03 Jun 2027 15:32:37.757            64.213              Murmansk1          2006.656
       330   03 Jun 2027 15:33:38.371   03 Jun 2027 15:34:07.196            28.825                Norilsk           900.781
       331   03 Jun 2027 15:35:26.839   03 Jun 2027 15:36:04.702            37.863                Norilsk          1183.219
       332   03 Jun 2027 15:42:49.564   03 Jun 2027 15:43:11.741            22.177                Anadyr2           693.031
       333   03 Jun 2027 15:43:30.658   03 Jun 2027 15:43:40.329             9.671                Anadyr2           302.219
       334   03 Jun 2027 15:43:51.351   03 Jun 2027 15:43:54.406             3.055                Anadyr2            95.469
       335   03 Jun 2027 15:45:48.786   03 Jun 2027 15:47:13.322            84.536                Anadyr1          2641.750
       336   03 Jun 2027 17:02:23.528   03 Jun 2027 17:02:58.725            35.197                 Moscow          1099.906
       337   03 Jun 2027 17:03:13.257   03 Jun 2027 17:03:38.910            25.653                 Moscow           801.656
       338   03 Jun 2027 17:04:27.009   03 Jun 2027 17:06:48.917           141.908              Murmansk1          4434.625
       339   03 Jun 2027 17:16:53.544   03 Jun 2027 17:17:49.558            56.014                Anadyr1          1750.438
       340   03 Jun 2027 17:18:18.399   03 Jun 2027 17:18:27.213             8.814                Anadyr1           275.437
       341   03 Jun 2027 17:18:41.822   03 Jun 2027 17:18:51.521             9.699                Anadyr1           303.094
       342   03 Jun 2027 17:19:31.495   03 Jun 2027 17:19:46.870            15.375                Anadyr1           480.469
       343   03 Jun 2027 17:21:44.955   03 Jun 2027 17:21:46.915             1.960                Anadyr1            61.250
       344   03 Jun 2027 17:21:56.036   03 Jun 2027 17:22:06.787            10.751                Anadyr2           335.969
       345   03 Jun 2027 18:12:51.238   03 Jun 2027 18:13:39.297            48.059               CapeTown          1501.844
       346   03 Jun 2027 18:17:41.928   03 Jun 2027 18:18:19.194            37.266               CapeTown          1164.562
       347   03 Jun 2027 18:45:25.244   03 Jun 2027 18:49:57.549           272.305              Murmansk1          8509.531
       348   03 Jun 2027 18:52:42.014   03 Jun 2027 18:52:44.983             2.969                Anadyr1            92.781
       349   03 Jun 2027 18:55:22.188   03 Jun 2027 18:57:15.448           113.260               Magadan2          3539.375
       350   03 Jun 2027 18:59:37.747   03 Jun 2027 18:59:54.674            16.927               Magadan1           528.969
       351   03 Jun 2027 20:28:37.784   03 Jun 2027 20:32:36.107           238.323                Anadyr1          7447.594
       352   03 Jun 2027 20:32:37.845   03 Jun 2027 20:35:12.249           154.404               Magadan2          4825.125
       353   03 Jun 2027 20:41:33.025   03 Jun 2027 20:41:56.446            23.421               Magadan2           731.906
       354   03 Jun 2027 21:23:27.249   03 Jun 2027 21:26:09.615           162.366            RioGallegos          5073.938
       355   03 Jun 2027 21:27:57.449   03 Jun 2027 21:28:26.622            29.173            RioGallegos           911.656
       356   03 Jun 2027 21:29:37.702   03 Jun 2027 21:29:55.302            17.600            RioGallegos           550.000
       357   03 Jun 2027 21:32:35.693   03 Jun 2027 21:32:49.160            13.467            RioGallegos           420.844
       358   03 Jun 2027 22:04:19.810   03 Jun 2027 22:04:51.854            32.044                Anadyr2          1001.375
       359   03 Jun 2027 22:06:28.782   03 Jun 2027 22:08:14.830           106.048                Norilsk          3314.000
       360   03 Jun 2027 22:08:29.945   03 Jun 2027 22:09:17.287            47.342               Magadan1          1479.437
       361   03 Jun 2027 22:10:51.287   03 Jun 2027 22:11:56.902            65.615                Irkutsk          2050.469
       362   03 Jun 2027 22:13:10.428   03 Jun 2027 22:14:09.229            58.801                Irkutsk          1837.531
       363   03 Jun 2027 22:24:50.927   03 Jun 2027 22:25:14.923            23.996                Sumatra           749.875
       364   03 Jun 2027 22:26:16.052   03 Jun 2027 22:27:58.341           102.289                Sumatra          3196.531
       365   03 Jun 2027 23:39:16.755   03 Jun 2027 23:40:42.131            85.376                Anadyr1          2668.000
       366   03 Jun 2027 23:41:35.708   03 Jun 2027 23:41:51.591            15.883                Anadyr1           496.344
       367   03 Jun 2027 23:42:23.337   03 Jun 2027 23:43:30.647            67.310                Norilsk          2103.438
       368   03 Jun 2027 23:43:49.354   03 Jun 2027 23:44:40.030            50.676               Magadan1          1583.625
       369   03 Jun 2027 23:44:40.030   03 Jun 2027 23:45:03.821            23.791               Magadan2           743.469
       370   03 Jun 2027 23:46:15.174   03 Jun 2027 23:48:10.955           115.781                Irkutsk          3618.156
       371   03 Jun 2027 23:48:12.684   03 Jun 2027 23:49:14.846            62.162                Novosib          1942.563
       372   03 Jun 2027 23:53:27.947   03 Jun 2027 23:54:51.537            83.590                Novosib          2612.187
       373   03 Jun 2027 23:59:30.519   03 Jun 2027 23:59:56.478            25.959                  Delhi           811.219
       374   04 Jun 2027 00:37:27.654   04 Jun 2027 00:37:38.817            11.163            RioGallegos           348.844
       375   04 Jun 2027 00:40:17.985   04 Jun 2027 00:40:29.011            11.026            RioGallegos           344.563
       376   04 Jun 2027 00:42:37.920   04 Jun 2027 00:42:41.783             3.863            RioGallegos           120.719
       377   04 Jun 2027 00:44:15.421   04 Jun 2027 00:45:27.233            71.812            RioGallegos          2244.125
       378   04 Jun 2027 01:14:14.712   04 Jun 2027 01:14:55.466            40.754                Anadyr1          1273.562
       379   04 Jun 2027 01:15:25.853   04 Jun 2027 01:15:55.435            29.582                Anadyr2           924.437
       380   04 Jun 2027 01:18:23.629   04 Jun 2027 01:18:56.011            32.382                Norilsk          1011.938
       381   04 Jun 2027 01:18:56.030   04 Jun 2027 01:20:09.913            73.883               Magadan2          2308.844
       382   04 Jun 2027 01:20:52.205   04 Jun 2027 01:22:24.195            91.990              Murmansk1          2874.688
       383   04 Jun 2027 01:22:41.098   04 Jun 2027 01:22:59.301            18.203              Murmansk2           568.844
       384   04 Jun 2027 01:23:09.967   04 Jun 2027 01:23:22.774            12.807                Novosib           400.219
       385   04 Jun 2027 01:23:31.793   04 Jun 2027 01:24:11.818            40.025                Novosib          1250.781
       386   04 Jun 2027 01:27:53.381   04 Jun 2027 01:28:00.540             7.159                 Moscow           223.719
       387   04 Jun 2027 01:29:35.916   04 Jun 2027 01:30:14.298            38.382                  Delhi          1199.437
       388   04 Jun 2027 01:35:07.420   04 Jun 2027 01:35:21.144            13.724                  Delhi           428.875
       389   04 Jun 2027 01:39:12.086   04 Jun 2027 01:39:17.792             5.706                  Delhi           178.313
       390   04 Jun 2027 02:12:47.401   04 Jun 2027 02:13:14.432            27.031            RioGallegos           844.719
       391   04 Jun 2027 02:13:44.464   04 Jun 2027 02:14:27.895            43.431            RioGallegos          1357.219
       392   04 Jun 2027 02:15:26.291   04 Jun 2027 02:15:36.938            10.647            RioGallegos           332.719
       393   04 Jun 2027 02:46:19.462   04 Jun 2027 02:47:53.268            93.806                Anadyr2          2931.438
       394   04 Jun 2027 02:49:12.102   04 Jun 2027 02:49:39.571            27.469                Anadyr1           858.406
       395   04 Jun 2027 02:51:50.634   04 Jun 2027 02:52:57.988            67.354               Magadan1          2104.812
       396   04 Jun 2027 02:54:25.207   04 Jun 2027 02:54:35.930            10.723                Norilsk           335.094
       397   04 Jun 2027 02:55:06.751   04 Jun 2027 02:55:41.448            34.697                Norilsk          1084.281
       398   04 Jun 2027 02:56:31.221   04 Jun 2027 02:57:19.060            47.839              Murmansk2          1494.969
       399   04 Jun 2027 02:58:21.628   04 Jun 2027 02:58:30.583             8.955              Murmansk2           279.844
       400   04 Jun 2027 02:58:34.768   04 Jun 2027 02:58:40.103             5.335              Murmansk2           166.719
       401   04 Jun 2027 02:59:14.525   04 Jun 2027 03:00:02.282            47.757                Novosib          1492.406
       402   04 Jun 2027 03:00:44.340   04 Jun 2027 03:00:53.601             9.261              Murmansk1           289.406
       403   04 Jun 2027 03:00:55.650   04 Jun 2027 03:01:33.350            37.700                 Moscow          1178.125
       404   04 Jun 2027 03:01:49.270   04 Jun 2027 03:02:13.968            24.698                Norilsk           771.813
       405   04 Jun 2027 03:02:15.818   04 Jun 2027 03:02:37.183            21.365                Norilsk           667.656
       406   04 Jun 2027 03:03:12.566   04 Jun 2027 03:05:36.391           143.825              Murmansk2          4494.531
       407   04 Jun 2027 03:05:36.391   04 Jun 2027 03:05:58.120            21.729              Murmansk1           679.031
       408   04 Jun 2027 03:06:06.759   04 Jun 2027 03:07:51.113           104.354              Murmansk2          3261.062
       409   04 Jun 2027 03:24:46.966   04 Jun 2027 03:25:20.829            33.863               CapeTown          1058.219
       410   04 Jun 2027 04:40:05.490   04 Jun 2027 04:40:15.654            10.164                Norilsk           317.625
       411   04 Jun 2027 04:40:23.143   04 Jun 2027 04:41:30.350            67.207              Murmansk2          2100.219
       412   04 Jun 2027 04:41:30.350   04 Jun 2027 04:42:02.913            32.563              Murmansk1          1017.594
       413   04 Jun 2027 04:42:15.344   04 Jun 2027 04:42:33.609            18.265              Murmansk1           570.781
       414   04 Jun 2027 04:42:56.946   04 Jun 2027 04:43:20.685            23.739              Murmansk2           741.844
       415   04 Jun 2027 06:03:04.636   04 Jun 2027 06:03:12.264             7.628               Magadan2           238.375
       416   04 Jun 2027 06:03:15.145   04 Jun 2027 06:03:50.353            35.208               Magadan2          1100.250
       417   04 Jun 2027 06:04:15.924   04 Jun 2027 06:09:13.997           298.073                Anadyr1          9314.781
       418   04 Jun 2027 06:10:20.039   04 Jun 2027 06:11:06.408            46.369                Norilsk          1449.031
       419   04 Jun 2027 07:40:35.085   04 Jun 2027 07:41:43.764            68.679               Magadan2          2146.219
       420   04 Jun 2027 07:41:54.128   04 Jun 2027 07:43:16.613            82.485                Irkutsk          2577.656
       421   04 Jun 2027 07:43:29.355   04 Jun 2027 07:44:49.210            79.855                Anadyr1          2495.469
       422   04 Jun 2027 08:21:10.609   04 Jun 2027 08:21:12.029             1.420            RioGallegos            44.375
       423   04 Jun 2027 08:22:06.241   04 Jun 2027 08:22:38.511            32.270            RioGallegos          1008.438
       424   04 Jun 2027 09:13:54.518   04 Jun 2027 09:13:59.223             4.705               Magadan2           147.031
       425   04 Jun 2027 09:15:20.040   04 Jun 2027 09:15:27.901             7.861               Magadan1           245.656
       426   04 Jun 2027 09:15:45.142   04 Jun 2027 09:16:17.993            32.851               Magadan2          1026.594
       427   04 Jun 2027 09:16:31.340   04 Jun 2027 09:16:41.196             9.856                Irkutsk           308.000
       428   04 Jun 2027 09:16:44.477   04 Jun 2027 09:19:04.673           140.196               Magadan2          4381.125
       429   04 Jun 2027 09:19:04.673   04 Jun 2027 09:20:10.044            65.371               Magadan1          2042.844
       430   04 Jun 2027 09:20:21.743   04 Jun 2027 09:20:35.661            13.918              Murmansk1           434.937
       431   04 Jun 2027 09:21:31.294   04 Jun 2027 09:22:01.602            30.308              Murmansk1           947.125
       432   04 Jun 2027 09:55:14.639   04 Jun 2027 09:56:22.325            67.686            RioGallegos          2115.188
       433   04 Jun 2027 10:30:40.759   04 Jun 2027 10:31:13.904            33.145                Sumatra          1035.781
       434   04 Jun 2027 10:31:55.367   04 Jun 2027 10:32:25.678            30.311                Sumatra           947.219
       435   04 Jun 2027 10:37:07.331   04 Jun 2027 10:37:11.674             4.343                Sumatra           135.719
       436   04 Jun 2027 10:50:19.334   04 Jun 2027 10:50:40.086            20.752                Novosib           648.500
       437   04 Jun 2027 10:50:44.168   04 Jun 2027 10:50:58.544            14.376                Norilsk           449.250
       438   04 Jun 2027 10:51:08.651   04 Jun 2027 10:52:11.099            62.448                Irkutsk          1951.500
       439   04 Jun 2027 10:52:23.078   04 Jun 2027 10:53:16.550            53.472                Norilsk          1671.000
       440   04 Jun 2027 10:53:22.609   04 Jun 2027 10:53:23.802             1.193              Murmansk1            37.281
       441   04 Jun 2027 10:53:23.910   04 Jun 2027 10:53:51.045            27.135              Murmansk1           847.969
       442   04 Jun 2027 10:54:03.061   04 Jun 2027 10:54:26.204            23.143                Norilsk           723.219
       443   04 Jun 2027 10:54:30.646   04 Jun 2027 10:54:42.894            12.248              Murmansk1           382.750
       444   04 Jun 2027 10:54:50.302   04 Jun 2027 10:55:06.570            16.268                Irkutsk           508.375
       445   04 Jun 2027 10:55:09.491   04 Jun 2027 10:55:19.674            10.183                Novosib           318.219
       446   04 Jun 2027 10:55:25.561   04 Jun 2027 10:56:27.710            62.149                Irkutsk          1942.156
       447   04 Jun 2027 11:33:02.531   04 Jun 2027 11:33:41.498            38.967            RioGallegos          1217.719
       448   04 Jun 2027 11:37:40.117   04 Jun 2027 11:38:09.770            29.653            RioGallegos           926.656
       449   04 Jun 2027 12:07:15.313   04 Jun 2027 12:07:49.126            33.813                Sumatra          1056.656
       450   04 Jun 2027 12:08:01.813   04 Jun 2027 12:08:03.356             1.543                Sumatra            48.219
       451   04 Jun 2027 12:12:56.857   04 Jun 2027 12:13:27.008            30.151                Sumatra           942.219
       452   04 Jun 2027 12:20:38.215   04 Jun 2027 12:21:02.509            24.294                  Delhi           759.188
       453   04 Jun 2027 12:21:25.401   04 Jun 2027 12:22:02.334            36.933                Novosib          1154.156
       454   04 Jun 2027 12:22:33.894   04 Jun 2027 12:22:46.018            12.124                Novosib           378.875
       455   04 Jun 2027 12:24:23.933   04 Jun 2027 12:25:26.855            62.922                Novosib          1966.313
       456   04 Jun 2027 12:25:54.727   04 Jun 2027 12:26:52.139            57.412                Norilsk          1794.125
       457   04 Jun 2027 12:28:40.193   04 Jun 2027 12:29:42.551            62.358              Murmansk2          1948.688
       458   04 Jun 2027 13:52:33.263   04 Jun 2027 13:55:23.526           170.263                  Delhi          5320.719
       459   04 Jun 2027 13:59:57.381   04 Jun 2027 14:00:10.890            13.509                 Moscow           422.156
       460   04 Jun 2027 14:01:04.695   04 Jun 2027 14:03:02.797           118.102                Novosib          3690.688
       461   04 Jun 2027 14:03:30.171   04 Jun 2027 14:03:47.821            17.650              Murmansk2           551.562
       462   04 Jun 2027 14:03:59.005   04 Jun 2027 14:04:02.547             3.542              Murmansk2           110.688
       463   04 Jun 2027 14:04:17.257   04 Jun 2027 14:04:56.831            39.574                Norilsk          1236.688
       464   04 Jun 2027 14:05:27.178   04 Jun 2027 14:05:42.773            15.595                Novosib           487.344
       465   04 Jun 2027 14:06:00.683   04 Jun 2027 14:07:10.640            69.957                Norilsk          2186.156
       466   04 Jun 2027 15:15:58.367   04 Jun 2027 15:17:30.789            92.422               CapeTown          2888.187
       467   04 Jun 2027 15:35:06.451   04 Jun 2027 15:36:18.998            72.547                 Moscow          2267.094
       468   04 Jun 2027 15:38:34.879   04 Jun 2027 15:41:26.367           171.488              Murmansk2          5359.000
       469   04 Jun 2027 15:53:49.743   04 Jun 2027 15:54:47.081            57.338                Anadyr1          1791.812
       470   04 Jun 2027 15:55:14.165   04 Jun 2027 15:55:33.277            19.112                Anadyr1           597.250
       471   04 Jun 2027 15:55:55.732   04 Jun 2027 15:56:07.607            11.875                Anadyr1           371.094
       472   04 Jun 2027 16:00:15.223   04 Jun 2027 16:00:16.166             0.943                Anadyr2            29.469
       473   04 Jun 2027 16:48:14.258   04 Jun 2027 16:49:04.244            49.986               CapeTown          1562.062
       474   04 Jun 2027 16:55:07.516   04 Jun 2027 16:55:31.043            23.527               CapeTown           735.219
       475   04 Jun 2027 17:15:25.812   04 Jun 2027 17:16:33.673            67.861                 Moscow          2120.656
       476   04 Jun 2027 17:16:54.568   04 Jun 2027 17:17:03.709             9.141              Murmansk1           285.656
       477   04 Jun 2027 17:17:24.963   04 Jun 2027 17:17:33.931             8.968              Murmansk2           280.250
       478   04 Jun 2027 17:18:40.437   04 Jun 2027 17:19:14.158            33.721              Murmansk1          1053.781
       479   04 Jun 2027 17:21:04.989   04 Jun 2027 17:22:49.779           104.790              Murmansk2          3274.688
       480   04 Jun 2027 17:28:52.808   04 Jun 2027 17:29:44.166            51.358                Anadyr2          1604.938
       481   04 Jun 2027 17:30:08.311   04 Jun 2027 17:30:32.050            23.739                Anadyr1           741.844
       482   04 Jun 2027 18:25:14.753   04 Jun 2027 18:26:23.404            68.651               CapeTown          2145.344
