uniorb/output/strategy_1/Drop/Drop_KinoSat_110604.txt

KinoSat_110604
-------------------------
    Access    *     Start Time (UTCG)     *     Stop Time (UTCG)  *   Duration (s)        *       Station  *  Data (Mbytes)
         1   01 Jun 2027 03:55:41.456   01 Jun 2027 03:59:02.396           200.940                Anadyr1          6279.375
         2   01 Jun 2027 05:30:45.352   01 Jun 2027 05:30:54.886             9.534               Magadan1           297.938
         3   01 Jun 2027 05:31:14.728   01 Jun 2027 05:34:46.938           212.210                Novosib          6631.562
         4   01 Jun 2027 05:35:00.801   01 Jun 2027 05:35:34.365            33.564                Norilsk          1048.875
         5   01 Jun 2027 05:36:08.742   01 Jun 2027 05:36:56.489            47.747                Norilsk          1492.094
         6   01 Jun 2027 05:37:49.907   01 Jun 2027 05:38:43.675            53.768                Norilsk          1680.250
         7   01 Jun 2027 05:39:26.831   01 Jun 2027 05:39:54.926            28.095                Norilsk           877.969
         8   01 Jun 2027 06:10:22.738   01 Jun 2027 06:13:40.639           197.901            RioGallegos          6184.406
         9   01 Jun 2027 06:14:34.960   01 Jun 2027 06:15:02.630            27.670            RioGallegos           864.688
        10   01 Jun 2027 06:45:48.354   01 Jun 2027 06:49:41.854           233.500                Sumatra          7296.875
        11   01 Jun 2027 06:58:59.379   01 Jun 2027 07:00:17.182            77.803                  Delhi          2431.344
        12   01 Jun 2027 07:02:50.535   01 Jun 2027 07:02:58.043             7.508                  Delhi           234.625
        13   01 Jun 2027 07:06:17.479   01 Jun 2027 07:07:21.406            63.927                Irkutsk          1997.719
        14   01 Jun 2027 07:08:12.849   01 Jun 2027 07:08:24.031            11.182                Norilsk           349.438
        15   01 Jun 2027 07:08:27.017   01 Jun 2027 07:10:28.778           121.761              Murmansk1          3805.031
        16   01 Jun 2027 07:10:28.778   01 Jun 2027 07:10:50.011            21.233              Murmansk2           663.531
        17   01 Jun 2027 07:11:12.544   01 Jun 2027 07:12:56.290           103.746                Novosib          3242.062
        18   01 Jun 2027 07:13:15.034   01 Jun 2027 07:14:00.887            45.853              Murmansk2          1432.906
        19   01 Jun 2027 07:48:56.697   01 Jun 2027 07:49:05.200             8.503            RioGallegos           265.719
        20   01 Jun 2027 07:50:39.836   01 Jun 2027 07:51:56.499            76.663            RioGallegos          2395.719
        21   01 Jun 2027 08:23:08.228   01 Jun 2027 08:23:53.902            45.674                Sumatra          1427.312
        22   01 Jun 2027 08:29:35.492   01 Jun 2027 08:32:39.147           183.655                  Delhi          5739.219
        23   01 Jun 2027 08:44:47.271   01 Jun 2027 08:45:07.918            20.647                 Moscow           645.219
        24   01 Jun 2027 08:45:14.006   01 Jun 2027 08:45:49.618            35.612                 Moscow          1112.875
        25   01 Jun 2027 08:45:56.269   01 Jun 2027 08:46:24.089            27.820              Murmansk2           869.375
        26   01 Jun 2027 08:46:24.089   01 Jun 2027 08:47:06.629            42.540              Murmansk1          1329.375
        27   01 Jun 2027 08:47:37.463   01 Jun 2027 08:49:04.753            87.290                Novosib          2727.813
        28   01 Jun 2027 08:49:13.382   01 Jun 2027 08:50:07.002            53.620              Murmansk1          1675.625
        29   01 Jun 2027 10:07:43.964   01 Jun 2027 10:09:41.272           117.308                  Delhi          3665.875
        30   01 Jun 2027 10:20:26.081   01 Jun 2027 10:20:32.226             6.145                Novosib           192.031
        31   01 Jun 2027 10:20:40.846   01 Jun 2027 10:23:35.729           174.883              Murmansk1          5465.094
        32   01 Jun 2027 10:23:38.311   01 Jun 2027 10:23:41.296             2.985                 Moscow            93.281
        33   01 Jun 2027 10:26:00.822   01 Jun 2027 10:27:04.661            63.839                Norilsk          1994.969
        34   01 Jun 2027 11:31:05.157   01 Jun 2027 11:32:51.566           106.409               CapeTown          3325.281
        35   01 Jun 2027 11:33:17.575   01 Jun 2027 11:34:36.202            78.627               CapeTown          2457.094
        36   01 Jun 2027 12:09:00.111   01 Jun 2027 12:15:32.425           392.314                Anadyr2         12259.812
        37   01 Jun 2027 15:22:26.264   01 Jun 2027 15:24:40.679           134.415               Magadan2          4200.469
        38   01 Jun 2027 15:27:57.711   01 Jun 2027 15:28:01.745             4.034               Magadan2           126.063
        39   01 Jun 2027 15:30:54.693   01 Jun 2027 15:31:24.951            30.258               Magadan1           945.562
        40   01 Jun 2027 15:31:47.009   01 Jun 2027 15:33:43.137           116.128               Magadan2          3629.000
        41   01 Jun 2027 16:58:42.384   01 Jun 2027 17:01:40.400           178.016                Norilsk          5563.000
        42   01 Jun 2027 17:09:32.766   01 Jun 2027 17:10:02.387            29.621               Magadan2           925.656
        43   01 Jun 2027 17:10:43.405   01 Jun 2027 17:10:58.633            15.228               Magadan2           475.875
        44   01 Jun 2027 17:50:20.839   01 Jun 2027 17:52:03.020           102.181            RioGallegos          3193.156
        45   01 Jun 2027 17:53:33.161   01 Jun 2027 17:56:26.467           173.306            RioGallegos          5415.813
        46   01 Jun 2027 18:34:59.926   01 Jun 2027 18:35:04.312             4.386                Norilsk           137.063
        47   01 Jun 2027 18:37:52.055   01 Jun 2027 18:40:35.508           163.453                Irkutsk          5107.906
        48   01 Jun 2027 18:41:29.145   01 Jun 2027 18:44:19.299           170.154                Novosib          5317.313
        49   01 Jun 2027 18:48:17.366   01 Jun 2027 18:49:28.227            70.861                Irkutsk          2214.406
        50   01 Jun 2027 18:51:40.027   01 Jun 2027 18:53:15.236            95.209                Sumatra          2975.281
        51   01 Jun 2027 18:54:08.878   01 Jun 2027 18:55:34.726            85.848                Sumatra          2682.750
        52   01 Jun 2027 20:17:04.797   01 Jun 2027 20:17:50.363            45.566                Novosib          1423.937
        53   01 Jun 2027 20:19:11.151   01 Jun 2027 20:20:11.342            60.191                Novosib          1880.969
        54   01 Jun 2027 20:21:30.920   01 Jun 2027 20:23:13.571           102.651                  Delhi          3207.844
        55   01 Jun 2027 20:25:13.386   01 Jun 2027 20:28:00.815           167.429                  Delhi          5232.156
        56   01 Jun 2027 21:47:58.557   01 Jun 2027 21:52:35.376           276.819              Murmansk2          8650.594
        57   01 Jun 2027 21:52:35.376   01 Jun 2027 21:53:31.947            56.571              Murmansk1          1767.844
        58   01 Jun 2027 21:54:17.433   01 Jun 2027 21:56:28.139           130.706              Murmansk2          4084.562
        59   01 Jun 2027 21:57:59.552   01 Jun 2027 21:58:58.637            59.085                 Moscow          1846.406
        60   01 Jun 2027 23:25:50.725   01 Jun 2027 23:26:07.313            16.588              Murmansk1           518.375
        61   01 Jun 2027 23:27:04.981   01 Jun 2027 23:28:05.548            60.567                 Moscow          1892.719
        62   01 Jun 2027 23:28:06.726   01 Jun 2027 23:29:00.063            53.337              Murmansk2          1666.781
        63   01 Jun 2027 23:31:17.234   01 Jun 2027 23:31:28.017            10.783                 Moscow           336.969
        64   01 Jun 2027 23:31:48.045   01 Jun 2027 23:32:36.307            48.262                 Moscow          1508.187
        65   01 Jun 2027 23:34:05.295   01 Jun 2027 23:34:34.460            29.165                 Moscow           911.406
        66   01 Jun 2027 23:36:37.527   01 Jun 2027 23:37:24.092            46.565                 Moscow          1455.156
        67   01 Jun 2027 23:39:06.034   01 Jun 2027 23:39:23.000            16.966                 Moscow           530.188
        68   01 Jun 2027 23:51:31.014   01 Jun 2027 23:53:16.874           105.860               CapeTown          3308.125
        69   01 Jun 2027 23:54:21.136   01 Jun 2027 23:55:14.717            53.581               CapeTown          1674.406
        70   01 Jun 2027 23:56:11.122   01 Jun 2027 23:56:21.299            10.177               CapeTown           318.031
        71   02 Jun 2027 00:57:39.403   02 Jun 2027 00:59:08.131            88.728               Magadan1          2772.750
        72   02 Jun 2027 00:59:39.466   02 Jun 2027 01:00:44.499            65.033              Murmansk2          2032.281
        73   02 Jun 2027 01:06:42.062   02 Jun 2027 01:07:09.037            26.975                 Moscow           842.969
        74   02 Jun 2027 01:08:33.163   02 Jun 2027 01:08:48.943            15.780                 Moscow           493.125
        75   02 Jun 2027 01:09:35.546   02 Jun 2027 01:09:40.194             4.648                 Moscow           145.250
        76   02 Jun 2027 01:10:18.961   02 Jun 2027 01:11:38.091            79.130              Murmansk2          2472.812
        77   02 Jun 2027 01:32:43.406   02 Jun 2027 01:33:51.303            67.897               CapeTown          2121.781
        78   02 Jun 2027 01:37:55.604   02 Jun 2027 01:38:56.461            60.857               CapeTown          1901.781
        79   02 Jun 2027 02:23:36.806   02 Jun 2027 02:24:56.865            80.059               Magadan2          2501.844
        80   02 Jun 2027 02:25:50.683   02 Jun 2027 02:26:27.803            37.120               Magadan1          1160.000
        81   02 Jun 2027 02:28:26.377   02 Jun 2027 02:28:52.984            26.607               Magadan2           831.469
        82   02 Jun 2027 02:30:42.354   02 Jun 2027 02:30:53.997            11.643               Magadan2           363.844
        83   02 Jun 2027 02:31:58.091   02 Jun 2027 02:32:19.317            21.226                Norilsk           663.313
        84   02 Jun 2027 02:35:31.809   02 Jun 2027 02:36:42.267            70.458              Murmansk2          2201.812
        85   02 Jun 2027 02:36:43.153   02 Jun 2027 02:37:03.512            20.359              Murmansk1           636.219
        86   02 Jun 2027 02:38:12.016   02 Jun 2027 02:38:21.392             9.376              Murmansk1           293.000
        87   02 Jun 2027 02:39:41.951   02 Jun 2027 02:39:57.564            15.613                 Moscow           487.906
        88   02 Jun 2027 02:40:31.924   02 Jun 2027 02:40:36.729             4.805              Murmansk1           150.156
        89   02 Jun 2027 02:41:56.855   02 Jun 2027 02:42:14.225            17.370                 Moscow           542.812
        90   02 Jun 2027 02:43:13.972   02 Jun 2027 02:43:15.825             1.853              Murmansk2            57.906
        91   02 Jun 2027 02:43:19.386   02 Jun 2027 02:43:41.212            21.826                 Moscow           682.063
        92   02 Jun 2027 02:46:18.603   02 Jun 2027 02:46:55.678            37.075                 Moscow          1158.594
        93   02 Jun 2027 03:17:35.748   02 Jun 2027 03:17:51.917            16.169            RioGallegos           505.281
        94   02 Jun 2027 03:18:52.235   02 Jun 2027 03:20:06.479            74.244            RioGallegos          2320.125
        95   02 Jun 2027 04:06:17.097   02 Jun 2027 04:11:03.810           286.713                Anadyr1          8959.781
        96   02 Jun 2027 04:11:03.810   02 Jun 2027 04:11:29.579            25.769                Anadyr2           805.281
        97   02 Jun 2027 05:42:30.126   02 Jun 2027 05:42:49.529            19.403               Magadan1           606.344
        98   02 Jun 2027 05:42:49.529   02 Jun 2027 05:44:37.656           108.127               Magadan2          3378.969
        99   02 Jun 2027 05:44:47.520   02 Jun 2027 05:46:41.271           113.751               Magadan2          3554.719
       100   02 Jun 2027 05:47:07.538   02 Jun 2027 05:47:41.882            34.344                Irkutsk          1073.250
       101   02 Jun 2027 05:47:47.301   02 Jun 2027 05:48:28.882            41.581              Murmansk1          1299.406
       102   02 Jun 2027 05:48:36.035   02 Jun 2027 05:48:44.198             8.163                Norilsk           255.094
       103   02 Jun 2027 05:48:52.977   02 Jun 2027 05:49:07.772            14.795                Norilsk           462.344
       104   02 Jun 2027 05:49:50.717   02 Jun 2027 05:50:42.968            52.251              Murmansk1          1632.844
       105   02 Jun 2027 05:51:37.698   02 Jun 2027 05:52:18.354            40.656              Murmansk2          1270.500
       106   02 Jun 2027 06:22:24.756   02 Jun 2027 06:24:04.449            99.693            RioGallegos          3115.406
       107   02 Jun 2027 06:25:41.532   02 Jun 2027 06:26:40.523            58.991            RioGallegos          1843.469
       108   02 Jun 2027 06:57:33.334   02 Jun 2027 07:00:16.372           163.038                Sumatra          5094.937
       109   02 Jun 2027 07:01:45.905   02 Jun 2027 07:02:02.984            17.079                Sumatra           533.719
       110   02 Jun 2027 07:09:26.775   02 Jun 2027 07:09:36.358             9.583                  Delhi           299.469
       111   02 Jun 2027 07:10:10.255   02 Jun 2027 07:11:15.245            64.990                  Delhi          2030.938
       112   02 Jun 2027 07:12:26.764   02 Jun 2027 07:12:43.939            17.175                  Delhi           536.719
       113   02 Jun 2027 07:19:26.213   02 Jun 2027 07:20:50.753            84.540                Novosib          2641.875
       114   02 Jun 2027 07:21:02.065   02 Jun 2027 07:21:20.868            18.803                Norilsk           587.594
       115   02 Jun 2027 07:21:29.023   02 Jun 2027 07:23:26.989           117.966              Murmansk1          3686.437
       116   02 Jun 2027 07:23:26.989   02 Jun 2027 07:24:50.289            83.300              Murmansk2          2603.125
       117   02 Jun 2027 07:24:54.730   02 Jun 2027 07:25:23.329            28.599                Norilsk           893.719
       118   02 Jun 2027 08:03:14.801   02 Jun 2027 08:03:31.875            17.074            RioGallegos           533.563
       119   02 Jun 2027 08:35:08.995   02 Jun 2027 08:36:47.323            98.328                Sumatra          3072.750
       120   02 Jun 2027 08:41:31.245   02 Jun 2027 08:42:20.891            49.646                  Delhi          1551.437
       121   02 Jun 2027 08:43:03.289   02 Jun 2027 08:44:12.408            69.119                  Delhi          2159.969
       122   02 Jun 2027 08:49:49.650   02 Jun 2027 08:51:06.184            76.534                  Delhi          2391.688
       123   02 Jun 2027 08:57:28.301   02 Jun 2027 08:57:34.314             6.013                 Moscow           187.906
       124   02 Jun 2027 08:57:50.444   02 Jun 2027 08:58:51.871            61.427                 Moscow          1919.594
       125   02 Jun 2027 08:58:55.104   02 Jun 2027 08:58:57.174             2.070                Norilsk            64.687
       126   02 Jun 2027 08:58:57.716   02 Jun 2027 09:00:22.566            84.850              Murmansk2          2651.562
       127   02 Jun 2027 09:00:35.336   02 Jun 2027 09:00:54.051            18.715                 Moscow           584.844
       128   02 Jun 2027 09:01:13.393   02 Jun 2027 09:02:07.364            53.971              Murmansk2          1686.594
       129   02 Jun 2027 09:02:09.604   02 Jun 2027 09:02:17.622             8.018                 Moscow           250.562
       130   02 Jun 2027 10:20:53.404   02 Jun 2027 10:24:03.799           190.395                  Delhi          5949.844
       131   02 Jun 2027 10:30:38.475   02 Jun 2027 10:34:24.716           226.241                 Moscow          7070.031
       132   02 Jun 2027 10:34:46.220   02 Jun 2027 10:39:13.462           267.242              Murmansk1          8351.312
       133   02 Jun 2027 10:39:13.462   02 Jun 2027 10:39:18.687             5.225              Murmansk2           163.281
       134   02 Jun 2027 10:39:18.889   02 Jun 2027 10:40:01.384            42.495                Norilsk          1327.969
       135   02 Jun 2027 11:41:51.968   02 Jun 2027 11:44:31.535           159.567               CapeTown          4986.469
       136   02 Jun 2027 11:45:19.036   02 Jun 2027 11:48:25.290           186.254               CapeTown          5820.438
       137   02 Jun 2027 12:20:46.763   02 Jun 2027 12:28:33.145           466.382                Anadyr2         14574.437
       138   02 Jun 2027 14:00:33.763   02 Jun 2027 14:04:50.851           257.088               Magadan1          8034.000
       139   02 Jun 2027 15:37:38.375   02 Jun 2027 15:38:08.617            30.242               Magadan2           945.062
       140   02 Jun 2027 15:38:08.617   02 Jun 2027 15:39:56.329           107.712               Magadan1          3366.000
       141   02 Jun 2027 15:43:54.791   02 Jun 2027 15:44:36.847            42.056               Magadan2          1314.250
       142   02 Jun 2027 15:45:32.105   02 Jun 2027 15:46:06.870            34.765               Magadan2          1086.406
       143   02 Jun 2027 17:10:22.457   02 Jun 2027 17:15:00.977           278.520                Norilsk          8703.750
       144   02 Jun 2027 17:17:54.272   02 Jun 2027 17:19:02.714            68.442                Irkutsk          2138.813
       145   02 Jun 2027 18:05:35.842   02 Jun 2027 18:05:49.167            13.325            RioGallegos           416.406
       146   02 Jun 2027 18:09:47.858   02 Jun 2027 18:10:31.348            43.490            RioGallegos          1359.062
       147   02 Jun 2027 18:11:36.607   02 Jun 2027 18:12:38.541            61.934            RioGallegos          1935.438
       148   02 Jun 2027 18:49:40.196   02 Jun 2027 18:50:02.720            22.524                Norilsk           703.875
       149   02 Jun 2027 18:50:38.747   02 Jun 2027 18:51:58.045            79.298                Irkutsk          2478.062
       150   02 Jun 2027 18:53:31.928   02 Jun 2027 18:57:42.461           250.533                Novosib          7829.156
       151   02 Jun 2027 19:09:26.852   02 Jun 2027 19:10:45.056            78.204                Sumatra          2443.875
       152   02 Jun 2027 19:13:35.542   02 Jun 2027 19:16:02.999           147.457                Sumatra          4608.031
       153   02 Jun 2027 20:32:11.378   02 Jun 2027 20:32:40.050            28.672                Novosib           896.000
       154   02 Jun 2027 20:33:04.929   02 Jun 2027 20:34:21.690            76.761                Novosib          2398.781
       155   02 Jun 2027 20:35:01.353   02 Jun 2027 20:37:10.424           129.071                  Delhi          4033.469
       156   02 Jun 2027 20:38:25.523   02 Jun 2027 20:38:29.033             3.510                  Delhi           109.687
       157   02 Jun 2027 20:44:31.159   02 Jun 2027 20:45:07.740            36.581                  Delhi          1143.156
       158   02 Jun 2027 21:59:55.887   02 Jun 2027 22:05:03.278           307.391              Murmansk2          9605.969
       159   02 Jun 2027 22:05:03.278   02 Jun 2027 22:05:25.133            21.855              Murmansk1           682.969
       160   02 Jun 2027 22:05:27.898   02 Jun 2027 22:12:01.072           393.174                 Moscow         12286.688
       161   02 Jun 2027 23:43:03.065   02 Jun 2027 23:43:21.347            18.282                 Moscow           571.312
       162   02 Jun 2027 23:43:36.174   02 Jun 2027 23:44:37.875            61.701                 Moscow          1928.156
       163   02 Jun 2027 23:48:35.945   02 Jun 2027 23:49:01.694            25.749                 Moscow           804.656
       164   03 Jun 2027 00:05:05.385   03 Jun 2027 00:07:14.289           128.904               CapeTown          4028.250
       165   03 Jun 2027 00:12:20.340   03 Jun 2027 00:14:37.852           137.512               CapeTown          4297.250
       166   03 Jun 2027 01:14:56.161   03 Jun 2027 01:15:27.129            30.968                 Moscow           967.750
       167   03 Jun 2027 01:15:43.065   03 Jun 2027 01:15:58.841            15.776              Murmansk1           493.000
       168   03 Jun 2027 01:17:24.607   03 Jun 2027 01:17:45.008            20.401                 Moscow           637.531
       169   03 Jun 2027 01:19:15.690   03 Jun 2027 01:19:29.761            14.071                 Moscow           439.719
       170   03 Jun 2027 01:20:10.806   03 Jun 2027 01:20:16.389             5.583                 Moscow           174.469
       171   03 Jun 2027 01:20:33.844   03 Jun 2027 01:20:37.279             3.435              Murmansk2           107.344
       172   03 Jun 2027 01:20:50.753   03 Jun 2027 01:21:12.326            21.573              Murmansk2           674.156
       173   03 Jun 2027 01:23:55.939   03 Jun 2027 01:24:16.984            21.045                 Moscow           657.656
       174   03 Jun 2027 01:25:21.377   03 Jun 2027 01:25:34.858            13.481                 Moscow           421.281
       175   03 Jun 2027 01:43:06.054   03 Jun 2027 01:43:17.103            11.049               CapeTown           345.281
       176   03 Jun 2027 01:44:20.048   03 Jun 2027 01:45:37.878            77.830               CapeTown          2432.187
       177   03 Jun 2027 02:35:28.352   03 Jun 2027 02:37:51.315           142.963               Magadan1          4467.594
       178   03 Jun 2027 02:38:24.165   03 Jun 2027 02:38:30.051             5.886               Magadan1           183.938
       179   03 Jun 2027 02:38:58.321   03 Jun 2027 02:39:17.638            19.317               Magadan2           603.656
       180   03 Jun 2027 02:39:54.211   03 Jun 2027 02:40:55.401            61.190               Magadan2          1912.188
       181   03 Jun 2027 02:45:44.785   03 Jun 2027 02:45:55.711            10.926                Norilsk           341.438
       182   03 Jun 2027 02:47:26.025   03 Jun 2027 02:47:36.547            10.522                Norilsk           328.812
       183   03 Jun 2027 02:48:00.068   03 Jun 2027 02:49:22.155            82.087              Murmansk1          2565.219
       184   03 Jun 2027 02:52:01.470   03 Jun 2027 02:52:19.005            17.535              Murmansk1           547.969
       185   03 Jun 2027 02:54:32.185   03 Jun 2027 02:54:51.507            19.322                 Moscow           603.812
       186   03 Jun 2027 02:56:28.971   03 Jun 2027 02:56:39.667            10.696                 Moscow           334.250
       187   03 Jun 2027 02:57:22.634   03 Jun 2027 02:57:31.061             8.427                 Moscow           263.344
       188   03 Jun 2027 02:59:45.190   03 Jun 2027 03:00:00.849            15.659                 Moscow           489.344
       189   03 Jun 2027 03:28:26.060   03 Jun 2027 03:29:41.916            75.856            RioGallegos          2370.500
       190   03 Jun 2027 03:31:19.394   03 Jun 2027 03:31:40.916            21.522            RioGallegos           672.563
       191   03 Jun 2027 04:15:53.883   03 Jun 2027 04:17:23.409            89.526                Anadyr1          2797.688
       192   03 Jun 2027 04:17:32.923   03 Jun 2027 04:18:02.725            29.802                Anadyr2           931.312
       193   03 Jun 2027 04:18:02.725   03 Jun 2027 04:19:14.734            72.009                Anadyr1          2250.281
       194   03 Jun 2027 04:19:40.978   03 Jun 2027 04:21:44.345           123.367                Anadyr1          3855.219
       195   03 Jun 2027 04:21:46.623   03 Jun 2027 04:22:55.766            69.143                Anadyr2          2160.719
       196   03 Jun 2027 04:59:32.621   03 Jun 2027 05:02:46.813           194.192            RioGallegos          6068.500
       197   03 Jun 2027 05:05:40.405   03 Jun 2027 05:05:46.306             5.901            RioGallegos           184.406
       198   03 Jun 2027 05:54:41.073   03 Jun 2027 05:58:49.977           248.904               Magadan2          7778.250
       199   03 Jun 2027 05:59:06.697   03 Jun 2027 05:59:45.966            39.269                Irkutsk          1227.156
       200   03 Jun 2027 05:59:46.985   03 Jun 2027 06:01:20.823            93.838                Norilsk          2932.437
       201   03 Jun 2027 06:01:22.876   03 Jun 2027 06:01:52.075            29.199              Murmansk2           912.469
       202   03 Jun 2027 06:03:39.441   03 Jun 2027 06:03:45.528             6.087              Murmansk1           190.219
       203   03 Jun 2027 06:04:20.328   03 Jun 2027 06:04:32.227            11.899              Murmansk2           371.844
       204   03 Jun 2027 06:34:30.174   03 Jun 2027 06:35:52.726            82.552            RioGallegos          2579.750
       205   03 Jun 2027 06:37:41.433   03 Jun 2027 06:38:45.186            63.753            RioGallegos          1992.281
       206   03 Jun 2027 07:09:24.515   03 Jun 2027 07:09:49.661            25.146                Sumatra           785.812
       207   03 Jun 2027 07:10:37.715   03 Jun 2027 07:12:53.008           135.293                Sumatra          4227.906
       208   03 Jun 2027 07:20:25.434   03 Jun 2027 07:21:45.903            80.469                  Delhi          2514.656
       209   03 Jun 2027 07:22:49.431   03 Jun 2027 07:24:39.360           109.929                  Delhi          3435.281
       210   03 Jun 2027 07:32:01.061   03 Jun 2027 07:33:10.493            69.432              Murmansk2          2169.750
       211   03 Jun 2027 07:33:15.137   03 Jun 2027 07:33:55.872            40.735                Novosib          1272.969
       212   03 Jun 2027 07:34:02.086   03 Jun 2027 07:34:37.333            35.247                Norilsk          1101.469
       213   03 Jun 2027 07:34:45.283   03 Jun 2027 07:35:10.917            25.634                Norilsk           801.063
       214   03 Jun 2027 07:35:10.989   03 Jun 2027 07:35:52.739            41.750                Norilsk          1304.688
       215   03 Jun 2027 07:36:00.288   03 Jun 2027 07:37:03.604            63.316                 Moscow          1978.625
       216   03 Jun 2027 08:13:39.177   03 Jun 2027 08:14:34.543            55.366            RioGallegos          1730.187
       217   03 Jun 2027 08:16:21.958   03 Jun 2027 08:17:08.317            46.359            RioGallegos          1448.719
       218   03 Jun 2027 08:48:18.627   03 Jun 2027 08:48:25.159             6.532                Sumatra           204.125
       219   03 Jun 2027 08:48:34.367   03 Jun 2027 08:49:24.547            50.180                Sumatra          1568.125
       220   03 Jun 2027 08:52:39.041   03 Jun 2027 08:53:20.286            41.245                Sumatra          1288.906
       221   03 Jun 2027 08:53:32.285   03 Jun 2027 08:55:07.955            95.670                  Delhi          2989.688
       222   03 Jun 2027 09:09:35.431   03 Jun 2027 09:10:55.659            80.228                Novosib          2507.125
       223   03 Jun 2027 09:10:59.139   03 Jun 2027 09:12:58.350           119.211                Novosib          3725.344
       224   03 Jun 2027 09:13:08.631   03 Jun 2027 09:13:39.959            31.328                Norilsk           979.000
       225   03 Jun 2027 09:16:47.822   03 Jun 2027 09:17:23.035            35.213              Murmansk2          1100.406
       226   03 Jun 2027 10:35:14.885   03 Jun 2027 10:36:08.551            53.666                  Delhi          1677.063
       227   03 Jun 2027 10:36:10.931   03 Jun 2027 10:36:47.733            36.802                  Delhi          1150.063
       228   03 Jun 2027 10:41:36.611   03 Jun 2027 10:41:41.817             5.206              Murmansk2           162.688
       229   03 Jun 2027 10:41:51.450   03 Jun 2027 10:42:46.497            55.047              Murmansk1          1720.219
       230   03 Jun 2027 10:42:46.497   03 Jun 2027 10:43:46.162            59.665              Murmansk2          1864.531
       231   03 Jun 2027 10:43:53.175   03 Jun 2027 10:44:43.292            50.117              Murmansk1          1566.156
       232   03 Jun 2027 10:44:47.111   03 Jun 2027 10:46:26.617            99.506                 Moscow          3109.563
       233   03 Jun 2027 10:46:28.309   03 Jun 2027 10:47:29.021            60.712                 Moscow          1897.250
       234   03 Jun 2027 10:47:32.629   03 Jun 2027 10:48:39.448            66.819                 Moscow          2088.094
       235   03 Jun 2027 10:48:44.141   03 Jun 2027 10:49:28.736            44.595                 Moscow          1393.594
       236   03 Jun 2027 11:53:08.310   03 Jun 2027 11:58:16.570           308.260               CapeTown          9633.125
       237   03 Jun 2027 12:00:23.109   03 Jun 2027 12:01:07.534            44.425               CapeTown          1388.281
       238   03 Jun 2027 12:32:37.278   03 Jun 2027 12:38:26.378           349.100                Anadyr2         10909.375
       239   03 Jun 2027 12:38:56.922   03 Jun 2027 12:41:15.261           138.339                Anadyr1          4323.094
       240   03 Jun 2027 14:08:01.162   03 Jun 2027 14:09:21.615            80.453                Anadyr2          2514.156
       241   03 Jun 2027 14:11:18.708   03 Jun 2027 14:11:54.841            36.133                Anadyr1          1129.156
       242   03 Jun 2027 14:12:38.701   03 Jun 2027 14:18:06.277           327.576               Magadan2         10236.750
       243   03 Jun 2027 15:46:19.788   03 Jun 2027 15:48:36.270           136.482               Magadan1          4265.062
       244   03 Jun 2027 15:50:19.817   03 Jun 2027 15:50:36.800            16.983               Magadan1           530.719
       245   03 Jun 2027 15:50:57.003   03 Jun 2027 15:53:02.902           125.899               Magadan1          3934.344
       246   03 Jun 2027 17:20:11.404   03 Jun 2027 17:20:55.302            43.898                Anadyr1          1371.812
       247   03 Jun 2027 17:22:06.386   03 Jun 2027 17:23:41.175            94.789               Magadan2          2962.156
       248   03 Jun 2027 17:25:42.584   03 Jun 2027 17:26:15.741            33.157                Norilsk          1036.156
       249   03 Jun 2027 17:27:11.398   03 Jun 2027 17:28:00.479            49.081                Norilsk          1533.781
       250   03 Jun 2027 17:28:08.433   03 Jun 2027 17:33:22.175           313.742                Irkutsk          9804.438
       251   03 Jun 2027 18:58:33.115   03 Jun 2027 18:58:55.644            22.529                Norilsk           704.031
       252   03 Jun 2027 19:01:41.706   03 Jun 2027 19:02:49.269            67.563                Irkutsk          2111.344
       253   03 Jun 2027 19:02:56.674   03 Jun 2027 19:10:14.919           438.245                Novosib         13695.156
       254   03 Jun 2027 19:23:24.084   03 Jun 2027 19:24:56.107            92.023                Sumatra          2875.719
       255   03 Jun 2027 20:41:33.136   03 Jun 2027 20:41:50.730            17.594                Novosib           549.812
       256   03 Jun 2027 20:42:07.249   03 Jun 2027 20:42:50.981            43.732                Novosib          1366.625
       257   03 Jun 2027 20:45:02.170   03 Jun 2027 20:46:53.618           111.448                  Delhi          3482.750
       258   03 Jun 2027 20:47:36.888   03 Jun 2027 20:48:45.463            68.575                  Delhi          2142.969
       259   03 Jun 2027 20:55:26.083   03 Jun 2027 20:56:13.884            47.801                  Delhi          1493.781
       260   03 Jun 2027 22:11:54.262   03 Jun 2027 22:13:34.362           100.100              Murmansk1          3128.125
       261   03 Jun 2027 22:14:14.262   03 Jun 2027 22:17:28.645           194.383              Murmansk2          6074.469
       262   03 Jun 2027 22:19:01.947   03 Jun 2027 22:22:39.469           217.522                 Moscow          6797.563
       263   03 Jun 2027 22:44:27.336   03 Jun 2027 22:48:43.129           255.793               CapeTown          7993.531
       264   04 Jun 2027 00:15:02.179   04 Jun 2027 00:17:40.240           158.061               CapeTown          4939.406
       265   04 Jun 2027 01:18:36.145   04 Jun 2027 01:18:56.030            19.885               Magadan2           621.406
       266   04 Jun 2027 01:23:29.880   04 Jun 2027 01:24:03.645            33.765               Magadan2          1055.156
       267   04 Jun 2027 01:24:30.282   04 Jun 2027 01:25:55.888            85.606              Murmansk2          2675.188
       268   04 Jun 2027 01:26:59.671   04 Jun 2027 01:27:53.381            53.710                 Moscow          1678.438
       269   04 Jun 2027 01:29:58.031   04 Jun 2027 01:30:17.837            19.806              Murmansk2           618.938
       270   04 Jun 2027 01:31:50.823   04 Jun 2027 01:32:03.989            13.166                 Moscow           411.437
       271   04 Jun 2027 01:38:13.881   04 Jun 2027 01:38:16.037             2.156                 Moscow            67.375
       272   04 Jun 2027 01:52:27.766   04 Jun 2027 01:54:08.000           100.234               CapeTown          3132.313
       273   04 Jun 2027 02:47:22.101   04 Jun 2027 02:49:33.286           131.185               Magadan2          4099.531
       274   04 Jun 2027 02:49:51.505   04 Jun 2027 02:50:04.771            13.266               Magadan1           414.563
       275   04 Jun 2027 02:50:32.115   04 Jun 2027 02:50:57.815            25.700               Magadan1           803.125
       276   04 Jun 2027 02:51:33.247   04 Jun 2027 02:51:38.135             4.888               Magadan2           152.750
       277   04 Jun 2027 02:52:14.402   04 Jun 2027 02:52:48.777            34.375               Magadan2          1074.219
       278   04 Jun 2027 02:55:41.448   04 Jun 2027 02:56:01.089            19.641                Norilsk           613.781
       279   04 Jun 2027 02:57:45.914   04 Jun 2027 02:57:51.729             5.815                Norilsk           181.719
       280   04 Jun 2027 02:59:30.928   04 Jun 2027 03:00:16.947            46.019              Murmansk2          1438.094
       281   04 Jun 2027 03:39:31.601   04 Jun 2027 03:42:46.976           195.375            RioGallegos          6105.469
       282   04 Jun 2027 03:43:11.545   04 Jun 2027 03:43:13.738             2.193            RioGallegos            68.531
       283   04 Jun 2027 04:28:15.947   04 Jun 2027 04:30:06.048           110.101                Anadyr1          3440.656
       284   04 Jun 2027 04:30:07.208   04 Jun 2027 04:31:01.829            54.621               Magadan2          1706.906
       285   04 Jun 2027 04:31:11.700   04 Jun 2027 04:31:58.173            46.473                Anadyr1          1452.281
       286   04 Jun 2027 04:31:58.173   04 Jun 2027 04:32:36.641            38.468                Anadyr2          1202.125
       287   04 Jun 2027 04:32:45.077   04 Jun 2027 04:34:18.575            93.498               Magadan1          2921.812
       288   04 Jun 2027 04:34:30.878   04 Jun 2027 04:35:46.879            76.001                Novosib          2375.031
       289   04 Jun 2027 04:37:44.606   04 Jun 2027 04:38:01.235            16.629                Norilsk           519.656
       290   04 Jun 2027 05:11:15.444   04 Jun 2027 05:13:08.990           113.546            RioGallegos          3548.313
       291   04 Jun 2027 05:13:37.730   04 Jun 2027 05:14:04.423            26.693            RioGallegos           834.156
       292   04 Jun 2027 05:50:27.000   04 Jun 2027 05:51:06.216            39.216                Sumatra          1225.500
       293   04 Jun 2027 05:51:46.539   04 Jun 2027 05:54:05.139           138.600                Sumatra          4331.250
       294   04 Jun 2027 06:05:43.517   04 Jun 2027 06:06:02.722            19.205                Novosib           600.156
       295   04 Jun 2027 06:06:39.971   04 Jun 2027 06:08:24.240           104.269                Irkutsk          3258.406
       296   04 Jun 2027 06:08:30.081   04 Jun 2027 06:09:45.711            75.630                Norilsk          2363.438
       297   04 Jun 2027 06:10:05.029   04 Jun 2027 06:12:33.370           148.341              Murmansk2          4635.656
       298   04 Jun 2027 06:12:33.370   04 Jun 2027 06:12:49.142            15.772              Murmansk1           492.875
       299   04 Jun 2027 06:16:20.587   04 Jun 2027 06:16:58.393            37.806              Murmansk1          1181.438
       300   04 Jun 2027 06:18:13.000   04 Jun 2027 06:18:16.829             3.829              Murmansk2           119.656
       301   04 Jun 2027 06:19:34.206   04 Jun 2027 06:19:43.742             9.536              Murmansk2           298.000
       302   04 Jun 2027 06:46:39.149   04 Jun 2027 06:47:44.170            65.021            RioGallegos          2031.906
       303   04 Jun 2027 06:49:40.260   04 Jun 2027 06:50:48.998            68.738            RioGallegos          2148.063
       304   04 Jun 2027 07:21:21.418   04 Jun 2027 07:22:33.159            71.741                Sumatra          2241.906
       305   04 Jun 2027 07:23:47.469   04 Jun 2027 07:24:05.896            18.427                Sumatra           575.844
       306   04 Jun 2027 07:26:41.250   04 Jun 2027 07:26:58.375            17.125                Sumatra           535.156
       307   04 Jun 2027 07:29:32.693   04 Jun 2027 07:30:54.446            81.753                Sumatra          2554.781
       308   04 Jun 2027 07:31:39.308   04 Jun 2027 07:34:01.516           142.208                  Delhi          4444.000
       309   04 Jun 2027 07:43:16.613   04 Jun 2027 07:44:46.080            89.467                Irkutsk          2795.844
       310   04 Jun 2027 07:45:00.811   04 Jun 2027 07:45:24.255            23.444                 Moscow           732.625
       311   04 Jun 2027 07:45:28.090   04 Jun 2027 07:46:01.513            33.423              Murmansk2          1044.469
       312   04 Jun 2027 07:46:01.585   04 Jun 2027 07:46:40.273            38.688                Novosib          1209.000
       313   04 Jun 2027 07:47:04.079   04 Jun 2027 07:47:15.583            11.504                Novosib           359.500
       314   04 Jun 2027 07:47:35.581   04 Jun 2027 07:48:47.364            71.783                Norilsk          2243.219
       315   04 Jun 2027 07:48:48.150   04 Jun 2027 07:49:19.516            31.366                Novosib           980.187
       316   04 Jun 2027 08:26:40.113   04 Jun 2027 08:27:48.093            67.980            RioGallegos          2124.375
       317   04 Jun 2027 08:28:18.345   04 Jun 2027 08:28:35.881            17.536            RioGallegos           548.000
       318   04 Jun 2027 09:05:38.757   04 Jun 2027 09:08:15.560           156.803                  Delhi          4900.094
       319   04 Jun 2027 09:19:35.497   04 Jun 2027 09:19:55.793            20.296                 Moscow           634.250
       320   04 Jun 2027 09:19:58.844   04 Jun 2027 09:20:21.743            22.899              Murmansk2           715.594
       321   04 Jun 2027 09:20:35.661   04 Jun 2027 09:21:31.294            55.633              Murmansk1          1738.531
       322   04 Jun 2027 09:21:42.578   04 Jun 2027 09:21:59.775            17.197                Norilsk           537.406
       323   04 Jun 2027 09:22:01.602   04 Jun 2027 09:22:13.793            12.191              Murmansk2           380.969
       324   04 Jun 2027 09:22:13.793   04 Jun 2027 09:22:16.237             2.444              Murmansk1            76.375
       325   04 Jun 2027 09:22:17.283   04 Jun 2027 09:22:25.116             7.833                Novosib           244.781
       326   04 Jun 2027 09:22:32.930   04 Jun 2027 09:22:42.396             9.466                Norilsk           295.812
       327   04 Jun 2027 09:22:58.414   04 Jun 2027 09:23:15.099            16.685              Murmansk1           521.406
       328   04 Jun 2027 09:23:15.099   04 Jun 2027 09:23:41.306            26.207              Murmansk2           818.969
       329   04 Jun 2027 10:49:57.834   04 Jun 2027 10:49:58.248             0.414                 Moscow            12.937
       330   04 Jun 2027 10:53:23.802   04 Jun 2027 10:53:23.910             0.108              Murmansk1             3.375
       331   04 Jun 2027 10:53:23.910   04 Jun 2027 10:53:30.256             6.346              Murmansk2           198.313
       332   04 Jun 2027 10:53:51.045   04 Jun 2027 10:53:52.552             1.507              Murmansk2            47.094
       333   04 Jun 2027 10:54:13.628   04 Jun 2027 10:54:30.541            16.913                 Moscow           528.531
       334   04 Jun 2027 10:54:42.894   04 Jun 2027 10:55:12.749            29.855              Murmansk1           932.969
       335   04 Jun 2027 10:55:24.751   04 Jun 2027 10:56:04.435            39.684                 Moscow          1240.125
       336   04 Jun 2027 10:56:07.170   04 Jun 2027 10:56:42.589            35.419              Murmansk2          1106.844
       337   04 Jun 2027 10:56:44.724   04 Jun 2027 10:56:54.285             9.561              Murmansk2           298.781
       338   04 Jun 2027 10:57:11.803   04 Jun 2027 10:57:52.721            40.918              Murmansk1          1278.687
       339   04 Jun 2027 10:58:00.304   04 Jun 2027 10:58:42.250            41.946              Murmansk1          1310.812
       340   04 Jun 2027 10:58:56.419   04 Jun 2027 11:00:00.223            63.804              Murmansk1          1993.875
       341   04 Jun 2027 12:04:38.098   04 Jun 2027 12:11:31.507           413.409               CapeTown         12919.031
       342   04 Jun 2027 12:44:30.378   04 Jun 2027 12:53:52.399           562.021                Anadyr2         17563.156
       343   04 Jun 2027 14:20:01.478   04 Jun 2027 14:20:57.654            56.176                Anadyr2          1755.500
       344   04 Jun 2027 14:23:30.629   04 Jun 2027 14:30:14.430           403.801               Magadan2         12618.781
       345   04 Jun 2027 14:31:00.031   04 Jun 2027 14:31:03.640             3.609               Magadan1           112.781
       346   04 Jun 2027 15:58:17.992   04 Jun 2027 15:59:41.568            83.576               Magadan1          2611.750
       347   04 Jun 2027 16:02:22.569   04 Jun 2027 16:02:37.043            14.474               Magadan2           452.312
       348   04 Jun 2027 17:31:46.689   04 Jun 2027 17:32:34.984            48.295                Anadyr2          1509.219
       349   04 Jun 2027 17:32:42.929   04 Jun 2027 17:33:31.443            48.514                Anadyr1          1516.063
       350   04 Jun 2027 17:34:03.744   04 Jun 2027 17:34:40.073            36.329                Norilsk          1135.281
       351   04 Jun 2027 17:35:19.199   04 Jun 2027 17:37:18.909           119.710               Magadan1          3740.937
       352   04 Jun 2027 17:38:14.235   04 Jun 2027 17:39:32.645            78.410                Norilsk          2450.313
       353   04 Jun 2027 17:40:01.894   04 Jun 2027 17:46:34.768           392.874                Irkutsk         12277.312
       354   04 Jun 2027 17:55:22.965   04 Jun 2027 18:01:05.531           342.566                Sumatra         10705.187
       355   04 Jun 2027 19:15:34.892   04 Jun 2027 19:20:59.313           324.421                Novosib         10138.156
       356   04 Jun 2027 20:49:10.208   04 Jun 2027 20:52:33.275           203.067              Murmansk1          6345.844
       357   04 Jun 2027 22:23:53.422   04 Jun 2027 22:25:24.329            90.907              Murmansk1          2840.844
       358   04 Jun 2027 22:25:34.256   04 Jun 2027 22:29:51.621           257.365              Murmansk2          8042.656
       359   04 Jun 2027 22:30:36.251   04 Jun 2027 22:35:50.230           313.979                 Moscow          9811.844
       360   04 Jun 2027 22:54:59.955   04 Jun 2027 23:01:45.707           405.752               CapeTown         12679.750
       361   05 Jun 2027 01:39:30.300   05 Jun 2027 01:39:49.261            18.961                 Moscow           592.531
       362   05 Jun 2027 01:48:32.766   05 Jun 2027 01:48:41.726             8.960                 Moscow           280.000
       363   05 Jun 2027 01:48:49.038   05 Jun 2027 01:49:41.363            52.325                 Moscow          1635.156
       364   05 Jun 2027 02:05:16.288   05 Jun 2027 02:05:50.929            34.641               CapeTown          1082.531
       365   05 Jun 2027 02:59:18.119   05 Jun 2027 03:00:21.028            62.909               Magadan1          1965.906
       366   05 Jun 2027 03:00:21.028   05 Jun 2027 03:01:06.052            45.024               Magadan2          1407.000
       367   05 Jun 2027 03:02:58.319   05 Jun 2027 03:03:18.603            20.284               Magadan2           633.875
       368   05 Jun 2027 03:03:35.903   05 Jun 2027 03:04:24.757            48.854               Magadan2          1526.687
       369   05 Jun 2027 03:04:24.757   05 Jun 2027 03:04:36.857            12.100               Magadan1           378.125
       370   05 Jun 2027 03:04:36.959   05 Jun 2027 03:04:44.184             7.225               Magadan1           225.781
       371   05 Jun 2027 03:04:44.184   05 Jun 2027 03:05:00.694            16.510               Magadan2           515.938
       372   05 Jun 2027 03:05:20.199   05 Jun 2027 03:05:44.474            24.275               Magadan1           758.594
       373   05 Jun 2027 03:05:47.536   05 Jun 2027 03:06:28.162            40.626                Anadyr2          1269.562
       374   05 Jun 2027 03:06:46.349   05 Jun 2027 03:07:50.284            63.935               Magadan1          1997.969
       375   05 Jun 2027 03:07:50.284   05 Jun 2027 03:08:06.141            15.857               Magadan2           495.531
       376   05 Jun 2027 03:08:06.302   05 Jun 2027 03:09:27.784            81.482                Anadyr1          2546.312
       377   05 Jun 2027 03:09:27.784   05 Jun 2027 03:10:28.975            61.191                Anadyr2          1912.219
       378   05 Jun 2027 03:11:57.799   05 Jun 2027 03:12:09.816            12.017               Magadan2           375.531
       379   05 Jun 2027 04:39:38.468   05 Jun 2027 04:40:48.069            69.601               Magadan1          2175.031
       380   05 Jun 2027 04:41:01.041   05 Jun 2027 04:41:06.757             5.716               Magadan2           178.625
       381   05 Jun 2027 04:41:08.818   05 Jun 2027 04:41:13.608             4.790                Anadyr2           149.687
       382   05 Jun 2027 04:41:13.608   05 Jun 2027 04:43:17.641           124.033                Anadyr1          3876.031
       383   05 Jun 2027 04:43:36.791   05 Jun 2027 04:43:53.799            17.008                Novosib           531.500
       384   05 Jun 2027 04:44:03.852   05 Jun 2027 04:46:52.583           168.731                Irkutsk          5272.844
       385   05 Jun 2027 04:47:07.308   05 Jun 2027 04:47:13.472             6.164                Anadyr1           192.625
       386   05 Jun 2027 04:47:25.751   05 Jun 2027 04:47:53.482            27.731               Magadan1           866.594
       387   05 Jun 2027 04:48:13.357   05 Jun 2027 04:48:42.838            29.481                Norilsk           921.281
       388   05 Jun 2027 05:23:01.484   05 Jun 2027 05:25:08.955           127.471            RioGallegos          3983.469
       389   05 Jun 2027 05:25:42.976   05 Jun 2027 05:26:58.240            75.264            RioGallegos          2352.000
       390   05 Jun 2027 06:00:39.443   05 Jun 2027 06:02:38.124           118.681                Sumatra          3708.781
       391   05 Jun 2027 06:04:17.832   05 Jun 2027 06:06:23.713           125.881                Sumatra          3933.781
       392   05 Jun 2027 06:17:56.439   05 Jun 2027 06:18:48.539            52.100               Magadan1          1628.125
       393   05 Jun 2027 06:18:48.539   05 Jun 2027 06:18:55.159             6.620               Magadan2           206.875
       394   05 Jun 2027 06:19:01.809   05 Jun 2027 06:19:33.331            31.522               Magadan2           985.063
       395   05 Jun 2027 06:19:48.240   05 Jun 2027 06:20:30.197            41.957                Novosib          1311.156
       396   05 Jun 2027 06:20:31.979   05 Jun 2027 06:22:54.951           142.972                Norilsk          4467.875
       397   05 Jun 2027 06:23:01.559   05 Jun 2027 06:23:36.725            35.166                Irkutsk          1098.938
       398   05 Jun 2027 06:23:55.002   05 Jun 2027 06:24:35.431            40.429              Murmansk2          1263.406
       399   05 Jun 2027 06:58:51.878   05 Jun 2027 06:59:38.781            46.903            RioGallegos          1465.719
       400   05 Jun 2027 07:33:23.894   05 Jun 2027 07:35:32.063           128.169                Sumatra          4005.281
       401   05 Jun 2027 07:43:03.487   05 Jun 2027 07:46:16.642           193.155                  Delhi          6036.094
       402   05 Jun 2027 07:48:18.325   05 Jun 2027 07:49:09.288            50.963                  Delhi          1592.594
       403   05 Jun 2027 07:53:44.081   05 Jun 2027 07:53:51.418             7.337                  Delhi           229.281
       404   05 Jun 2027 07:55:06.106   05 Jun 2027 07:56:09.669            63.563                Norilsk          1986.344
       405   05 Jun 2027 07:56:22.086   05 Jun 2027 07:56:49.598            27.512                Irkutsk           859.750
       406   05 Jun 2027 07:56:59.394   05 Jun 2027 07:57:43.443            44.049                Norilsk          1376.531
       407   05 Jun 2027 07:57:45.761   05 Jun 2027 07:59:01.928            76.167              Murmansk1          2380.219
       408   05 Jun 2027 07:59:01.928   05 Jun 2027 07:59:49.332            47.404              Murmansk2          1481.375
       409   05 Jun 2027 08:01:28.253   05 Jun 2027 08:01:36.973             8.720                 Moscow           272.500
       410   05 Jun 2027 08:41:04.764   05 Jun 2027 08:41:35.348            30.584            RioGallegos           955.750
       411   05 Jun 2027 09:17:50.990   05 Jun 2027 09:19:02.615            71.625                  Delhi          2238.281
       412   05 Jun 2027 09:20:34.750   05 Jun 2027 09:21:42.881            68.131                  Delhi          2129.094
       413   05 Jun 2027 09:30:55.360   05 Jun 2027 09:32:06.831            71.471                 Moscow          2233.469
       414   05 Jun 2027 09:32:14.764   05 Jun 2027 09:32:15.316             0.552                Norilsk            17.250
       415   05 Jun 2027 09:32:28.654   05 Jun 2027 09:33:37.417            68.763              Murmansk1          2148.844
       416   05 Jun 2027 09:33:39.547   05 Jun 2027 09:35:33.700           114.153                 Moscow          3567.281
       417   05 Jun 2027 11:05:36.624   05 Jun 2027 11:05:42.301             5.677              Murmansk1           177.406
       418   05 Jun 2027 11:05:42.301   05 Jun 2027 11:05:50.991             8.690              Murmansk2           271.563
       419   05 Jun 2027 11:06:17.701   05 Jun 2027 11:06:40.925            23.224                 Moscow           725.750
       420   05 Jun 2027 11:07:22.547   05 Jun 2027 11:07:31.574             9.027                 Moscow           282.094
       421   05 Jun 2027 11:07:41.590   05 Jun 2027 11:07:53.231            11.641              Murmansk1           363.781
       422   05 Jun 2027 11:08:00.365   05 Jun 2027 11:08:11.102            10.737              Murmansk2           335.531
       423   05 Jun 2027 11:08:28.030   05 Jun 2027 11:08:42.477            14.447                 Moscow           451.469
       424   05 Jun 2027 11:08:45.316   05 Jun 2027 11:08:46.249             0.933              Murmansk2            29.156
       425   05 Jun 2027 11:08:46.249   05 Jun 2027 11:09:53.440            67.191              Murmansk1          2099.719
       426   05 Jun 2027 11:09:56.173   05 Jun 2027 11:10:11.137            14.964              Murmansk1           467.625
       427   05 Jun 2027 11:10:34.043   05 Jun 2027 11:11:32.428            58.385                 Moscow          1824.531
       428   05 Jun 2027 12:16:16.228   05 Jun 2027 12:19:51.351           215.123               CapeTown          6722.594
       429   05 Jun 2027 12:20:49.384   05 Jun 2027 12:22:41.343           111.959               CapeTown          3498.719
       430   05 Jun 2027 12:42:44.417   05 Jun 2027 12:43:26.039            41.622              Murmansk2          1300.688
       431   05 Jun 2027 12:56:25.342   05 Jun 2027 13:02:17.587           352.245                Anadyr2         11007.656
       432   05 Jun 2027 13:03:42.767   05 Jun 2027 13:05:56.864           134.097                Anadyr2          4190.531
       433   05 Jun 2027 14:32:02.088   05 Jun 2027 14:33:16.878            74.790                Anadyr2          2337.187
       434   05 Jun 2027 14:35:00.843   05 Jun 2027 14:35:53.859            53.016                Anadyr1          1656.750
       435   05 Jun 2027 14:36:02.550   05 Jun 2027 14:41:25.622           323.072               Magadan1         10096.000
       436   05 Jun 2027 14:41:26.063   05 Jun 2027 14:43:50.860           144.797               Magadan2          4524.906
       437   05 Jun 2027 16:10:16.942   05 Jun 2027 16:11:26.004            69.062               Magadan2          2158.187
       438   05 Jun 2027 16:14:15.076   05 Jun 2027 16:14:30.610            15.534               Magadan2           485.437
       439   05 Jun 2027 17:04:28.753   05 Jun 2027 17:09:19.840           291.087            RioGallegos          9096.469
       440   05 Jun 2027 17:46:52.409   05 Jun 2027 17:47:34.318            41.909                Norilsk          1309.656
       441   05 Jun 2027 17:50:59.090   05 Jun 2027 17:57:49.223           410.133                Irkutsk         12816.656
       442   05 Jun 2027 18:06:05.664   05 Jun 2027 18:14:16.383           490.719                Sumatra         15334.969
       443   05 Jun 2027 19:29:20.671   05 Jun 2027 19:34:20.098           299.427                Novosib          9357.094
       444   05 Jun 2027 19:36:47.438   05 Jun 2027 19:41:16.465           269.027                  Delhi          8407.094
       445   05 Jun 2027 21:00:46.031   05 Jun 2027 21:05:40.158           294.127              Murmansk1          9191.469
       446   05 Jun 2027 22:38:32.084   05 Jun 2027 22:41:15.576           163.492              Murmansk1          5109.125
       447   05 Jun 2027 22:43:41.820   05 Jun 2027 22:43:47.426             5.606                 Moscow           175.188
       448   05 Jun 2027 22:45:58.408   05 Jun 2027 22:47:53.461           115.053                 Moscow          3595.406
       449   05 Jun 2027 23:05:59.886   05 Jun 2027 23:14:24.032           504.146               CapeTown         15754.563
       450   06 Jun 2027 03:18:13.501   06 Jun 2027 03:18:48.578            35.077               Magadan1          1096.156
       451   06 Jun 2027 03:18:52.907   06 Jun 2027 03:18:58.252             5.345                Anadyr2           167.031
       452   06 Jun 2027 03:18:58.252   06 Jun 2027 03:19:58.363            60.111                Anadyr1          1878.469
       453   06 Jun 2027 03:20:03.320   06 Jun 2027 03:20:08.711             5.391                Anadyr2           168.469
       454   06 Jun 2027 03:20:49.935   06 Jun 2027 03:21:29.676            39.741               Magadan2          1241.906
       455   06 Jun 2027 03:21:29.676   06 Jun 2027 03:24:11.206           161.530               Magadan1          5047.813
       456   06 Jun 2027 04:02:05.230   06 Jun 2027 04:02:41.556            36.326            RioGallegos          1135.188
       457   06 Jun 2027 04:53:00.989   06 Jun 2027 04:54:28.290            87.301                Norilsk          2728.156
       458   06 Jun 2027 04:54:34.670   06 Jun 2027 04:58:26.378           231.708                Irkutsk          7240.875
       459   06 Jun 2027 04:58:48.566   06 Jun 2027 04:59:50.051            61.485               Magadan2          1921.406
       460   06 Jun 2027 05:00:54.483   06 Jun 2027 05:01:22.006            27.523                Norilsk           860.094
       461   06 Jun 2027 05:02:28.068   06 Jun 2027 05:02:47.009            18.941                Norilsk           591.906
       462   06 Jun 2027 05:04:15.761   06 Jun 2027 05:04:36.313            20.552                Norilsk           642.250
       463   06 Jun 2027 05:34:50.696   06 Jun 2027 05:36:36.350           105.654            RioGallegos          3301.687
       464   06 Jun 2027 05:37:07.850   06 Jun 2027 05:38:26.993            79.143            RioGallegos          2473.219
       465   06 Jun 2027 05:42:15.930   06 Jun 2027 05:42:56.789            40.859            RioGallegos          1276.844
       466   06 Jun 2027 06:11:38.108   06 Jun 2027 06:14:18.204           160.096                Sumatra          5003.000
       467   06 Jun 2027 06:16:01.405   06 Jun 2027 06:16:40.201            38.796                Sumatra          1212.375
       468   06 Jun 2027 06:30:40.103   06 Jun 2027 06:34:08.683           208.580                Irkutsk          6518.125
       469   06 Jun 2027 06:34:31.048   06 Jun 2027 06:35:53.644            82.596                Irkutsk          2581.125
       470   06 Jun 2027 06:35:58.864   06 Jun 2027 06:36:22.102            23.238                Novosib           726.188
       471   06 Jun 2027 06:36:24.620   06 Jun 2027 06:37:14.016            49.396              Murmansk2          1543.625
       472   06 Jun 2027 06:37:14.016   06 Jun 2027 06:37:47.527            33.511              Murmansk1          1047.219
       473   06 Jun 2027 07:11:08.641   06 Jun 2027 07:11:36.606            27.965            RioGallegos           873.906
       474   06 Jun 2027 07:15:07.598   06 Jun 2027 07:15:56.833            49.235            RioGallegos          1538.594
       475   06 Jun 2027 07:45:32.107   06 Jun 2027 07:47:07.665            95.558                Sumatra          2986.188
       476   06 Jun 2027 07:54:35.681   06 Jun 2027 07:57:08.130           152.449                  Delhi          4764.031
       477   06 Jun 2027 08:06:46.588   06 Jun 2027 08:06:52.380             5.792                Irkutsk           181.000
       478   06 Jun 2027 08:06:54.602   06 Jun 2027 08:07:23.360            28.758                Novosib           898.688
       479   06 Jun 2027 08:07:52.765   06 Jun 2027 08:08:23.856            31.091                Irkutsk           971.594
       480   06 Jun 2027 08:08:40.704   06 Jun 2027 08:09:16.691            35.987              Murmansk1          1124.594
       481   06 Jun 2027 08:09:16.691   06 Jun 2027 08:09:41.653            24.962              Murmansk2           780.062
       482   06 Jun 2027 08:09:43.241   06 Jun 2027 08:10:55.071            71.830              Murmansk2          2244.688
