uniorb/output/strategy_1/Drop/Drop_KinoSat_111705.txt

KinoSat_111705
-------------------------
    Access    *     Start Time (UTCG)     *     Stop Time (UTCG)  *   Duration (s)        *       Station  *  Data (Mbytes)
         1   01 Jun 2027 03:10:34.036   01 Jun 2027 03:11:18.661            44.625              Murmansk1          1394.531
         2   01 Jun 2027 03:11:22.595   01 Jun 2027 03:11:58.720            36.125              Murmansk1          1128.906
         3   01 Jun 2027 03:12:02.781   01 Jun 2027 03:14:08.060           125.279                Novosib          3914.969
         4   01 Jun 2027 03:14:25.796   01 Jun 2027 03:15:21.896            56.100                Novosib          1753.125
         5   01 Jun 2027 03:16:18.133   01 Jun 2027 03:16:54.183            36.050                  Delhi          1126.562
         6   01 Jun 2027 03:18:35.848   01 Jun 2027 03:18:42.236             6.388                Novosib           199.625
         7   01 Jun 2027 03:20:03.806   01 Jun 2027 03:20:50.098            46.292                  Delhi          1446.625
         8   01 Jun 2027 04:49:45.213   01 Jun 2027 04:50:30.644            45.431                Novosib          1419.719
         9   01 Jun 2027 04:50:40.111   01 Jun 2027 04:54:11.507           211.396              Murmansk1          6606.125
        10   01 Jun 2027 04:54:20.563   01 Jun 2027 04:55:02.198            41.635              Murmansk1          1301.094
        11   01 Jun 2027 04:55:22.892   01 Jun 2027 04:57:32.891           129.999                 Moscow          4062.469
        12   01 Jun 2027 05:10:03.241   01 Jun 2027 05:10:35.853            32.612               CapeTown          1019.125
        13   01 Jun 2027 05:10:53.422   01 Jun 2027 05:11:57.106            63.684               CapeTown          1990.125
        14   01 Jun 2027 06:13:58.128   01 Jun 2027 06:14:32.247            34.119               Magadan2          1066.219
        15   01 Jun 2027 06:14:58.854   01 Jun 2027 06:16:49.682           110.828               Magadan1          3463.375
        16   01 Jun 2027 06:17:00.072   01 Jun 2027 06:17:48.633            48.561               Magadan1          1517.531
        17   01 Jun 2027 06:18:54.318   01 Jun 2027 06:18:58.770             4.452               Magadan2           139.125
        18   01 Jun 2027 06:25:28.257   01 Jun 2027 06:29:12.255           223.998              Murmansk1          6999.937
        19   01 Jun 2027 07:49:28.354   01 Jun 2027 07:51:35.482           127.128                Anadyr2          3972.750
        20   01 Jun 2027 07:51:52.422   01 Jun 2027 07:53:45.997           113.575               Magadan2          3549.219
        21   01 Jun 2027 07:54:12.671   01 Jun 2027 07:55:21.117            68.446                Anadyr1          2138.938
        22   01 Jun 2027 09:22:55.620   01 Jun 2027 09:23:30.517            34.897                Anadyr1          1090.531
        23   01 Jun 2027 09:24:07.433   01 Jun 2027 09:25:05.410            57.977               Magadan2          1811.781
        24   01 Jun 2027 09:25:26.894   01 Jun 2027 09:28:52.152           205.258                Anadyr1          6414.313
        25   01 Jun 2027 09:29:02.093   01 Jun 2027 09:30:55.302           113.209               Magadan1          3537.781
        26   01 Jun 2027 10:58:58.765   01 Jun 2027 11:02:59.464           240.699               Magadan2          7521.844
        27   01 Jun 2027 11:04:47.770   01 Jun 2027 11:05:25.908            38.138               Magadan2          1191.812
        28   01 Jun 2027 11:05:51.463   01 Jun 2027 11:06:45.670            54.207                Irkutsk          1693.969
        29   01 Jun 2027 12:30:25.403   01 Jun 2027 12:31:07.310            41.907                Irkutsk          1309.594
        30   01 Jun 2027 12:31:46.706   01 Jun 2027 12:32:58.536            71.830                Irkutsk          2244.687
        31   01 Jun 2027 12:34:51.163   01 Jun 2027 12:35:51.976            60.813                Norilsk          1900.406
        32   01 Jun 2027 13:21:14.259   01 Jun 2027 13:22:11.033            56.774            RioGallegos          1774.187
        33   01 Jun 2027 13:28:03.402   01 Jun 2027 13:28:22.389            18.987            RioGallegos           593.344
        34   01 Jun 2027 13:56:51.180   01 Jun 2027 13:59:27.447           156.267                Sumatra          4883.344
        35   01 Jun 2027 14:08:15.772   01 Jun 2027 14:09:19.793            64.021                Novosib          2000.656
        36   01 Jun 2027 14:10:23.418   01 Jun 2027 14:12:32.284           128.866                Novosib          4027.062
        37   01 Jun 2027 14:12:46.663   01 Jun 2027 14:14:45.954           119.291                Irkutsk          3727.844
        38   01 Jun 2027 15:44:56.277   01 Jun 2027 15:45:57.093            60.816                 Moscow          1900.500
        39   01 Jun 2027 15:48:20.810   01 Jun 2027 15:49:38.609            77.799              Murmansk1          2431.219
        40   01 Jun 2027 15:52:02.114   01 Jun 2027 15:53:18.500            76.386                Norilsk          2387.063
        41   01 Jun 2027 15:54:31.569   01 Jun 2027 15:55:44.864            73.295                Norilsk          2290.469
        42   01 Jun 2027 15:56:30.283   01 Jun 2027 15:57:35.301            65.018                Norilsk          2031.813
        43   01 Jun 2027 16:59:42.577   01 Jun 2027 17:00:04.923            22.346               CapeTown           698.313
        44   01 Jun 2027 17:02:39.412   01 Jun 2027 17:02:46.683             7.271               CapeTown           227.219
        45   01 Jun 2027 17:22:05.041   01 Jun 2027 17:22:57.215            52.174                 Moscow          1630.437
        46   01 Jun 2027 17:23:41.515   01 Jun 2027 17:27:01.131           199.616                 Moscow          6238.000
        47   01 Jun 2027 17:29:16.703   01 Jun 2027 17:29:38.787            22.084              Murmansk1           690.125
        48   01 Jun 2027 17:31:45.169   01 Jun 2027 17:32:00.991            15.822                 Moscow           494.438
        49   01 Jun 2027 17:32:54.919   01 Jun 2027 17:33:28.322            33.403              Murmansk2          1043.844
        50   01 Jun 2027 17:40:08.513   01 Jun 2027 17:40:44.471            35.958                Anadyr1          1123.687
        51   01 Jun 2027 18:34:23.016   01 Jun 2027 18:36:28.110           125.094               CapeTown          3909.187
        52   01 Jun 2027 18:37:29.300   01 Jun 2027 18:37:37.424             8.124               CapeTown           253.875
        53   01 Jun 2027 19:04:27.857   01 Jun 2027 19:05:14.311            46.454              Murmansk2          1451.688
        54   01 Jun 2027 19:05:33.061   01 Jun 2027 19:11:13.961           340.900              Murmansk1         10653.125
        55   01 Jun 2027 19:22:48.127   01 Jun 2027 19:23:08.423            20.296               Magadan1           634.250
        56   01 Jun 2027 20:13:35.692   01 Jun 2027 20:14:13.615            37.923               CapeTown          1185.094
        57   01 Jun 2027 20:14:39.250   01 Jun 2027 20:15:46.371            67.121               CapeTown          2097.531
        58   01 Jun 2027 20:50:53.515   01 Jun 2027 20:54:04.390           190.875                Anadyr2          5964.844
        59   01 Jun 2027 20:54:20.256   01 Jun 2027 20:54:48.787            28.531               Magadan1           891.594
        60   01 Jun 2027 20:55:30.941   01 Jun 2027 20:56:09.568            38.627               Magadan2          1207.094
        61   01 Jun 2027 20:56:38.642   01 Jun 2027 20:57:23.687            45.045               Magadan2          1407.656
        62   01 Jun 2027 22:26:46.070   01 Jun 2027 22:28:45.497           119.427                Anadyr2          3732.094
        63   01 Jun 2027 22:28:55.322   01 Jun 2027 22:30:27.253            91.931                Anadyr1          2872.844
        64   01 Jun 2027 22:30:31.898   01 Jun 2027 22:32:10.910            99.012                Norilsk          3094.125
        65   01 Jun 2027 22:32:18.068   01 Jun 2027 22:33:05.348            47.280               Magadan1          1477.500
        66   01 Jun 2027 22:34:17.056   01 Jun 2027 22:34:59.272            42.216               Magadan2          1319.250
        67   01 Jun 2027 22:35:26.363   01 Jun 2027 22:36:41.199            74.836                Irkutsk          2338.625
        68   01 Jun 2027 22:39:18.655   01 Jun 2027 22:39:56.665            38.010                Irkutsk          1187.812
        69   01 Jun 2027 22:50:56.538   01 Jun 2027 22:51:49.452            52.914                Sumatra          1653.563
        70   01 Jun 2027 22:54:26.964   01 Jun 2027 22:54:56.860            29.896                Sumatra           934.250
        71   01 Jun 2027 23:20:52.587   01 Jun 2027 23:21:14.921            22.334            RioGallegos           697.937
        72   01 Jun 2027 23:29:03.114   01 Jun 2027 23:29:59.917            56.803            RioGallegos          1775.094
        73   02 Jun 2027 00:02:12.454   02 Jun 2027 00:03:41.370            88.916                Anadyr1          2778.625
        74   02 Jun 2027 00:04:09.171   02 Jun 2027 00:05:01.888            52.717                Anadyr2          1647.406
        75   02 Jun 2027 00:05:12.226   02 Jun 2027 00:06:05.282            53.056               Magadan1          1658.000
        76   02 Jun 2027 00:06:36.611   02 Jun 2027 00:06:47.619            11.008               Magadan2           344.000
        77   02 Jun 2027 00:08:09.761   02 Jun 2027 00:09:01.553            51.792               Magadan2          1618.500
        78   02 Jun 2027 00:09:36.992   02 Jun 2027 00:11:23.965           106.973                Novosib          3342.906
        79   02 Jun 2027 00:11:58.184   02 Jun 2027 00:12:42.680            44.496                Novosib          1390.500
        80   02 Jun 2027 00:14:07.329   02 Jun 2027 00:14:39.159            31.830                Novosib           994.687
        81   02 Jun 2027 00:22:19.428   02 Jun 2027 00:22:58.790            39.362                Sumatra          1230.062
        82   02 Jun 2027 00:30:58.575   02 Jun 2027 00:31:48.862            50.287                Sumatra          1571.469
        83   02 Jun 2027 00:56:33.456   02 Jun 2027 00:57:32.827            59.371            RioGallegos          1855.344
        84   02 Jun 2027 01:36:35.451   02 Jun 2027 01:37:31.358            55.907                Anadyr2          1747.094
        85   02 Jun 2027 01:38:07.876   02 Jun 2027 01:38:42.675            34.799                Anadyr2          1087.469
        86   02 Jun 2027 01:38:42.675   02 Jun 2027 01:38:50.753             8.078                Anadyr1           252.438
        87   02 Jun 2027 01:40:36.645   02 Jun 2027 01:42:18.663           102.018                Norilsk          3188.063
        88   02 Jun 2027 01:42:31.423   02 Jun 2027 01:42:53.741            22.318               Magadan1           697.437
        89   02 Jun 2027 01:44:08.416   02 Jun 2027 01:45:30.542            82.126              Murmansk1          2566.437
        90   02 Jun 2027 01:45:35.887   02 Jun 2027 01:46:22.240            46.353                Irkutsk          1448.531
        91   02 Jun 2027 01:46:59.164   02 Jun 2027 01:47:04.376             5.212                Novosib           162.875
        92   02 Jun 2027 01:48:17.019   02 Jun 2027 01:49:05.499            48.480                Novosib          1515.000
        93   02 Jun 2027 01:49:40.437   02 Jun 2027 01:49:57.023            16.586                Irkutsk           518.312
        94   02 Jun 2027 01:51:53.976   02 Jun 2027 01:53:37.028           103.052                  Delhi          3220.375
        95   02 Jun 2027 02:33:18.716   02 Jun 2027 02:34:22.238            63.522            RioGallegos          1985.063
        96   02 Jun 2027 02:35:27.329   02 Jun 2027 02:35:51.965            24.636            RioGallegos           769.875
        97   02 Jun 2027 02:36:16.871   02 Jun 2027 02:37:42.713            85.842            RioGallegos          2682.563
        98   02 Jun 2027 03:23:44.882   02 Jun 2027 03:27:06.213           201.331              Murmansk2          6291.594
        99   02 Jun 2027 03:27:06.213   02 Jun 2027 03:28:23.628            77.415              Murmansk1          2419.219
       100   02 Jun 2027 03:28:41.499   02 Jun 2027 03:28:52.481            10.982                  Delhi           343.187
       101   02 Jun 2027 03:29:16.931   02 Jun 2027 03:29:41.116            24.185                  Delhi           755.781
       102   02 Jun 2027 05:01:49.471   02 Jun 2027 05:04:07.552           138.081                Norilsk          4315.031
       103   02 Jun 2027 05:04:18.591   02 Jun 2027 05:07:06.591           168.000              Murmansk1          5250.000
       104   02 Jun 2027 05:07:06.591   02 Jun 2027 05:07:14.671             8.080              Murmansk2           252.500
       105   02 Jun 2027 05:30:39.520   02 Jun 2027 05:31:13.188            33.668               CapeTown          1052.125
       106   02 Jun 2027 06:25:40.537   02 Jun 2027 06:26:54.177            73.640                Anadyr2          2301.250
       107   02 Jun 2027 06:26:57.183   02 Jun 2027 06:27:09.802            12.619               Magadan2           394.344
       108   02 Jun 2027 06:28:35.032   02 Jun 2027 06:29:24.595            49.563                Anadyr1          1548.844
       109   02 Jun 2027 06:29:42.360   02 Jun 2027 06:30:24.085            41.725               Magadan2          1303.906
       110   02 Jun 2027 06:39:50.164   02 Jun 2027 06:39:51.693             1.529              Murmansk2            47.781
       111   02 Jun 2027 06:59:56.981   02 Jun 2027 06:59:57.107             0.126               CapeTown             3.937
       112   02 Jun 2027 07:02:46.082   02 Jun 2027 07:04:41.088           115.006               CapeTown          3593.938
       113   02 Jun 2027 08:00:10.602   02 Jun 2027 08:00:12.936             2.334                Anadyr2            72.937
       114   02 Jun 2027 08:00:58.600   02 Jun 2027 08:03:36.399           157.799                Anadyr1          4931.219
       115   02 Jun 2027 08:03:36.399   02 Jun 2027 08:06:23.025           166.626                Anadyr2          5207.062
       116   02 Jun 2027 09:35:23.629   02 Jun 2027 09:40:24.061           300.432               Magadan2          9388.500
       117   02 Jun 2027 09:40:24.061   02 Jun 2027 09:42:53.695           149.634               Magadan1          4676.063
       118   02 Jun 2027 11:11:29.144   02 Jun 2027 11:15:07.864           218.720               Magadan1          6835.000
       119   02 Jun 2027 11:15:44.976   02 Jun 2027 11:17:11.482            86.506               Magadan2          2703.312
       120   02 Jun 2027 12:47:05.572   02 Jun 2027 12:48:05.359            59.787                Irkutsk          1868.344
       121   02 Jun 2027 13:34:29.555   02 Jun 2027 13:38:28.694           239.139            RioGallegos          7473.094
       122   02 Jun 2027 14:20:39.968   02 Jun 2027 14:21:28.900            48.932                Novosib          1529.125
       123   02 Jun 2027 14:22:01.534   02 Jun 2027 14:25:38.767           217.233                Novosib          6788.531
       124   02 Jun 2027 15:56:56.028   02 Jun 2027 15:59:32.794           156.766                 Moscow          4898.937
       125   02 Jun 2027 16:00:24.193   02 Jun 2027 16:01:40.786            76.593              Murmansk1          2393.531
       126   02 Jun 2027 16:01:40.786   02 Jun 2027 16:02:01.158            20.372              Murmansk2           636.625
       127   02 Jun 2027 16:04:45.863   02 Jun 2027 16:10:33.911           348.048                Norilsk         10876.500
       128   02 Jun 2027 17:34:32.896   02 Jun 2027 17:35:12.581            39.685                 Moscow          1240.156
       129   02 Jun 2027 17:37:35.880   02 Jun 2027 17:38:23.712            47.832              Murmansk2          1494.750
       130   02 Jun 2027 17:41:15.894   02 Jun 2027 17:41:38.038            22.144              Murmansk1           692.000
       131   02 Jun 2027 17:41:57.399   02 Jun 2027 17:42:27.849            30.450              Murmansk1           951.563
       132   02 Jun 2027 17:52:14.296   02 Jun 2027 17:52:44.722            30.426                Anadyr1           950.812
       133   02 Jun 2027 18:46:29.627   02 Jun 2027 18:47:39.102            69.475               CapeTown          2171.094
       134   02 Jun 2027 18:48:23.056   02 Jun 2027 18:49:21.118            58.062               CapeTown          1814.438
       135   02 Jun 2027 19:17:06.691   02 Jun 2027 19:22:37.708           331.017              Murmansk2         10344.281
       136   02 Jun 2027 19:30:47.589   02 Jun 2027 19:31:19.218            31.629               Magadan1           988.406
       137   02 Jun 2027 19:32:40.065   02 Jun 2027 19:33:19.876            39.811               Magadan2          1244.094
       138   02 Jun 2027 21:02:55.274   02 Jun 2027 21:06:01.351           186.077                Anadyr2          5814.906
       139   02 Jun 2027 21:06:14.339   02 Jun 2027 21:06:50.678            36.339               Magadan2          1135.594
       140   02 Jun 2027 21:07:04.802   02 Jun 2027 21:07:21.456            16.654                Anadyr2           520.437
       141   02 Jun 2027 21:07:24.944   02 Jun 2027 21:10:05.591           160.647               Magadan1          5020.219
       142   02 Jun 2027 21:10:44.228   02 Jun 2027 21:11:06.173            21.945               Magadan1           685.781
       143   02 Jun 2027 21:14:08.028   02 Jun 2027 21:15:23.495            75.467               Magadan2          2358.344
       144   02 Jun 2027 21:59:41.988   02 Jun 2027 22:01:10.097            88.109            RioGallegos          2753.406
       145   02 Jun 2027 22:38:46.077   02 Jun 2027 22:40:01.714            75.637                Anadyr1          2363.656
       146   02 Jun 2027 22:40:09.205   02 Jun 2027 22:40:46.848            37.643                Anadyr2          1176.344
       147   02 Jun 2027 22:40:54.397   02 Jun 2027 22:42:33.730            99.333                Norilsk          3104.156
       148   02 Jun 2027 22:42:36.399   02 Jun 2027 22:44:22.352           105.953               Magadan1          3311.031
       149   02 Jun 2027 22:45:50.722   02 Jun 2027 22:46:08.289            17.567                Norilsk           548.969
       150   02 Jun 2027 22:46:48.952   02 Jun 2027 22:47:24.891            35.939                Irkutsk          1123.094
       151   02 Jun 2027 22:48:34.729   02 Jun 2027 22:49:04.034            29.305                Irkutsk           915.781
       152   02 Jun 2027 22:51:14.529   02 Jun 2027 22:52:25.706            71.177                Irkutsk          2224.281
       153   02 Jun 2027 23:01:22.988   02 Jun 2027 23:03:17.766           114.778                Sumatra          3586.813
       154   02 Jun 2027 23:08:25.315   02 Jun 2027 23:08:52.230            26.915                Sumatra           841.094
       155   03 Jun 2027 00:14:06.671   03 Jun 2027 00:15:49.553           102.882                Anadyr1          3215.063
       156   03 Jun 2027 00:16:05.261   03 Jun 2027 00:16:08.756             3.495                Anadyr2           109.219
       157   03 Jun 2027 00:16:38.257   03 Jun 2027 00:17:12.491            34.234                Norilsk          1069.813
       158   03 Jun 2027 00:17:15.462   03 Jun 2027 00:18:31.986            76.524               Magadan1          2391.375
       159   03 Jun 2027 00:18:50.102   03 Jun 2027 00:19:05.426            15.324               Magadan2           478.875
       160   03 Jun 2027 00:19:38.257   03 Jun 2027 00:20:09.444            31.187               Magadan1           974.594
       161   03 Jun 2027 00:20:35.254   03 Jun 2027 00:21:42.781            67.527                Irkutsk          2110.219
       162   03 Jun 2027 00:21:59.752   03 Jun 2027 00:23:18.376            78.624                Novosib          2457.000
       163   03 Jun 2027 00:29:11.485   03 Jun 2027 00:30:06.375            54.890                Novosib          1715.313
       164   03 Jun 2027 00:32:23.717   03 Jun 2027 00:33:16.648            52.931                  Delhi          1654.094
       165   03 Jun 2027 00:35:48.817   03 Jun 2027 00:36:46.090            57.273                Sumatra          1789.781
       166   03 Jun 2027 00:46:08.692   03 Jun 2027 00:46:55.896            47.204                Sumatra          1475.125
       167   03 Jun 2027 01:08:37.656   03 Jun 2027 01:09:11.844            34.188            RioGallegos          1068.375
       168   03 Jun 2027 01:14:21.470   03 Jun 2027 01:14:27.698             6.228            RioGallegos           194.625
       169   03 Jun 2027 01:14:41.921   03 Jun 2027 01:14:57.418            15.497            RioGallegos           484.281
       170   03 Jun 2027 01:17:33.925   03 Jun 2027 01:18:15.889            41.964            RioGallegos          1311.375
       171   03 Jun 2027 01:48:46.146   03 Jun 2027 01:49:23.928            37.782                Anadyr2          1180.687
       172   03 Jun 2027 01:50:51.944   03 Jun 2027 01:51:00.733             8.789                Anadyr1           274.656
       173   03 Jun 2027 01:52:38.949   03 Jun 2027 01:54:32.025           113.076                Norilsk          3533.625
       174   03 Jun 2027 01:55:42.679   03 Jun 2027 01:56:36.952            54.273              Murmansk1          1696.031
       175   03 Jun 2027 01:56:38.855   03 Jun 2027 01:58:24.564           105.709                Irkutsk          3303.406
       176   03 Jun 2027 02:01:39.805   03 Jun 2027 02:02:00.138            20.333                Irkutsk           635.406
       177   03 Jun 2027 02:02:26.895   03 Jun 2027 02:03:31.110            64.215                Irkutsk          2006.719
       178   03 Jun 2027 02:03:49.454   03 Jun 2027 02:04:18.280            28.826                  Delhi           900.813
       179   03 Jun 2027 02:13:55.432   03 Jun 2027 02:15:56.715           121.283                  Delhi          3790.094
       180   03 Jun 2027 02:45:34.041   03 Jun 2027 02:46:48.487            74.446            RioGallegos          2326.437
       181   03 Jun 2027 02:48:13.126   03 Jun 2027 02:49:48.175            95.049            RioGallegos          2970.281
       182   03 Jun 2027 03:36:14.446   03 Jun 2027 03:36:28.278            13.832              Murmansk2           432.250
       183   03 Jun 2027 03:36:39.250   03 Jun 2027 03:39:17.018           157.768              Murmansk1          4930.250
       184   03 Jun 2027 03:39:17.018   03 Jun 2027 03:40:02.923            45.905              Murmansk2          1434.531
       185   03 Jun 2027 03:40:24.212   03 Jun 2027 03:41:23.035            58.823              Murmansk2          1838.219
       186   03 Jun 2027 03:41:32.334   03 Jun 2027 03:42:10.084            37.750                Novosib          1179.687
       187   03 Jun 2027 03:44:30.928   03 Jun 2027 03:46:21.019           110.091                  Delhi          3440.344
       188   03 Jun 2027 05:13:57.905   03 Jun 2027 05:14:23.755            25.850                Novosib           807.812
       189   03 Jun 2027 05:14:33.893   03 Jun 2027 05:15:05.856            31.963                Norilsk           998.844
       190   03 Jun 2027 05:15:12.611   03 Jun 2027 05:16:20.723            68.112              Murmansk2          2128.500
       191   03 Jun 2027 05:16:31.642   03 Jun 2027 05:19:25.272           173.630              Murmansk2          5425.938
       192   03 Jun 2027 05:19:31.265   03 Jun 2027 05:21:22.109           110.844                 Moscow          3463.875
       193   03 Jun 2027 05:33:52.034   03 Jun 2027 05:36:39.885           167.851               CapeTown          5245.344
       194   03 Jun 2027 06:38:10.818   03 Jun 2027 06:42:11.004           240.186               Magadan1          7505.813
       195   03 Jun 2027 06:42:12.039   03 Jun 2027 06:42:31.681            19.642                Anadyr2           613.813
       196   03 Jun 2027 06:42:42.887   03 Jun 2027 06:43:33.141            50.254              Murmansk2          1570.437
       197   03 Jun 2027 06:43:33.141   03 Jun 2027 06:43:50.118            16.977              Murmansk1           530.531
       198   03 Jun 2027 06:47:04.187   03 Jun 2027 06:47:08.454             4.267                 Moscow           133.344
       199   03 Jun 2027 06:47:13.929   03 Jun 2027 06:47:52.455            38.526                 Moscow          1203.938
       200   03 Jun 2027 08:14:25.681   03 Jun 2027 08:14:48.034            22.353                Norilsk           698.531
       201   03 Jun 2027 08:14:50.007   03 Jun 2027 08:16:06.756            76.749                Norilsk          2398.406
       202   03 Jun 2027 08:16:33.818   03 Jun 2027 08:16:50.945            17.127                Norilsk           535.219
       203   03 Jun 2027 08:16:57.093   03 Jun 2027 08:19:20.335           143.242                Anadyr1          4476.312
       204   03 Jun 2027 09:47:24.580   03 Jun 2027 09:47:57.565            32.985               Magadan2          1030.781
       205   03 Jun 2027 09:47:57.565   03 Jun 2027 09:52:14.796           257.231               Magadan1          8038.469
       206   03 Jun 2027 09:52:14.796   03 Jun 2027 09:53:04.938            50.142               Magadan2          1566.937
       207   03 Jun 2027 09:53:13.404   03 Jun 2027 09:54:01.787            48.383                Anadyr1          1511.969
       208   03 Jun 2027 09:54:59.796   03 Jun 2027 09:55:18.608            18.812              Murmansk2           587.875
       209   03 Jun 2027 09:55:26.557   03 Jun 2027 09:55:56.410            29.853              Murmansk1           932.906
       210   03 Jun 2027 09:56:07.793   03 Jun 2027 09:56:11.630             3.837                Norilsk           119.906
       211   03 Jun 2027 10:29:52.412   03 Jun 2027 10:30:29.674            37.262            RioGallegos          1164.437
       212   03 Jun 2027 10:31:47.709   03 Jun 2027 10:31:58.966            11.257            RioGallegos           351.781
       213   03 Jun 2027 10:32:43.890   03 Jun 2027 10:33:03.550            19.660            RioGallegos           614.375
       214   03 Jun 2027 10:33:19.768   03 Jun 2027 10:34:19.021            59.253            RioGallegos          1851.656
       215   03 Jun 2027 11:06:51.859   03 Jun 2027 11:08:48.928           117.069                Sumatra          3658.406
       216   03 Jun 2027 11:24:04.304   03 Jun 2027 11:24:08.203             3.899                Norilsk           121.844
       217   03 Jun 2027 11:24:22.754   03 Jun 2027 11:24:39.444            16.690                Norilsk           521.563
       218   03 Jun 2027 11:24:55.529   03 Jun 2027 11:28:23.539           208.010               Magadan2          6500.313
       219   03 Jun 2027 11:28:37.699   03 Jun 2027 11:28:52.021            14.322              Murmansk2           447.562
       220   03 Jun 2027 11:28:56.621   03 Jun 2027 11:29:29.850            33.229                Novosib          1038.406
       221   03 Jun 2027 11:29:32.130   03 Jun 2027 11:29:44.276            12.146              Murmansk1           379.563
       222   03 Jun 2027 11:29:45.039   03 Jun 2027 11:30:22.458            37.419                Norilsk          1169.344
       223   03 Jun 2027 11:30:27.737   03 Jun 2027 11:31:32.025            64.288              Murmansk1          2009.000
       224   03 Jun 2027 12:06:01.163   03 Jun 2027 12:06:43.661            42.498            RioGallegos          1328.062
       225   03 Jun 2027 12:07:23.507   03 Jun 2027 12:08:11.907            48.400            RioGallegos          1512.500
       226   03 Jun 2027 12:40:27.678   03 Jun 2027 12:41:01.835            34.157                Sumatra          1067.406
       227   03 Jun 2027 12:45:10.008   03 Jun 2027 12:46:09.442            59.434                Sumatra          1857.312
       228   03 Jun 2027 12:50:10.864   03 Jun 2027 12:50:11.640             0.776                Sumatra            24.250
       229   03 Jun 2027 12:55:10.256   03 Jun 2027 12:55:59.587            49.331                Irkutsk          1541.594
       230   03 Jun 2027 12:56:33.377   03 Jun 2027 12:58:08.387            95.010                Novosib          2969.063
       231   03 Jun 2027 12:59:05.503   03 Jun 2027 13:00:06.935            61.432                Irkutsk          1919.750
       232   03 Jun 2027 13:00:08.763   03 Jun 2027 13:00:09.483             0.720                Norilsk            22.500
       233   03 Jun 2027 13:04:48.190   03 Jun 2027 13:05:42.837            54.647                Irkutsk          1707.719
       234   03 Jun 2027 14:25:01.721   03 Jun 2027 14:25:25.275            23.554                  Delhi           736.062
       235   03 Jun 2027 14:27:27.291   03 Jun 2027 14:29:41.719           134.428                  Delhi          4200.875
       236   03 Jun 2027 14:32:30.239   03 Jun 2027 14:33:29.159            58.920                  Delhi          1841.250
       237   03 Jun 2027 14:33:41.329   03 Jun 2027 14:33:55.917            14.588                Novosib           455.875
       238   03 Jun 2027 14:36:31.605   03 Jun 2027 14:38:14.880           103.275                Novosib          3227.344
       239   03 Jun 2027 14:38:28.424   03 Jun 2027 14:40:06.345            97.921                Norilsk          3060.031
       240   03 Jun 2027 14:41:55.847   03 Jun 2027 14:42:00.902             5.055                Norilsk           157.969
       241   03 Jun 2027 16:08:58.705   03 Jun 2027 16:12:16.413           197.708                 Moscow          6178.375
       242   03 Jun 2027 16:12:29.189   03 Jun 2027 16:13:42.780            73.591              Murmansk2          2299.719
       243   03 Jun 2027 16:17:34.370   03 Jun 2027 16:22:08.701           274.331                Norilsk          8572.844
       244   03 Jun 2027 17:32:42.050   03 Jun 2027 17:33:04.427            22.377               CapeTown           699.281
       245   03 Jun 2027 17:47:06.022   03 Jun 2027 17:48:28.494            82.472                 Moscow          2577.250
       246   03 Jun 2027 17:49:55.911   03 Jun 2027 17:51:44.781           108.870              Murmansk1          3402.187
       247   03 Jun 2027 17:52:43.493   03 Jun 2027 17:52:59.015            15.522              Murmansk1           485.062
       248   03 Jun 2027 17:53:40.243   03 Jun 2027 17:54:34.024            53.781              Murmansk1          1680.656
       249   03 Jun 2027 18:07:32.954   03 Jun 2027 18:07:36.179             3.225                Anadyr2           100.781
       250   03 Jun 2027 18:08:06.099   03 Jun 2027 18:08:29.747            23.648                Anadyr2           739.000
       251   03 Jun 2027 18:08:46.161   03 Jun 2027 18:09:15.010            28.849                Anadyr2           901.531
       252   03 Jun 2027 18:09:52.113   03 Jun 2027 18:10:25.339            33.226                Anadyr2          1038.313
       253   03 Jun 2027 18:58:39.261   03 Jun 2027 19:00:21.097           101.836               CapeTown          3182.375
       254   03 Jun 2027 19:07:16.770   03 Jun 2027 19:07:50.407            33.637               CapeTown          1051.156
       255   03 Jun 2027 19:29:49.499   03 Jun 2027 19:35:35.380           345.881              Murmansk1         10808.781
       256   03 Jun 2027 21:14:56.958   03 Jun 2027 21:18:42.308           225.350                Anadyr1          7042.187
       257   03 Jun 2027 21:18:59.691   03 Jun 2027 21:22:26.920           207.229               Magadan1          6475.906
       258   03 Jun 2027 21:24:16.127   03 Jun 2027 21:24:45.774            29.647               Magadan1           926.469
       259   03 Jun 2027 21:25:44.007   03 Jun 2027 21:25:55.976            11.969               Magadan1           374.031
       260   03 Jun 2027 21:27:28.068   03 Jun 2027 21:28:01.278            33.210               Magadan1          1037.812
       261   03 Jun 2027 21:28:09.185   03 Jun 2027 21:28:21.047            11.862               Magadan1           370.688
       262   03 Jun 2027 22:10:46.970   03 Jun 2027 22:12:49.725           122.755            RioGallegos          3836.094
       263   03 Jun 2027 22:12:55.557   03 Jun 2027 22:13:28.735            33.178            RioGallegos          1036.812
       264   03 Jun 2027 22:50:45.631   03 Jun 2027 22:51:56.564            70.933                Anadyr1          2216.656
       265   03 Jun 2027 22:52:12.687   03 Jun 2027 22:53:19.942            67.255                Anadyr2          2101.719
       266   03 Jun 2027 22:53:21.815   03 Jun 2027 22:54:22.202            60.387               Magadan2          1887.094
       267   03 Jun 2027 22:55:02.032   03 Jun 2027 22:55:31.680            29.648               Magadan2           926.500
       268   03 Jun 2027 22:56:05.629   03 Jun 2027 22:56:14.967             9.338                Norilsk           291.813
       269   03 Jun 2027 22:57:40.868   03 Jun 2027 22:59:32.216           111.348                Irkutsk          3479.625
       270   03 Jun 2027 23:06:44.413   03 Jun 2027 23:07:01.044            16.631                Irkutsk           519.719
       271   03 Jun 2027 23:12:26.247   03 Jun 2027 23:12:26.818             0.571                Sumatra            17.844
       272   03 Jun 2027 23:14:20.507   03 Jun 2027 23:14:52.361            31.854                Sumatra           995.438
       273   03 Jun 2027 23:15:15.536   03 Jun 2027 23:16:10.278            54.742                Sumatra          1710.688
       274   03 Jun 2027 23:21:26.507   03 Jun 2027 23:21:28.050             1.543                Sumatra            48.219
       275   03 Jun 2027 23:50:13.713   03 Jun 2027 23:50:40.538            26.825            RioGallegos           838.281
       276   03 Jun 2027 23:52:30.170   03 Jun 2027 23:52:56.670            26.500            RioGallegos           828.125
       277   03 Jun 2027 23:55:39.001   03 Jun 2027 23:55:58.348            19.347            RioGallegos           604.594
       278   04 Jun 2027 00:25:59.756   04 Jun 2027 00:26:57.709            57.953                Anadyr2          1811.031
       279   04 Jun 2027 00:27:59.936   04 Jun 2027 00:28:49.674            49.738                Anadyr1          1554.312
       280   04 Jun 2027 00:28:56.328   04 Jun 2027 00:29:18.317            21.989                Norilsk           687.156
       281   04 Jun 2027 00:29:18.661   04 Jun 2027 00:29:47.037            28.376               Magadan2           886.750
       282   04 Jun 2027 00:30:08.482   04 Jun 2027 00:30:52.698            44.216               Magadan2          1381.750
       283   04 Jun 2027 00:31:06.278   04 Jun 2027 00:31:41.044            34.766               Magadan2          1086.437
       284   04 Jun 2027 00:32:34.851   04 Jun 2027 00:33:35.515            60.664                Irkutsk          1895.750
       285   04 Jun 2027 00:33:42.283   04 Jun 2027 00:34:34.429            52.146                Novosib          1629.562
       286   04 Jun 2027 00:36:07.004   04 Jun 2027 00:36:35.923            28.919                Novosib           903.719
       287   04 Jun 2027 00:38:16.621   04 Jun 2027 00:38:29.958            13.337                Irkutsk           416.781
       288   04 Jun 2027 00:39:36.928   04 Jun 2027 00:40:02.211            25.283                Irkutsk           790.094
       289   04 Jun 2027 00:42:42.178   04 Jun 2027 00:43:52.894            70.716                  Delhi          2209.875
       290   04 Jun 2027 00:54:19.743   04 Jun 2027 00:54:44.889            25.146                Sumatra           785.812
       291   04 Jun 2027 00:57:59.680   04 Jun 2027 00:58:43.345            43.665                Sumatra          1364.531
       292   04 Jun 2027 01:25:48.209   04 Jun 2027 01:26:01.079            12.870            RioGallegos           402.187
       293   04 Jun 2027 01:27:07.412   04 Jun 2027 01:27:33.217            25.805            RioGallegos           806.406
       294   04 Jun 2027 01:30:52.186   04 Jun 2027 01:31:20.202            28.016            RioGallegos           875.500
       295   04 Jun 2027 02:00:09.198   04 Jun 2027 02:00:25.780            16.582                Anadyr2           518.187
       296   04 Jun 2027 02:00:42.984   04 Jun 2027 02:01:13.667            30.683                Anadyr2           958.844
       297   04 Jun 2027 02:02:06.671   04 Jun 2027 02:02:40.110            33.439                Anadyr2          1044.969
       298   04 Jun 2027 02:04:41.188   04 Jun 2027 02:06:34.476           113.288                Norilsk          3540.250
       299   04 Jun 2027 02:07:28.573   04 Jun 2027 02:08:44.001            75.428              Murmansk2          2357.125
       300   04 Jun 2027 02:08:45.118   04 Jun 2027 02:09:48.377            63.259                Irkutsk          1976.844
       301   04 Jun 2027 02:13:37.158   04 Jun 2027 02:14:47.603            70.445                Irkutsk          2201.406
       302   04 Jun 2027 02:22:33.350   04 Jun 2027 02:23:52.732            79.382                  Delhi          2480.688
       303   04 Jun 2027 02:57:53.217   04 Jun 2027 03:01:28.753           215.536            RioGallegos          6735.500
       304   04 Jun 2027 03:47:04.959   04 Jun 2027 03:48:46.250           101.291                Irkutsk          3165.344
       305   04 Jun 2027 03:50:11.978   04 Jun 2027 03:50:53.909            41.931                Irkutsk          1310.344
       306   04 Jun 2027 03:50:59.293   04 Jun 2027 03:51:39.043            39.750                Norilsk          1242.188
       307   04 Jun 2027 03:51:42.163   04 Jun 2027 03:53:13.169            91.006                Norilsk          2843.938
       308   04 Jun 2027 03:53:31.181   04 Jun 2027 03:53:48.190            17.009              Murmansk1           531.531
       309   04 Jun 2027 03:53:59.059   04 Jun 2027 03:54:02.656             3.597                  Delhi           112.406
       310   04 Jun 2027 03:54:31.947   04 Jun 2027 03:55:49.098            77.151                Novosib          2410.969
       311   04 Jun 2027 03:56:14.634   04 Jun 2027 03:56:49.405            34.771                  Delhi          1086.594
       312   04 Jun 2027 03:58:52.618   04 Jun 2027 03:59:26.093            33.475                  Delhi          1046.094
       313   04 Jun 2027 05:26:26.601   04 Jun 2027 05:26:57.271            30.670                Novosib           958.437
       314   04 Jun 2027 05:27:09.749   04 Jun 2027 05:27:24.282            14.533              Murmansk2           454.156
       315   04 Jun 2027 05:27:25.877   04 Jun 2027 05:29:16.790           110.913              Murmansk2          3466.031
       316   04 Jun 2027 05:29:35.780   04 Jun 2027 05:33:26.817           231.037                 Moscow          7219.906
       317   04 Jun 2027 06:49:52.515   04 Jun 2027 06:51:04.181            71.666               Magadan2          2239.563
       318   04 Jun 2027 06:51:12.052   04 Jun 2027 06:51:45.338            33.286                Anadyr1          1040.187
       319   04 Jun 2027 06:51:45.338   04 Jun 2027 06:52:05.669            20.331                Anadyr2           635.344
       320   04 Jun 2027 06:52:05.669   04 Jun 2027 06:54:10.345           124.676                Anadyr1          3896.125
       321   04 Jun 2027 06:54:49.991   04 Jun 2027 06:55:08.400            18.409               Magadan1           575.281
       322   04 Jun 2027 08:25:54.870   04 Jun 2027 08:26:13.861            18.991               Magadan1           593.469
       323   04 Jun 2027 08:26:25.910   04 Jun 2027 08:27:37.109            71.199                Anadyr1          2224.969
       324   04 Jun 2027 08:27:37.109   04 Jun 2027 08:28:50.380            73.271                Anadyr2          2289.719
       325   04 Jun 2027 08:29:30.109   04 Jun 2027 08:30:17.219            47.110                Anadyr2          1472.188
       326   04 Jun 2027 09:57:16.163   04 Jun 2027 09:57:37.636            21.473               Magadan1           671.031
       327   04 Jun 2027 09:59:25.035   04 Jun 2027 10:00:31.041            66.006               Magadan2          2062.688
       328   04 Jun 2027 10:00:45.948   04 Jun 2027 10:00:51.765             5.817               Magadan2           181.781
       329   04 Jun 2027 10:00:51.765   04 Jun 2027 10:01:36.356            44.591               Magadan1          1393.469
       330   04 Jun 2027 10:01:52.836   04 Jun 2027 10:03:10.411            77.575               Magadan1          2424.219
       331   04 Jun 2027 10:03:58.796   04 Jun 2027 10:04:07.199             8.403                Norilsk           262.594
       332   04 Jun 2027 10:04:22.705   04 Jun 2027 10:04:40.070            17.365                Norilsk           542.656
       333   04 Jun 2027 10:04:50.309   04 Jun 2027 10:05:25.371            35.062                Anadyr2          1095.687
       334   04 Jun 2027 10:05:33.211   04 Jun 2027 10:06:10.660            37.449               Magadan2          1170.281
       335   04 Jun 2027 10:06:21.733   04 Jun 2027 10:06:47.233            25.500              Murmansk1           796.875
       336   04 Jun 2027 10:07:03.998   04 Jun 2027 10:07:43.485            39.487                Norilsk          1233.969
       337   04 Jun 2027 10:41:43.994   04 Jun 2027 10:43:01.172            77.178            RioGallegos          2411.812
       338   04 Jun 2027 11:18:04.765   04 Jun 2027 11:19:45.439           100.674                Sumatra          3146.063
       339   04 Jun 2027 11:36:10.148   04 Jun 2027 11:36:22.139            11.991                Norilsk           374.719
       340   04 Jun 2027 11:36:24.477   04 Jun 2027 11:36:29.760             5.283                Novosib           165.094
       341   04 Jun 2027 11:36:46.957   04 Jun 2027 11:37:11.344            24.387                Norilsk           762.094
       342   04 Jun 2027 11:37:29.694   04 Jun 2027 11:38:00.876            31.182                Irkutsk           974.437
       343   04 Jun 2027 11:38:04.231   04 Jun 2027 11:38:58.931            54.700                Novosib          1709.375
       344   04 Jun 2027 11:39:03.610   04 Jun 2027 11:39:35.281            31.671                Irkutsk           989.719
       345   04 Jun 2027 11:39:47.065   04 Jun 2027 11:41:53.354           126.289                Irkutsk          3946.531
       346   04 Jun 2027 11:42:00.594   04 Jun 2027 11:42:03.632             3.038                Norilsk            94.938
       347   04 Jun 2027 11:42:03.836   04 Jun 2027 11:42:27.895            24.059              Murmansk2           751.844
       348   04 Jun 2027 11:42:32.578   04 Jun 2027 11:42:53.306            20.728                Irkutsk           647.750
       349   04 Jun 2027 11:42:57.784   04 Jun 2027 11:43:27.332            29.548              Murmansk1           923.375
       350   04 Jun 2027 11:43:56.474   04 Jun 2027 11:44:16.046            19.572                Novosib           611.625
       351   04 Jun 2027 12:18:21.330   04 Jun 2027 12:18:21.582             0.252            RioGallegos             7.875
       352   04 Jun 2027 12:18:47.026   04 Jun 2027 12:19:27.860            40.834            RioGallegos          1276.063
       353   04 Jun 2027 12:22:42.352   04 Jun 2027 12:23:10.836            28.484            RioGallegos           890.125
       354   04 Jun 2027 12:52:40.783   04 Jun 2027 12:54:27.452           106.669                Sumatra          3333.406
       355   04 Jun 2027 13:07:29.087   04 Jun 2027 13:08:32.120            63.033                Novosib          1969.781
       356   04 Jun 2027 13:08:40.563   04 Jun 2027 13:11:04.343           143.780                Irkutsk          4493.125
       357   04 Jun 2027 13:15:55.828   04 Jun 2027 13:16:07.469            11.641                Norilsk           363.781
       358   04 Jun 2027 13:21:46.790   04 Jun 2027 13:21:53.075             6.285                Norilsk           196.406
       359   04 Jun 2027 13:23:24.109   04 Jun 2027 13:23:49.912            25.803                Norilsk           806.344
       360   04 Jun 2027 14:37:25.907   04 Jun 2027 14:39:01.484            95.577                  Delhi          2986.781
       361   04 Jun 2027 14:41:44.353   04 Jun 2027 14:42:44.402            60.049                  Delhi          1876.531
       362   04 Jun 2027 14:45:23.117   04 Jun 2027 14:47:20.608           117.491                  Delhi          3671.594
       363   04 Jun 2027 14:48:29.848   04 Jun 2027 14:50:40.910           131.062                Novosib          4095.687
       364   04 Jun 2027 14:52:08.667   04 Jun 2027 14:53:30.638            81.971                Norilsk          2561.594
       365   04 Jun 2027 16:21:04.408   04 Jun 2027 16:24:27.632           203.224                 Moscow          6350.750
       366   04 Jun 2027 16:25:19.182   04 Jun 2027 16:25:44.710            25.528              Murmansk2           797.750
       367   04 Jun 2027 16:27:23.786   04 Jun 2027 16:27:26.311             2.525              Murmansk2            78.906
       368   04 Jun 2027 16:30:29.591   04 Jun 2027 16:34:54.177           264.586                Norilsk          8268.313
       369   04 Jun 2027 17:39:04.547   04 Jun 2027 17:40:29.242            84.695               CapeTown          2646.719
       370   04 Jun 2027 17:59:45.430   04 Jun 2027 18:01:58.177           132.747                 Moscow          4148.344
       371   04 Jun 2027 18:02:18.180   04 Jun 2027 18:02:23.679             5.499              Murmansk2           171.844
       372   04 Jun 2027 18:02:23.760   04 Jun 2027 18:04:35.424           131.664                 Moscow          4114.500
       373   04 Jun 2027 18:25:57.640   04 Jun 2027 18:26:13.326            15.686                Anadyr2           490.188
       374   04 Jun 2027 19:10:52.307   04 Jun 2027 19:12:22.016            89.709               CapeTown          2803.406
       375   04 Jun 2027 19:15:21.445   04 Jun 2027 19:15:22.905             1.460               CapeTown            45.625
       376   04 Jun 2027 19:18:05.559   04 Jun 2027 19:19:06.567            61.008               CapeTown          1906.500
       377   04 Jun 2027 19:42:37.210   04 Jun 2027 19:48:45.381           368.171              Murmansk2         11505.344
       378   04 Jun 2027 21:26:58.534   04 Jun 2027 21:31:56.152           297.618                Anadyr1          9300.563
       379   04 Jun 2027 21:32:06.218   04 Jun 2027 21:33:29.900            83.682               Magadan1          2615.062
       380   04 Jun 2027 21:33:57.637   04 Jun 2027 21:35:17.026            79.389               Magadan1          2480.906
       381   04 Jun 2027 22:22:14.672   04 Jun 2027 22:24:12.758           118.086            RioGallegos          3690.188
       382   04 Jun 2027 22:25:09.234   04 Jun 2027 22:25:14.209             4.975            RioGallegos           155.469
       383   04 Jun 2027 22:27:12.993   04 Jun 2027 22:27:21.469             8.476            RioGallegos           264.875
       384   04 Jun 2027 22:27:28.059   04 Jun 2027 22:27:59.375            31.316            RioGallegos           978.625
       385   04 Jun 2027 23:02:44.666   04 Jun 2027 23:04:18.141            93.475                Anadyr2          2921.094
       386   04 Jun 2027 23:04:21.584   04 Jun 2027 23:04:48.822            27.238                Anadyr1           851.188
       387   04 Jun 2027 23:04:50.422   04 Jun 2027 23:06:25.615            95.193                Norilsk          2974.781
       388   04 Jun 2027 23:06:41.553   04 Jun 2027 23:07:00.919            19.366               Magadan2           605.188
       389   04 Jun 2027 23:07:36.555   04 Jun 2027 23:08:04.549            27.994                Norilsk           874.813
       390   04 Jun 2027 23:08:50.363   04 Jun 2027 23:08:53.768             3.405               Magadan2           106.406
       391   04 Jun 2027 23:09:25.960   04 Jun 2027 23:10:21.526            55.566                Irkutsk          1736.438
       392   04 Jun 2027 23:11:51.007   04 Jun 2027 23:12:46.527            55.520                Irkutsk          1735.000
       393   04 Jun 2027 23:23:46.583   04 Jun 2027 23:24:59.590            73.007                Sumatra          2281.469
       394   04 Jun 2027 23:28:43.597   04 Jun 2027 23:29:06.260            22.663                Sumatra           708.219
       395   04 Jun 2027 23:32:45.370   04 Jun 2027 23:32:57.520            12.150                Sumatra           379.687
       396   04 Jun 2027 23:33:08.586   04 Jun 2027 23:33:54.550            45.964                Sumatra          1436.375
       397   05 Jun 2027 00:08:31.176   05 Jun 2027 00:09:28.670            57.494            RioGallegos          1796.688
       398   05 Jun 2027 00:37:51.621   05 Jun 2027 00:38:00.899             9.278                Anadyr1           289.937
       399   05 Jun 2027 00:38:01.350   05 Jun 2027 00:38:19.359            18.009                Anadyr2           562.781
       400   05 Jun 2027 00:38:58.872   05 Jun 2027 00:40:02.773            63.901                Anadyr1          1996.906
       401   05 Jun 2027 00:40:30.818   05 Jun 2027 00:40:32.387             1.569                Anadyr1            49.031
       402   05 Jun 2027 00:40:53.896   05 Jun 2027 00:41:06.698            12.802                Norilsk           400.063
       403   05 Jun 2027 00:41:21.771   05 Jun 2027 00:42:55.355            93.584               Magadan2          2924.500
       404   05 Jun 2027 00:43:42.611   05 Jun 2027 00:44:05.271            22.660               Magadan2           708.125
       405   05 Jun 2027 00:44:35.441   05 Jun 2027 00:46:42.581           127.140                Irkutsk          3973.125
       406   05 Jun 2027 00:47:22.798   05 Jun 2027 00:47:45.192            22.394                Novosib           699.813
       407   05 Jun 2027 00:51:34.658   05 Jun 2027 00:51:40.557             5.899                Irkutsk           184.344
       408   05 Jun 2027 00:53:49.505   05 Jun 2027 00:56:13.882           144.377                  Delhi          4511.781
       409   05 Jun 2027 01:32:48.716   05 Jun 2027 01:33:03.568            14.852            RioGallegos           464.125
       410   05 Jun 2027 01:35:05.552   05 Jun 2027 01:35:23.548            17.996            RioGallegos           562.375
       411   05 Jun 2027 01:37:37.995   05 Jun 2027 01:38:00.739            22.744            RioGallegos           710.750
       412   05 Jun 2027 01:38:29.805   05 Jun 2027 01:39:15.616            45.811            RioGallegos          1431.594
       413   05 Jun 2027 02:11:45.606   05 Jun 2027 02:11:52.779             7.173                Anadyr2           224.156
       414   05 Jun 2027 02:12:50.107   05 Jun 2027 02:13:40.390            50.283                Anadyr2          1571.344
       415   05 Jun 2027 02:16:43.331   05 Jun 2027 02:17:55.011            71.680                Norilsk          2240.000
       416   05 Jun 2027 02:17:57.738   05 Jun 2027 02:18:21.955            24.217                Norilsk           756.781
       417   05 Jun 2027 02:19:19.750   05 Jun 2027 02:20:18.017            58.267              Murmansk2          1820.844
       418   05 Jun 2027 02:20:29.786   05 Jun 2027 02:21:05.137            35.351                Novosib          1104.719
       419   05 Jun 2027 02:21:49.577   05 Jun 2027 02:22:25.554            35.977                Irkutsk          1124.281
       420   05 Jun 2027 02:25:19.050   05 Jun 2027 02:25:44.947            25.897                Novosib           809.281
       421   05 Jun 2027 02:27:03.573   05 Jun 2027 02:27:30.674            27.101                Irkutsk           846.906
       422   05 Jun 2027 02:31:22.454   05 Jun 2027 02:31:41.874            19.420                Irkutsk           606.875
       423   05 Jun 2027 02:36:16.098   05 Jun 2027 02:36:48.946            32.848                  Delhi          1026.500
       424   05 Jun 2027 03:10:18.932   05 Jun 2027 03:15:29.678           310.746            RioGallegos          9710.813
       425   05 Jun 2027 04:01:01.689   05 Jun 2027 04:01:34.440            32.751                Irkutsk          1023.469
       426   05 Jun 2027 04:01:35.768   05 Jun 2027 04:02:11.348            35.580                Norilsk          1111.875
       427   05 Jun 2027 04:02:22.228   05 Jun 2027 04:02:58.538            36.310              Murmansk1          1134.687
       428   05 Jun 2027 04:02:58.538   05 Jun 2027 04:03:19.770            21.232              Murmansk2           663.500
       429   05 Jun 2027 04:03:19.771   05 Jun 2027 04:05:52.645           152.874                Novosib          4777.312
       430   05 Jun 2027 04:05:56.031   05 Jun 2027 04:06:07.751            11.720              Murmansk2           366.250
       431   05 Jun 2027 04:07:22.016   05 Jun 2027 04:07:48.462            26.446                  Delhi           826.437
       432   05 Jun 2027 05:39:37.240   05 Jun 2027 05:42:57.377           200.137              Murmansk2          6254.281
       433   05 Jun 2027 05:42:57.377   05 Jun 2027 05:43:41.111            43.734              Murmansk1          1366.688
       434   05 Jun 2027 05:44:16.540   05 Jun 2027 05:45:32.045            75.505                 Moscow          2359.531
       435   05 Jun 2027 07:01:44.403   05 Jun 2027 07:02:22.841            38.438                Anadyr1          1201.187
       436   05 Jun 2027 07:03:04.757   05 Jun 2027 07:05:02.961           118.204                Norilsk          3693.875
       437   05 Jun 2027 07:05:26.430   05 Jun 2027 07:07:34.965           128.535                Anadyr1          4016.719
       438   05 Jun 2027 07:11:59.906   05 Jun 2027 07:12:42.302            42.396                 Moscow          1324.875
       439   05 Jun 2027 08:37:09.085   05 Jun 2027 08:37:48.626            39.541                Anadyr1          1235.656
       440   05 Jun 2027 08:37:51.741   05 Jun 2027 08:38:22.452            30.711               Magadan2           959.719
       441   05 Jun 2027 08:38:29.520   05 Jun 2027 08:38:35.863             6.343               Magadan2           198.219
       442   05 Jun 2027 08:38:37.298   05 Jun 2027 08:39:36.728            59.430                Anadyr2          1857.188
       443   05 Jun 2027 08:39:51.562   05 Jun 2027 08:40:10.289            18.727                Irkutsk           585.219
       444   05 Jun 2027 08:40:39.846   05 Jun 2027 08:40:42.166             2.320                Norilsk            72.500
       445   05 Jun 2027 08:40:48.885   05 Jun 2027 08:41:01.781            12.896                Irkutsk           403.000
       446   05 Jun 2027 08:41:08.034   05 Jun 2027 08:41:35.115            27.081                Norilsk           846.281
       447   05 Jun 2027 08:41:55.717   05 Jun 2027 08:42:59.674            63.957               Magadan1          1998.656
       448   05 Jun 2027 09:20:58.170   05 Jun 2027 09:21:14.137            15.967            RioGallegos           498.969
       449   05 Jun 2027 10:11:24.911   05 Jun 2027 10:12:37.479            72.568               Magadan2          2267.750
       450   05 Jun 2027 10:13:09.956   05 Jun 2027 10:15:08.297           118.341               Magadan1          3698.156
       451   05 Jun 2027 10:15:08.297   05 Jun 2027 10:15:44.174            35.877               Magadan2          1121.156
       452   05 Jun 2027 10:16:23.294   05 Jun 2027 10:16:37.212            13.918                Norilsk           434.937
       453   05 Jun 2027 10:16:51.177   05 Jun 2027 10:17:20.331            29.154                Irkutsk           911.063
       454   05 Jun 2027 10:17:29.947   05 Jun 2027 10:18:00.934            30.987              Murmansk2           968.344
       455   05 Jun 2027 10:18:04.074   05 Jun 2027 10:18:42.151            38.077               Magadan1          1189.906
       456   05 Jun 2027 10:18:52.049   05 Jun 2027 10:19:04.960            12.911                Norilsk           403.469
       457   05 Jun 2027 10:19:58.988   05 Jun 2027 10:20:09.554            10.566              Murmansk2           330.187
       458   05 Jun 2027 10:20:09.554   05 Jun 2027 10:20:48.175            38.621              Murmansk1          1206.906
       459   05 Jun 2027 10:53:38.795   05 Jun 2027 10:54:22.583            43.788            RioGallegos          1368.375
       460   05 Jun 2027 10:58:34.840   05 Jun 2027 10:59:38.884            64.044            RioGallegos          2001.375
       461   05 Jun 2027 11:35:13.725   05 Jun 2027 11:35:18.141             4.416                Sumatra           138.000
       462   05 Jun 2027 11:48:56.127   05 Jun 2027 11:49:57.377            61.250                Norilsk          1914.063
       463   05 Jun 2027 11:49:59.729   05 Jun 2027 11:50:34.500            34.771                Novosib          1086.594
       464   05 Jun 2027 11:50:38.650   05 Jun 2027 11:51:05.660            27.010                Novosib           844.062
       465   05 Jun 2027 11:51:06.539   05 Jun 2027 11:52:35.307            88.768                Irkutsk          2774.000
       466   05 Jun 2027 11:52:35.750   05 Jun 2027 11:54:54.154           138.404                Irkutsk          4325.125
       467   05 Jun 2027 12:40:24.997   05 Jun 2027 12:40:44.261            19.264            RioGallegos           602.000
       468   05 Jun 2027 12:41:47.416   05 Jun 2027 12:41:51.736             4.320            RioGallegos           135.000
       469   05 Jun 2027 13:06:22.634   05 Jun 2027 13:06:43.490            20.856                Sumatra           651.750
       470   05 Jun 2027 13:09:30.619   05 Jun 2027 13:09:46.226            15.607                Sumatra           487.719
       471   05 Jun 2027 13:10:22.329   05 Jun 2027 13:12:18.452           116.123                Sumatra          3628.844
       472   05 Jun 2027 13:20:16.646   05 Jun 2027 13:23:01.942           165.296                Irkutsk          5165.500
       473   05 Jun 2027 13:35:22.948   05 Jun 2027 13:35:52.257            29.309                Norilsk           915.906
       474   05 Jun 2027 14:49:58.831   05 Jun 2027 14:55:00.607           301.776                  Delhi          9430.500
       475   05 Jun 2027 15:00:26.916   05 Jun 2027 15:03:27.931           181.015                Novosib          5656.719
       476   05 Jun 2027 16:33:13.253   05 Jun 2027 16:34:59.420           106.167                 Moscow          3317.719
       477   05 Jun 2027 16:36:17.222   05 Jun 2027 16:37:02.154            44.932                 Moscow          1404.125
       478   05 Jun 2027 16:37:19.592   05 Jun 2027 16:37:29.308             9.716                 Moscow           303.625
       479   05 Jun 2027 16:37:46.550   05 Jun 2027 16:38:23.619            37.069              Murmansk1          1158.406
       480   05 Jun 2027 16:41:45.108   05 Jun 2027 16:42:21.800            36.692              Murmansk1          1146.625
       481   05 Jun 2027 16:43:37.109   05 Jun 2027 16:45:03.775            86.666                Norilsk          2708.312
       482   05 Jun 2027 16:45:44.285   05 Jun 2027 16:46:40.192            55.907                Norilsk          1747.094
