uniorb/output/strategy_1/Drop/Drop_KinoSat_110502.txt

KinoSat_110502
-------------------------
    Access    *     Start Time (UTCG)     *     Stop Time (UTCG)  *   Duration (s)        *       Station  *  Data (Mbytes)
         1   01 Jun 2027 04:16:34.983   01 Jun 2027 04:17:48.430            73.447               Magadan1          9180.875
         2   01 Jun 2027 04:17:56.904   01 Jun 2027 04:19:03.383            66.479               Magadan2          8309.875
         3   01 Jun 2027 04:19:12.594   01 Jun 2027 04:19:39.658            27.064               Magadan2          3383.000
         4   01 Jun 2027 04:20:03.572   01 Jun 2027 04:20:18.386            14.814               Magadan2          1851.750
         5   01 Jun 2027 04:20:29.085   01 Jun 2027 04:22:07.181            98.096                Anadyr1         12262.000
         6   01 Jun 2027 04:22:16.414   01 Jun 2027 04:22:20.927             4.513                Anadyr1           564.125
         7   01 Jun 2027 04:22:37.746   01 Jun 2027 04:23:19.896            42.150               Magadan2          5268.750
         8   01 Jun 2027 04:58:21.215   01 Jun 2027 04:58:41.239            20.024            RioGallegos          2503.000
         9   01 Jun 2027 05:35:13.745   01 Jun 2027 05:35:37.104            23.359                Sumatra          2919.875
        10   01 Jun 2027 05:40:17.097   01 Jun 2027 05:41:22.481            65.384                Sumatra          8173.000
        11   01 Jun 2027 05:54:16.232   01 Jun 2027 05:55:34.015            77.783                Irkutsk          9722.875
        12   01 Jun 2027 05:56:38.359   01 Jun 2027 05:57:54.489            76.130                Irkutsk          9516.250
        13   01 Jun 2027 05:58:11.129   01 Jun 2027 05:58:43.930            32.801              Murmansk2          4100.125
        14   01 Jun 2027 05:58:51.345   01 Jun 2027 05:59:07.032            15.687                Norilsk          1960.875
        15   01 Jun 2027 05:59:15.086   01 Jun 2027 05:59:37.124            22.038                Novosib          2754.750
        16   01 Jun 2027 06:34:35.744   01 Jun 2027 06:34:53.326            17.582            RioGallegos          2197.750
        17   01 Jun 2027 07:09:00.157   01 Jun 2027 07:10:33.558            93.401                Sumatra         11675.125
        18   01 Jun 2027 07:30:25.988   01 Jun 2027 07:30:30.801             4.813                Irkutsk           601.625
        19   01 Jun 2027 07:32:00.126   01 Jun 2027 07:32:11.264            11.138              Murmansk1          1392.250
        20   01 Jun 2027 07:32:19.958   01 Jun 2027 07:33:09.772            49.814                 Moscow          6226.750
        21   01 Jun 2027 07:33:20.169   01 Jun 2027 07:33:45.466            25.297                Irkutsk          3162.125
        22   01 Jun 2027 07:34:14.224   01 Jun 2027 07:35:30.114            75.890              Murmansk1          9486.250
        23   01 Jun 2027 07:36:02.591   01 Jun 2027 07:36:50.932            48.341                Novosib          6042.625
        24   01 Jun 2027 08:53:36.355   01 Jun 2027 08:54:11.871            35.516                  Delhi          4439.500
        25   01 Jun 2027 09:08:26.778   01 Jun 2027 09:08:48.215            21.437                Novosib          2679.625
        26   01 Jun 2027 09:08:48.887   01 Jun 2027 09:09:27.393            38.506                Norilsk          4813.250
        27   01 Jun 2027 09:09:41.228   01 Jun 2027 09:10:09.623            28.395                 Moscow          3549.375
        28   01 Jun 2027 09:10:39.583   01 Jun 2027 09:11:44.515            64.932                Novosib          8116.500
        29   01 Jun 2027 09:12:00.151   01 Jun 2027 09:14:01.898           121.747                 Moscow         15218.375
        30   01 Jun 2027 10:45:35.932   01 Jun 2027 10:46:54.471            78.539                 Moscow          9817.375
        31   01 Jun 2027 11:51:31.349   01 Jun 2027 11:52:58.246            86.897               CapeTown         10862.125
        32   01 Jun 2027 11:55:32.715   01 Jun 2027 11:56:02.908            30.193               CapeTown          3774.125
        33   01 Jun 2027 11:56:57.704   01 Jun 2027 11:57:38.719            41.015               CapeTown          5126.875
        34   01 Jun 2027 12:31:51.458   01 Jun 2027 12:33:43.389           111.931                Anadyr2         13991.375
        35   01 Jun 2027 12:36:08.038   01 Jun 2027 12:38:16.039           128.001                Anadyr1         16000.125
        36   01 Jun 2027 12:39:34.434   01 Jun 2027 12:41:23.769           109.335                Anadyr1         13666.875
        37   01 Jun 2027 14:10:32.548   01 Jun 2027 14:16:27.530           354.982               Magadan1         44372.750
        38   01 Jun 2027 14:17:24.414   01 Jun 2027 14:19:55.689           151.275               Magadan2         18909.375
        39   01 Jun 2027 16:39:15.236   01 Jun 2027 16:44:48.111           332.875            RioGallegos         41609.375
        40   01 Jun 2027 17:27:52.039   01 Jun 2027 17:31:54.003           241.964                Irkutsk         30245.500
        41   01 Jun 2027 17:40:49.716   01 Jun 2027 17:43:46.479           176.763                Sumatra         22095.375
        42   01 Jun 2027 17:45:30.791   01 Jun 2027 17:48:11.628           160.837                Sumatra         20104.625
        43   01 Jun 2027 19:05:29.188   01 Jun 2027 19:05:46.767            17.579                Novosib          2197.375
        44   01 Jun 2027 19:11:04.578   01 Jun 2027 19:13:35.734           151.156                  Delhi         18894.500
        45   01 Jun 2027 19:15:08.436   01 Jun 2027 19:15:44.250            35.814                  Delhi          4476.750
        46   01 Jun 2027 19:17:35.603   01 Jun 2027 19:18:09.841            34.238                  Delhi          4279.750
        47   01 Jun 2027 20:37:21.649   01 Jun 2027 20:39:45.330           143.681              Murmansk2         17960.125
        48   01 Jun 2027 20:40:57.275   01 Jun 2027 20:41:19.671            22.396              Murmansk2            62.376
        49   02 Jun 2027 04:33:35.476   02 Jun 2027 04:34:36.719            61.243                Irkutsk          7655.375
        50   02 Jun 2027 04:35:03.967   02 Jun 2027 04:35:08.055             4.088                Irkutsk           511.000
        51   02 Jun 2027 04:35:12.168   02 Jun 2027 04:36:09.514            57.346                Novosib          7168.250
        52   02 Jun 2027 05:11:18.275   02 Jun 2027 05:12:40.025            81.750            RioGallegos         10218.750
        53   02 Jun 2027 05:46:29.405   02 Jun 2027 05:47:39.364            69.959                Sumatra          8744.875
        54   02 Jun 2027 06:07:03.317   02 Jun 2027 06:07:43.907            40.590                Norilsk          5073.750
        55   02 Jun 2027 06:07:50.399   02 Jun 2027 06:08:41.405            51.006                Novosib          6375.750
        56   02 Jun 2027 06:08:59.427   02 Jun 2027 06:10:36.709            97.282                Irkutsk         12160.250
        57   02 Jun 2027 06:10:57.149   02 Jun 2027 06:10:57.819             0.670              Murmansk2            83.750
        58   02 Jun 2027 06:11:05.758   02 Jun 2027 06:11:46.404            40.646                Novosib          5080.750
        59   02 Jun 2027 06:46:56.366   02 Jun 2027 06:47:06.353             9.987            RioGallegos          1248.375
        60   02 Jun 2027 06:48:09.860   02 Jun 2027 06:48:17.319             7.459            RioGallegos           932.375
        61   02 Jun 2027 07:21:13.821   02 Jun 2027 07:22:13.523            59.702                Sumatra          7462.750
        62   02 Jun 2027 07:31:43.921   02 Jun 2027 07:33:42.098           118.177                  Delhi         14772.125
        63   02 Jun 2027 07:44:02.183   02 Jun 2027 07:45:09.401            67.218                Irkutsk          8402.250
        64   02 Jun 2027 07:45:40.141   02 Jun 2027 07:46:34.501            54.360                Novosib          6795.000
        65   02 Jun 2027 09:20:40.238   02 Jun 2027 09:22:03.044            82.806                Novosib         10350.750
        66   02 Jun 2027 09:22:17.491   02 Jun 2027 09:22:50.823            33.332                Novosib          4166.500
        67   02 Jun 2027 09:23:04.015   02 Jun 2027 09:23:51.046            47.031              Murmansk1          5878.875
        68   02 Jun 2027 11:09:43.297   02 Jun 2027 11:13:07.347           204.050                Anadyr1         25506.250
        69   02 Jun 2027 12:44:33.942   02 Jun 2027 12:46:12.671            98.729                Anadyr2         12341.125
        70   02 Jun 2027 12:48:47.062   02 Jun 2027 12:50:34.637           107.575                Anadyr2         13446.875
        71   02 Jun 2027 14:22:23.152   02 Jun 2027 14:28:06.972           343.820               Magadan1         42977.500
        72   02 Jun 2027 14:28:33.800   02 Jun 2027 14:31:51.884           198.084               Magadan2         24760.500
        73   02 Jun 2027 16:50:44.053   02 Jun 2027 16:58:05.997           441.944            RioGallegos         55243.000
        74   02 Jun 2027 17:41:17.532   02 Jun 2027 17:41:55.501            37.969                Irkutsk          4746.125
        75   02 Jun 2027 17:55:28.887   02 Jun 2027 17:59:31.104           242.217                Sumatra         30277.125
        76   02 Jun 2027 19:22:15.158   02 Jun 2027 19:25:20.637           185.479                  Delhi         23184.875
        77   02 Jun 2027 19:29:34.879   02 Jun 2027 19:31:08.815            93.936                  Delhi         11742.000
        78   02 Jun 2027 20:49:17.720   02 Jun 2027 20:51:46.514           148.794              Murmansk1         18599.250
        79   02 Jun 2027 22:56:34.073   02 Jun 2027 22:59:17.634           163.561               CapeTown         20445.125
        80   03 Jun 2027 04:44:20.710   03 Jun 2027 04:45:23.515            62.805               Magadan1          7850.625
        81   03 Jun 2027 04:46:05.089   03 Jun 2027 04:47:10.837            65.748                Norilsk          8218.500
        82   03 Jun 2027 04:49:15.142   03 Jun 2027 04:49:16.877             1.735              Murmansk1           216.875
        83   03 Jun 2027 05:22:08.358   03 Jun 2027 05:24:17.112           128.754            RioGallegos         16094.250
        84   03 Jun 2027 06:18:27.338   03 Jun 2027 06:18:37.541            10.203                Norilsk          1275.375
        85   03 Jun 2027 06:18:46.497   03 Jun 2027 06:19:35.237            48.740                Novosib          6092.500
        86   03 Jun 2027 06:20:00.313   03 Jun 2027 06:20:11.154            10.841                Irkutsk          1355.125
        87   03 Jun 2027 06:20:16.943   03 Jun 2027 06:20:26.577             9.634              Murmansk2          1204.250
        88   03 Jun 2027 06:20:26.577   03 Jun 2027 06:20:46.520            19.943              Murmansk1          2492.875
        89   03 Jun 2027 06:20:52.416   03 Jun 2027 06:21:16.392            23.976                Novosib          2997.000
        90   03 Jun 2027 06:21:25.549   03 Jun 2027 06:21:55.291            29.742              Murmansk1          3717.750
        91   03 Jun 2027 06:21:56.997   03 Jun 2027 06:23:24.076            87.079                Irkutsk         10884.875
        92   03 Jun 2027 07:42:43.463   03 Jun 2027 07:43:33.067            49.604                  Delhi          6200.500
        93   03 Jun 2027 07:56:45.634   03 Jun 2027 07:57:01.441            15.807                 Moscow          1975.875
        94   03 Jun 2027 07:57:16.306   03 Jun 2027 07:57:52.330            36.024                 Moscow          4503.000
        95   03 Jun 2027 07:58:02.042   03 Jun 2027 07:58:33.963            31.921              Murmansk2          3990.125
        96   03 Jun 2027 07:58:41.632   03 Jun 2027 07:59:39.360            57.728                Novosib          7216.000
        97   03 Jun 2027 07:59:45.531   03 Jun 2027 08:00:50.454            64.923                Novosib          8115.375
        98   03 Jun 2027 09:32:46.631   03 Jun 2027 09:33:23.548            36.917                Novosib          4614.625
        99   03 Jun 2027 09:33:29.764   03 Jun 2027 09:34:27.974            58.210                Novosib          7276.250
       100   03 Jun 2027 09:34:52.296   03 Jun 2027 09:34:54.313             2.017                 Moscow           252.125
       101   03 Jun 2027 09:35:31.872   03 Jun 2027 09:35:34.788             2.916                 Moscow           364.500
       102   03 Jun 2027 09:35:41.445   03 Jun 2027 09:36:11.443            29.998              Murmansk1          3749.750
       103   03 Jun 2027 11:21:06.785   03 Jun 2027 11:26:24.225           317.440                Anadyr1         39680.000
       104   03 Jun 2027 14:34:16.080   03 Jun 2027 14:36:50.246           154.166               Magadan1         19270.750
       105   03 Jun 2027 14:38:41.906   03 Jun 2027 14:40:53.591           131.685               Magadan2         16460.625
       106   03 Jun 2027 14:41:44.676   03 Jun 2027 14:43:46.258           121.582               Magadan1         15197.750
       107   03 Jun 2027 17:03:44.710   03 Jun 2027 17:08:50.235           305.525            RioGallegos         38190.625
       108   03 Jun 2027 17:47:31.910   03 Jun 2027 17:48:11.887            39.977                Norilsk          4997.125
       109   03 Jun 2027 18:09:01.342   03 Jun 2027 18:10:27.021            85.679                Sumatra         10709.875
       110   03 Jun 2027 19:35:14.293   03 Jun 2027 19:40:52.816           338.523                  Delhi         42315.375
       111   03 Jun 2027 21:00:24.379   03 Jun 2027 21:00:51.512            27.133              Murmansk1          3391.625
       112   03 Jun 2027 21:01:11.566   03 Jun 2027 21:04:04.987           173.421              Murmansk2         21677.625
       113   03 Jun 2027 21:04:22.415   03 Jun 2027 21:04:45.047            22.632              Murmansk1          2829.000
       114   03 Jun 2027 21:05:56.824   03 Jun 2027 21:07:07.912            71.088                 Moscow          8886.000
       115   03 Jun 2027 23:09:19.382   03 Jun 2027 23:10:23.859            64.477               CapeTown          8059.625
       116   04 Jun 2027 04:55:00.643   04 Jun 2027 04:56:21.310            80.667               Magadan2         10083.375
       117   04 Jun 2027 04:56:51.905   04 Jun 2027 04:57:45.920            54.015               Magadan2          6751.875
       118   04 Jun 2027 04:57:48.030   04 Jun 2027 04:57:50.883             2.853               Magadan2           356.625
       119   04 Jun 2027 04:57:53.169   04 Jun 2027 04:58:33.463            40.294               Magadan2          5036.750
       120   04 Jun 2027 04:59:05.021   04 Jun 2027 04:59:20.464            15.443                Irkutsk          1930.375
       121   04 Jun 2027 04:59:21.697   04 Jun 2027 05:00:06.099            44.402                Novosib          5550.250
       122   04 Jun 2027 05:34:06.731   04 Jun 2027 05:34:43.486            36.755            RioGallegos          4594.375
       123   04 Jun 2027 06:09:34.419   04 Jun 2027 06:11:17.899           103.480                Sumatra         12935.000
       124   04 Jun 2027 06:23:37.445   04 Jun 2027 06:23:53.844            16.399                  Delhi          2049.875
       125   04 Jun 2027 06:30:52.158   04 Jun 2027 06:30:59.390             7.232                Norilsk           904.000
       126   04 Jun 2027 06:31:11.130   04 Jun 2027 06:33:16.356           125.226                Irkutsk         15653.250
       127   04 Jun 2027 06:33:43.253   04 Jun 2027 06:34:41.853            58.600                Norilsk          7325.000
       128   04 Jun 2027 06:35:06.481   04 Jun 2027 06:36:21.666            75.185              Murmansk1          9398.125
       129   04 Jun 2027 07:47:35.960   04 Jun 2027 07:48:22.165            46.205                Sumatra          5775.625
       130   04 Jun 2027 07:53:20.292   04 Jun 2027 07:53:50.370            30.078                  Delhi          3759.750
       131   04 Jun 2027 07:56:22.528   04 Jun 2027 07:56:41.466            18.938                  Delhi          2367.250
       132   04 Jun 2027 08:08:09.580   04 Jun 2027 08:08:23.479            13.899                 Moscow          1737.375
       133   04 Jun 2027 08:08:39.731   04 Jun 2027 08:09:26.855            47.124              Murmansk1          5890.500
       134   04 Jun 2027 08:09:33.767   04 Jun 2027 08:09:39.799             6.032                Irkutsk           754.000
       135   04 Jun 2027 08:09:44.339   04 Jun 2027 08:09:57.340            13.001                Irkutsk          1625.125
       136   04 Jun 2027 08:10:00.740   04 Jun 2027 08:10:42.885            42.145                Norilsk          5268.125
       137   04 Jun 2027 08:10:55.810   04 Jun 2027 08:11:54.177            58.367              Murmansk2          7295.875
       138   04 Jun 2027 09:31:21.900   04 Jun 2027 09:32:10.802            48.902                  Delhi          6112.750
       139   04 Jun 2027 09:42:49.707   04 Jun 2027 09:43:06.880            17.173                Novosib          2146.625
       140   04 Jun 2027 09:43:11.168   04 Jun 2027 09:44:00.098            48.930              Murmansk1          6116.250
       141   04 Jun 2027 09:44:20.636   04 Jun 2027 09:45:15.688            55.052                Norilsk          6881.500
       142   04 Jun 2027 09:45:23.388   04 Jun 2027 09:45:35.921            12.533              Murmansk1          1566.625
       143   04 Jun 2027 09:45:37.367   04 Jun 2027 09:46:33.780            56.413                Norilsk          7051.625
       144   04 Jun 2027 09:46:57.309   04 Jun 2027 09:47:31.068            33.759              Murmansk1          4219.875
       145   04 Jun 2027 09:47:44.245   04 Jun 2027 09:48:32.694            48.449                Norilsk          6056.125
       146   04 Jun 2027 10:55:01.421   04 Jun 2027 10:56:41.107            99.686               CapeTown         12460.750
       147   04 Jun 2027 10:58:39.752   04 Jun 2027 10:59:10.941            31.189               CapeTown          3898.625
       148   04 Jun 2027 11:32:45.949   04 Jun 2027 11:38:38.388           352.439                Anadyr2         44054.875
       149   04 Jun 2027 14:46:10.774   04 Jun 2027 14:48:16.850           126.076               Magadan1         15759.500
       150   04 Jun 2027 14:51:24.591   04 Jun 2027 14:51:41.566            16.975               Magadan2          2121.875
       151   04 Jun 2027 14:54:53.564   04 Jun 2027 14:55:42.087            48.523               Magadan1          6065.375
       152   04 Jun 2027 17:17:18.785   04 Jun 2027 17:20:11.740           172.955            RioGallegos         21619.375
       153   04 Jun 2027 17:59:16.609   04 Jun 2027 18:01:42.946           146.337                Norilsk         18292.125
       154   04 Jun 2027 18:04:07.431   04 Jun 2027 18:07:51.213           223.782                Novosib         27972.750
       155   04 Jun 2027 19:49:27.348   04 Jun 2027 19:51:50.577           143.229                  Delhi         17903.625
       156   04 Jun 2027 21:13:01.984   04 Jun 2027 21:17:11.780           249.796              Murmansk2         31224.500
       157   04 Jun 2027 21:17:37.672   04 Jun 2027 21:19:06.473            88.801                 Moscow         11100.125
       158   04 Jun 2027 21:19:51.740   04 Jun 2027 21:20:02.057            10.317                 Moscow          1289.625
       159   04 Jun 2027 21:22:07.753   04 Jun 2027 21:22:34.444            26.691                 Moscow          3336.375
       160   05 Jun 2027 03:32:25.423   05 Jun 2027 03:32:45.785            20.362               Magadan2          2545.250
       161   05 Jun 2027 03:32:59.222   05 Jun 2027 03:33:39.815            40.593                Anadyr1          5074.125
       162   05 Jun 2027 03:34:31.167   05 Jun 2027 03:35:02.310            31.143               Magadan2          3892.875
       163   05 Jun 2027 05:06:15.289   05 Jun 2027 05:06:47.883            32.594                Novosib          4074.250
       164   05 Jun 2027 05:06:56.483   05 Jun 2027 05:07:51.514            55.031               Magadan1          6878.875
       165   05 Jun 2027 05:08:09.698   05 Jun 2027 05:10:14.334           124.636                Irkutsk         15579.500
       166   05 Jun 2027 05:10:18.899   05 Jun 2027 05:11:04.965            46.066                Irkutsk          5758.250
       167   05 Jun 2027 05:46:08.378   05 Jun 2027 05:47:10.382            62.004            RioGallegos          7750.500
       168   05 Jun 2027 06:23:58.881   05 Jun 2027 06:24:26.182            27.301                Sumatra          3412.625
       169   05 Jun 2027 06:33:18.850   05 Jun 2027 06:33:43.208            24.358                  Delhi          3044.750
       170   05 Jun 2027 06:38:35.372   05 Jun 2027 06:39:55.350            79.978                  Delhi          9997.250
       171   05 Jun 2027 06:43:26.534   05 Jun 2027 06:44:26.966            60.432                Novosib          7554.000
       172   05 Jun 2027 06:44:31.087   05 Jun 2027 06:44:50.519            19.432                Irkutsk          2429.000
       173   05 Jun 2027 06:44:53.856   05 Jun 2027 06:45:18.227            24.371              Murmansk1          3046.375
       174   05 Jun 2027 06:45:26.615   05 Jun 2027 06:45:34.331             7.716              Murmansk2           964.500
       175   05 Jun 2027 06:45:34.331   05 Jun 2027 06:46:02.770            28.439              Murmansk1          3554.875
       176   05 Jun 2027 06:46:10.818   05 Jun 2027 06:47:09.546            58.728                Norilsk          7341.000
       177   05 Jun 2027 06:48:14.274   05 Jun 2027 06:48:22.722             8.448                Novosib          1056.000
       178   05 Jun 2027 07:58:47.212   05 Jun 2027 07:58:59.833            12.621                Sumatra          1577.625
       179   05 Jun 2027 08:05:15.461   05 Jun 2027 08:06:27.285            71.824                  Delhi          8978.000
       180   05 Jun 2027 08:20:05.006   05 Jun 2027 08:20:14.626             9.620              Murmansk1          1202.500
       181   05 Jun 2027 08:20:30.809   05 Jun 2027 08:22:17.550           106.741                Novosib         13342.625
       182   05 Jun 2027 08:22:31.443   05 Jun 2027 08:22:53.807            22.364                Novosib          2795.500
       183   05 Jun 2027 08:22:57.059   05 Jun 2027 08:23:19.306            22.247              Murmansk1          2780.875
       184   05 Jun 2027 09:44:28.180   05 Jun 2027 09:45:09.681            41.501                  Delhi          5187.625
       185   05 Jun 2027 09:52:55.095   05 Jun 2027 09:54:10.126            75.031                 Moscow          9378.875
       186   05 Jun 2027 09:54:21.654   05 Jun 2027 09:55:29.513            67.859                 Moscow          8482.375
       187   05 Jun 2027 09:55:38.733   05 Jun 2027 09:55:56.604            17.871                Novosib          2233.875
       188   05 Jun 2027 09:55:59.154   05 Jun 2027 09:56:55.252            56.098                 Moscow          7012.250
       189   05 Jun 2027 09:57:12.185   05 Jun 2027 09:57:40.053            27.868              Murmansk2          3483.500
       190   05 Jun 2027 09:58:01.020   05 Jun 2027 09:59:14.182            73.162                 Moscow          9145.250
       191   05 Jun 2027 09:59:20.013   05 Jun 2027 10:00:05.887            45.874              Murmansk1          5734.250
       192   05 Jun 2027 10:00:59.224   05 Jun 2027 10:01:28.720            29.496                 Moscow          3687.000
       193   05 Jun 2027 11:05:42.049   05 Jun 2027 11:08:21.418           159.369               CapeTown         19921.125
       194   05 Jun 2027 11:44:32.041   05 Jun 2027 11:50:35.451           363.410                Anadyr1         45426.250
       195   05 Jun 2027 13:24:23.990   05 Jun 2027 13:27:20.615           176.625               Magadan2         22078.125
       196   05 Jun 2027 18:15:14.038   05 Jun 2027 18:21:18.798           364.760                Novosib         45595.000
       197   05 Jun 2027 20:02:35.612   05 Jun 2027 20:03:10.454            34.842                  Delhi          4355.250
       198   05 Jun 2027 21:24:46.295   05 Jun 2027 21:29:04.164           257.869              Murmansk2         32233.625
       199   05 Jun 2027 21:29:23.967   05 Jun 2027 21:30:52.342            88.375              Murmansk1         11046.875
       200   05 Jun 2027 21:31:05.898   05 Jun 2027 21:35:39.848           273.950                 Moscow         34243.750
       201   06 Jun 2027 03:42:55.022   06 Jun 2027 03:44:14.868            79.846                Anadyr1          9980.750
       202   06 Jun 2027 03:44:45.177   06 Jun 2027 03:46:19.130            93.953                Anadyr1         11744.125
       203   06 Jun 2027 03:46:19.130   06 Jun 2027 03:46:30.233            11.103                Anadyr2          1387.875
       204   06 Jun 2027 05:18:50.877   06 Jun 2027 05:19:46.799            55.922               Magadan1          6990.250
       205   06 Jun 2027 05:19:54.407   06 Jun 2027 05:20:21.060            26.653               Magadan1          3331.625
       206   06 Jun 2027 05:20:33.712   06 Jun 2027 05:22:03.283            89.571                Irkutsk         11196.375
       207   06 Jun 2027 05:22:29.284   06 Jun 2027 05:22:35.856             6.572               Magadan1           821.500
       208   06 Jun 2027 05:23:03.914   06 Jun 2027 05:23:29.558            25.644                Irkutsk          3205.500
       209   06 Jun 2027 05:23:33.333   06 Jun 2027 05:24:00.772            27.439                Novosib          3429.875
       210   06 Jun 2027 05:24:03.709   06 Jun 2027 05:24:35.474            31.765                Norilsk          3970.625
       211   06 Jun 2027 05:25:19.913   06 Jun 2027 05:25:33.570            13.657              Murmansk1          1707.125
       212   06 Jun 2027 05:26:48.098   06 Jun 2027 05:27:00.854            12.756              Murmansk1          1594.500
       213   06 Jun 2027 05:58:13.413   06 Jun 2027 05:59:28.220            74.807            RioGallegos          9350.875
       214   06 Jun 2027 06:33:09.202   06 Jun 2027 06:33:55.248            46.046                Sumatra          5755.750
       215   06 Jun 2027 06:44:15.287   06 Jun 2027 06:45:54.947            99.660                  Delhi         12457.500
       216   06 Jun 2027 06:55:28.124   06 Jun 2027 06:55:44.698            16.574                Norilsk          2071.750
       217   06 Jun 2027 06:55:48.748   06 Jun 2027 06:56:20.312            31.564              Murmansk1          3945.500
       218   06 Jun 2027 06:56:31.044   06 Jun 2027 06:57:46.439            75.395                Novosib          9424.375
       219   06 Jun 2027 06:58:05.079   06 Jun 2027 06:58:32.372            27.293                Norilsk          3411.625
       220   06 Jun 2027 06:58:52.673   06 Jun 2027 07:00:14.157            81.484              Murmansk2         10185.500
       221   06 Jun 2027 07:37:17.419   06 Jun 2027 07:37:39.304            21.885            RioGallegos          2735.625
       222   06 Jun 2027 08:11:52.885   06 Jun 2027 08:11:59.444             6.559                Sumatra           819.875
       223   06 Jun 2027 08:13:39.414   06 Jun 2027 08:15:03.068            83.654                Sumatra         10456.750
       224   06 Jun 2027 08:31:36.751   06 Jun 2027 08:32:05.490            28.739              Murmansk2          3592.375
       225   06 Jun 2027 08:32:22.266   06 Jun 2027 08:33:04.217            41.951                Novosib          5243.875
       226   06 Jun 2027 08:33:08.650   06 Jun 2027 08:33:24.331            15.681                Norilsk          1960.125
       227   06 Jun 2027 08:33:32.286   06 Jun 2027 08:33:48.992            16.706              Murmansk2          2088.250
       228   06 Jun 2027 08:33:48.992   06 Jun 2027 08:33:56.573             7.581              Murmansk1           947.625
       229   06 Jun 2027 08:33:56.913   06 Jun 2027 08:35:01.427            64.514                 Moscow          8064.250
       230   06 Jun 2027 09:58:55.536   06 Jun 2027 09:59:16.562            21.026                  Delhi          2628.250
       231   06 Jun 2027 10:04:42.578   06 Jun 2027 10:04:57.588            15.010                 Moscow          1876.250
       232   06 Jun 2027 10:05:05.613   06 Jun 2027 10:05:51.500            45.887              Murmansk2          5735.875
       233   06 Jun 2027 10:06:14.443   06 Jun 2027 10:07:47.651            93.208                 Moscow         11651.000
       234   06 Jun 2027 10:07:49.623   06 Jun 2027 10:08:09.538            19.915                Novosib          2489.375
       235   06 Jun 2027 10:08:19.459   06 Jun 2027 10:09:19.217            59.758              Murmansk2          7469.750
       236   06 Jun 2027 10:09:29.050   06 Jun 2027 10:10:04.727            35.677                 Moscow          4459.625
       237   06 Jun 2027 10:10:21.462   06 Jun 2027 10:11:08.390            46.928              Murmansk2          5866.000
       238   06 Jun 2027 10:11:16.818   06 Jun 2027 10:11:50.517            33.699                 Moscow          4212.375
       239   06 Jun 2027 10:11:56.047   06 Jun 2027 10:12:35.275            39.228                Norilsk          4903.500
       240   06 Jun 2027 11:16:56.332   06 Jun 2027 11:20:07.127           190.795               CapeTown         23849.375
       241   06 Jun 2027 11:22:14.666   06 Jun 2027 11:22:25.754            11.088               CapeTown          1386.000
       242   06 Jun 2027 11:24:20.527   06 Jun 2027 11:25:41.351            80.824               CapeTown         10103.000
       243   06 Jun 2027 11:56:22.200   06 Jun 2027 12:01:17.961           295.761                Anadyr1         36970.125
       244   06 Jun 2027 13:35:41.970   06 Jun 2027 13:36:51.528            69.558               Magadan2          8694.750
       245   06 Jun 2027 13:36:51.528   06 Jun 2027 13:38:49.611           118.083               Magadan1         14760.375
       246   06 Jun 2027 16:51:58.793   06 Jun 2027 16:56:47.507           288.714                Irkutsk         36089.250
       247   06 Jun 2027 18:26:43.375   06 Jun 2027 18:34:20.580           457.205                Novosib         57150.625
       248   06 Jun 2027 21:36:15.601   06 Jun 2027 21:37:18.502            62.901              Murmansk1          7862.625
       249   06 Jun 2027 21:38:57.228   06 Jun 2027 21:40:59.017           121.789              Murmansk1         15223.625
       250   06 Jun 2027 21:41:03.356   06 Jun 2027 21:45:00.763           237.407                 Moscow         29675.875
       251   06 Jun 2027 22:08:24.503   06 Jun 2027 22:09:11.662            47.159               CapeTown          5894.875
       252   06 Jun 2027 22:10:12.547   06 Jun 2027 22:12:14.215           121.668               CapeTown         15208.500
       253   07 Jun 2027 03:55:06.988   07 Jun 2027 03:55:21.073            14.085                Anadyr2          1760.625
       254   07 Jun 2027 03:55:22.228   07 Jun 2027 03:55:31.778             9.550               Magadan1          1193.750
       255   07 Jun 2027 03:55:44.030   07 Jun 2027 03:56:17.993            33.963               Magadan1          4245.375
       256   07 Jun 2027 03:56:45.219   07 Jun 2027 03:58:20.377            95.158                Anadyr1         11894.750
       257   07 Jun 2027 03:59:01.865   07 Jun 2027 03:59:40.094            38.229               Magadan2          4778.625
       258   07 Jun 2027 05:14:31.726   07 Jun 2027 05:15:39.304            67.578                Sumatra          8447.250
       259   07 Jun 2027 05:30:46.572   07 Jun 2027 05:31:57.212            70.640               Magadan2          8830.000
       260   07 Jun 2027 05:32:05.272   07 Jun 2027 05:32:20.036            14.764               Magadan2          1845.500
       261   07 Jun 2027 05:32:20.036   07 Jun 2027 05:32:38.103            18.067               Magadan1          2258.375
       262   07 Jun 2027 05:32:44.549   07 Jun 2027 05:33:44.287            59.738               Magadan2          7467.250
       263   07 Jun 2027 05:33:57.959   07 Jun 2027 05:34:15.378            17.419               Magadan2          2177.375
       264   07 Jun 2027 05:34:21.198   07 Jun 2027 05:35:36.776            75.578                Novosib          9447.250
       265   07 Jun 2027 06:57:37.944   07 Jun 2027 06:58:13.022            35.078                  Delhi          4384.750
       266   07 Jun 2027 07:02:31.659   07 Jun 2027 07:03:13.492            41.833                  Delhi          5229.125
       267   07 Jun 2027 07:07:03.315   07 Jun 2027 07:07:58.642            55.327                Irkutsk          6915.875
       268   07 Jun 2027 07:08:24.293   07 Jun 2027 07:09:16.231            51.938                 Moscow          6492.250
       269   07 Jun 2027 07:09:22.334   07 Jun 2027 07:10:08.853            46.519                Irkutsk          5814.875
       270   07 Jun 2027 07:10:26.343   07 Jun 2027 07:11:12.792            46.449                 Moscow          5806.125
       271   07 Jun 2027 07:11:31.537   07 Jun 2027 07:11:58.036            26.499                Norilsk          3312.375
       272   07 Jun 2027 07:12:11.225   07 Jun 2027 07:12:16.891             5.666                 Moscow           708.250
       273   07 Jun 2027 07:12:52.664   07 Jun 2027 07:13:11.202            18.538                 Moscow          2317.250
       274   07 Jun 2027 08:29:21.771   07 Jun 2027 08:30:59.247            97.476                  Delhi         12184.500
       275   07 Jun 2027 08:43:35.866   07 Jun 2027 08:43:57.090            21.224              Murmansk1          2653.000
       276   07 Jun 2027 08:44:07.194   07 Jun 2027 08:44:37.158            29.964              Murmansk1          3745.500
       277   07 Jun 2027 08:44:49.473   07 Jun 2027 08:45:33.133            43.660              Murmansk1          5457.500
       278   07 Jun 2027 08:45:33.133   07 Jun 2027 08:45:37.374             4.241              Murmansk2           530.125
       279   07 Jun 2027 08:45:41.172   07 Jun 2027 08:45:46.546             5.374                Novosib           671.750
       280   07 Jun 2027 08:45:51.963   07 Jun 2027 08:46:59.977            68.014                 Moscow          8501.750
       281   07 Jun 2027 08:47:11.312   07 Jun 2027 08:47:34.864            23.552                 Moscow          2944.000
       282   07 Jun 2027 10:16:59.564   07 Jun 2027 10:17:42.720            43.156                 Moscow          5394.500
       283   07 Jun 2027 10:18:12.847   07 Jun 2027 10:20:21.748           128.901                 Moscow         16112.625
       284   07 Jun 2027 10:20:28.554   07 Jun 2027 10:21:13.671            45.117              Murmansk1          5639.625
       285   07 Jun 2027 10:21:27.729   07 Jun 2027 10:22:35.715            67.986                Norilsk          8498.250
       286   07 Jun 2027 10:22:51.396   07 Jun 2027 10:22:56.314             4.918              Murmansk2           614.750
       287   07 Jun 2027 10:22:59.157   07 Jun 2027 10:23:16.349            17.192                 Moscow          2149.000
       288   07 Jun 2027 10:23:21.390   07 Jun 2027 10:23:48.243            26.853              Murmansk1          3356.625
       289   07 Jun 2027 11:28:24.963   07 Jun 2027 11:29:59.679            94.716               CapeTown         11839.500
       290   07 Jun 2027 11:30:03.471   07 Jun 2027 11:34:11.120           247.649               CapeTown         30956.125
       291   07 Jun 2027 12:08:15.055   07 Jun 2027 12:09:45.412            90.357                Anadyr1         11294.625
       292   07 Jun 2027 12:10:44.050   07 Jun 2027 12:12:08.101            84.051                Anadyr1         10506.375
       293   07 Jun 2027 13:47:16.858   07 Jun 2027 13:50:21.778           184.920               Magadan2         23115.000
       294   07 Jun 2027 13:53:24.178   07 Jun 2027 13:54:41.886            77.708               Magadan1          9713.500
       295   07 Jun 2027 17:03:13.981   07 Jun 2027 17:10:11.866           417.885                Irkutsk         52235.625
       296   07 Jun 2027 17:19:18.567   07 Jun 2027 17:20:40.340            81.773                Sumatra         10221.625
       297   07 Jun 2027 17:21:56.146   07 Jun 2027 17:24:21.971           145.825                Sumatra         18228.125
       298   07 Jun 2027 18:38:53.985   07 Jun 2027 18:41:35.440           161.455                Novosib         20181.875
       299   07 Jun 2027 18:43:35.843   07 Jun 2027 18:44:49.320            73.477                Novosib          9184.625
       300   07 Jun 2027 21:47:51.288   07 Jun 2027 21:49:35.244           103.956              Murmansk2         12994.500
       301   07 Jun 2027 21:51:37.260   07 Jun 2027 21:53:43.596           126.336              Murmansk2         15792.000
       302   07 Jun 2027 21:53:51.720   07 Jun 2027 21:55:37.324           105.604                 Moscow         13200.500
       303   07 Jun 2027 22:18:51.756   07 Jun 2027 22:20:37.757           106.001               CapeTown         13250.125
       304   08 Jun 2027 04:06:45.327   08 Jun 2027 04:07:14.922            29.595                Anadyr2          3699.375
       305   08 Jun 2027 04:07:30.126   08 Jun 2027 04:07:50.220            20.094               Magadan2          2511.750
       306   08 Jun 2027 04:08:25.372   08 Jun 2027 04:10:21.488           116.116                Anadyr1         14514.500
       307   08 Jun 2027 04:10:52.566   08 Jun 2027 04:10:59.575             7.009                Anadyr2           876.125
       308   08 Jun 2027 04:11:00.150   08 Jun 2027 04:11:37.779            37.629               Magadan1          4703.625
       309   08 Jun 2027 04:54:05.295   08 Jun 2027 04:54:25.668            20.373            RioGallegos          2546.625
       310   08 Jun 2027 04:58:36.546   08 Jun 2027 04:58:39.914             3.368            RioGallegos           421.000
       311   08 Jun 2027 05:24:31.988   08 Jun 2027 05:25:50.417            78.429                Sumatra          9803.625
       312   08 Jun 2027 05:28:10.291   08 Jun 2027 05:30:20.997           130.706                Sumatra         16338.250
       313   08 Jun 2027 05:43:03.796   08 Jun 2027 05:43:50.203            46.407                Irkutsk          5800.875
       314   08 Jun 2027 05:43:52.453   08 Jun 2027 05:45:28.452            95.999                Novosib         11999.875
       315   08 Jun 2027 05:46:04.655   08 Jun 2027 05:46:16.406            11.751                Norilsk          1468.875
       316   08 Jun 2027 05:46:27.774   08 Jun 2027 05:47:35.615            67.841                Irkutsk          8480.125
       317   08 Jun 2027 06:22:57.201   08 Jun 2027 06:23:02.108             4.907            RioGallegos           613.375
       318   08 Jun 2027 06:32:08.316   08 Jun 2027 06:32:21.504            13.188            RioGallegos          1648.500
       319   08 Jun 2027 06:57:07.345   08 Jun 2027 06:58:06.082            58.737                Sumatra          7342.125
       320   08 Jun 2027 07:06:50.995   08 Jun 2027 07:07:41.501            50.506                  Delhi          6313.250
       321   08 Jun 2027 07:19:01.749   08 Jun 2027 07:19:37.662            35.913                Irkutsk          4489.125
       322   08 Jun 2027 07:20:08.473   08 Jun 2027 07:21:01.370            52.897                 Moscow          6612.125
       323   08 Jun 2027 07:21:24.758   08 Jun 2027 07:21:40.892            16.134              Murmansk2          2016.750
       324   08 Jun 2027 07:21:40.892   08 Jun 2027 07:22:36.042            55.150              Murmansk1          6893.750
       325   08 Jun 2027 07:22:52.261   08 Jun 2027 07:23:07.258            14.997                Irkutsk          1874.625
       326   08 Jun 2027 07:23:17.379   08 Jun 2027 07:23:56.215            38.836                Novosib          4854.500
       327   08 Jun 2027 07:23:56.271   08 Jun 2027 07:24:15.380            19.109              Murmansk2          2388.625
       328   08 Jun 2027 07:24:47.354   08 Jun 2027 07:24:54.752             7.398                 Moscow           924.750
       329   08 Jun 2027 08:03:39.377   08 Jun 2027 08:04:51.023            71.646            RioGallegos          8955.750
       330   08 Jun 2027 08:54:44.908   08 Jun 2027 08:55:27.331            42.423                Norilsk          5302.875
       331   08 Jun 2027 08:55:30.380   08 Jun 2027 08:55:49.445            19.065              Murmansk2          2383.125
       332   08 Jun 2027 08:55:57.788   08 Jun 2027 08:56:35.464            37.676                 Moscow          4709.500
       333   08 Jun 2027 08:56:47.637   08 Jun 2027 08:57:10.895            23.258                Novosib          2907.250
       334   08 Jun 2027 08:57:23.284   08 Jun 2027 08:58:57.445            94.161                 Moscow         11770.125
       335   08 Jun 2027 09:00:31.184   08 Jun 2027 09:01:07.140            35.956                 Moscow          4494.500
       336   08 Jun 2027 10:29:10.929   08 Jun 2027 10:29:15.978             5.049              Murmansk1           631.125
       337   08 Jun 2027 10:29:37.417   08 Jun 2027 10:30:58.553            81.136              Murmansk1         10142.000
       338   08 Jun 2027 10:30:58.553   08 Jun 2027 10:31:54.207            55.654              Murmansk2          6956.750
       339   08 Jun 2027 10:32:07.620   08 Jun 2027 10:32:11.024             3.404              Murmansk2           425.500
       340   08 Jun 2027 10:32:18.556   08 Jun 2027 10:33:08.836            50.280              Murmansk2          6285.000
       341   08 Jun 2027 10:33:20.957   08 Jun 2027 10:34:10.698            49.741                 Moscow          6217.625
       342   08 Jun 2027 11:40:02.316   08 Jun 2027 11:41:05.117            62.801               CapeTown          7850.125
       343   08 Jun 2027 11:43:50.652   08 Jun 2027 11:46:30.193           159.541               CapeTown         19942.625
       344   08 Jun 2027 12:20:09.835   08 Jun 2027 12:22:45.490           155.655                Anadyr1         19456.875
       345   08 Jun 2027 12:23:38.818   08 Jun 2027 12:24:28.056            49.238                Anadyr1          6154.750
       346   08 Jun 2027 12:27:22.856   08 Jun 2027 12:29:00.491            97.635                Anadyr2         12204.375
       347   08 Jun 2027 13:58:59.596   08 Jun 2027 14:03:58.137           298.541               Magadan1         37317.625
       348   08 Jun 2027 16:28:20.159   08 Jun 2027 16:30:56.151           155.992            RioGallegos         19499.000
       349   08 Jun 2027 17:14:45.638   08 Jun 2027 17:19:42.162           296.524                Irkutsk         37065.500
       350   08 Jun 2027 17:20:59.842   08 Jun 2027 17:21:48.898            49.056                Irkutsk          6132.000
       351   08 Jun 2027 17:29:56.474   08 Jun 2027 17:32:16.991           140.517                Sumatra         17564.625
       352   08 Jun 2027 17:36:19.068   08 Jun 2027 17:37:54.227            95.159                Sumatra         11894.875
       353   08 Jun 2027 18:53:36.428   08 Jun 2027 18:54:05.507            29.079                Novosib          3634.875
       354   08 Jun 2027 19:00:45.063   08 Jun 2027 19:02:47.965           122.902                  Delhi         15362.750
       355   08 Jun 2027 19:04:06.095   08 Jun 2027 19:04:45.259            39.164                  Delhi          4895.500
       356   08 Jun 2027 20:25:41.735   08 Jun 2027 20:27:59.206           137.471              Murmansk2         17183.875
       357   08 Jun 2027 22:03:28.696   08 Jun 2027 22:05:20.280           111.584                 Moscow         13948.000
       358   08 Jun 2027 22:07:03.024   08 Jun 2027 22:07:08.404             5.380                 Moscow           672.500
       359   08 Jun 2027 22:07:32.887   08 Jun 2027 22:09:49.237           136.350                 Moscow         17043.750
       360   09 Jun 2027 04:19:33.627   09 Jun 2027 04:20:05.405            31.778                Irkutsk          3972.250
       361   09 Jun 2027 04:20:53.596   09 Jun 2027 04:21:31.312            37.716               Magadan2          4714.500
       362   09 Jun 2027 04:22:13.079   09 Jun 2027 04:22:56.553            43.474                Irkutsk          5434.250
       363   09 Jun 2027 04:23:03.573   09 Jun 2027 04:23:34.466            30.893               Magadan1          3861.625
       364   09 Jun 2027 04:23:39.632   09 Jun 2027 04:24:12.341            32.709                Norilsk          4088.625
       365   09 Jun 2027 04:58:35.722   09 Jun 2027 04:58:55.335            19.613            RioGallegos          2451.625
       366   09 Jun 2027 04:59:57.260   09 Jun 2027 05:01:05.025            67.765            RioGallegos          8470.625
       367   09 Jun 2027 05:35:27.736   09 Jun 2027 05:35:54.068            26.332                Sumatra          3291.500
       368   09 Jun 2027 05:41:35.359   09 Jun 2027 05:42:23.216            47.857                Sumatra          5982.125
       369   09 Jun 2027 05:55:07.016   09 Jun 2027 05:56:19.522            72.506                Irkutsk          9063.250
       370   09 Jun 2027 05:56:35.130   09 Jun 2027 05:56:40.845             5.715               Magadan1           714.375
       371   09 Jun 2027 05:56:50.623   09 Jun 2027 05:57:04.357            13.734                Norilsk          1716.750
       372   09 Jun 2027 05:57:17.276   09 Jun 2027 05:58:26.803            69.527              Murmansk1          8690.875
       373   09 Jun 2027 05:58:28.167   09 Jun 2027 05:58:56.757            28.590                Novosib          3573.750
       374   09 Jun 2027 05:59:30.187   09 Jun 2027 05:59:55.813            25.626                Novosib          3203.250
       375   09 Jun 2027 06:00:00.660   09 Jun 2027 06:00:56.730            56.070              Murmansk1          7008.750
       376   09 Jun 2027 06:34:50.583   09 Jun 2027 06:35:08.015            17.432            RioGallegos          2179.000
       377   09 Jun 2027 06:37:18.545   09 Jun 2027 06:37:23.731             5.186            RioGallegos           648.250
       378   09 Jun 2027 07:09:14.903   09 Jun 2027 07:10:47.932            93.029                Sumatra         11628.625
       379   09 Jun 2027 07:20:02.561   09 Jun 2027 07:21:59.160           116.599                  Delhi         14574.875
       380   09 Jun 2027 07:30:58.983   09 Jun 2027 07:31:19.843            20.860                Irkutsk          2607.500
       381   09 Jun 2027 07:32:35.037   09 Jun 2027 07:33:09.457            34.420                 Moscow          4302.500
       382   09 Jun 2027 07:33:14.122   09 Jun 2027 07:34:41.949            87.827                Novosib         10978.375
       383   09 Jun 2027 07:35:01.883   09 Jun 2027 07:35:46.076            44.193              Murmansk2          5524.125
       384   09 Jun 2027 08:53:51.224   09 Jun 2027 08:54:26.437            35.213                  Delhi          4401.625
       385   09 Jun 2027 09:06:54.535   09 Jun 2027 09:07:19.299            24.764              Murmansk2          3095.500
       386   09 Jun 2027 09:07:25.917   09 Jun 2027 09:09:04.433            98.516                Norilsk         12314.500
       387   09 Jun 2027 09:09:22.690   09 Jun 2027 09:09:35.243            12.553                 Moscow          1569.125
       388   09 Jun 2027 09:09:37.894   09 Jun 2027 09:09:47.321             9.427              Murmansk1          1178.375
       389   09 Jun 2027 09:09:52.528   09 Jun 2027 09:10:13.527            20.999              Murmansk1          2624.875
       390   09 Jun 2027 09:10:19.017   09 Jun 2027 09:10:45.907            26.890                Norilsk          3361.250
       391   09 Jun 2027 09:10:54.478   09 Jun 2027 09:11:11.615            17.137                Novosib          2142.125
       392   09 Jun 2027 09:11:23.233   09 Jun 2027 09:12:16.921            53.688              Murmansk1          6711.000
       393   09 Jun 2027 10:44:01.949   09 Jun 2027 10:45:24.842            82.893              Murmansk2         10361.625
       394   09 Jun 2027 10:45:51.670   09 Jun 2027 10:47:24.139            92.469                 Moscow         11558.625
       395   09 Jun 2027 10:51:41.156   09 Jun 2027 10:51:43.029             1.873              Murmansk1           234.125
       396   09 Jun 2027 11:51:45.801   09 Jun 2027 11:53:14.506            88.705               CapeTown         11088.125
       397   09 Jun 2027 11:55:47.330   09 Jun 2027 11:56:18.083            30.753               CapeTown          3844.125
       398   09 Jun 2027 11:57:13.052   09 Jun 2027 11:57:52.979            39.927               CapeTown          4990.875
       399   09 Jun 2027 12:32:06.040   09 Jun 2027 12:32:37.579            31.539                Anadyr1          3942.375
       400   09 Jun 2027 12:32:37.579   09 Jun 2027 12:34:15.893            98.314                Anadyr2         12289.250
       401   09 Jun 2027 12:36:23.196   09 Jun 2027 12:37:32.454            69.258                Anadyr2          8657.250
       402   09 Jun 2027 12:39:49.984   09 Jun 2027 12:41:01.594            71.610                Anadyr1          8951.250
       403   09 Jun 2027 14:10:47.040   09 Jun 2027 14:16:25.391           338.351               Magadan1         42293.875
       404   09 Jun 2027 16:39:29.403   09 Jun 2027 16:42:42.173           192.770            RioGallegos         24096.250
       405   09 Jun 2027 17:28:08.048   09 Jun 2027 17:32:08.950           240.902                Irkutsk         30112.750
       406   09 Jun 2027 17:33:01.043   09 Jun 2027 17:34:36.728            95.685                Irkutsk         11960.625
       407   09 Jun 2027 17:41:03.803   09 Jun 2027 17:44:00.954           177.151                Sumatra         22143.875
       408   09 Jun 2027 17:46:30.805   09 Jun 2027 17:48:26.450           115.645                Sumatra         14455.625
       409   09 Jun 2027 19:05:44.557   09 Jun 2027 19:06:01.362            16.805                Novosib          2100.625
       410   09 Jun 2027 19:11:18.465   09 Jun 2027 19:13:50.149           151.684                  Delhi         18960.500
       411   09 Jun 2027 19:15:58.907   09 Jun 2027 19:17:50.274           111.367                  Delhi         13920.875
       412   09 Jun 2027 22:15:19.576   09 Jun 2027 22:17:09.155           109.579                 Moscow         13697.375
       413   09 Jun 2027 22:43:22.042   09 Jun 2027 22:43:50.226            28.184               CapeTown          3523.000
       414   09 Jun 2027 22:46:03.365   09 Jun 2027 22:47:53.154           109.789               CapeTown         13723.625
       415   10 Jun 2027 04:33:13.876   10 Jun 2027 04:33:39.962            26.086               Magadan2          3260.750
       416   10 Jun 2027 04:33:49.832   10 Jun 2027 04:34:50.994            61.162                Irkutsk          7645.250
       417   10 Jun 2027 04:35:17.214   10 Jun 2027 04:35:22.760             5.546                Irkutsk           693.250
       418   10 Jun 2027 04:35:24.140   10 Jun 2027 04:36:03.919            39.779                Norilsk          4972.375
       419   10 Jun 2027 04:36:31.441   10 Jun 2027 04:36:52.682            21.241              Murmansk2          2655.125
       420   10 Jun 2027 05:10:27.745   10 Jun 2027 05:11:32.676            64.931            RioGallegos          8116.375
       421   10 Jun 2027 05:46:43.576   10 Jun 2027 05:49:55.343           191.767                Sumatra         23970.875
       422   10 Jun 2027 06:07:11.803   10 Jun 2027 06:08:21.053            69.250                Irkutsk          8656.250
       423   10 Jun 2027 06:08:40.379   10 Jun 2027 06:09:53.234            72.855                Irkutsk          9106.875
       424   10 Jun 2027 06:10:19.333   10 Jun 2027 06:10:45.847            26.514              Murmansk1          3314.250
       425   10 Jun 2027 06:10:46.343   10 Jun 2027 06:11:38.531            52.188                Irkutsk          6523.500
       426   10 Jun 2027 07:21:28.643   10 Jun 2027 07:22:28.006            59.363                Sumatra          7420.375
       427   10 Jun 2027 07:44:05.773   10 Jun 2027 07:44:53.089            47.316                 Moscow          5914.500
       428   10 Jun 2027 07:44:58.265   10 Jun 2027 07:45:22.786            24.521              Murmansk1          3065.125
       429   10 Jun 2027 07:45:39.579   10 Jun 2027 07:46:49.931            70.352                Novosib          8794.000
       430   10 Jun 2027 07:47:19.047   10 Jun 2027 07:48:01.980            42.933                Novosib          5366.625
       431   10 Jun 2027 09:18:50.999   10 Jun 2027 09:20:23.785            92.786                 Moscow         11598.250
       432   10 Jun 2027 09:20:55.104   10 Jun 2027 09:22:04.185            69.081                Norilsk          8635.125
       433   10 Jun 2027 09:22:21.620   10 Jun 2027 09:23:20.930            59.310                Norilsk          7413.750
       434   10 Jun 2027 09:23:27.180   10 Jun 2027 09:23:57.924            30.744                Novosib          3843.000
       435   10 Jun 2027 09:24:00.612   10 Jun 2027 09:24:20.816            20.204                 Moscow          2525.500
       436   10 Jun 2027 10:57:01.175   10 Jun 2027 10:57:50.660            49.485              Murmansk2          6185.625
       437   10 Jun 2027 10:58:18.531   10 Jun 2027 10:58:24.346             5.815              Murmansk2           726.875
       438   10 Jun 2027 11:00:22.676   10 Jun 2027 11:00:41.794            19.118              Murmansk1          2389.750
       439   10 Jun 2027 11:09:57.301   10 Jun 2027 11:13:23.079           205.778                Anadyr2         25722.250
       440   10 Jun 2027 12:44:52.023   10 Jun 2027 12:46:27.531            95.508                Anadyr2         11938.500
       441   10 Jun 2027 12:49:02.163   10 Jun 2027 12:50:49.493           107.330                Anadyr2         13416.250
       442   10 Jun 2027 14:22:37.676   10 Jun 2027 14:26:17.812           220.136               Magadan1         27517.000
       443   10 Jun 2027 14:26:23.423   10 Jun 2027 14:28:48.709           145.286               Magadan2         18160.750
       444   10 Jun 2027 14:31:16.081   10 Jun 2027 14:31:16.375             0.294               Magadan2            36.750
       445   10 Jun 2027 16:50:58.370   10 Jun 2027 16:55:49.571           291.201            RioGallegos         36400.125
       446   10 Jun 2027 16:57:07.174   10 Jun 2027 16:58:19.021            71.847            RioGallegos          8980.875
       447   10 Jun 2027 17:41:33.039   10 Jun 2027 17:42:10.082            37.043                Irkutsk          4630.375
       448   10 Jun 2027 17:55:45.296   10 Jun 2027 17:59:44.745           239.449                Sumatra         29931.125
       449   10 Jun 2027 19:22:29.300   10 Jun 2027 19:25:35.119           185.819                  Delhi         23227.375
       450   10 Jun 2027 19:29:49.602   10 Jun 2027 19:31:24.610            95.008                  Delhi         11876.000
       451   10 Jun 2027 20:48:08.059   10 Jun 2027 20:49:35.103            87.044              Murmansk2         10880.500
       452   10 Jun 2027 20:51:38.953   10 Jun 2027 20:52:01.353            22.400              Murmansk2          2800.000
       453   10 Jun 2027 22:56:49.452   10 Jun 2027 22:57:53.771            64.319               CapeTown          8039.875
       454   10 Jun 2027 22:58:20.818   10 Jun 2027 22:59:31.494            70.676               CapeTown          8834.500
       455   11 Jun 2027 03:10:07.618   11 Jun 2027 03:10:30.001            22.383               Magadan1          2797.875
       456   11 Jun 2027 04:42:24.458   11 Jun 2027 04:42:27.444             2.986                Irkutsk           373.250
       457   11 Jun 2027 04:42:35.403   11 Jun 2027 04:42:43.271             7.868                Irkutsk           983.500
       458   11 Jun 2027 04:42:43.756   11 Jun 2027 04:42:59.961            16.205               Magadan2          2025.625
       459   11 Jun 2027 04:43:18.242   11 Jun 2027 04:44:35.559            77.317               Magadan2          9664.625
       460   11 Jun 2027 04:45:22.646   11 Jun 2027 04:46:54.238            91.592                Irkutsk         11449.000
       461   11 Jun 2027 04:46:56.255   11 Jun 2027 04:47:23.806            27.551               Magadan1          3443.875
       462   11 Jun 2027 04:47:31.919   11 Jun 2027 04:47:39.447             7.528                Norilsk           941.000
       463   11 Jun 2027 04:47:46.432   11 Jun 2027 04:47:50.213             3.781              Murmansk2           472.625
       464   11 Jun 2027 04:48:24.263   11 Jun 2027 04:49:00.438            36.175              Murmansk2          4521.875
       465   11 Jun 2027 05:22:22.936   11 Jun 2027 05:22:36.622            13.686            RioGallegos          1710.750
       466   11 Jun 2027 05:22:56.171   11 Jun 2027 05:24:31.517            95.346            RioGallegos         11918.250
       467   11 Jun 2027 06:02:53.279   11 Jun 2027 06:03:25.307            32.028                Sumatra          4003.500
       468   11 Jun 2027 06:19:32.797   11 Jun 2027 06:19:50.031            17.234                Novosib          2154.250
       469   11 Jun 2027 06:19:59.104   11 Jun 2027 06:20:17.348            18.244                Norilsk          2280.500
       470   11 Jun 2027 06:20:25.849   11 Jun 2027 06:21:40.574            74.725                Irkutsk          9340.625
       471   11 Jun 2027 06:21:50.288   11 Jun 2027 06:22:37.134            46.846                Irkutsk          5855.750
       472   11 Jun 2027 06:23:02.980   11 Jun 2027 06:23:32.759            29.779                Norilsk          3722.375
       473   11 Jun 2027 06:23:59.770   11 Jun 2027 06:25:07.068            67.298                Novosib          8412.250
       474   11 Jun 2027 07:33:49.564   11 Jun 2027 07:34:14.873            25.309                Sumatra          3163.625
       475   11 Jun 2027 07:37:04.693   11 Jun 2027 07:37:37.575            32.882                Sumatra          4110.250
       476   11 Jun 2027 07:42:59.188   11 Jun 2027 07:43:47.592            48.404                  Delhi          6050.500
       477   11 Jun 2027 07:56:18.223   11 Jun 2027 07:56:23.756             5.533              Murmansk1           691.625
       478   11 Jun 2027 07:56:27.612   11 Jun 2027 07:57:01.498            33.886                 Moscow          4235.750
       479   11 Jun 2027 07:57:11.196   11 Jun 2027 07:57:32.735            21.539                Norilsk          2692.375
       480   11 Jun 2027 07:57:37.562   11 Jun 2027 07:57:45.323             7.761                Irkutsk           970.125
       481   11 Jun 2027 07:57:46.480   11 Jun 2027 07:58:16.692            30.212              Murmansk1          3776.500
       482   11 Jun 2027 07:58:28.286   11 Jun 2027 07:58:58.631            30.345                Norilsk          3793.125
