uniorb/output/strategy_1/Drop/Drop_KinoSat_111105.txt

KinoSat_111105
-------------------------
    Access    *     Start Time (UTCG)     *     Stop Time (UTCG)  *   Duration (s)        *       Station  *  Data (Mbytes)
         1   01 Jun 2027 03:37:11.808   01 Jun 2027 03:37:37.329            25.521              Murmansk1           797.531
         2   01 Jun 2027 03:38:23.624   01 Jun 2027 03:45:12.404           408.780                 Moscow         12774.375
         3   01 Jun 2027 03:57:11.363   01 Jun 2027 03:58:28.974            77.611               CapeTown          2425.344
         4   01 Jun 2027 03:58:39.453   01 Jun 2027 03:59:01.106            21.653               CapeTown           676.656
         5   01 Jun 2027 03:59:20.300   01 Jun 2027 04:01:17.298           116.998               CapeTown          3656.187
         6   01 Jun 2027 04:59:30.560   01 Jun 2027 04:59:58.889            28.329               Magadan2           885.281
         7   01 Jun 2027 05:00:11.459   01 Jun 2027 05:00:51.928            40.469               Magadan1          1264.656
         8   01 Jun 2027 05:00:53.479   01 Jun 2027 05:01:02.720             9.241                Anadyr1           288.781
         9   01 Jun 2027 05:01:02.720   01 Jun 2027 05:02:20.634            77.914                Anadyr2          2434.813
        10   01 Jun 2027 05:02:24.647   01 Jun 2027 05:03:12.797            48.150                Anadyr1          1504.687
        11   01 Jun 2027 05:04:18.701   01 Jun 2027 05:04:23.419             4.718                Anadyr1           147.438
        12   01 Jun 2027 06:37:15.501   01 Jun 2027 06:39:33.506           138.005               Magadan1          4312.656
        13   01 Jun 2027 06:39:33.506   01 Jun 2027 06:40:29.544            56.038               Magadan2          1751.188
        14   01 Jun 2027 07:17:40.521   01 Jun 2027 07:18:22.352            41.831            RioGallegos          1307.219
        15   01 Jun 2027 08:12:10.465   01 Jun 2027 08:14:46.732           156.267               Magadan1          4883.344
        16   01 Jun 2027 08:14:49.117   01 Jun 2027 08:15:54.875            65.758                Novosib          2054.937
        17   01 Jun 2027 08:16:05.492   01 Jun 2027 08:16:41.528            36.036              Murmansk2          1126.125
        18   01 Jun 2027 08:16:41.528   01 Jun 2027 08:18:41.159           119.631              Murmansk1          3738.469
        19   01 Jun 2027 08:19:22.389   01 Jun 2027 08:19:35.007            12.618              Murmansk1           394.313
        20   01 Jun 2027 08:21:21.362   01 Jun 2027 08:21:45.354            23.992              Murmansk1           749.750
        21   01 Jun 2027 08:23:35.318   01 Jun 2027 08:24:33.005            57.687              Murmansk1          1802.719
        22   01 Jun 2027 08:55:00.272   01 Jun 2027 08:55:28.773            28.501            RioGallegos           890.656
        23   01 Jun 2027 09:27:20.423   01 Jun 2027 09:28:00.799            40.376                Sumatra          1261.750
        24   01 Jun 2027 09:29:52.528   01 Jun 2027 09:30:51.777            59.249                Sumatra          1851.531
        25   01 Jun 2027 09:48:37.534   01 Jun 2027 09:50:34.944           117.410                Irkutsk          3669.063
        26   01 Jun 2027 09:50:39.560   01 Jun 2027 09:51:55.303            75.743              Murmansk1          2366.969
        27   01 Jun 2027 09:52:10.999   01 Jun 2027 09:53:20.318            69.319                Irkutsk          2166.219
        28   01 Jun 2027 09:53:21.378   01 Jun 2027 09:54:34.637            73.259                Novosib          2289.344
        29   01 Jun 2027 10:30:38.272   01 Jun 2027 10:30:41.882             3.610            RioGallegos           112.812
        30   01 Jun 2027 10:33:10.513   01 Jun 2027 10:34:31.705            81.192            RioGallegos          2537.250
        31   01 Jun 2027 11:04:56.552   01 Jun 2027 11:05:06.538             9.986                Sumatra           312.062
        32   01 Jun 2027 11:11:18.442   01 Jun 2027 11:14:13.838           175.396                  Delhi          5481.125
        33   01 Jun 2027 11:27:25.219   01 Jun 2027 11:27:28.737             3.518                Irkutsk           109.937
        34   01 Jun 2027 11:27:34.432   01 Jun 2027 11:31:21.772           227.340              Murmansk1          7104.375
        35   01 Jun 2027 11:31:54.756   01 Jun 2027 11:31:59.634             4.878                 Moscow           152.437
        36   01 Jun 2027 11:32:26.654   01 Jun 2027 11:32:37.640            10.986                Norilsk           343.312
        37   01 Jun 2027 11:33:31.932   01 Jun 2027 11:33:55.317            23.385              Murmansk2           730.781
        38   01 Jun 2027 12:50:40.380   01 Jun 2027 12:51:50.690            70.310                  Delhi          2197.188
        39   01 Jun 2027 12:54:15.422   01 Jun 2027 12:54:43.885            28.463                  Delhi           889.469
        40   01 Jun 2027 12:55:52.672   01 Jun 2027 12:56:08.464            15.792                 Moscow           493.500
        41   01 Jun 2027 12:56:47.609   01 Jun 2027 12:58:35.359           107.750                 Moscow          3367.188
        42   01 Jun 2027 12:59:08.410   01 Jun 2027 13:02:19.614           191.204              Murmansk1          5975.125
        43   01 Jun 2027 14:11:38.206   01 Jun 2027 14:14:02.631           144.425               CapeTown          4513.281
        44   01 Jun 2027 14:15:28.838   01 Jun 2027 14:15:50.658            21.820               CapeTown           681.875
        45   01 Jun 2027 14:16:26.451   01 Jun 2027 14:17:20.593            54.142               CapeTown          1691.937
        46   01 Jun 2027 14:18:49.845   01 Jun 2027 14:18:59.092             9.247               CapeTown           288.969
        47   01 Jun 2027 14:32:18.727   01 Jun 2027 14:32:47.541            28.814                 Moscow           900.437
        48   01 Jun 2027 14:33:07.865   01 Jun 2027 14:33:36.516            28.651                 Moscow           895.344
        49   01 Jun 2027 14:35:42.985   01 Jun 2027 14:38:27.269           164.284              Murmansk1          5133.875
        50   01 Jun 2027 14:50:32.791   01 Jun 2027 14:53:38.454           185.663                Anadyr1          5801.969
        51   01 Jun 2027 14:53:48.822   01 Jun 2027 14:54:05.063            16.241                Anadyr1           507.531
        52   01 Jun 2027 15:45:54.930   01 Jun 2027 15:47:36.624           101.694               CapeTown          3177.937
        53   01 Jun 2027 16:14:21.664   01 Jun 2027 16:15:29.945            68.281              Murmansk2          2133.781
        54   01 Jun 2027 16:15:35.479   01 Jun 2027 16:15:41.537             6.058              Murmansk1           189.312
        55   01 Jun 2027 16:18:04.932   01 Jun 2027 16:18:26.557            21.625              Murmansk2           675.781
        56   01 Jun 2027 16:25:48.063   01 Jun 2027 16:27:56.396           128.333                Anadyr2          4010.406
        57   01 Jun 2027 16:28:03.198   01 Jun 2027 16:28:07.599             4.401                Anadyr1           137.531
        58   01 Jun 2027 16:30:18.580   01 Jun 2027 16:30:40.338            21.758               Magadan1           679.937
        59   01 Jun 2027 16:30:56.451   01 Jun 2027 16:32:57.954           121.503               Magadan2          3796.969
        60   01 Jun 2027 16:33:41.329   01 Jun 2027 16:34:40.155            58.826               Magadan1          1838.312
        61   01 Jun 2027 18:01:40.296   01 Jun 2027 18:04:01.944           141.648                Anadyr1          4426.500
        62   01 Jun 2027 18:04:02.195   01 Jun 2027 18:05:34.905            92.710                Anadyr2          2897.187
        63   01 Jun 2027 18:05:35.178   01 Jun 2027 18:08:00.486           145.308               Magadan2          4540.875
        64   01 Jun 2027 19:37:34.263   01 Jun 2027 19:41:25.062           230.799                Anadyr2          7212.469
        65   01 Jun 2027 19:41:38.053   01 Jun 2027 19:44:07.257           149.204               Magadan1          4662.625
        66   01 Jun 2027 19:44:54.370   01 Jun 2027 19:45:07.679            13.309               Magadan1           415.906
        67   01 Jun 2027 19:47:33.648   01 Jun 2027 19:48:46.954            73.306                Irkutsk          2290.812
        68   01 Jun 2027 20:31:55.930   01 Jun 2027 20:35:10.855           194.925            RioGallegos          6091.406
        69   01 Jun 2027 20:42:46.986   01 Jun 2027 20:42:51.143             4.157            RioGallegos           129.906
        70   01 Jun 2027 21:15:07.308   01 Jun 2027 21:15:21.569            14.261                Anadyr1           445.656
        71   01 Jun 2027 21:15:25.423   01 Jun 2027 21:19:19.001           233.578                Norilsk          7299.313
        72   01 Jun 2027 21:19:32.896   01 Jun 2027 21:20:52.578            79.682                Irkutsk          2490.063
        73   01 Jun 2027 21:21:11.619   01 Jun 2027 21:22:26.531            74.912                Novosib          2341.000
        74   01 Jun 2027 21:24:11.468   01 Jun 2027 21:24:52.912            41.444                Novosib          1295.125
        75   01 Jun 2027 21:33:15.342   01 Jun 2027 21:36:09.435           174.093                Sumatra          5440.406
        76   01 Jun 2027 22:50:05.018   01 Jun 2027 22:50:33.874            28.856                Anadyr1           901.750
        77   01 Jun 2027 22:51:23.044   01 Jun 2027 22:51:44.917            21.873                Norilsk           683.531
        78   01 Jun 2027 22:52:00.748   01 Jun 2027 22:53:30.529            89.781               Magadan2          2805.656
        79   01 Jun 2027 22:53:30.529   01 Jun 2027 22:53:56.328            25.799               Magadan1           806.219
        80   01 Jun 2027 22:55:15.603   01 Jun 2027 22:56:06.397            50.794                Irkutsk          1587.313
        81   01 Jun 2027 22:56:38.843   01 Jun 2027 22:58:15.568            96.725                Novosib          3022.656
        82   01 Jun 2027 23:03:00.934   01 Jun 2027 23:05:03.090           122.156                  Delhi          3817.375
        83   02 Jun 2027 00:21:16.259   02 Jun 2027 00:22:06.345            50.086                Anadyr2          1565.187
        84   02 Jun 2027 00:23:04.538   02 Jun 2027 00:24:05.923            61.385                Anadyr1          1918.281
        85   02 Jun 2027 00:26:51.666   02 Jun 2027 00:27:06.714            15.048                Anadyr2           470.250
        86   02 Jun 2027 00:27:18.114   02 Jun 2027 00:27:25.279             7.165                Anadyr2           223.906
        87   02 Jun 2027 00:27:36.671   02 Jun 2027 00:30:10.990           154.319               Magadan2          4822.469
        88   02 Jun 2027 00:30:13.333   02 Jun 2027 00:31:57.321           103.988              Murmansk2          3249.625
        89   02 Jun 2027 00:33:23.970   02 Jun 2027 00:33:37.874            13.904                Novosib           434.500
        90   02 Jun 2027 00:34:18.597   02 Jun 2027 00:37:22.684           184.087                 Moscow          5752.719
        91   02 Jun 2027 01:54:43.762   02 Jun 2027 01:56:27.249           103.487                Anadyr2          3233.969
        92   02 Jun 2027 01:56:48.881   02 Jun 2027 01:57:16.154            27.273                Anadyr1           852.281
        93   02 Jun 2027 01:57:51.684   02 Jun 2027 01:57:52.428             0.744                Anadyr2            23.250
        94   02 Jun 2027 01:58:01.672   02 Jun 2027 01:58:19.070            17.398                Anadyr1           543.687
        95   02 Jun 2027 01:59:38.676   02 Jun 2027 02:01:19.399           100.723               Magadan2          3147.594
        96   02 Jun 2027 02:02:53.003   02 Jun 2027 02:03:20.201            27.198               Magadan2           849.937
        97   02 Jun 2027 02:05:29.814   02 Jun 2027 02:06:47.558            77.744              Murmansk1          2429.500
        98   02 Jun 2027 02:07:35.578   02 Jun 2027 02:09:26.490           110.912                Novosib          3466.000
        99   02 Jun 2027 02:18:02.040   02 Jun 2027 02:19:54.153           112.113                 Moscow          3503.531
       100   02 Jun 2027 03:36:10.296   02 Jun 2027 03:38:11.643           121.347                Anadyr1          3792.094
       101   02 Jun 2027 03:38:56.914   02 Jun 2027 03:40:29.782            92.868                Anadyr1          2902.125
       102   02 Jun 2027 05:10:57.842   02 Jun 2027 05:11:17.723            19.881                Anadyr1           621.281
       103   02 Jun 2027 05:11:52.707   02 Jun 2027 05:12:25.554            32.847                Anadyr1          1026.469
       104   02 Jun 2027 05:12:40.202   02 Jun 2027 05:12:52.566            12.364                Anadyr2           386.375
       105   02 Jun 2027 05:12:52.566   02 Jun 2027 05:15:44.951           172.385                Anadyr1          5387.031
       106   02 Jun 2027 05:16:16.170   02 Jun 2027 05:16:43.582            27.412                Anadyr2           856.625
       107   02 Jun 2027 05:17:29.343   02 Jun 2027 05:17:53.396            24.053               Magadan2           751.656
       108   02 Jun 2027 06:47:22.577   02 Jun 2027 06:51:21.628           239.051                Anadyr2          7470.344
       109   02 Jun 2027 06:51:32.984   02 Jun 2027 06:52:02.160            29.176               Magadan2           911.750
       110   02 Jun 2027 06:52:32.654   02 Jun 2027 06:53:09.241            36.587                Novosib          1143.344
       111   02 Jun 2027 07:29:20.057   02 Jun 2027 07:30:41.515            81.458            RioGallegos          2545.563
       112   02 Jun 2027 08:24:10.481   02 Jun 2027 08:25:21.443            70.962               Magadan2          2217.563
       113   02 Jun 2027 08:25:21.443   02 Jun 2027 08:26:18.803            57.360               Magadan1          1792.500
       114   02 Jun 2027 08:26:48.313   02 Jun 2027 08:30:01.622           193.309                Novosib          6040.906
       115   02 Jun 2027 08:30:22.762   02 Jun 2027 08:30:35.906            13.144                Novosib           410.750
       116   02 Jun 2027 09:04:17.437   02 Jun 2027 09:05:25.213            67.776            RioGallegos          2118.000
       117   02 Jun 2027 09:39:11.733   02 Jun 2027 09:41:11.884           120.151                Sumatra          3754.719
       118   02 Jun 2027 10:00:53.046   02 Jun 2027 10:01:03.736            10.690                Novosib           334.062
       119   02 Jun 2027 10:01:11.622   02 Jun 2027 10:02:14.087            62.465                Norilsk          1952.031
       120   02 Jun 2027 10:02:21.209   02 Jun 2027 10:02:36.393            15.184                Novosib           474.500
       121   02 Jun 2027 10:02:50.257   02 Jun 2027 10:05:21.405           151.148                Irkutsk          4723.375
       122   02 Jun 2027 10:05:26.620   02 Jun 2027 10:06:32.041            65.421                Norilsk          2044.406
       123   02 Jun 2027 10:06:32.530   02 Jun 2027 10:06:44.271            11.741                Novosib           366.906
       124   02 Jun 2027 10:06:56.103   02 Jun 2027 10:09:11.469           135.366              Murmansk1          4230.187
       125   02 Jun 2027 10:45:37.116   02 Jun 2027 10:46:24.503            47.387            RioGallegos          1480.844
       126   02 Jun 2027 11:18:06.666   02 Jun 2027 11:19:10.662            63.996                Sumatra          1999.875
       127   02 Jun 2027 11:23:19.593   02 Jun 2027 11:23:40.664            21.071                  Delhi           658.469
       128   02 Jun 2027 11:24:00.324   02 Jun 2027 11:25:52.159           111.835                  Delhi          3494.844
       129   02 Jun 2027 11:38:01.253   02 Jun 2027 11:38:39.472            38.219                Irkutsk          1194.344
       130   02 Jun 2027 11:39:37.713   02 Jun 2027 11:41:33.397           115.684                Norilsk          3615.125
       131   02 Jun 2027 11:41:40.054   02 Jun 2027 11:42:54.754            74.700                 Moscow          2334.375
       132   02 Jun 2027 11:43:22.935   02 Jun 2027 11:43:41.008            18.073                Norilsk           564.781
       133   02 Jun 2027 11:48:06.220   02 Jun 2027 11:48:14.788             8.568              Murmansk1           267.750
       134   02 Jun 2027 13:05:01.283   02 Jun 2027 13:06:53.225           111.942                  Delhi          3498.187
       135   02 Jun 2027 13:08:56.393   02 Jun 2027 13:11:38.207           161.814                 Moscow          5056.688
       136   02 Jun 2027 13:12:13.950   02 Jun 2027 13:14:15.488           121.538              Murmansk1          3798.062
       137   02 Jun 2027 13:14:26.570   02 Jun 2027 13:15:07.734            41.164                Norilsk          1286.375
       138   02 Jun 2027 13:15:29.243   02 Jun 2027 13:15:35.726             6.483                Novosib           202.594
       139   02 Jun 2027 13:15:47.874   02 Jun 2027 13:16:29.145            41.271              Murmansk2          1289.719
       140   02 Jun 2027 13:18:33.204   02 Jun 2027 13:18:57.502            24.298                Norilsk           759.312
       141   02 Jun 2027 14:22:54.811   02 Jun 2027 14:23:36.594            41.783               CapeTown          1305.719
       142   02 Jun 2027 14:24:21.242   02 Jun 2027 14:25:44.511            83.269               CapeTown          2602.156
       143   02 Jun 2027 14:27:58.356   02 Jun 2027 14:29:10.102            71.746               CapeTown          2242.062
       144   02 Jun 2027 14:44:42.398   02 Jun 2027 14:44:55.756            13.358                 Moscow           417.437
       145   02 Jun 2027 14:45:09.824   02 Jun 2027 14:45:42.681            32.857                 Moscow          1026.781
       146   02 Jun 2027 14:47:57.235   02 Jun 2027 14:49:14.218            76.983              Murmansk1          2405.719
       147   02 Jun 2027 14:50:28.950   02 Jun 2027 14:51:08.076            39.126              Murmansk2          1222.687
       148   02 Jun 2027 14:52:25.239   02 Jun 2027 14:52:46.441            21.202              Murmansk1           662.563
       149   02 Jun 2027 15:02:23.576   02 Jun 2027 15:04:16.565           112.989                Anadyr2          3530.906
       150   02 Jun 2027 15:05:20.489   02 Jun 2027 15:06:01.009            40.520                Anadyr1          1266.250
       151   02 Jun 2027 15:07:30.939   02 Jun 2027 15:07:44.720            13.781                Anadyr2           430.656
       152   02 Jun 2027 15:57:09.696   02 Jun 2027 15:59:25.108           135.412               CapeTown          4231.625
       153   02 Jun 2027 16:26:54.800   02 Jun 2027 16:27:55.928            61.128              Murmansk2          1910.250
       154   02 Jun 2027 16:28:22.318   02 Jun 2027 16:28:42.812            20.494              Murmansk2           640.438
       155   02 Jun 2027 16:30:00.821   02 Jun 2027 16:30:28.456            27.635              Murmansk2           863.594
       156   02 Jun 2027 16:34:13.108   02 Jun 2027 16:34:26.581            13.473              Murmansk2           421.031
       157   02 Jun 2027 16:37:48.171   02 Jun 2027 16:39:06.132            77.961                Anadyr1          2436.281
       158   02 Jun 2027 16:39:20.575   02 Jun 2027 16:39:54.023            33.448                Anadyr2          1045.250
       159   02 Jun 2027 16:41:40.279   02 Jun 2027 16:44:37.628           177.349               Magadan2          5542.156
       160   02 Jun 2027 16:45:23.355   02 Jun 2027 16:45:33.257             9.902               Magadan2           309.438
       161   02 Jun 2027 16:47:28.065   02 Jun 2027 16:47:55.027            26.962               Magadan1           842.562
       162   02 Jun 2027 18:13:41.783   02 Jun 2027 18:16:02.355           140.572                Anadyr2          4392.875
       163   02 Jun 2027 18:16:06.746   02 Jun 2027 18:21:15.713           308.967               Magadan1          9655.219
       164   02 Jun 2027 18:25:38.129   02 Jun 2027 18:26:12.464            34.335               Magadan1          1072.969
       165   02 Jun 2027 18:27:55.803   02 Jun 2027 18:27:56.977             1.174               Magadan1            36.688
       166   02 Jun 2027 19:49:34.568   02 Jun 2027 19:53:40.908           246.340                Anadyr2          7698.125
       167   02 Jun 2027 19:53:47.373   02 Jun 2027 19:55:36.860           109.487               Magadan1          3421.469
       168   02 Jun 2027 19:56:06.198   02 Jun 2027 19:56:59.750            53.552               Magadan2          1673.500
       169   02 Jun 2027 19:57:53.782   02 Jun 2027 19:58:19.729            25.947                Irkutsk           810.844
       170   02 Jun 2027 19:59:22.755   02 Jun 2027 20:01:07.997           105.242                Irkutsk          3288.812
       171   02 Jun 2027 20:01:59.522   02 Jun 2027 20:03:11.183            71.661                Irkutsk          2239.406
       172   02 Jun 2027 20:49:02.849   02 Jun 2027 20:49:44.976            42.127            RioGallegos          1316.469
       173   02 Jun 2027 20:52:07.805   02 Jun 2027 20:52:49.774            41.969            RioGallegos          1311.531
       174   02 Jun 2027 20:54:33.750   02 Jun 2027 20:55:05.963            32.213            RioGallegos          1006.656
       175   02 Jun 2027 21:26:15.704   02 Jun 2027 21:27:20.283            64.579                Anadyr2          2018.094
       176   02 Jun 2027 21:27:26.348   02 Jun 2027 21:28:47.739            81.391                Norilsk          2543.469
       177   02 Jun 2027 21:30:25.432   02 Jun 2027 21:30:59.040            33.608               Magadan1          1050.250
       178   02 Jun 2027 21:31:27.091   02 Jun 2027 21:31:56.361            29.270               Magadan1           914.688
       179   02 Jun 2027 21:32:42.801   02 Jun 2027 21:34:10.911            88.110                Novosib          2753.437
       180   02 Jun 2027 21:37:26.422   02 Jun 2027 21:38:16.747            50.325                Novosib          1572.656
       181   02 Jun 2027 21:42:29.552   02 Jun 2027 21:43:12.188            42.636                Irkutsk          1332.375
       182   02 Jun 2027 21:45:09.561   02 Jun 2027 21:45:50.602            41.041                Sumatra          1282.531
       183   02 Jun 2027 21:53:41.176   02 Jun 2027 21:54:43.453            62.277                Sumatra          1946.156
       184   02 Jun 2027 21:57:29.740   02 Jun 2027 21:57:53.001            23.261                Sumatra           726.906
       185   02 Jun 2027 22:30:53.941   02 Jun 2027 22:31:59.488            65.547            RioGallegos          2048.344
       186   02 Jun 2027 23:01:47.043   02 Jun 2027 23:02:25.343            38.300                Anadyr1          1196.875
       187   02 Jun 2027 23:03:25.083   02 Jun 2027 23:04:18.304            53.221                Norilsk          1663.156
       188   02 Jun 2027 23:04:38.874   02 Jun 2027 23:05:20.082            41.208                Norilsk          1287.750
       189   02 Jun 2027 23:05:32.774   02 Jun 2027 23:05:44.246            11.472               Magadan1           358.500
       190   02 Jun 2027 23:06:21.853   02 Jun 2027 23:07:20.288            58.435               Magadan2          1826.094
       191   02 Jun 2027 23:07:46.474   02 Jun 2027 23:08:48.435            61.961                Novosib          1936.281
       192   02 Jun 2027 23:11:56.715   02 Jun 2027 23:12:07.698            10.983                Irkutsk           343.219
       193   02 Jun 2027 23:12:38.044   02 Jun 2027 23:12:40.214             2.170                Novosib            67.812
       194   02 Jun 2027 23:12:55.203   02 Jun 2027 23:13:31.094            35.891                Novosib          1121.594
       195   02 Jun 2027 23:14:49.257   02 Jun 2027 23:15:57.084            67.827                  Delhi          2119.594
       196   02 Jun 2027 23:18:22.863   02 Jun 2027 23:18:27.706             4.843                Novosib           151.344
       197   02 Jun 2027 23:18:28.303   02 Jun 2027 23:19:14.791            46.488                  Delhi          1452.750
       198   02 Jun 2027 23:21:35.448   02 Jun 2027 23:21:40.587             5.139                  Delhi           160.594
       199   02 Jun 2027 23:22:31.718   02 Jun 2027 23:22:35.404             3.686                  Delhi           115.188
       200   02 Jun 2027 23:22:58.489   02 Jun 2027 23:24:17.458            78.969                  Delhi          2467.781
       201   03 Jun 2027 00:32:57.286   03 Jun 2027 00:34:07.459            70.173                Anadyr1          2192.906
       202   03 Jun 2027 00:35:11.762   03 Jun 2027 00:35:44.531            32.769                Anadyr2          1024.031
       203   03 Jun 2027 00:37:40.428   03 Jun 2027 00:38:32.001            51.573                Anadyr2          1611.656
       204   03 Jun 2027 00:39:07.114   03 Jun 2027 00:39:57.956            50.842               Magadan2          1588.813
       205   03 Jun 2027 00:39:57.956   03 Jun 2027 00:40:17.769            19.813               Magadan1           619.156
       206   03 Jun 2027 00:40:31.009   03 Jun 2027 00:41:40.235            69.226               Magadan1          2163.312
       207   03 Jun 2027 00:41:40.818   03 Jun 2027 00:42:53.652            72.834              Murmansk1          2276.063
       208   03 Jun 2027 00:45:09.689   03 Jun 2027 00:45:29.571            19.882              Murmansk1           621.312
       209   03 Jun 2027 00:45:57.264   03 Jun 2027 00:47:17.525            80.261                 Moscow          2508.156
       210   03 Jun 2027 00:50:35.279   03 Jun 2027 00:52:19.305           104.026                 Moscow          3250.812
       211   03 Jun 2027 01:01:00.698   03 Jun 2027 01:01:07.283             6.585                  Delhi           205.781
       212   03 Jun 2027 01:01:29.298   03 Jun 2027 01:01:37.084             7.786                  Delhi           243.312
       213   03 Jun 2027 01:15:10.390   03 Jun 2027 01:15:16.645             6.255               CapeTown           195.469
       214   03 Jun 2027 01:15:59.714   03 Jun 2027 01:16:38.442            38.728               CapeTown          1210.250
       215   03 Jun 2027 02:06:30.546   03 Jun 2027 02:07:49.019            78.473                Anadyr2          2452.281
       216   03 Jun 2027 02:08:49.111   03 Jun 2027 02:09:10.385            21.274                Anadyr1           664.813
       217   03 Jun 2027 02:11:06.685   03 Jun 2027 02:12:06.626            59.941               Magadan1          1873.156
       218   03 Jun 2027 02:12:06.626   03 Jun 2027 02:12:26.647            20.021               Magadan2           625.656
       219   03 Jun 2027 02:13:41.668   03 Jun 2027 02:13:59.627            17.959               Magadan1           561.219
       220   03 Jun 2027 02:15:06.591   03 Jun 2027 02:15:09.797             3.206                Norilsk           100.188
       221   03 Jun 2027 02:15:21.739   03 Jun 2027 02:15:57.631            35.892               Magadan2          1121.625
       222   03 Jun 2027 02:17:31.452   03 Jun 2027 02:18:01.492            30.040              Murmansk1           938.750
       223   03 Jun 2027 02:18:31.135   03 Jun 2027 02:18:38.165             7.030                Norilsk           219.687
       224   03 Jun 2027 02:18:48.029   03 Jun 2027 02:19:06.803            18.774              Murmansk2           586.688
       225   03 Jun 2027 02:19:06.803   03 Jun 2027 02:19:28.877            22.074              Murmansk1           689.812
       226   03 Jun 2027 02:19:50.061   03 Jun 2027 02:20:21.002            30.941                Novosib           966.906
       227   03 Jun 2027 02:22:51.149   03 Jun 2027 02:23:10.516            19.367                Novosib           605.219
       228   03 Jun 2027 02:24:08.877   03 Jun 2027 02:24:33.287            24.410                Novosib           762.813
       229   03 Jun 2027 02:26:23.062   03 Jun 2027 02:26:40.380            17.318              Murmansk1           541.188
       230   03 Jun 2027 02:27:29.545   03 Jun 2027 02:27:33.772             4.227              Murmansk2           132.094
       231   03 Jun 2027 02:28:45.581   03 Jun 2027 02:28:50.029             4.448              Murmansk2           139.000
       232   03 Jun 2027 02:29:16.018   03 Jun 2027 02:29:25.682             9.664                 Moscow           302.000
       233   03 Jun 2027 02:29:32.479   03 Jun 2027 02:29:41.045             8.566              Murmansk2           267.687
       234   03 Jun 2027 02:30:22.465   03 Jun 2027 02:31:50.467            88.002                 Moscow          2750.063
       235   03 Jun 2027 02:54:16.255   03 Jun 2027 02:55:11.451            55.196               CapeTown          1724.875
       236   03 Jun 2027 03:47:39.097   03 Jun 2027 03:48:12.048            32.951               Magadan1          1029.719
       237   03 Jun 2027 03:48:37.292   03 Jun 2027 03:51:47.066           189.774                Anadyr1          5930.438
       238   03 Jun 2027 03:51:47.066   03 Jun 2027 03:54:18.455           151.389                Anadyr2          4730.906
       239   03 Jun 2027 04:05:07.101   03 Jun 2027 04:05:39.117            32.016              Murmansk2          1000.500
       240   03 Jun 2027 04:06:21.374   03 Jun 2027 04:06:25.406             4.032              Murmansk1           126.000
       241   03 Jun 2027 05:22:58.930   03 Jun 2027 05:26:22.457           203.527                Anadyr1          6360.219
       242   03 Jun 2027 05:26:27.689   03 Jun 2027 05:29:48.056           200.367                Anadyr2          6261.469
       243   03 Jun 2027 06:58:24.962   03 Jun 2027 06:59:23.985            59.023                Irkutsk          1844.469
       244   03 Jun 2027 06:59:33.436   03 Jun 2027 07:00:43.019            69.583                Anadyr1          2174.469
       245   03 Jun 2027 07:00:44.403   03 Jun 2027 07:03:10.593           146.190               Magadan2          4568.437
       246   03 Jun 2027 07:03:20.500   03 Jun 2027 07:03:32.278            11.778               Magadan2           368.063
       247   03 Jun 2027 07:03:48.388   03 Jun 2027 07:04:59.866            71.478                Irkutsk          2233.688
       248   03 Jun 2027 07:05:12.531   03 Jun 2027 07:05:18.487             5.956                Anadyr1           186.125
       249   03 Jun 2027 07:05:40.323   03 Jun 2027 07:05:41.719             1.396                Novosib            43.625
       250   03 Jun 2027 07:05:44.080   03 Jun 2027 07:08:09.103           145.023                Norilsk          4531.969
       251   03 Jun 2027 07:41:02.914   03 Jun 2027 07:41:54.139            51.225            RioGallegos          1600.781
       252   03 Jun 2027 08:20:13.310   03 Jun 2027 08:20:34.658            21.348                Sumatra           667.125
       253   03 Jun 2027 08:20:43.998   03 Jun 2027 08:20:50.007             6.009                Sumatra           187.781
       254   03 Jun 2027 08:35:57.234   03 Jun 2027 08:39:20.382           203.148                Irkutsk          6348.375
       255   03 Jun 2027 08:39:46.102   03 Jun 2027 08:40:17.280            31.178               Magadan1           974.312
       256   03 Jun 2027 08:40:21.637   03 Jun 2027 08:42:27.032           125.395              Murmansk2          3918.594
       257   03 Jun 2027 09:16:26.521   03 Jun 2027 09:17:16.724            50.203            RioGallegos          1568.844
       258   03 Jun 2027 09:51:08.796   03 Jun 2027 09:53:30.496           141.700                Sumatra          4428.125
       259   03 Jun 2027 10:12:05.683   03 Jun 2027 10:12:29.227            23.544                Irkutsk           735.750
       260   03 Jun 2027 10:12:56.704   03 Jun 2027 10:13:04.789             8.085                Norilsk           252.656
       261   03 Jun 2027 10:13:10.781   03 Jun 2027 10:14:26.469            75.688                Novosib          2365.250
       262   03 Jun 2027 10:14:31.665   03 Jun 2027 10:14:53.154            21.489                Norilsk           671.531
       263   03 Jun 2027 10:15:07.564   03 Jun 2027 10:16:42.665            95.101              Murmansk2          2971.906
       264   03 Jun 2027 10:16:47.062   03 Jun 2027 10:17:36.350            49.288              Murmansk1          1540.250
       265   03 Jun 2027 10:17:56.224   03 Jun 2027 10:18:27.897            31.673                Norilsk           989.781
       266   03 Jun 2027 10:19:29.561   03 Jun 2027 10:19:56.125            26.564              Murmansk1           830.125
       267   03 Jun 2027 10:56:27.030   03 Jun 2027 10:56:58.560            31.530            RioGallegos           985.312
       268   03 Jun 2027 10:57:42.401   03 Jun 2027 10:58:20.532            38.131            RioGallegos          1191.594
       269   03 Jun 2027 10:59:27.219   03 Jun 2027 11:00:14.054            46.835            RioGallegos          1463.594
       270   03 Jun 2027 11:35:26.202   03 Jun 2027 11:35:31.564             5.362                  Delhi           167.563
       271   03 Jun 2027 11:37:36.603   03 Jun 2027 11:38:28.497            51.894                  Delhi          1621.688
       272   03 Jun 2027 11:49:29.861   03 Jun 2027 11:49:56.876            27.015                Novosib           844.219
       273   03 Jun 2027 11:50:02.383   03 Jun 2027 11:50:25.668            23.285                 Moscow           727.656
       274   03 Jun 2027 11:50:29.567   03 Jun 2027 11:50:47.439            17.872              Murmansk1           558.500
       275   03 Jun 2027 11:50:49.761   03 Jun 2027 11:50:52.275             2.514                 Moscow            78.563
       276   03 Jun 2027 11:50:52.742   03 Jun 2027 11:51:10.153            17.411                Norilsk           544.094
       277   03 Jun 2027 11:51:11.817   03 Jun 2027 11:51:38.119            26.302                Norilsk           821.937
       278   03 Jun 2027 11:51:38.991   03 Jun 2027 11:52:47.243            68.252              Murmansk2          2132.875
       279   03 Jun 2027 11:52:50.685   03 Jun 2027 11:53:43.209            52.524                Norilsk          1641.375
       280   03 Jun 2027 13:19:45.255   03 Jun 2027 13:23:43.323           238.068                 Moscow          7439.625
       281   03 Jun 2027 13:24:01.210   03 Jun 2027 13:26:30.250           149.040              Murmansk2          4657.500
       282   03 Jun 2027 13:27:48.066   03 Jun 2027 13:28:16.263            28.197              Murmansk1           881.156
       283   03 Jun 2027 13:28:56.592   03 Jun 2027 13:29:38.827            42.235                Norilsk          1319.844
       284   03 Jun 2027 13:30:32.400   03 Jun 2027 13:30:59.855            27.455                Norilsk           857.969
       285   03 Jun 2027 13:31:51.607   03 Jun 2027 13:32:40.879            49.272                Norilsk          1539.750
       286   03 Jun 2027 14:34:24.821   03 Jun 2027 14:35:59.733            94.912               CapeTown          2966.000
       287   03 Jun 2027 14:37:25.061   03 Jun 2027 14:38:48.851            83.790               CapeTown          2618.438
       288   03 Jun 2027 14:39:47.735   03 Jun 2027 14:40:09.196            21.461               CapeTown           670.656
       289   03 Jun 2027 14:44:20.156   03 Jun 2027 14:44:40.117            19.961               CapeTown           623.781
       290   03 Jun 2027 15:00:13.479   03 Jun 2027 15:02:30.522           137.043              Murmansk1          4282.594
       291   03 Jun 2027 15:08:15.411   03 Jun 2027 15:08:40.267            24.856              Murmansk2           776.750
       292   03 Jun 2027 15:10:01.774   03 Jun 2027 15:10:16.695            14.921              Murmansk2           466.281
       293   03 Jun 2027 15:11:16.875   03 Jun 2027 15:12:06.116            49.241              Murmansk1          1538.781
       294   03 Jun 2027 15:14:16.917   03 Jun 2027 15:15:48.220            91.303                Anadyr2          2853.219
       295   03 Jun 2027 15:19:04.436   03 Jun 2027 15:19:26.385            21.949                Anadyr2           685.906
       296   03 Jun 2027 15:22:35.125   03 Jun 2027 15:23:35.489            60.364                Anadyr2          1886.375
       297   03 Jun 2027 16:19:31.988   03 Jun 2027 16:20:48.143            76.155               CapeTown          2379.844
       298   03 Jun 2027 16:39:31.126   03 Jun 2027 16:40:23.065            51.939              Murmansk1          1623.094
       299   03 Jun 2027 16:43:07.370   03 Jun 2027 16:44:06.539            59.169              Murmansk2          1849.031
       300   03 Jun 2027 16:49:48.647   03 Jun 2027 16:51:25.080            96.433                Anadyr2          3013.531
       301   03 Jun 2027 16:53:16.750   03 Jun 2027 16:54:34.593            77.843               Magadan2          2432.594
       302   03 Jun 2027 16:55:28.633   03 Jun 2027 16:56:19.706            51.073               Magadan1          1596.031
       303   03 Jun 2027 16:56:27.040   03 Jun 2027 16:56:34.247             7.207               Magadan1           225.219
       304   03 Jun 2027 16:56:38.459   03 Jun 2027 16:56:57.544            19.085               Magadan2           596.406
       305   03 Jun 2027 16:57:44.679   03 Jun 2027 16:59:11.257            86.578               Magadan2          2705.562
       306   03 Jun 2027 18:25:43.257   03 Jun 2027 18:28:58.443           195.186                Anadyr2          6099.563
       307   03 Jun 2027 18:29:14.570   03 Jun 2027 18:29:47.445            32.875                Anadyr2          1027.344
       308   03 Jun 2027 18:30:34.248   03 Jun 2027 18:31:10.561            36.313               Magadan1          1134.781
       309   03 Jun 2027 18:33:30.386   03 Jun 2027 18:33:37.271             6.885               Magadan1           215.156
       310   03 Jun 2027 18:35:57.608   03 Jun 2027 18:36:24.888            27.280               Magadan2           852.500
       311   03 Jun 2027 18:37:10.588   03 Jun 2027 18:37:24.705            14.117               Magadan1           441.156
       312   03 Jun 2027 18:37:24.705   03 Jun 2027 18:37:38.808            14.103               Magadan2           440.719
       313   03 Jun 2027 20:01:34.529   03 Jun 2027 20:03:36.378           121.849                Anadyr1          3807.781
       314   03 Jun 2027 20:03:49.727   03 Jun 2027 20:07:23.281           213.554                Norilsk          6673.563
       315   03 Jun 2027 20:07:47.167   03 Jun 2027 20:08:48.281            61.114               Magadan1          1909.812
       316   03 Jun 2027 20:09:12.273   03 Jun 2027 20:09:56.137            43.864                Irkutsk          1370.750
       317   03 Jun 2027 20:10:06.616   03 Jun 2027 20:10:40.956            34.340                Norilsk          1073.125
       318   03 Jun 2027 20:11:56.466   03 Jun 2027 20:12:37.549            41.083                Irkutsk          1283.844
       319   03 Jun 2027 20:13:12.203   03 Jun 2027 20:13:26.121            13.918                Irkutsk           434.937
       320   03 Jun 2027 20:13:59.194   03 Jun 2027 20:14:58.692            59.498                Irkutsk          1859.313
       321   03 Jun 2027 20:25:09.515   03 Jun 2027 20:26:31.012            81.497                Sumatra          2546.781
       322   03 Jun 2027 20:28:05.358   03 Jun 2027 20:29:24.878            79.520                Sumatra          2485.000
       323   03 Jun 2027 21:39:27.589   03 Jun 2027 21:40:31.339            63.750                Norilsk          1992.187
       324   03 Jun 2027 21:40:45.708   03 Jun 2027 21:41:27.843            42.135                Norilsk          1316.719
       325   03 Jun 2027 21:43:26.009   03 Jun 2027 21:44:54.686            88.677                Irkutsk          2771.156
       326   03 Jun 2027 21:48:58.507   03 Jun 2027 21:49:06.377             7.870                Novosib           245.937
       327   03 Jun 2027 21:51:26.975   03 Jun 2027 21:51:42.661            15.686                Novosib           490.187
       328   03 Jun 2027 21:53:11.540   03 Jun 2027 21:53:18.826             7.286                Novosib           227.688
       329   03 Jun 2027 21:57:09.422   03 Jun 2027 21:57:28.894            19.472                Sumatra           608.500
       330   03 Jun 2027 22:00:18.420   03 Jun 2027 22:01:26.661            68.241                Sumatra          2132.531
       331   03 Jun 2027 22:04:44.037   03 Jun 2027 22:05:08.024            23.987                Sumatra           749.594
       332   03 Jun 2027 22:40:49.247   03 Jun 2027 22:41:01.337            12.090            RioGallegos           377.812
       333   03 Jun 2027 22:43:25.954   03 Jun 2027 22:43:53.988            28.034            RioGallegos           876.062
       334   03 Jun 2027 23:11:18.021   03 Jun 2027 23:11:57.633            39.612                Anadyr1          1237.875
       335   03 Jun 2027 23:12:09.023   03 Jun 2027 23:13:28.434            79.411                Anadyr2          2481.594
       336   03 Jun 2027 23:15:27.101   03 Jun 2027 23:15:55.972            28.871                Norilsk           902.219
       337   03 Jun 2027 23:16:03.140   03 Jun 2027 23:17:16.432            73.292               Magadan1          2290.375
       338   03 Jun 2027 23:17:16.432   03 Jun 2027 23:17:31.152            14.720               Magadan2           460.000
       339   03 Jun 2027 23:18:54.301   03 Jun 2027 23:20:09.275            74.974              Murmansk2          2342.937
       340   03 Jun 2027 23:20:59.784   03 Jun 2027 23:22:03.996            64.212              Murmansk1          2006.625
       341   03 Jun 2027 23:26:41.805   03 Jun 2027 23:27:46.911            65.106                  Delhi          2034.562
       342   03 Jun 2027 23:30:29.800   03 Jun 2027 23:32:35.743           125.943                  Delhi          3935.719
       343   04 Jun 2027 00:44:38.499   04 Jun 2027 00:44:54.781            16.282                Anadyr2           508.812
       344   04 Jun 2027 00:47:12.544   04 Jun 2027 00:47:59.425            46.881                Anadyr2          1465.031
       345   04 Jun 2027 00:50:05.377   04 Jun 2027 00:50:15.726            10.349                Anadyr2           323.406
       346   04 Jun 2027 00:50:15.726   04 Jun 2027 00:50:24.897             9.171                Anadyr1           286.594
       347   04 Jun 2027 00:50:33.335   04 Jun 2027 00:50:57.846            24.511                Anadyr2           765.969
       348   04 Jun 2027 00:51:14.909   04 Jun 2027 00:53:08.635           113.726               Magadan2          3553.938
       349   04 Jun 2027 00:53:40.171   04 Jun 2027 00:56:14.135           153.964              Murmansk1          4811.375
       350   04 Jun 2027 01:01:35.681   04 Jun 2027 01:01:55.217            19.536                 Moscow           610.500
       351   04 Jun 2027 01:03:49.954   04 Jun 2027 01:03:52.577             2.623              Murmansk2            81.969
       352   04 Jun 2027 01:03:58.041   04 Jun 2027 01:04:23.535            25.494                 Moscow           796.687
       353   04 Jun 2027 01:09:46.692   04 Jun 2027 01:10:09.483            22.791                  Delhi           712.219
       354   04 Jun 2027 01:12:46.728   04 Jun 2027 01:12:56.941            10.213                  Delhi           319.156
       355   04 Jun 2027 01:24:47.495   04 Jun 2027 01:26:17.296            89.801               CapeTown          2806.281
       356   04 Jun 2027 02:18:18.617   04 Jun 2027 02:19:06.460            47.843                Anadyr1          1495.094
       357   04 Jun 2027 02:19:50.699   04 Jun 2027 02:20:49.651            58.952                Anadyr1          1842.250
       358   04 Jun 2027 02:22:35.200   04 Jun 2027 02:23:55.550            80.350               Magadan1          2510.937
       359   04 Jun 2027 02:27:04.701   04 Jun 2027 02:27:38.227            33.526                Norilsk          1047.688
       360   04 Jun 2027 02:29:33.186   04 Jun 2027 02:31:12.000            98.814              Murmansk2          3087.938
       361   04 Jun 2027 02:33:28.503   04 Jun 2027 02:34:06.531            38.028                Novosib          1188.375
       362   04 Jun 2027 02:38:36.555   04 Jun 2027 02:39:18.609            42.054                 Moscow          1314.188
       363   04 Jun 2027 02:56:42.870   04 Jun 2027 02:57:27.444            44.574               CapeTown          1392.937
       364   04 Jun 2027 03:05:29.480   04 Jun 2027 03:06:15.578            46.098               CapeTown          1440.563
       365   04 Jun 2027 04:00:09.701   04 Jun 2027 04:03:56.445           226.744               Magadan2          7085.750
       366   04 Jun 2027 04:03:56.445   04 Jun 2027 04:04:11.793            15.348               Magadan1           479.625
       367   04 Jun 2027 04:04:30.263   04 Jun 2027 04:06:19.895           109.632                Anadyr2          3426.000
       368   04 Jun 2027 05:35:39.665   04 Jun 2027 05:35:50.129            10.464                Anadyr1           327.000
       369   04 Jun 2027 05:35:56.337   04 Jun 2027 05:37:52.619           116.282               Magadan1          3633.812
       370   04 Jun 2027 05:38:05.363   04 Jun 2027 05:41:17.581           192.218               Magadan1          6006.813
       371   04 Jun 2027 05:41:17.581   04 Jun 2027 05:41:54.425            36.844               Magadan2          1151.375
       372   04 Jun 2027 05:52:20.410   04 Jun 2027 05:53:15.786            55.376              Murmansk1          1730.500
       373   04 Jun 2027 06:21:54.892   04 Jun 2027 06:22:26.891            31.999            RioGallegos           999.969
       374   04 Jun 2027 06:26:14.333   04 Jun 2027 06:27:15.209            60.876            RioGallegos          1902.375
       375   04 Jun 2027 07:10:12.343   04 Jun 2027 07:11:41.661            89.318                Irkutsk          2791.187
       376   04 Jun 2027 07:11:43.637   04 Jun 2027 07:11:55.482            11.845               Magadan1           370.156
       377   04 Jun 2027 07:12:08.089   04 Jun 2027 07:13:21.354            73.265                Norilsk          2289.531
       378   04 Jun 2027 07:13:30.692   04 Jun 2027 07:17:10.224           219.532                Irkutsk          6860.375
       379   04 Jun 2027 07:17:24.719   04 Jun 2027 07:20:06.269           161.550              Murmansk2          5048.438
       380   04 Jun 2027 07:21:40.753   04 Jun 2027 07:22:28.733            47.980              Murmansk1          1499.375
       381   04 Jun 2027 07:25:15.012   04 Jun 2027 07:26:20.332            65.320              Murmansk1          2041.250
       382   04 Jun 2027 07:53:40.049   04 Jun 2027 07:53:55.576            15.527            RioGallegos           485.219
       383   04 Jun 2027 07:58:56.184   04 Jun 2027 07:59:01.751             5.567            RioGallegos           173.969
       384   04 Jun 2027 07:59:30.970   04 Jun 2027 07:59:59.056            28.086            RioGallegos           877.687
       385   04 Jun 2027 08:30:26.105   04 Jun 2027 08:32:14.853           108.748                Sumatra          3398.375
       386   04 Jun 2027 08:46:45.386   04 Jun 2027 08:47:09.033            23.647               Magadan1           738.969
       387   04 Jun 2027 08:47:59.620   04 Jun 2027 08:48:56.121            56.501                Novosib          1765.656
       388   04 Jun 2027 08:48:59.334   04 Jun 2027 08:50:21.304            81.970               Magadan2          2561.563
       389   04 Jun 2027 08:50:24.118   04 Jun 2027 08:50:46.653            22.535               Magadan2           704.219
       390   04 Jun 2027 08:50:55.348   04 Jun 2027 08:52:09.894            74.546                Novosib          2329.563
       391   04 Jun 2027 08:52:14.951   04 Jun 2027 08:52:52.989            38.038                Irkutsk          1188.688
       392   04 Jun 2027 08:52:55.498   04 Jun 2027 08:53:17.646            22.148                Norilsk           692.125
       393   04 Jun 2027 08:53:20.123   04 Jun 2027 08:53:25.338             5.215                Norilsk           162.969
       394   04 Jun 2027 08:53:35.446   04 Jun 2027 08:53:51.785            16.339                Norilsk           510.594
       395   04 Jun 2027 08:54:18.459   04 Jun 2027 08:54:45.853            27.394              Murmansk2           856.062
       396   04 Jun 2027 08:54:58.201   04 Jun 2027 08:55:23.106            24.905              Murmansk2           778.281
       397   04 Jun 2027 09:28:39.377   04 Jun 2027 09:28:44.816             5.439            RioGallegos           169.969
       398   04 Jun 2027 09:29:05.406   04 Jun 2027 09:29:42.697            37.291            RioGallegos          1165.344
       399   04 Jun 2027 09:30:46.559   04 Jun 2027 09:31:25.570            39.011            RioGallegos          1219.094
       400   04 Jun 2027 10:03:45.098   04 Jun 2027 10:05:40.226           115.128                Sumatra          3597.750
       401   04 Jun 2027 10:23:33.101   04 Jun 2027 10:23:44.268            11.167                Norilsk           348.969
       402   04 Jun 2027 10:24:50.407   04 Jun 2027 10:24:58.669             8.262                Norilsk           258.188
       403   04 Jun 2027 10:25:17.132   04 Jun 2027 10:25:25.805             8.673                Novosib           271.031
       404   04 Jun 2027 10:25:30.365   04 Jun 2027 10:26:04.287            33.922              Murmansk2          1060.063
       405   04 Jun 2027 10:26:08.252   04 Jun 2027 10:26:13.633             5.381                Norilsk           168.156
       406   04 Jun 2027 10:26:15.215   04 Jun 2027 10:26:21.299             6.084                 Moscow           190.125
       407   04 Jun 2027 10:26:40.976   04 Jun 2027 10:27:16.672            35.696                Novosib          1115.500
       408   04 Jun 2027 10:27:19.454   04 Jun 2027 10:27:30.425            10.971                Novosib           342.844
       409   04 Jun 2027 10:27:37.294   04 Jun 2027 10:28:26.085            48.791                Irkutsk          1524.719
       410   04 Jun 2027 10:28:29.933   04 Jun 2027 10:29:08.557            38.624              Murmansk1          1207.000
       411   04 Jun 2027 10:29:10.611   04 Jun 2027 10:29:18.130             7.519                Novosib           234.969
       412   04 Jun 2027 10:29:24.004   04 Jun 2027 10:29:32.262             8.258                Norilsk           258.062
       413   04 Jun 2027 10:30:04.048   04 Jun 2027 10:30:50.972            46.924              Murmansk1          1466.375
       414   04 Jun 2027 11:09:54.072   04 Jun 2027 11:10:19.843            25.771            RioGallegos           805.344
       415   04 Jun 2027 11:11:17.583   04 Jun 2027 11:11:54.811            37.228            RioGallegos          1163.375
       416   04 Jun 2027 11:47:38.602   04 Jun 2027 11:48:28.325            49.723                  Delhi          1553.844
       417   04 Jun 2027 11:50:49.260   04 Jun 2027 11:52:29.134            99.874                  Delhi          3121.062
       418   04 Jun 2027 12:12:04.866   04 Jun 2027 12:12:10.829             5.963              Murmansk1           186.344
       419   04 Jun 2027 13:31:45.769   04 Jun 2027 13:35:51.535           245.766                 Moscow          7680.187
       420   04 Jun 2027 13:36:46.910   04 Jun 2027 13:38:33.846           106.936              Murmansk2          3341.750
       421   04 Jun 2027 13:39:05.749   04 Jun 2027 13:39:22.769            17.020              Murmansk1           531.875
       422   04 Jun 2027 13:39:52.844   04 Jun 2027 13:40:00.379             7.535                Norilsk           235.469
       423   04 Jun 2027 13:40:32.808   04 Jun 2027 13:40:58.329            25.521                Norilsk           797.531
       424   04 Jun 2027 13:43:02.178   04 Jun 2027 13:44:26.625            84.447                Norilsk          2638.969
       425   04 Jun 2027 14:46:03.159   04 Jun 2027 14:47:21.073            77.914               CapeTown          2434.812
       426   04 Jun 2027 14:47:43.776   04 Jun 2027 14:49:22.501            98.725               CapeTown          3085.156
       427   04 Jun 2027 15:12:31.801   04 Jun 2027 15:12:42.722            10.921              Murmansk1           341.281
       428   04 Jun 2027 15:12:46.121   04 Jun 2027 15:13:01.741            15.620              Murmansk1           488.125
       429   04 Jun 2027 15:14:19.067   04 Jun 2027 15:14:31.930            12.863              Murmansk1           401.969
       430   04 Jun 2027 15:14:31.930   04 Jun 2027 15:14:48.113            16.183              Murmansk2           505.719
       431   04 Jun 2027 15:16:42.530   04 Jun 2027 15:16:50.637             8.107              Murmansk1           253.344
       432   04 Jun 2027 15:18:11.413   04 Jun 2027 15:18:25.057            13.644              Murmansk1           426.375
       433   04 Jun 2027 15:20:17.114   04 Jun 2027 15:20:31.933            14.819              Murmansk2           463.094
       434   04 Jun 2027 15:22:32.760   04 Jun 2027 15:23:17.191            44.431              Murmansk2          1388.469
       435   04 Jun 2027 15:26:12.092   04 Jun 2027 15:28:49.594           157.502                Anadyr2          4921.938
       436   04 Jun 2027 15:35:41.702   04 Jun 2027 15:36:04.214            22.512                Anadyr1           703.500
       437   04 Jun 2027 16:31:03.362   04 Jun 2027 16:31:52.403            49.041               CapeTown          1532.531
       438   04 Jun 2027 16:52:11.071   04 Jun 2027 16:53:45.416            94.345              Murmansk1          2948.281
       439   04 Jun 2027 16:56:05.275   04 Jun 2027 16:56:53.464            48.189              Murmansk1          1505.906
       440   04 Jun 2027 17:01:49.406   04 Jun 2027 17:03:02.941            73.535                Anadyr2          2297.969
       441   04 Jun 2027 17:04:31.119   04 Jun 2027 17:04:48.590            17.471                Anadyr1           545.969
       442   04 Jun 2027 17:05:00.441   04 Jun 2027 17:05:20.643            20.202               Magadan2           631.313
       443   04 Jun 2027 17:07:17.110   04 Jun 2027 17:08:40.398            83.288               Magadan1          2602.750
       444   04 Jun 2027 17:09:28.728   04 Jun 2027 17:09:37.200             8.472               Magadan1           264.750
       445   04 Jun 2027 17:10:52.527   04 Jun 2027 17:12:50.379           117.852               Magadan1          3682.875
       446   04 Jun 2027 18:37:44.675   04 Jun 2027 18:40:02.197           137.522                Anadyr1          4297.562
       447   04 Jun 2027 18:40:04.227   04 Jun 2027 18:42:16.407           132.180               Magadan2          4130.625
       448   04 Jun 2027 18:44:57.339   04 Jun 2027 18:44:58.243             0.904               Magadan1            28.250
       449   04 Jun 2027 18:45:50.183   04 Jun 2027 18:45:52.324             2.141               Magadan1            66.906
       450   04 Jun 2027 18:47:10.796   04 Jun 2027 18:47:53.999            43.203               Magadan1          1350.094
       451   04 Jun 2027 19:34:13.850   04 Jun 2027 19:36:36.592           142.742            RioGallegos          4460.688
       452   04 Jun 2027 19:38:06.859   04 Jun 2027 19:39:09.636            62.777            RioGallegos          1961.781
       453   04 Jun 2027 20:13:34.085   04 Jun 2027 20:15:13.683            99.598                Anadyr2          3112.438
       454   04 Jun 2027 20:15:24.087   04 Jun 2027 20:16:00.756            36.669                Anadyr2          1145.906
       455   04 Jun 2027 20:16:51.687   04 Jun 2027 20:17:44.105            52.418                Norilsk          1638.063
       456   04 Jun 2027 20:18:45.073   04 Jun 2027 20:19:20.408            35.335                Norilsk          1104.219
       457   04 Jun 2027 20:20:45.484   04 Jun 2027 20:21:49.815            64.331                Irkutsk          2010.344
       458   04 Jun 2027 20:22:38.179   04 Jun 2027 20:23:52.388            74.209                Irkutsk          2319.031
       459   04 Jun 2027 20:35:52.424   04 Jun 2027 20:38:01.108           128.684                Sumatra          4021.375
       460   04 Jun 2027 20:40:25.370   04 Jun 2027 20:41:14.826            49.456                Sumatra          1545.500
       461   04 Jun 2027 21:51:29.081   04 Jun 2027 21:52:50.498            81.417                Norilsk          2544.281
       462   04 Jun 2027 21:53:16.764   04 Jun 2027 21:53:26.269             9.505                Norilsk           297.031
       463   04 Jun 2027 21:54:29.168   04 Jun 2027 21:54:30.247             1.079               Magadan2            33.719
       464   04 Jun 2027 21:54:47.953   04 Jun 2027 21:55:19.065            31.112               Magadan2           972.250
       465   04 Jun 2027 21:56:08.469   04 Jun 2027 21:57:31.769            83.300                Novosib          2603.125
       466   04 Jun 2027 22:03:28.739   04 Jun 2027 22:04:04.996            36.257                Novosib          1133.031
       467   04 Jun 2027 22:06:32.610   04 Jun 2027 22:07:59.000            86.390                  Delhi          2699.687
       468   04 Jun 2027 22:09:08.295   04 Jun 2027 22:09:56.346            48.051                  Delhi          1501.594
       469   04 Jun 2027 22:10:58.986   04 Jun 2027 22:11:05.890             6.904                  Delhi           215.750
       470   04 Jun 2027 23:23:35.146   04 Jun 2027 23:25:13.441            98.295                Anadyr1          3071.719
       471   04 Jun 2027 23:27:29.071   04 Jun 2027 23:27:45.059            15.988                Norilsk           499.625
       472   04 Jun 2027 23:28:03.232   04 Jun 2027 23:28:48.151            44.919               Magadan2          1403.719
       473   04 Jun 2027 23:29:27.157   04 Jun 2027 23:29:48.203            21.046               Magadan2           657.688
       474   04 Jun 2027 23:30:31.324   04 Jun 2027 23:35:24.106           292.782              Murmansk2          9149.437
       475   05 Jun 2027 00:56:20.070   05 Jun 2027 00:56:44.665            24.595                Anadyr1           768.594
       476   05 Jun 2027 00:57:08.179   05 Jun 2027 00:58:09.988            61.809                Anadyr2          1931.531
       477   05 Jun 2027 00:59:00.717   05 Jun 2027 00:59:30.043            29.326                Anadyr1           916.438
       478   05 Jun 2027 01:02:24.292   05 Jun 2027 01:04:01.984            97.692               Magadan1          3052.875
       479   05 Jun 2027 01:04:01.984   05 Jun 2027 01:06:09.516           127.532               Magadan2          3985.375
       480   05 Jun 2027 01:06:12.305   05 Jun 2027 01:06:56.765            44.460              Murmansk2          1389.375
       481   05 Jun 2027 01:07:21.700   05 Jun 2027 01:08:15.791            54.091                Novosib          1690.344
       482   05 Jun 2027 01:14:31.183   05 Jun 2027 01:14:44.261            13.078                 Moscow           408.688
