uniorb/output/strategy_1/Drop/Drop_KinoSat_111807.txt

KinoSat_111807
-------------------------
    Access    *     Start Time (UTCG)     *     Stop Time (UTCG)  *   Duration (s)        *       Station  *  Data (Mbytes)
         1   01 Jun 2027 04:25:19.003   01 Jun 2027 04:25:20.262             1.259                Irkutsk            39.344
         2   01 Jun 2027 04:25:58.548   01 Jun 2027 04:27:01.433            62.885                Norilsk          1965.156
         3   01 Jun 2027 04:27:10.351   01 Jun 2027 04:28:14.098            63.747                Novosib          1992.094
         4   01 Jun 2027 04:28:26.191   01 Jun 2027 04:29:57.399            91.208                Norilsk          2850.250
         5   01 Jun 2027 04:30:00.963   01 Jun 2027 04:30:59.863            58.900              Murmansk2          1840.625
         6   01 Jun 2027 04:31:11.317   01 Jun 2027 04:32:15.393            64.076                Novosib          2002.375
         7   01 Jun 2027 04:33:20.533   01 Jun 2027 04:34:51.586            91.053                  Delhi          2845.406
         8   01 Jun 2027 06:04:57.432   01 Jun 2027 06:06:04.995            67.563              Murmansk2          2111.344
         9   01 Jun 2027 06:06:18.181   01 Jun 2027 06:07:22.898            64.717                 Moscow          2022.406
        10   01 Jun 2027 06:07:39.704   01 Jun 2027 06:08:30.796            51.092              Murmansk1          1596.625
        11   01 Jun 2027 06:22:50.591   01 Jun 2027 06:24:52.501           121.910               CapeTown          3809.687
        12   01 Jun 2027 07:27:28.458   01 Jun 2027 07:28:29.929            61.471                Anadyr2          1920.969
        13   01 Jun 2027 07:28:29.929   01 Jun 2027 07:32:24.966           235.037                Anadyr1          7344.906
        14   01 Jun 2027 09:02:10.837   01 Jun 2027 09:02:40.535            29.698                Anadyr2           928.062
        15   01 Jun 2027 09:04:10.886   01 Jun 2027 09:08:02.165           231.279               Magadan1          7227.469
        16   01 Jun 2027 10:34:02.634   01 Jun 2027 10:36:07.849           125.215               Magadan2          3912.969
        17   01 Jun 2027 10:37:30.150   01 Jun 2027 10:43:05.173           335.023               Magadan2         10469.469
        18   01 Jun 2027 13:49:49.071   01 Jun 2027 13:49:54.435             5.364                Irkutsk           167.625
        19   01 Jun 2027 15:15:47.135   01 Jun 2027 15:19:44.323           237.188                  Delhi          7412.125
        20   01 Jun 2027 15:23:11.426   01 Jun 2027 15:25:10.607           119.181                Novosib          3724.406
        21   01 Jun 2027 17:09:24.515   01 Jun 2027 17:11:15.665           111.150                Norilsk          3473.437
        22   01 Jun 2027 18:13:57.752   01 Jun 2027 18:14:18.347            20.595               CapeTown           643.594
        23   01 Jun 2027 18:17:35.043   01 Jun 2027 18:17:42.632             7.589               CapeTown           237.156
        24   01 Jun 2027 18:19:30.326   01 Jun 2027 18:20:26.798            56.472               CapeTown          1764.750
        25   01 Jun 2027 18:37:19.636   01 Jun 2027 18:41:52.451           272.815                 Moscow          8525.469
        26   01 Jun 2027 18:46:22.500   01 Jun 2027 18:48:00.907            98.407              Murmansk2          3075.219
        27   01 Jun 2027 19:48:47.136   01 Jun 2027 19:49:07.408            20.272               CapeTown           633.500
        28   01 Jun 2027 19:52:16.538   01 Jun 2027 19:52:48.921            32.383               CapeTown          1011.969
        29   01 Jun 2027 19:56:36.465   01 Jun 2027 19:57:40.038            63.573               CapeTown          1986.656
        30   01 Jun 2027 20:20:17.635   01 Jun 2027 20:25:24.453           306.818              Murmansk2          9588.062
        31   01 Jun 2027 22:03:50.006   01 Jun 2027 22:09:02.041           312.035                Anadyr1          9751.094
        32   01 Jun 2027 22:09:22.057   01 Jun 2027 22:11:55.953           153.896               Magadan2          4809.250
        33   01 Jun 2027 22:58:43.327   01 Jun 2027 23:00:30.771           107.444            RioGallegos          3357.625
        34   01 Jun 2027 23:03:45.368   01 Jun 2027 23:04:43.373            58.005            RioGallegos          1812.656
        35   01 Jun 2027 23:39:33.477   01 Jun 2027 23:41:09.754            96.277                Anadyr1          3008.656
        36   01 Jun 2027 23:41:39.693   01 Jun 2027 23:43:18.452            98.759                Norilsk          3086.219
        37   01 Jun 2027 23:43:51.086   01 Jun 2027 23:44:34.720            43.634               Magadan1          1363.563
        38   01 Jun 2027 23:44:39.432   01 Jun 2027 23:45:08.999            29.567               Magadan1           923.969
        39   01 Jun 2027 23:46:05.262   01 Jun 2027 23:47:15.124            69.862                Irkutsk          2183.188
        40   01 Jun 2027 23:49:27.097   01 Jun 2027 23:49:33.338             6.241                Irkutsk           195.031
        41   01 Jun 2027 23:54:39.887   01 Jun 2027 23:54:48.336             8.449                Irkutsk           264.031
        42   02 Jun 2027 00:00:09.436   02 Jun 2027 00:01:17.509            68.073                Sumatra          2127.281
        43   02 Jun 2027 00:05:54.260   02 Jun 2027 00:06:33.083            38.823                Sumatra          1213.219
        44   02 Jun 2027 00:06:48.550   02 Jun 2027 00:06:51.326             2.776                Sumatra            86.750
        45   02 Jun 2027 00:08:40.158   02 Jun 2027 00:09:24.534            44.376                Sumatra          1386.750
        46   02 Jun 2027 00:37:55.038   02 Jun 2027 00:38:54.019            58.981            RioGallegos          1843.156
        47   02 Jun 2027 01:14:33.150   02 Jun 2027 01:15:21.861            48.711                Anadyr2          1522.219
        48   02 Jun 2027 01:15:21.861   02 Jun 2027 01:16:12.216            50.355                Anadyr1          1573.594
        49   02 Jun 2027 01:16:43.513   02 Jun 2027 01:16:58.867            15.354                Anadyr1           479.813
        50   02 Jun 2027 01:17:34.399   02 Jun 2027 01:19:22.009           107.610                Norilsk          3362.813
        51   02 Jun 2027 01:20:01.354   02 Jun 2027 01:20:50.276            48.922               Magadan2          1528.813
        52   02 Jun 2027 01:21:26.867   02 Jun 2027 01:22:29.872            63.005                Irkutsk          1968.906
        53   02 Jun 2027 01:24:08.434   02 Jun 2027 01:24:58.514            50.080                Novosib          1565.000
        54   02 Jun 2027 01:30:05.811   02 Jun 2027 01:30:28.924            23.113                  Delhi           722.281
        55   02 Jun 2027 01:34:46.126   02 Jun 2027 01:35:07.012            20.886                  Delhi           652.688
        56   02 Jun 2027 01:36:02.679   02 Jun 2027 01:37:05.109            62.430                Sumatra          1950.937
        57   02 Jun 2027 01:39:50.282   02 Jun 2027 01:41:14.186            83.904                Sumatra          2622.000
        58   02 Jun 2027 02:13:39.428   02 Jun 2027 02:13:50.925            11.497            RioGallegos           359.281
        59   02 Jun 2027 02:15:21.438   02 Jun 2027 02:16:53.172            91.734            RioGallegos          2866.688
        60   02 Jun 2027 02:53:35.273   02 Jun 2027 02:54:30.721            55.448                Norilsk          1732.750
        61   02 Jun 2027 02:54:44.194   02 Jun 2027 02:54:49.520             5.326                Norilsk           166.438
        62   02 Jun 2027 02:56:03.851   02 Jun 2027 02:56:36.478            32.627              Murmansk1          1019.594
        63   02 Jun 2027 02:56:50.670   02 Jun 2027 02:57:24.391            33.721              Murmansk1          1053.781
        64   02 Jun 2027 02:57:29.895   02 Jun 2027 02:58:05.554            35.659                Novosib          1114.344
        65   02 Jun 2027 02:58:34.857   02 Jun 2027 03:01:06.103           151.246                Irkutsk          4726.438
        66   02 Jun 2027 03:01:39.095   02 Jun 2027 03:02:01.732            22.637              Murmansk1           707.406
        67   02 Jun 2027 03:02:07.023   02 Jun 2027 03:03:02.802            55.779              Murmansk2          1743.094
        68   02 Jun 2027 03:03:11.076   02 Jun 2027 03:03:28.688            17.612                Norilsk           550.375
        69   02 Jun 2027 03:03:29.098   02 Jun 2027 03:04:03.427            34.329                Novosib          1072.781
        70   02 Jun 2027 03:04:11.552   02 Jun 2027 03:04:41.464            29.912                 Moscow           934.750
        71   02 Jun 2027 03:04:46.197   02 Jun 2027 03:07:45.149           178.952                  Delhi          5592.250
        72   02 Jun 2027 04:37:29.414   02 Jun 2027 04:38:30.177            60.763              Murmansk2          1898.844
        73   02 Jun 2027 04:38:38.254   02 Jun 2027 04:39:00.543            22.289              Murmansk2           696.531
        74   02 Jun 2027 04:39:03.439   02 Jun 2027 04:39:17.829            14.390              Murmansk1           449.688
        75   02 Jun 2027 04:39:27.833   02 Jun 2027 04:40:55.275            87.442                Norilsk          2732.563
        76   02 Jun 2027 04:40:59.352   02 Jun 2027 04:42:09.881            70.529              Murmansk2          2204.031
        77   02 Jun 2027 04:42:52.138   02 Jun 2027 04:43:01.667             9.529              Murmansk2           297.781
        78   02 Jun 2027 05:00:06.954   02 Jun 2027 05:00:35.622            28.668               CapeTown           895.875
        79   02 Jun 2027 05:01:22.661   02 Jun 2027 05:02:11.017            48.356               CapeTown          1511.125
        80   02 Jun 2027 06:15:45.272   02 Jun 2027 06:16:14.173            28.901                Norilsk           903.156
        81   02 Jun 2027 06:16:32.467   02 Jun 2027 06:20:36.279           243.812              Murmansk2          7619.125
        82   02 Jun 2027 06:20:48.246   02 Jun 2027 06:22:00.449            72.203                 Moscow          2256.344
        83   02 Jun 2027 06:35:02.965   02 Jun 2027 06:36:42.876            99.911               CapeTown          3122.219
        84   02 Jun 2027 06:44:40.516   02 Jun 2027 06:44:51.276            10.760               CapeTown           336.250
        85   02 Jun 2027 07:38:37.671   02 Jun 2027 07:41:28.593           170.922                Anadyr1          5341.312
        86   02 Jun 2027 09:12:33.001   02 Jun 2027 09:14:04.971            91.970                Anadyr1          2874.063
        87   02 Jun 2027 09:15:05.368   02 Jun 2027 09:15:20.927            15.559                Anadyr1           486.219
        88   02 Jun 2027 09:15:22.295   02 Jun 2027 09:15:42.592            20.297               Magadan1           634.281
        89   02 Jun 2027 09:16:12.822   02 Jun 2027 09:17:52.822           100.000               Magadan1          3125.000
        90   02 Jun 2027 09:18:36.118   02 Jun 2027 09:19:43.907            67.789                Anadyr1          2118.406
        91   02 Jun 2027 10:50:21.237   02 Jun 2027 10:55:23.427           302.190               Magadan1          9443.437
        92   02 Jun 2027 10:55:23.427   02 Jun 2027 10:55:25.840             2.413               Magadan2            75.406
        93   02 Jun 2027 15:27:30.505   02 Jun 2027 15:29:05.579            95.074                  Delhi          2971.063
        94   02 Jun 2027 15:36:00.319   02 Jun 2027 15:39:48.715           228.396                Novosib          7137.375
        95   02 Jun 2027 18:26:30.883   02 Jun 2027 18:26:46.465            15.582               CapeTown           486.938
        96   02 Jun 2027 18:29:50.118   02 Jun 2027 18:30:08.890            18.772               CapeTown           586.625
        97   02 Jun 2027 18:50:17.608   02 Jun 2027 18:54:33.812           256.204                 Moscow          8006.375
        98   02 Jun 2027 18:56:21.613   02 Jun 2027 18:56:58.189            36.576              Murmansk1          1143.000
        99   02 Jun 2027 19:02:05.291   02 Jun 2027 19:02:12.724             7.433              Murmansk2           232.281
       100   02 Jun 2027 20:00:20.739   02 Jun 2027 20:04:09.951           229.212               CapeTown          7162.875
       101   02 Jun 2027 20:33:22.384   02 Jun 2027 20:37:03.555           221.171              Murmansk2          6911.594
       102   02 Jun 2027 20:42:30.043   02 Jun 2027 20:42:55.174            25.131               Magadan2           785.344
       103   02 Jun 2027 20:45:02.891   02 Jun 2027 20:45:05.837             2.946               Magadan2            92.063
       104   02 Jun 2027 20:45:18.442   02 Jun 2027 20:45:39.877            21.435               Magadan2           669.844
       105   02 Jun 2027 22:15:51.290   02 Jun 2027 22:20:08.175           256.885                Anadyr2          8027.656
       106   02 Jun 2027 22:20:24.410   02 Jun 2027 22:21:09.171            44.761                Norilsk          1398.781
       107   02 Jun 2027 22:21:12.761   02 Jun 2027 22:22:01.652            48.891                Norilsk          1527.844
       108   02 Jun 2027 22:22:10.779   02 Jun 2027 22:23:14.314            63.535               Magadan1          1985.469
       109   02 Jun 2027 23:10:27.083   02 Jun 2027 23:13:09.034           161.951            RioGallegos          5060.969
       110   02 Jun 2027 23:51:31.326   02 Jun 2027 23:53:32.428           121.102                Anadyr2          3784.437
       111   02 Jun 2027 23:53:39.990   02 Jun 2027 23:55:19.853            99.863                Norilsk          3120.719
       112   02 Jun 2027 23:55:43.630   02 Jun 2027 23:56:32.008            48.378               Magadan1          1511.812
       113   02 Jun 2027 23:57:56.980   02 Jun 2027 23:59:15.863            78.883                Irkutsk          2465.094
       114   03 Jun 2027 00:00:35.161   03 Jun 2027 00:00:55.042            19.881                Novosib           621.281
       115   03 Jun 2027 00:02:10.294   03 Jun 2027 00:02:35.278            24.984                Novosib           780.750
       116   03 Jun 2027 00:11:48.960   03 Jun 2027 00:14:07.042           138.082                Sumatra          4315.063
       117   03 Jun 2027 00:45:49.144   03 Jun 2027 00:45:52.824             3.680            RioGallegos           115.000
       118   03 Jun 2027 00:47:30.387   03 Jun 2027 00:47:34.726             4.339            RioGallegos           135.594
       119   03 Jun 2027 00:49:07.520   03 Jun 2027 00:49:22.837            15.317            RioGallegos           478.656
       120   03 Jun 2027 00:49:58.736   03 Jun 2027 00:50:11.855            13.119            RioGallegos           409.969
       121   03 Jun 2027 01:26:22.522   03 Jun 2027 01:27:23.160            60.638                Anadyr2          1894.938
       122   03 Jun 2027 01:27:23.160   03 Jun 2027 01:28:20.603            57.443                Anadyr1          1795.094
       123   03 Jun 2027 01:28:44.046   03 Jun 2027 01:28:55.165            11.119                Anadyr1           347.469
       124   03 Jun 2027 01:29:36.765   03 Jun 2027 01:31:24.018           107.253                Norilsk          3351.656
       125   03 Jun 2027 01:31:39.337   03 Jun 2027 01:32:00.963            21.626               Magadan2           675.812
       126   03 Jun 2027 01:33:29.216   03 Jun 2027 01:34:57.673            88.457                Irkutsk          2764.281
       127   03 Jun 2027 01:35:24.286   03 Jun 2027 01:35:42.257            17.971                Novosib           561.594
       128   03 Jun 2027 01:35:59.839   03 Jun 2027 01:37:19.824            79.985                Novosib          2499.531
       129   03 Jun 2027 01:48:36.584   03 Jun 2027 01:49:07.565            30.981                Sumatra           968.156
       130   03 Jun 2027 01:50:41.165   03 Jun 2027 01:52:14.296            93.131                Sumatra          2910.344
       131   03 Jun 2027 02:22:37.933   03 Jun 2027 02:23:17.946            40.013            RioGallegos          1250.406
       132   03 Jun 2027 02:29:52.690   03 Jun 2027 02:30:21.175            28.485            RioGallegos           890.156
       133   03 Jun 2027 03:00:00.180   03 Jun 2027 03:00:39.283            39.103                Anadyr1          1221.969
       134   03 Jun 2027 03:09:45.208   03 Jun 2027 03:09:52.309             7.101               Magadan2           221.906
       135   03 Jun 2027 03:10:43.395   03 Jun 2027 03:15:16.543           273.148                Irkutsk          8535.875
       136   03 Jun 2027 03:15:37.636   03 Jun 2027 03:15:49.332            11.696                Novosib           365.500
       137   03 Jun 2027 03:15:55.244   03 Jun 2027 03:16:56.639            61.395                Irkutsk          1918.594
       138   03 Jun 2027 03:17:00.121   03 Jun 2027 03:17:01.003             0.882                Norilsk            27.563
       139   03 Jun 2027 03:17:07.762   03 Jun 2027 03:17:34.804            27.042                Norilsk           845.063
       140   03 Jun 2027 03:18:08.049   03 Jun 2027 03:18:17.299             9.250                Novosib           289.063
       141   03 Jun 2027 04:49:39.166   03 Jun 2027 04:50:14.140            34.974              Murmansk2          1092.937
       142   03 Jun 2027 04:50:14.913   03 Jun 2027 04:51:16.518            61.605                Novosib          1925.156
       143   03 Jun 2027 04:51:58.109   03 Jun 2027 04:53:42.563           104.454                Norilsk          3264.187
       144   03 Jun 2027 04:53:54.021   03 Jun 2027 04:56:20.580           146.559                 Moscow          4579.969
       145   03 Jun 2027 04:56:41.581   03 Jun 2027 04:59:23.096           161.515                 Moscow          5047.344
       146   03 Jun 2027 05:11:42.231   03 Jun 2027 05:14:50.684           188.453               CapeTown          5889.156
       147   03 Jun 2027 05:17:07.963   03 Jun 2027 05:17:49.468            41.505               CapeTown          1297.031
       148   03 Jun 2027 05:18:14.643   03 Jun 2027 05:18:20.828             6.185               CapeTown           193.281
       149   03 Jun 2027 06:07:44.448   03 Jun 2027 06:08:23.185            38.737                Anadyr1          1210.531
       150   03 Jun 2027 06:26:50.258   03 Jun 2027 06:27:59.237            68.979                 Moscow          2155.594
       151   03 Jun 2027 06:28:00.323   03 Jun 2027 06:28:34.070            33.747              Murmansk2          1054.594
       152   03 Jun 2027 06:28:34.070   03 Jun 2027 06:28:48.356            14.286              Murmansk1           446.437
       153   03 Jun 2027 06:28:56.251   03 Jun 2027 06:29:41.144            44.893                 Moscow          1402.906
       154   03 Jun 2027 06:47:21.388   03 Jun 2027 06:48:38.351            76.963               CapeTown          2405.094
       155   03 Jun 2027 07:51:54.953   03 Jun 2027 07:56:27.386           272.433                Anadyr2          8513.531
       156   03 Jun 2027 07:56:32.346   03 Jun 2027 07:56:34.981             2.635              Murmansk2            82.344
       157   03 Jun 2027 07:56:49.992   03 Jun 2027 07:56:56.175             6.183                Norilsk           193.219
       158   03 Jun 2027 08:01:29.096   03 Jun 2027 08:01:57.106            28.010                 Moscow           875.312
       159   03 Jun 2027 08:03:01.332   03 Jun 2027 08:03:26.721            25.389                 Moscow           793.406
       160   03 Jun 2027 09:25:56.747   03 Jun 2027 09:28:06.927           130.180                Anadyr2          4068.125
       161   03 Jun 2027 09:28:21.246   03 Jun 2027 09:29:01.068            39.822                Anadyr1          1244.437
       162   03 Jun 2027 09:29:50.222   03 Jun 2027 09:32:03.582           133.360               Magadan2          4167.500
       163   03 Jun 2027 11:01:03.020   03 Jun 2027 11:02:49.834           106.814               Magadan1          3337.937
       164   03 Jun 2027 11:03:23.934   03 Jun 2027 11:07:16.458           232.524               Magadan2          7266.375
       165   03 Jun 2027 12:18:23.506   03 Jun 2027 12:19:22.552            59.046                Sumatra          1845.187
       166   03 Jun 2027 12:31:04.948   03 Jun 2027 12:32:48.206           103.258                Irkutsk          3226.812
       167   03 Jun 2027 12:34:09.791   03 Jun 2027 12:35:08.690            58.899                Irkutsk          1840.594
       168   03 Jun 2027 12:36:53.247   03 Jun 2027 12:37:10.423            17.176                Norilsk           536.750
       169   03 Jun 2027 12:39:56.699   03 Jun 2027 12:40:48.479            51.780                Irkutsk          1618.125
       170   03 Jun 2027 13:20:41.548   03 Jun 2027 13:23:21.980           160.432            RioGallegos          5013.500
       171   03 Jun 2027 13:23:51.405   03 Jun 2027 13:24:08.522            17.117            RioGallegos           534.906
       172   03 Jun 2027 13:24:30.449   03 Jun 2027 13:25:30.813            60.364            RioGallegos          1886.375
       173   03 Jun 2027 13:54:58.667   03 Jun 2027 13:58:12.128           193.461                Sumatra          6045.656
       174   03 Jun 2027 14:10:42.108   03 Jun 2027 14:11:36.909            54.801                Irkutsk          1712.531
       175   03 Jun 2027 14:15:03.843   03 Jun 2027 14:15:04.382             0.539                Irkutsk            16.844
       176   03 Jun 2027 14:15:19.744   03 Jun 2027 14:17:59.909           160.165                Irkutsk          5005.156
       177   03 Jun 2027 15:40:31.979   03 Jun 2027 15:42:16.419           104.440                  Delhi          3263.750
       178   03 Jun 2027 15:49:01.393   03 Jun 2027 15:52:26.555           205.162                Novosib          6411.313
       179   03 Jun 2027 15:52:55.231   03 Jun 2027 15:53:13.113            17.882                Novosib           558.812
       180   03 Jun 2027 15:56:45.004   03 Jun 2027 15:56:51.691             6.687                Norilsk           208.969
       181   03 Jun 2027 17:22:30.151   03 Jun 2027 17:23:21.390            51.239                 Moscow          1601.219
       182   03 Jun 2027 17:25:04.944   03 Jun 2027 17:25:45.472            40.528                 Moscow          1266.500
       183   03 Jun 2027 17:26:43.718   03 Jun 2027 17:28:12.660            88.942              Murmansk1          2779.437
       184   03 Jun 2027 17:40:50.517   03 Jun 2027 17:41:39.679            49.162                Anadyr1          1536.313
       185   03 Jun 2027 17:43:30.981   03 Jun 2027 17:43:44.188            13.207                Anadyr1           412.719
       186   03 Jun 2027 17:47:03.844   03 Jun 2027 17:47:25.090            21.246                Anadyr2           663.937
       187   03 Jun 2027 18:35:25.470   03 Jun 2027 18:37:52.007           146.537               CapeTown          4579.281
       188   03 Jun 2027 19:03:35.196   03 Jun 2027 19:07:23.821           228.625                 Moscow          7144.531
       189   03 Jun 2027 19:08:07.260   03 Jun 2027 19:08:20.008            12.748              Murmansk2           398.375
       190   03 Jun 2027 19:08:57.020   03 Jun 2027 19:09:34.972            37.952              Murmansk2          1186.000
       191   03 Jun 2027 19:21:11.878   03 Jun 2027 19:21:43.723            31.845               Magadan2           995.156
       192   03 Jun 2027 20:12:50.380   03 Jun 2027 20:13:51.796            61.416               CapeTown          1919.250
       193   03 Jun 2027 20:15:58.203   03 Jun 2027 20:17:52.326           114.123               CapeTown          3566.344
       194   03 Jun 2027 20:47:05.246   03 Jun 2027 20:48:06.597            61.351              Murmansk1          1917.219
       195   03 Jun 2027 20:54:26.482   03 Jun 2027 20:55:45.933            79.451               Magadan1          2482.844
       196   03 Jun 2027 20:55:45.933   03 Jun 2027 20:56:13.692            27.759               Magadan2           867.469
       197   03 Jun 2027 20:56:48.654   03 Jun 2027 20:57:31.162            42.508               Magadan2          1328.375
       198   03 Jun 2027 20:57:31.162   03 Jun 2027 20:57:58.531            27.369               Magadan1           855.281
       199   03 Jun 2027 20:59:13.804   03 Jun 2027 20:59:24.377            10.573               Magadan2           330.406
       200   03 Jun 2027 21:00:20.155   03 Jun 2027 21:00:28.793             8.638               Magadan1           269.937
       201   03 Jun 2027 21:00:45.545   03 Jun 2027 21:01:14.578            29.033               Magadan1           907.281
       202   03 Jun 2027 22:27:52.348   03 Jun 2027 22:31:37.553           225.205                Anadyr2          7037.656
       203   03 Jun 2027 22:31:48.171   03 Jun 2027 22:33:50.249           122.078               Magadan2          3814.938
       204   03 Jun 2027 22:33:50.249   03 Jun 2027 22:34:20.445            30.196               Magadan1           943.625
       205   03 Jun 2027 22:34:28.424   03 Jun 2027 22:35:06.811            38.387                Norilsk          1199.594
       206   03 Jun 2027 22:35:25.790   03 Jun 2027 22:35:47.135            21.345               Magadan1           667.031
       207   03 Jun 2027 22:40:05.791   03 Jun 2027 22:40:12.511             6.720               Magadan2           210.000
       208   03 Jun 2027 22:40:31.853   03 Jun 2027 22:41:14.566            42.713               Magadan1          1334.781
       209   03 Jun 2027 23:22:15.074   03 Jun 2027 23:25:14.321           179.247            RioGallegos          5601.469
       210   04 Jun 2027 00:03:28.418   04 Jun 2027 00:04:18.618            50.200                Anadyr1          1568.750
       211   04 Jun 2027 00:04:19.626   04 Jun 2027 00:05:00.209            40.583                Anadyr2          1268.219
       212   04 Jun 2027 00:05:40.826   04 Jun 2027 00:07:25.504           104.678                Norilsk          3271.188
       213   04 Jun 2027 00:08:05.083   04 Jun 2027 00:08:27.287            22.204               Magadan1           693.875
       214   04 Jun 2027 00:08:48.106   04 Jun 2027 00:09:49.861            61.755               Magadan1          1929.844
       215   04 Jun 2027 00:09:50.940   04 Jun 2027 00:10:46.372            55.432                Irkutsk          1732.250
       216   04 Jun 2027 00:11:10.588   04 Jun 2027 00:11:21.820            11.232                Irkutsk           351.000
       217   04 Jun 2027 00:11:56.631   04 Jun 2027 00:12:31.431            34.800                Irkutsk          1087.500
       218   04 Jun 2027 00:14:05.822   04 Jun 2027 00:14:19.698            13.876                Novosib           433.625
       219   04 Jun 2027 00:14:31.654   04 Jun 2027 00:16:16.467           104.813                Novosib          3275.406
       220   04 Jun 2027 00:27:17.048   04 Jun 2027 00:27:26.738             9.690                Sumatra           302.813
       221   04 Jun 2027 00:31:38.951   04 Jun 2027 00:33:03.552            84.601                Sumatra          2643.781
       222   04 Jun 2027 01:04:06.663   04 Jun 2027 01:04:27.664            21.001            RioGallegos           656.281
       223   04 Jun 2027 01:09:03.997   04 Jun 2027 01:09:18.314            14.317            RioGallegos           447.406
       224   04 Jun 2027 01:38:10.558   04 Jun 2027 01:38:46.627            36.069                Anadyr2          1127.156
       225   04 Jun 2027 01:38:46.627   04 Jun 2027 01:39:24.500            37.873                Anadyr1          1183.531
       226   04 Jun 2027 01:40:21.289   04 Jun 2027 01:40:43.148            21.859                Anadyr2           683.094
       227   04 Jun 2027 01:40:43.862   04 Jun 2027 01:40:44.828             0.966                Anadyr1            30.188
       228   04 Jun 2027 01:41:39.175   04 Jun 2027 01:43:25.897           106.722                Norilsk          3335.062
       229   04 Jun 2027 01:44:05.003   04 Jun 2027 01:44:16.754            11.751               Magadan2           367.219
       230   04 Jun 2027 01:45:32.360   04 Jun 2027 01:48:35.650           183.290                Irkutsk          5727.812
       231   04 Jun 2027 01:53:22.139   04 Jun 2027 01:53:31.971             9.832                  Delhi           307.250
       232   04 Jun 2027 01:53:54.417   04 Jun 2027 01:54:00.149             5.732                  Delhi           179.125
       233   04 Jun 2027 01:54:38.645   04 Jun 2027 01:55:12.515            33.870                  Delhi          1058.438
       234   04 Jun 2027 01:59:42.100   04 Jun 2027 01:59:43.576             1.476                  Delhi            46.125
       235   04 Jun 2027 01:59:58.862   04 Jun 2027 02:00:23.364            24.502                  Delhi           765.688
       236   04 Jun 2027 02:01:25.590   04 Jun 2027 02:04:08.495           162.905                Sumatra          5090.781
       237   04 Jun 2027 02:37:23.625   04 Jun 2027 02:37:55.306            31.681            RioGallegos           990.031
       238   04 Jun 2027 02:42:08.227   04 Jun 2027 02:42:44.716            36.489            RioGallegos          1140.281
       239   04 Jun 2027 03:23:29.505   04 Jun 2027 03:24:54.750            85.245                Irkutsk          2663.906
       240   04 Jun 2027 03:25:05.040   04 Jun 2027 03:28:32.713           207.673                Irkutsk          6489.781
       241   04 Jun 2027 05:01:58.379   04 Jun 2027 05:02:09.547            11.168                Novosib           349.000
       242   04 Jun 2027 05:02:24.921   04 Jun 2027 05:02:42.641            17.720              Murmansk2           553.750
       243   04 Jun 2027 05:03:00.058   04 Jun 2027 05:04:57.131           117.073                Norilsk          3658.531
       244   04 Jun 2027 05:04:58.247   04 Jun 2027 05:05:41.250            43.003                 Moscow          1343.844
       245   04 Jun 2027 05:05:58.444   04 Jun 2027 05:07:55.449           117.005              Murmansk2          3656.406
       246   04 Jun 2027 05:08:25.201   04 Jun 2027 05:11:37.311           192.110                 Moscow          6003.438
       247   04 Jun 2027 05:23:23.541   04 Jun 2027 05:29:45.375           381.834               CapeTown         11932.312
       248   04 Jun 2027 06:27:40.278   04 Jun 2027 06:31:07.535           207.257               Magadan1          6476.781
       249   04 Jun 2027 06:38:34.724   04 Jun 2027 06:41:56.804           202.080              Murmansk2          6315.000
       250   04 Jun 2027 06:42:29.026   04 Jun 2027 06:42:53.918            24.892              Murmansk1           777.875
       251   04 Jun 2027 06:43:08.065   04 Jun 2027 06:43:12.370             4.305              Murmansk1           134.531
       252   04 Jun 2027 06:43:53.946   04 Jun 2027 06:44:10.552            16.606                 Moscow           518.938
       253   04 Jun 2027 06:59:46.736   04 Jun 2027 07:00:38.871            52.135               CapeTown          1629.219
       254   04 Jun 2027 07:03:52.286   04 Jun 2027 07:04:55.338            63.052               CapeTown          1970.375
       255   04 Jun 2027 07:07:34.820   04 Jun 2027 07:09:46.934           132.114               CapeTown          4128.563
       256   04 Jun 2027 08:02:23.589   04 Jun 2027 08:05:04.620           161.031               Magadan1          5032.219
       257   04 Jun 2027 08:05:11.604   04 Jun 2027 08:05:32.797            21.193               Magadan2           662.281
       258   04 Jun 2027 08:05:32.797   04 Jun 2027 08:05:34.120             1.323               Magadan1            41.344
       259   04 Jun 2027 08:16:38.781   04 Jun 2027 08:17:03.808            25.027                 Moscow           782.094
       260   04 Jun 2027 08:17:38.221   04 Jun 2027 08:18:52.871            74.650                 Moscow          2332.812
       261   04 Jun 2027 09:35:19.984   04 Jun 2027 09:36:35.563            75.579                Anadyr2          2361.844
       262   04 Jun 2027 09:37:29.254   04 Jun 2027 09:37:47.275            18.021                Irkutsk           563.156
       263   04 Jun 2027 09:38:10.544   04 Jun 2027 09:38:19.376             8.832                Irkutsk           276.000
       264   04 Jun 2027 09:38:19.950   04 Jun 2027 09:38:57.513            37.563                Norilsk          1173.844
       265   04 Jun 2027 09:39:00.343   04 Jun 2027 09:40:31.514            91.171               Magadan2          2849.094
       266   04 Jun 2027 09:40:48.078   04 Jun 2027 09:41:16.394            28.316               Magadan2           884.875
       267   04 Jun 2027 09:41:34.084   04 Jun 2027 09:42:49.024            74.940                Irkutsk          2341.875
       268   04 Jun 2027 10:19:44.143   04 Jun 2027 10:20:16.858            32.715            RioGallegos          1022.344
       269   04 Jun 2027 10:21:59.016   04 Jun 2027 10:22:42.288            43.272            RioGallegos          1352.250
       270   04 Jun 2027 11:10:44.227   04 Jun 2027 11:15:23.017           278.790               Magadan1          8712.187
       271   04 Jun 2027 11:15:30.315   04 Jun 2027 11:19:03.632           213.317               Magadan2          6666.156
       272   04 Jun 2027 11:19:36.605   04 Jun 2027 11:19:56.308            19.703              Murmansk2           615.719
       273   04 Jun 2027 11:22:12.157   04 Jun 2027 11:22:18.754             6.597              Murmansk1           206.156
       274   04 Jun 2027 11:24:23.607   04 Jun 2027 11:24:35.397            11.790              Murmansk1           368.437
       275   04 Jun 2027 11:54:32.818   04 Jun 2027 11:55:14.866            42.048            RioGallegos          1314.000
       276   04 Jun 2027 11:57:46.721   04 Jun 2027 11:58:06.768            20.047            RioGallegos           626.469
       277   04 Jun 2027 12:29:31.157   04 Jun 2027 12:32:19.904           168.747                Sumatra          5273.344
       278   04 Jun 2027 12:43:17.059   04 Jun 2027 12:43:39.961            22.902                Irkutsk           715.687
       279   04 Jun 2027 12:44:40.393   04 Jun 2027 12:45:31.403            51.010                Novosib          1594.062
       280   04 Jun 2027 12:47:52.934   04 Jun 2027 12:49:41.417           108.483                Norilsk          3390.094
       281   04 Jun 2027 13:33:26.404   04 Jun 2027 13:35:14.889           108.485            RioGallegos          3390.156
       282   04 Jun 2027 14:07:59.486   04 Jun 2027 14:12:16.931           257.445                Sumatra          8045.156
       283   04 Jun 2027 14:25:07.058   04 Jun 2027 14:25:16.907             9.849                Norilsk           307.781
       284   04 Jun 2027 14:25:31.834   04 Jun 2027 14:26:10.167            38.333                Novosib          1197.906
       285   04 Jun 2027 14:26:48.140   04 Jun 2027 14:27:51.081            62.941                Irkutsk          1966.906
       286   04 Jun 2027 14:28:44.007   04 Jun 2027 14:29:19.997            35.990                Irkutsk          1124.687
       287   04 Jun 2027 15:54:13.337   04 Jun 2027 15:57:35.107           201.770                  Delhi          6305.312
       288   04 Jun 2027 16:01:26.312   04 Jun 2027 16:01:59.623            33.311              Murmansk2          1040.969
       289   04 Jun 2027 16:02:26.046   04 Jun 2027 16:05:47.177           201.131                Novosib          6285.344
       290   04 Jun 2027 16:09:56.774   04 Jun 2027 16:09:56.784             0.010                Norilsk             0.312
       291   04 Jun 2027 17:20:50.173   04 Jun 2027 17:20:58.320             8.147               CapeTown           254.594
       292   04 Jun 2027 17:21:58.750   04 Jun 2027 17:21:59.873             1.123               CapeTown            35.094
       293   04 Jun 2027 17:34:49.429   04 Jun 2027 17:35:48.397            58.968                 Moscow          1842.750
       294   04 Jun 2027 17:37:22.889   04 Jun 2027 17:39:03.176           100.287                 Moscow          3133.969
       295   04 Jun 2027 17:40:09.774   04 Jun 2027 17:40:46.845            37.071              Murmansk2          1158.469
       296   04 Jun 2027 17:42:27.434   04 Jun 2027 17:42:33.856             6.422              Murmansk2           200.687
       297   04 Jun 2027 17:45:12.679   04 Jun 2027 17:46:06.569            53.890              Murmansk1          1684.063
       298   04 Jun 2027 17:52:40.996   04 Jun 2027 17:53:41.116            60.120                Anadyr2          1878.750
       299   04 Jun 2027 17:55:22.708   04 Jun 2027 17:55:48.910            26.202                Anadyr1           818.813
       300   04 Jun 2027 18:47:26.594   04 Jun 2027 18:49:38.695           132.101               CapeTown          4128.156
       301   04 Jun 2027 19:17:00.214   04 Jun 2027 19:17:35.139            34.925              Murmansk2          1091.406
       302   04 Jun 2027 19:18:32.310   04 Jun 2027 19:22:15.373           223.063              Murmansk1          6970.719
       303   04 Jun 2027 19:32:03.016   04 Jun 2027 19:32:43.744            40.728               Magadan2          1272.750
       304   04 Jun 2027 19:34:59.186   04 Jun 2027 19:35:25.765            26.579               Magadan2           830.594
       305   04 Jun 2027 19:35:42.085   04 Jun 2027 19:36:02.290            20.205               Magadan1           631.406
       306   04 Jun 2027 20:25:32.537   04 Jun 2027 20:27:10.782            98.245               CapeTown          3070.156
       307   04 Jun 2027 20:27:41.031   04 Jun 2027 20:29:41.568           120.537               CapeTown          3766.781
       308   04 Jun 2027 21:04:49.411   04 Jun 2027 21:04:58.987             9.576                Anadyr1           299.250
       309   04 Jun 2027 21:05:10.725   04 Jun 2027 21:05:19.688             8.963                Anadyr1           280.094
       310   04 Jun 2027 21:06:10.938   04 Jun 2027 21:07:11.175            60.237                Anadyr2          1882.406
       311   04 Jun 2027 21:07:24.120   04 Jun 2027 21:09:26.619           122.499               Magadan2          3828.094
       312   04 Jun 2027 21:09:28.146   04 Jun 2027 21:10:44.039            75.893               Magadan2          2371.656
       313   04 Jun 2027 22:39:53.121   04 Jun 2027 22:44:50.973           297.852                Anadyr2          9307.875
       314   04 Jun 2027 22:45:05.690   04 Jun 2027 22:45:12.875             7.185                Norilsk           224.531
       315   04 Jun 2027 22:45:24.273   04 Jun 2027 22:45:42.603            18.330               Magadan1           572.813
       316   04 Jun 2027 22:46:05.930   04 Jun 2027 22:46:29.062            23.132               Magadan2           722.875
       317   04 Jun 2027 22:47:08.865   04 Jun 2027 22:47:28.467            19.602               Magadan2           612.563
       318   04 Jun 2027 22:47:37.891   04 Jun 2027 22:48:01.152            23.261               Magadan2           726.906
       319   04 Jun 2027 22:48:24.611   04 Jun 2027 22:49:29.930            65.319                Irkutsk          2041.219
       320   04 Jun 2027 22:50:04.635   04 Jun 2027 22:50:43.457            38.822                Irkutsk          1213.188
       321   04 Jun 2027 23:34:06.177   04 Jun 2027 23:35:39.323            93.146            RioGallegos          2910.813
       322   04 Jun 2027 23:36:14.167   04 Jun 2027 23:36:40.621            26.454            RioGallegos           826.687
       323   04 Jun 2027 23:42:15.946   04 Jun 2027 23:43:01.646            45.700            RioGallegos          1428.125
       324   05 Jun 2027 00:15:24.654   05 Jun 2027 00:17:01.327            96.673                Anadyr1          3021.031
       325   05 Jun 2027 00:17:42.080   05 Jun 2027 00:19:27.723           105.643                Norilsk          3301.344
       326   05 Jun 2027 00:19:40.203   05 Jun 2027 00:20:07.413            27.210               Magadan2           850.313
       327   05 Jun 2027 00:20:47.534   05 Jun 2027 00:21:18.827            31.293               Magadan1           977.906
       328   05 Jun 2027 00:21:46.720   05 Jun 2027 00:23:43.749           117.029                Irkutsk          3657.156
       329   05 Jun 2027 00:28:17.758   05 Jun 2027 00:29:03.308            45.550                Novosib          1423.437
       330   05 Jun 2027 00:31:03.812   05 Jun 2027 00:31:18.704            14.892                Irkutsk           465.375
       331   05 Jun 2027 00:35:28.272   05 Jun 2027 00:36:05.292            37.020                Sumatra          1156.875
       332   05 Jun 2027 00:38:32.758   05 Jun 2027 00:38:40.562             7.804                Sumatra           243.875
       333   05 Jun 2027 00:39:18.289   05 Jun 2027 00:40:02.706            44.417                Sumatra          1388.031
       334   05 Jun 2027 00:43:40.836   05 Jun 2027 00:44:00.138            19.302                Sumatra           603.188
       335   05 Jun 2027 00:47:44.023   05 Jun 2027 00:47:51.446             7.423                Sumatra           231.969
       336   05 Jun 2027 01:14:11.866   05 Jun 2027 01:14:30.154            18.288            RioGallegos           571.500
       337   05 Jun 2027 01:15:51.079   05 Jun 2027 01:16:18.360            27.281            RioGallegos           852.531
       338   05 Jun 2027 01:18:38.901   05 Jun 2027 01:19:07.499            28.598            RioGallegos           893.687
       339   05 Jun 2027 01:21:27.605   05 Jun 2027 01:22:14.556            46.951            RioGallegos          1467.219
       340   05 Jun 2027 01:50:31.194   05 Jun 2027 01:51:25.856            54.662                Anadyr2          1708.187
       341   05 Jun 2027 01:52:14.714   05 Jun 2027 01:52:30.088            15.374                Anadyr1           480.438
       342   05 Jun 2027 01:53:41.586   05 Jun 2027 01:54:47.402            65.816                Norilsk          2056.750
       343   05 Jun 2027 01:55:01.677   05 Jun 2027 01:55:16.794            15.117                Norilsk           472.406
       344   05 Jun 2027 01:57:36.111   05 Jun 2027 01:59:47.053           130.942                Novosib          4091.937
       345   05 Jun 2027 01:59:57.086   05 Jun 2027 02:00:24.701            27.615                Novosib           862.969
       346   05 Jun 2027 02:02:31.178   05 Jun 2027 02:02:37.742             6.564                Irkutsk           205.125
       347   05 Jun 2027 02:03:17.262   05 Jun 2027 02:03:30.423            13.161                Irkutsk           411.281
       348   05 Jun 2027 02:04:27.160   05 Jun 2027 02:06:30.132           122.972                Irkutsk          3842.875
       349   05 Jun 2027 02:14:45.306   05 Jun 2027 02:15:56.614            71.308                Sumatra          2228.375
       350   05 Jun 2027 02:46:25.348   05 Jun 2027 02:46:44.565            19.217            RioGallegos           600.531
       351   05 Jun 2027 02:47:33.230   05 Jun 2027 02:48:44.995            71.765            RioGallegos          2242.656
       352   05 Jun 2027 02:50:31.470   05 Jun 2027 02:50:32.851             1.381            RioGallegos            43.156
       353   05 Jun 2027 02:54:32.824   05 Jun 2027 02:54:53.753            20.929            RioGallegos           654.031
       354   05 Jun 2027 03:36:18.704   05 Jun 2027 03:37:20.005            61.301              Murmansk2          1915.656
       355   05 Jun 2027 03:37:20.005   05 Jun 2027 03:39:25.775           125.770              Murmansk1          3930.312
       356   05 Jun 2027 03:39:50.461   05 Jun 2027 03:42:13.056           142.595                Irkutsk          4456.094
       357   05 Jun 2027 03:42:40.686   05 Jun 2027 03:44:57.789           137.103                  Delhi          4284.469
       358   05 Jun 2027 03:45:17.731   05 Jun 2027 03:45:43.898            26.167                Novosib           817.719
       359   05 Jun 2027 03:45:47.066   05 Jun 2027 03:46:46.283            59.217                  Delhi          1850.531
       360   05 Jun 2027 05:14:06.928   05 Jun 2027 05:15:33.937            87.009                Novosib          2719.031
       361   05 Jun 2027 05:16:25.042   05 Jun 2027 05:18:03.544            98.502              Murmansk1          3078.187
       362   05 Jun 2027 05:18:08.445   05 Jun 2027 05:21:40.910           212.465                 Moscow          6639.531
       363   05 Jun 2027 05:22:12.050   05 Jun 2027 05:22:44.566            32.516                 Moscow          1016.125
       364   05 Jun 2027 05:23:18.346   05 Jun 2027 05:23:48.097            29.751                 Moscow           929.719
       365   05 Jun 2027 06:38:58.059   05 Jun 2027 06:39:41.516            43.457               Magadan2          1358.031
       366   05 Jun 2027 06:39:55.284   05 Jun 2027 06:40:04.873             9.589               Magadan2           299.656
       367   05 Jun 2027 06:42:10.590   05 Jun 2027 06:42:55.657            45.067               Magadan1          1408.344
       368   05 Jun 2027 06:50:10.425   05 Jun 2027 06:50:59.953            49.528                 Moscow          1547.750
       369   05 Jun 2027 06:52:05.922   05 Jun 2027 06:52:45.382            39.460                 Moscow          1233.125
       370   05 Jun 2027 07:12:20.502   05 Jun 2027 07:12:44.556            24.054               CapeTown           751.687
       371   05 Jun 2027 07:15:41.731   05 Jun 2027 07:17:15.931            94.200               CapeTown          2943.750
       372   05 Jun 2027 08:12:45.301   05 Jun 2027 08:13:47.996            62.695                Anadyr1          1959.219
       373   05 Jun 2027 08:14:13.394   05 Jun 2027 08:14:55.368            41.974               Magadan1          1311.687
       374   05 Jun 2027 08:15:16.755   05 Jun 2027 08:15:27.593            10.838                Norilsk           338.688
       375   05 Jun 2027 08:15:38.325   05 Jun 2027 08:16:08.490            30.165                Norilsk           942.656
       376   05 Jun 2027 08:16:18.596   05 Jun 2027 08:16:59.687            41.091               Magadan1          1284.094
       377   05 Jun 2027 08:17:36.736   05 Jun 2027 08:17:47.343            10.607                Norilsk           331.469
       378   05 Jun 2027 08:17:53.848   05 Jun 2027 08:18:34.254            40.406                Norilsk          1262.687
       379   05 Jun 2027 08:18:37.420   05 Jun 2027 08:19:11.922            34.502                Anadyr2          1078.187
       380   05 Jun 2027 08:19:11.922   05 Jun 2027 08:20:28.570            76.648                Anadyr1          2395.250
       381   05 Jun 2027 09:47:35.687   05 Jun 2027 09:48:05.548            29.861               Magadan2           933.156
       382   05 Jun 2027 09:48:14.805   05 Jun 2027 09:48:22.615             7.810               Magadan1           244.063
       383   05 Jun 2027 09:48:31.237   05 Jun 2027 09:49:27.769            56.532                Anadyr2          1766.625
       384   05 Jun 2027 09:49:27.769   05 Jun 2027 09:50:36.563            68.794                Anadyr1          2149.812
       385   05 Jun 2027 09:50:42.780   05 Jun 2027 09:53:32.409           169.629               Magadan1          5300.906
       386   05 Jun 2027 09:53:39.325   05 Jun 2027 09:55:43.184           123.859                Anadyr1          3870.594
       387   05 Jun 2027 11:24:03.137   05 Jun 2027 11:26:07.773           124.636               Magadan1          3894.875
       388   05 Jun 2027 11:27:18.449   05 Jun 2027 11:27:20.539             2.090                Norilsk            65.313
       389   05 Jun 2027 11:27:21.415   05 Jun 2027 11:30:45.633           204.218               Magadan1          6381.813
       390   05 Jun 2027 11:30:58.812   05 Jun 2027 11:31:31.944            33.132                Irkutsk          1035.375
       391   05 Jun 2027 11:31:41.056   05 Jun 2027 11:31:53.027            11.971                Irkutsk           374.094
       392   05 Jun 2027 11:31:56.700   05 Jun 2027 11:32:23.605            26.905              Murmansk1           840.781
       393   05 Jun 2027 11:34:26.309   05 Jun 2027 11:34:35.570             9.261              Murmansk2           289.406
       394   05 Jun 2027 12:06:41.022   05 Jun 2027 12:08:26.165           105.143            RioGallegos          3285.719
       395   05 Jun 2027 12:41:26.827   05 Jun 2027 12:41:29.325             2.498                Sumatra            78.062
       396   05 Jun 2027 12:44:23.661   05 Jun 2027 12:44:25.893             2.232                Sumatra            69.750
       397   05 Jun 2027 12:44:35.327   05 Jun 2027 12:44:56.126            20.799                Sumatra           649.969
       398   05 Jun 2027 12:45:15.437   05 Jun 2027 12:45:23.761             8.324                Sumatra           260.125
       399   05 Jun 2027 12:55:33.059   05 Jun 2027 12:56:46.880            73.821                Irkutsk          2306.906
       400   05 Jun 2027 12:57:45.735   05 Jun 2027 12:58:01.282            15.547                Novosib           485.844
       401   05 Jun 2027 12:58:05.895   05 Jun 2027 12:58:27.171            21.276                Irkutsk           664.875
       402   05 Jun 2027 12:59:58.601   05 Jun 2027 13:01:40.993           102.392                Norilsk          3199.750
       403   05 Jun 2027 13:02:55.665   05 Jun 2027 13:03:30.393            34.728                Norilsk          1085.250
       404   05 Jun 2027 13:05:37.122   05 Jun 2027 13:06:41.135            64.013                Norilsk          2000.406
       405   05 Jun 2027 13:46:22.663   05 Jun 2027 13:47:12.686            50.023            RioGallegos          1563.219
       406   05 Jun 2027 13:50:37.727   05 Jun 2027 13:50:42.141             4.414            RioGallegos           137.937
       407   05 Jun 2027 14:22:03.885   05 Jun 2027 14:24:29.476           145.591                Sumatra          4549.719
       408   05 Jun 2027 14:33:23.496   05 Jun 2027 14:34:19.327            55.831                Novosib          1744.719
       409   05 Jun 2027 14:35:30.795   05 Jun 2027 14:37:32.821           122.026                Novosib          3813.312
       410   05 Jun 2027 14:37:57.360   05 Jun 2027 14:39:50.848           113.488                Irkutsk          3546.500
       411   05 Jun 2027 16:10:03.585   05 Jun 2027 16:11:59.517           115.932                 Moscow          3622.875
       412   05 Jun 2027 16:13:28.194   05 Jun 2027 16:14:26.733            58.539              Murmansk2          1829.344
       413   05 Jun 2027 16:15:42.600   05 Jun 2027 16:15:50.238             7.638              Murmansk1           238.687
       414   05 Jun 2027 16:17:09.973   05 Jun 2027 16:18:34.742            84.769                Norilsk          2649.031
       415   05 Jun 2027 16:19:07.364   05 Jun 2027 16:20:52.227           104.863                Norilsk          3276.969
       416   05 Jun 2027 16:21:39.052   05 Jun 2027 16:22:47.743            68.691                Norilsk          2146.594
       417   05 Jun 2027 17:24:49.142   05 Jun 2027 17:25:15.311            26.169               CapeTown           817.781
       418   05 Jun 2027 17:32:02.062   05 Jun 2027 17:33:00.376            58.314               CapeTown          1822.312
       419   05 Jun 2027 17:47:12.827   05 Jun 2027 17:47:30.366            17.539                 Moscow           548.094
       420   05 Jun 2027 17:48:48.676   05 Jun 2027 17:51:03.589           134.913                 Moscow          4216.031
       421   05 Jun 2027 17:54:27.313   05 Jun 2027 17:54:56.311            28.998              Murmansk2           906.188
       422   05 Jun 2027 17:58:04.444   05 Jun 2027 17:58:12.981             8.537              Murmansk2           266.781
       423   05 Jun 2027 17:58:32.684   05 Jun 2027 18:00:13.916           101.232              Murmansk1          3163.500
       424   05 Jun 2027 18:59:30.493   05 Jun 2027 19:01:29.636           119.143               CapeTown          3723.219
       425   05 Jun 2027 19:29:35.716   05 Jun 2027 19:34:22.342           286.626              Murmansk2          8957.063
       426   05 Jun 2027 19:34:25.829   05 Jun 2027 19:35:02.601            36.772              Murmansk2          1149.125
       427   05 Jun 2027 19:35:31.576   05 Jun 2027 19:37:35.771           124.195              Murmansk2          3881.094
       428   05 Jun 2027 20:38:46.062   05 Jun 2027 20:40:49.336           123.274               CapeTown          3852.313
       429   05 Jun 2027 20:41:36.328   05 Jun 2027 20:42:17.832            41.504               CapeTown          1297.000
       430   05 Jun 2027 21:16:00.916   05 Jun 2027 21:16:37.323            36.407                Anadyr1          1137.719
       431   05 Jun 2027 21:17:07.108   05 Jun 2027 21:17:49.288            42.180                Anadyr1          1318.125
       432   05 Jun 2027 21:18:22.598   05 Jun 2027 21:19:16.364            53.766               Magadan2          1680.187
       433   05 Jun 2027 21:19:16.364   05 Jun 2027 21:20:01.243            44.879               Magadan1          1402.469
       434   05 Jun 2027 21:20:32.234   05 Jun 2027 21:20:48.659            16.425               Magadan1           513.281
       435   05 Jun 2027 21:21:05.468   05 Jun 2027 21:21:17.611            12.143               Magadan1           379.469
       436   05 Jun 2027 21:23:18.482   05 Jun 2027 21:23:24.705             6.223               Magadan2           194.469
       437   05 Jun 2027 21:23:27.272   05 Jun 2027 21:23:40.055            12.783               Magadan2           399.469
       438   05 Jun 2027 21:29:09.247   05 Jun 2027 21:29:37.921            28.674               Magadan1           896.062
       439   05 Jun 2027 22:51:53.554   05 Jun 2027 22:55:36.726           223.172                Anadyr2          6974.125
       440   05 Jun 2027 22:55:48.937   05 Jun 2027 22:57:14.882            85.945                Norilsk          2685.781
       441   05 Jun 2027 22:57:22.131   05 Jun 2027 22:57:49.389            27.258               Magadan2           851.813
       442   05 Jun 2027 22:58:37.965   05 Jun 2027 22:59:15.872            37.907                Norilsk          1184.594
       443   05 Jun 2027 22:59:37.026   05 Jun 2027 23:00:33.701            56.675                Irkutsk          1771.094
       444   05 Jun 2027 23:01:51.468   05 Jun 2027 23:02:25.572            34.104                Irkutsk          1065.750
       445   05 Jun 2027 23:04:22.964   05 Jun 2027 23:05:00.740            37.776                Irkutsk          1180.500
       446   05 Jun 2027 23:16:01.005   05 Jun 2027 23:16:59.606            58.601                Sumatra          1831.281
       447   05 Jun 2027 23:18:43.734   05 Jun 2027 23:19:35.601            51.867                Sumatra          1620.844
       448   05 Jun 2027 23:48:05.564   05 Jun 2027 23:48:17.421            11.857            RioGallegos           370.531
       449   05 Jun 2027 23:53:37.748   05 Jun 2027 23:54:11.892            34.144            RioGallegos          1067.000
       450   05 Jun 2027 23:56:06.143   05 Jun 2027 23:56:33.361            27.218            RioGallegos           850.563
       451   05 Jun 2027 23:57:24.837   05 Jun 2027 23:57:39.834            14.997            RioGallegos           468.656
       452   06 Jun 2027 00:27:19.935   06 Jun 2027 00:27:43.141            23.206                Anadyr1           725.187
       453   06 Jun 2027 00:27:51.524   06 Jun 2027 00:28:44.622            53.098                Anadyr2          1659.313
       454   06 Jun 2027 00:29:43.672   06 Jun 2027 00:31:29.969           106.297                Norilsk          3321.781
       455   06 Jun 2027 00:31:51.082   06 Jun 2027 00:32:16.450            25.368               Magadan2           792.750
       456   06 Jun 2027 00:32:47.049   06 Jun 2027 00:33:33.843            46.794               Magadan2          1462.313
       457   06 Jun 2027 00:33:43.996   06 Jun 2027 00:34:54.021            70.025                Irkutsk          2188.281
       458   06 Jun 2027 00:35:12.280   06 Jun 2027 00:35:23.133            10.853                Irkutsk           339.156
       459   06 Jun 2027 00:36:31.281   06 Jun 2027 00:37:01.839            30.558                Novosib           954.937
       460   06 Jun 2027 00:39:06.230   06 Jun 2027 00:40:16.189            69.959                Novosib          2186.219
       461   06 Jun 2027 00:47:26.799   06 Jun 2027 00:49:58.961           152.162                Sumatra          4755.062
       462   06 Jun 2027 01:27:56.252   06 Jun 2027 01:28:05.095             8.843            RioGallegos           276.344
       463   06 Jun 2027 01:29:34.876   06 Jun 2027 01:29:42.845             7.969            RioGallegos           249.031
       464   06 Jun 2027 01:30:39.654   06 Jun 2027 01:30:42.331             2.677            RioGallegos            83.656
       465   06 Jun 2027 01:31:18.501   06 Jun 2027 01:32:01.871            43.370            RioGallegos          1355.313
       466   06 Jun 2027 02:01:49.017   06 Jun 2027 02:02:31.619            42.602                Anadyr2          1331.312
       467   06 Jun 2027 02:03:45.500   06 Jun 2027 02:04:04.787            19.287                Anadyr1           602.719
       468   06 Jun 2027 02:05:43.985   06 Jun 2027 02:07:01.718            77.733                Norilsk          2429.156
       469   06 Jun 2027 02:09:13.834   06 Jun 2027 02:10:05.462            51.628              Murmansk1          1613.375
       470   06 Jun 2027 02:10:05.897   06 Jun 2027 02:11:17.919            72.022                Novosib          2250.688
       471   06 Jun 2027 02:12:37.450   06 Jun 2027 02:13:12.436            34.986                Novosib          1093.313
       472   06 Jun 2027 02:17:01.135   06 Jun 2027 02:17:54.014            52.879                  Delhi          1652.469
       473   06 Jun 2027 02:19:39.519   06 Jun 2027 02:19:53.180            13.661                  Delhi           426.906
       474   06 Jun 2027 02:20:59.966   06 Jun 2027 02:23:04.517           124.551                  Delhi          3892.219
       475   06 Jun 2027 03:00:00.925   06 Jun 2027 03:00:33.306            32.381            RioGallegos          1011.906
       476   06 Jun 2027 03:01:05.985   06 Jun 2027 03:02:54.263           108.278            RioGallegos          3383.687
       477   06 Jun 2027 03:06:11.520   06 Jun 2027 03:06:58.830            47.310            RioGallegos          1478.437
       478   06 Jun 2027 03:49:10.214   06 Jun 2027 03:51:17.092           126.878                Norilsk          3964.938
       479   06 Jun 2027 03:51:24.151   06 Jun 2027 03:51:34.202            10.051                Irkutsk           314.094
       480   06 Jun 2027 03:51:36.151   06 Jun 2027 03:52:10.199            34.048                Norilsk          1064.000
       481   06 Jun 2027 03:52:16.345   06 Jun 2027 03:54:03.519           107.174              Murmansk1          3349.188
       482   06 Jun 2027 03:54:11.865   06 Jun 2027 03:54:16.404             4.539                Novosib           141.844
