uniorb/output/strategy_1/Drop/Drop_KinoSat_111101.txt

KinoSat_111101
-------------------------
    Access    *     Start Time (UTCG)     *     Stop Time (UTCG)  *   Duration (s)        *       Station  *  Data (Mbytes)
         1   01 Jun 2027 04:02:58.843   01 Jun 2027 04:03:28.971            30.128               Magadan1           941.500
         2   01 Jun 2027 04:03:46.191   01 Jun 2027 04:04:47.319            61.128                Anadyr1          1910.250
         3   01 Jun 2027 05:40:07.460   01 Jun 2027 05:40:23.503            16.043               Magadan2           501.344
         4   01 Jun 2027 05:40:23.503   01 Jun 2027 05:43:00.149           156.646               Magadan1          4895.188
         5   01 Jun 2027 05:43:00.149   01 Jun 2027 05:44:15.401            75.252               Magadan2          2351.625
         6   01 Jun 2027 07:13:30.260   01 Jun 2027 07:13:58.880            28.620               Magadan1           894.375
         7   01 Jun 2027 07:14:02.138   01 Jun 2027 07:15:37.272            95.134                Anadyr2          2972.937
         8   01 Jun 2027 07:15:53.140   01 Jun 2027 07:16:03.513            10.373                Norilsk           324.156
         9   01 Jun 2027 07:16:06.375   01 Jun 2027 07:17:01.543            55.168                Novosib          1724.000
        10   01 Jun 2027 07:17:03.685   01 Jun 2027 07:17:54.797            51.112                Norilsk          1597.250
        11   01 Jun 2027 07:17:58.497   01 Jun 2027 07:18:36.567            38.070                Norilsk          1189.687
        12   01 Jun 2027 07:18:36.706   01 Jun 2027 07:18:52.902            16.196                Irkutsk           506.125
        13   01 Jun 2027 07:18:58.029   01 Jun 2027 07:19:16.411            18.382                Anadyr2           574.438
        14   01 Jun 2027 07:19:22.045   01 Jun 2027 07:20:22.385            60.340                Novosib          1885.625
        15   01 Jun 2027 07:21:50.716   01 Jun 2027 07:21:57.645             6.929                Norilsk           216.531
        16   01 Jun 2027 07:22:24.522   01 Jun 2027 07:22:43.464            18.942              Murmansk2           591.938
        17   01 Jun 2027 07:55:04.575   01 Jun 2027 07:57:18.586           134.011            RioGallegos          4187.844
        18   01 Jun 2027 08:50:25.590   01 Jun 2027 08:53:14.107           168.517               Magadan1          5266.156
        19   01 Jun 2027 08:53:14.107   01 Jun 2027 08:53:54.050            39.943               Magadan2          1248.219
        20   01 Jun 2027 08:54:23.479   01 Jun 2027 08:55:57.553            94.074                Irkutsk          2939.813
        21   01 Jun 2027 08:56:06.465   01 Jun 2027 08:57:16.243            69.778                Novosib          2180.562
        22   01 Jun 2027 08:57:37.105   01 Jun 2027 08:57:56.473            19.368                Norilsk           605.250
        23   01 Jun 2027 08:58:19.551   01 Jun 2027 08:58:22.516             2.965              Murmansk1            92.656
        24   01 Jun 2027 08:58:47.899   01 Jun 2027 08:59:32.355            44.456              Murmansk1          1389.250
        25   01 Jun 2027 09:02:31.792   01 Jun 2027 09:03:05.679            33.887              Murmansk2          1058.969
        26   01 Jun 2027 09:31:00.041   01 Jun 2027 09:31:58.582            58.541            RioGallegos          1829.406
        27   01 Jun 2027 09:33:42.828   01 Jun 2027 09:34:19.356            36.528            RioGallegos          1141.500
        28   01 Jun 2027 09:35:15.355   01 Jun 2027 09:35:19.046             3.691            RioGallegos           115.344
        29   01 Jun 2027 10:05:30.411   01 Jun 2027 10:07:54.531           144.120                Sumatra          4503.750
        30   01 Jun 2027 10:27:30.819   01 Jun 2027 10:29:24.192           113.373              Murmansk2          3542.906
        31   01 Jun 2027 10:29:26.869   01 Jun 2027 10:30:16.286            49.417              Murmansk2          1544.281
        32   01 Jun 2027 10:30:28.836   01 Jun 2027 10:32:58.402           149.566                 Moscow          4673.938
        33   01 Jun 2027 10:33:01.056   01 Jun 2027 10:33:06.069             5.013                Norilsk           156.656
        34   01 Jun 2027 10:33:08.506   01 Jun 2027 10:34:13.476            64.970              Murmansk2          2030.313
        35   01 Jun 2027 11:12:34.801   01 Jun 2027 11:13:35.721            60.920            RioGallegos          1903.750
        36   01 Jun 2027 11:49:59.437   01 Jun 2027 11:50:59.899            60.462                  Delhi          1889.437
        37   01 Jun 2027 11:52:38.612   01 Jun 2027 11:52:56.699            18.087                  Delhi           565.219
        38   01 Jun 2027 11:54:47.803   01 Jun 2027 11:54:58.514            10.711                  Delhi           334.719
        39   01 Jun 2027 11:58:35.466   01 Jun 2027 11:59:49.358            73.892                  Delhi          2309.125
        40   01 Jun 2027 13:43:07.414   01 Jun 2027 13:43:41.402            33.988                 Moscow          1062.125
        41   01 Jun 2027 13:44:47.939   01 Jun 2027 13:46:42.014           114.075                Norilsk          3564.844
        42   01 Jun 2027 13:48:19.236   01 Jun 2027 13:48:22.305             3.069                Norilsk            95.906
        43   01 Jun 2027 13:48:39.660   01 Jun 2027 13:49:18.726            39.066              Murmansk2          1220.812
        44   01 Jun 2027 13:50:13.883   01 Jun 2027 13:50:27.845            13.962              Murmansk2           436.312
        45   01 Jun 2027 14:54:27.204   01 Jun 2027 14:56:12.908           105.704               CapeTown          3303.250
        46   01 Jun 2027 14:58:02.892   01 Jun 2027 14:58:25.122            22.230               CapeTown           694.687
        47   01 Jun 2027 15:19:23.005   01 Jun 2027 15:19:55.555            32.550                 Moscow          1017.188
        48   01 Jun 2027 15:20:37.089   01 Jun 2027 15:20:43.077             5.988              Murmansk1           187.125
        49   01 Jun 2027 15:20:50.991   01 Jun 2027 15:21:01.665            10.674              Murmansk1           333.563
        50   01 Jun 2027 15:21:03.735   01 Jun 2027 15:21:59.063            55.328                 Moscow          1729.000
        51   01 Jun 2027 15:22:48.001   01 Jun 2027 15:22:55.250             7.249              Murmansk2           226.531
        52   01 Jun 2027 15:23:19.971   01 Jun 2027 15:24:36.494            76.523              Murmansk1          2391.344
        53   01 Jun 2027 15:31:04.396   01 Jun 2027 15:31:35.368            30.972                Anadyr1           967.875
        54   01 Jun 2027 15:32:13.841   01 Jun 2027 15:32:48.114            34.273                Anadyr1          1071.031
        55   01 Jun 2027 15:33:01.871   01 Jun 2027 15:33:22.042            20.171                Anadyr1           630.344
        56   01 Jun 2027 15:33:51.943   01 Jun 2027 15:34:24.867            32.924                Anadyr1          1028.875
        57   01 Jun 2027 15:37:01.591   01 Jun 2027 15:37:28.664            27.073                Anadyr1           846.031
        58   01 Jun 2027 15:37:59.412   01 Jun 2027 15:38:22.498            23.086                Anadyr2           721.437
        59   01 Jun 2027 16:34:42.903   01 Jun 2027 16:35:03.746            20.843               CapeTown           651.344
        60   01 Jun 2027 16:56:00.796   01 Jun 2027 16:56:49.527            48.731              Murmansk2          1522.844
        61   01 Jun 2027 16:57:29.023   01 Jun 2027 16:58:22.674            53.651              Murmansk1          1676.594
        62   01 Jun 2027 17:00:33.044   01 Jun 2027 17:00:47.901            14.857              Murmansk2           464.281
        63   01 Jun 2027 17:01:33.714   01 Jun 2027 17:02:00.412            26.698              Murmansk2           834.313
        64   01 Jun 2027 17:07:15.741   01 Jun 2027 17:08:50.931            95.190               Magadan1          2974.687
        65   01 Jun 2027 17:11:18.980   01 Jun 2027 17:12:00.647            41.667                Anadyr1          1302.094
        66   01 Jun 2027 17:12:52.719   01 Jun 2027 17:12:57.642             4.923               Magadan1           153.844
        67   01 Jun 2027 17:13:06.787   01 Jun 2027 17:13:31.943            25.156               Magadan1           786.125
        68   01 Jun 2027 17:15:07.139   01 Jun 2027 17:16:05.224            58.085               Magadan2          1815.156
        69   01 Jun 2027 18:40:02.758   01 Jun 2027 18:42:20.168           137.410                Anadyr2          4294.063
        70   01 Jun 2027 18:42:21.954   01 Jun 2027 18:42:54.126            32.172               Magadan1          1005.375
        71   01 Jun 2027 18:43:10.068   01 Jun 2027 18:43:41.928            31.860               Magadan2           995.625
        72   01 Jun 2027 18:44:58.005   01 Jun 2027 18:45:20.805            22.800                Anadyr2           712.500
        73   01 Jun 2027 18:45:54.869   01 Jun 2027 18:46:02.266             7.397               Magadan1           231.156
        74   01 Jun 2027 18:46:02.266   01 Jun 2027 18:47:12.767            70.501               Magadan2          2203.156
        75   01 Jun 2027 18:50:22.972   01 Jun 2027 18:50:33.383            10.411               Magadan1           325.344
        76   01 Jun 2027 18:51:08.641   01 Jun 2027 18:51:29.468            20.827               Magadan1           650.844
        77   01 Jun 2027 18:51:46.416   01 Jun 2027 18:52:26.196            39.780               Magadan2          1243.125
        78   01 Jun 2027 18:54:31.067   01 Jun 2027 18:54:54.474            23.407               Magadan2           731.469
        79   01 Jun 2027 19:36:20.706   01 Jun 2027 19:37:55.380            94.674            RioGallegos          2958.562
        80   01 Jun 2027 19:38:22.546   01 Jun 2027 19:38:49.700            27.154            RioGallegos           848.562
        81   01 Jun 2027 19:41:40.112   01 Jun 2027 19:41:44.366             4.254            RioGallegos           132.938
        82   01 Jun 2027 20:15:51.784   01 Jun 2027 20:16:38.871            47.087                Anadyr2          1471.469
        83   01 Jun 2027 20:17:07.272   01 Jun 2027 20:17:20.737            13.465                Anadyr2           420.781
        84   01 Jun 2027 20:17:30.209   01 Jun 2027 20:17:40.931            10.722                Anadyr2           335.062
        85   01 Jun 2027 20:18:02.508   01 Jun 2027 20:18:33.569            31.061                Norilsk           970.656
        86   01 Jun 2027 20:19:10.196   01 Jun 2027 20:20:11.355            61.159                Norilsk          1911.219
        87   01 Jun 2027 20:21:09.481   01 Jun 2027 20:21:42.841            33.360                Norilsk          1042.500
        88   01 Jun 2027 20:21:54.817   01 Jun 2027 20:23:02.605            67.788                Norilsk          2118.375
        89   01 Jun 2027 20:25:15.639   01 Jun 2027 20:26:13.005            57.366                Irkutsk          1792.687
        90   01 Jun 2027 20:27:10.365   01 Jun 2027 20:27:36.409            26.044                Irkutsk           813.875
        91   01 Jun 2027 20:28:00.018   01 Jun 2027 20:28:18.127            18.109                Irkutsk           565.906
        92   01 Jun 2027 20:31:36.376   01 Jun 2027 20:31:44.561             8.185                Irkutsk           255.781
        93   01 Jun 2027 20:37:59.353   01 Jun 2027 20:40:14.384           135.031                Sumatra          4219.719
        94   01 Jun 2027 20:44:31.851   01 Jun 2027 20:46:17.174           105.323                Sumatra          3291.344
        95   01 Jun 2027 21:55:41.690   01 Jun 2027 21:55:45.591             3.901                Norilsk           121.906
        96   01 Jun 2027 21:56:47.674   01 Jun 2027 21:57:05.511            17.837               Magadan2           557.406
        97   01 Jun 2027 21:57:42.161   01 Jun 2027 21:59:07.946            85.785                Irkutsk          2680.781
        98   01 Jun 2027 22:02:39.594   01 Jun 2027 22:03:12.833            33.239                Novosib          1038.719
        99   01 Jun 2027 22:04:52.450   01 Jun 2027 22:05:43.866            51.416                Novosib          1606.750
       100   01 Jun 2027 22:08:31.027   01 Jun 2027 22:10:08.311            97.284                  Delhi          3040.125
       101   01 Jun 2027 22:57:56.082   01 Jun 2027 22:57:57.673             1.591            RioGallegos            49.719
       102   01 Jun 2027 23:25:16.668   01 Jun 2027 23:26:14.464            57.796                Anadyr2          1806.125
       103   01 Jun 2027 23:26:14.464   01 Jun 2027 23:26:14.872             0.408                Anadyr1            12.750
       104   01 Jun 2027 23:27:28.164   01 Jun 2027 23:27:48.777            20.613                Anadyr2           644.156
       105   01 Jun 2027 23:29:47.259   01 Jun 2027 23:31:42.196           114.937                Norilsk          3591.781
       106   01 Jun 2027 23:32:02.160   01 Jun 2027 23:32:53.746            51.586               Magadan1          1612.062
       107   01 Jun 2027 23:33:17.141   01 Jun 2027 23:37:13.854           236.713              Murmansk2          7397.281
       108   01 Jun 2027 23:49:45.452   01 Jun 2027 23:50:07.172            21.720                  Delhi           678.750
       109   01 Jun 2027 23:50:29.993   01 Jun 2027 23:51:02.011            32.018                  Delhi          1000.562
       110   02 Jun 2027 00:58:34.506   02 Jun 2027 00:58:56.665            22.159                Anadyr1           692.469
       111   02 Jun 2027 00:58:59.216   02 Jun 2027 00:58:59.952             0.736                Anadyr2            23.000
       112   02 Jun 2027 00:59:25.846   02 Jun 2027 00:59:48.391            22.545                Anadyr1           704.531
       113   02 Jun 2027 01:00:28.388   02 Jun 2027 01:01:15.583            47.195                Anadyr2          1474.844
       114   02 Jun 2027 01:03:54.568   02 Jun 2027 01:04:28.930            34.362                Anadyr2          1073.812
       115   02 Jun 2027 01:04:37.353   02 Jun 2027 01:06:48.113           130.760               Magadan2          4086.250
       116   02 Jun 2027 01:07:57.989   02 Jun 2027 01:09:15.190            77.201              Murmansk1          2412.531
       117   02 Jun 2027 01:11:01.122   02 Jun 2027 01:11:52.318            51.196                Novosib          1599.875
       118   02 Jun 2027 01:15:06.214   02 Jun 2027 01:15:25.361            19.147                 Moscow           598.344
       119   02 Jun 2027 01:17:03.332   02 Jun 2027 01:17:12.280             8.948                 Moscow           279.625
       120   02 Jun 2027 01:17:43.897   02 Jun 2027 01:17:53.822             9.925                 Moscow           310.156
       121   02 Jun 2027 01:18:41.666   02 Jun 2027 01:18:41.764             0.098              Murmansk1             3.062
       122   02 Jun 2027 01:19:01.323   02 Jun 2027 01:21:00.301           118.978                 Moscow          3718.063
       123   02 Jun 2027 01:45:30.933   02 Jun 2027 01:46:03.036            32.103               CapeTown          1003.219
       124   02 Jun 2027 02:32:24.067   02 Jun 2027 02:34:59.273           155.206                Anadyr1          4850.187
       125   02 Jun 2027 02:36:51.324   02 Jun 2027 02:37:04.499            13.175               Magadan2           411.719
       126   02 Jun 2027 02:37:35.198   02 Jun 2027 02:38:29.373            54.175               Magadan2          1692.969
       127   02 Jun 2027 02:43:53.138   02 Jun 2027 02:45:34.091           100.953              Murmansk1          3154.781
       128   02 Jun 2027 02:48:17.454   02 Jun 2027 02:48:39.843            22.389                Novosib           699.656
       129   02 Jun 2027 02:49:39.332   02 Jun 2027 02:49:39.848             0.516                Novosib            16.125
       130   02 Jun 2027 02:49:51.089   02 Jun 2027 02:50:42.374            51.285                Novosib          1602.656
       131   02 Jun 2027 02:57:50.881   02 Jun 2027 02:58:38.577            47.696                 Moscow          1490.500
       132   02 Jun 2027 03:15:50.059   02 Jun 2027 03:16:20.706            30.647               CapeTown           957.719
       133   02 Jun 2027 04:14:35.854   02 Jun 2027 04:18:48.177           252.323               Magadan1          7885.094
       134   02 Jun 2027 04:18:51.169   02 Jun 2027 04:19:19.080            27.911                Anadyr2           872.219
       135   02 Jun 2027 05:52:11.057   02 Jun 2027 05:52:20.397             9.340               Magadan1           291.875
       136   02 Jun 2027 05:52:20.727   02 Jun 2027 05:54:47.085           146.358                Anadyr1          4573.687
       137   02 Jun 2027 05:55:03.531   02 Jun 2027 05:55:11.218             7.687                Anadyr1           240.219
       138   02 Jun 2027 05:55:49.176   02 Jun 2027 05:56:25.371            36.195                Anadyr1          1131.094
       139   02 Jun 2027 07:25:36.844   02 Jun 2027 07:25:45.291             8.447               Magadan2           263.969
       140   02 Jun 2027 07:26:01.677   02 Jun 2027 07:26:40.221            38.544               Magadan1          1204.500
       141   02 Jun 2027 07:26:51.768   02 Jun 2027 07:30:00.490           188.722                Anadyr1          5897.562
       142   02 Jun 2027 07:30:07.668   02 Jun 2027 07:30:47.414            39.746                Norilsk          1242.062
       143   02 Jun 2027 07:30:54.822   02 Jun 2027 07:32:36.471           101.649                Novosib          3176.531
       144   02 Jun 2027 07:32:54.186   02 Jun 2027 07:33:09.184            14.998              Murmansk1           468.688
       145   02 Jun 2027 07:33:09.184   02 Jun 2027 07:34:25.912            76.728              Murmansk2          2397.750
       146   02 Jun 2027 08:06:54.450   02 Jun 2027 08:08:29.867            95.417            RioGallegos          2981.781
       147   02 Jun 2027 08:09:53.359   02 Jun 2027 08:09:59.587             6.228            RioGallegos           194.625
       148   02 Jun 2027 08:43:33.727   02 Jun 2027 08:45:11.340            97.613                Sumatra          3050.406
       149   02 Jun 2027 09:03:07.168   02 Jun 2027 09:03:20.827            13.659                Norilsk           426.844
       150   02 Jun 2027 09:03:31.403   02 Jun 2027 09:04:31.692            60.289                Irkutsk          1884.031
       151   02 Jun 2027 09:04:37.782   02 Jun 2027 09:08:17.715           219.933                Novosib          6872.906
       152   02 Jun 2027 09:08:24.278   02 Jun 2027 09:08:48.160            23.882              Murmansk1           746.312
       153   02 Jun 2027 09:09:02.362   02 Jun 2027 09:09:51.715            49.353              Murmansk1          1542.281
       154   02 Jun 2027 09:10:24.096   02 Jun 2027 09:10:48.151            24.055              Murmansk1           751.719
       155   02 Jun 2027 09:43:17.750   02 Jun 2027 09:43:54.858            37.108            RioGallegos          1159.625
       156   02 Jun 2027 09:45:58.760   02 Jun 2027 09:46:53.588            54.828            RioGallegos          1713.375
       157   02 Jun 2027 10:17:39.973   02 Jun 2027 10:18:24.558            44.585                Sumatra          1393.281
       158   02 Jun 2027 10:26:36.492   02 Jun 2027 10:27:11.609            35.117                  Delhi          1097.406
       159   02 Jun 2027 10:39:49.224   02 Jun 2027 10:41:10.659            81.435                Irkutsk          2544.844
       160   02 Jun 2027 10:41:13.898   02 Jun 2027 10:41:24.158            10.260                 Moscow           320.625
       161   02 Jun 2027 10:41:26.123   02 Jun 2027 10:42:11.773            45.650                Novosib          1426.562
       162   02 Jun 2027 10:42:27.235   02 Jun 2027 10:43:14.845            47.610                Norilsk          1487.813
       163   02 Jun 2027 10:43:26.720   02 Jun 2027 10:45:06.829           100.109              Murmansk2          3128.406
       164   02 Jun 2027 10:49:05.556   02 Jun 2027 10:49:41.962            36.406              Murmansk2          1137.688
       165   02 Jun 2027 12:02:19.576   02 Jun 2027 12:04:40.678           141.102                  Delhi          4409.438
       166   02 Jun 2027 12:06:35.609   02 Jun 2027 12:07:37.031            61.422                  Delhi          1919.438
       167   02 Jun 2027 12:10:32.776   02 Jun 2027 12:13:38.415           185.639                Novosib          5801.219
       168   02 Jun 2027 12:13:51.723   02 Jun 2027 12:14:14.878            23.155              Murmansk2           723.594
       169   02 Jun 2027 12:14:14.878   02 Jun 2027 12:15:15.290            60.412              Murmansk1          1887.875
       170   02 Jun 2027 12:15:23.026   02 Jun 2027 12:16:05.868            42.842              Murmansk2          1338.813
       171   02 Jun 2027 13:46:08.004   02 Jun 2027 13:46:39.532            31.528                 Moscow           985.250
       172   02 Jun 2027 13:47:28.582   02 Jun 2027 13:48:28.153            59.571                 Moscow          1861.594
       173   02 Jun 2027 13:49:21.639   02 Jun 2027 13:50:02.881            41.242                 Moscow          1288.812
       174   02 Jun 2027 13:50:24.603   02 Jun 2027 13:51:43.882            79.279              Murmansk1          2477.469
       175   02 Jun 2027 13:52:35.438   02 Jun 2027 13:52:53.749            18.311              Murmansk2           572.219
       176   02 Jun 2027 13:52:53.749   02 Jun 2027 13:53:09.663            15.914              Murmansk1           497.313
       177   02 Jun 2027 13:55:11.574   02 Jun 2027 13:57:21.959           130.385                Norilsk          4074.531
       178   02 Jun 2027 13:59:00.009   02 Jun 2027 13:59:12.651            12.642                Norilsk           395.062
       179   02 Jun 2027 14:07:19.734   02 Jun 2027 14:08:13.872            54.138                Anadyr2          1691.813
       180   02 Jun 2027 15:03:03.422   02 Jun 2027 15:03:53.298            49.876               CapeTown          1558.625
       181   02 Jun 2027 15:07:05.185   02 Jun 2027 15:07:30.937            25.752               CapeTown           804.750
       182   02 Jun 2027 15:10:39.543   02 Jun 2027 15:11:27.756            48.213               CapeTown          1506.656
       183   02 Jun 2027 15:31:09.036   02 Jun 2027 15:31:35.842            26.806              Murmansk1           837.688
       184   02 Jun 2027 15:32:09.650   02 Jun 2027 15:32:27.729            18.079              Murmansk1           564.969
       185   02 Jun 2027 15:33:01.639   02 Jun 2027 15:33:19.016            17.377              Murmansk2           543.031
       186   02 Jun 2027 15:36:36.283   02 Jun 2027 15:36:54.169            17.886              Murmansk1           558.937
       187   02 Jun 2027 15:40:25.935   02 Jun 2027 15:41:28.671            62.736                Anadyr2          1960.500
       188   02 Jun 2027 15:42:52.086   02 Jun 2027 15:43:25.483            33.397                Anadyr2          1043.656
       189   02 Jun 2027 15:45:22.378   02 Jun 2027 15:45:39.633            17.255                Anadyr1           539.219
       190   02 Jun 2027 15:45:53.125   02 Jun 2027 15:46:01.421             8.296                Anadyr1           259.250
       191   02 Jun 2027 15:48:26.411   02 Jun 2027 15:48:55.806            29.395                Anadyr2           918.594
       192   02 Jun 2027 16:44:17.579   02 Jun 2027 16:45:36.969            79.390               CapeTown          2480.938
       193   02 Jun 2027 17:07:21.954   02 Jun 2027 17:08:50.919            88.965              Murmansk1          2780.156
       194   02 Jun 2027 17:09:34.856   02 Jun 2027 17:10:20.218            45.362              Murmansk1          1417.562
       195   02 Jun 2027 17:10:55.787   02 Jun 2027 17:11:55.937            60.150              Murmansk2          1879.688
       196   02 Jun 2027 17:19:40.577   02 Jun 2027 17:20:50.242            69.665               Magadan2          2177.031
       197   02 Jun 2027 17:23:48.015   02 Jun 2027 17:24:07.505            19.490               Magadan2           609.063
       198   02 Jun 2027 17:24:07.505   02 Jun 2027 17:24:45.841            38.336               Magadan1          1198.000
       199   02 Jun 2027 17:27:52.187   02 Jun 2027 17:28:17.109            24.922               Magadan1           778.813
       200   02 Jun 2027 18:52:04.073   02 Jun 2027 18:55:45.000           220.927                Anadyr2          6903.969
       201   02 Jun 2027 18:55:52.776   02 Jun 2027 18:56:46.587            53.811               Magadan1          1681.594
       202   02 Jun 2027 18:58:56.887   02 Jun 2027 18:59:31.397            34.510               Magadan1          1078.438
       203   02 Jun 2027 19:00:24.380   02 Jun 2027 19:00:59.411            35.031               Magadan2          1094.719
       204   02 Jun 2027 19:03:11.617   02 Jun 2027 19:03:37.574            25.957                Anadyr1           811.156
       205   02 Jun 2027 19:04:21.210   02 Jun 2027 19:04:48.214            27.004               Magadan1           843.875
       206   02 Jun 2027 19:06:34.892   02 Jun 2027 19:07:08.456            33.564               Magadan1          1048.875
       207   02 Jun 2027 19:47:38.710   02 Jun 2027 19:50:20.465           161.755            RioGallegos          5054.844
       208   02 Jun 2027 20:30:00.033   02 Jun 2027 20:31:12.090            72.057                Norilsk          2251.781
       209   02 Jun 2027 20:32:16.272   02 Jun 2027 20:33:42.025            85.753                Norilsk          2679.781
       210   02 Jun 2027 20:34:55.581   02 Jun 2027 20:35:25.346            29.765                Irkutsk           930.156
       211   02 Jun 2027 20:36:10.299   02 Jun 2027 20:37:52.718           102.419                Irkutsk          3200.594
       212   02 Jun 2027 20:43:35.827   02 Jun 2027 20:44:04.880            29.053                Irkutsk           907.906
       213   02 Jun 2027 20:51:54.480   02 Jun 2027 20:52:53.186            58.706                Sumatra          1834.563
       214   02 Jun 2027 20:54:16.303   02 Jun 2027 20:55:28.409            72.106                Sumatra          2253.312
       215   02 Jun 2027 20:57:08.425   02 Jun 2027 20:58:18.840            70.415                Sumatra          2200.469
       216   02 Jun 2027 22:07:30.386   02 Jun 2027 22:07:46.406            16.020                Norilsk           500.625
       217   02 Jun 2027 22:09:13.333   02 Jun 2027 22:09:42.264            28.931               Magadan2           904.094
       218   02 Jun 2027 22:10:13.770   02 Jun 2027 22:10:40.902            27.132                Novosib           847.875
       219   02 Jun 2027 22:10:51.443   02 Jun 2027 22:11:21.462            30.019                Novosib           938.094
       220   02 Jun 2027 22:13:12.417   02 Jun 2027 22:13:24.867            12.450                Norilsk           389.062
       221   02 Jun 2027 22:13:52.627   02 Jun 2027 22:14:05.325            12.698                Novosib           396.812
       222   02 Jun 2027 22:15:33.543   02 Jun 2027 22:15:56.810            23.267                Novosib           727.094
       223   02 Jun 2027 22:17:26.800   02 Jun 2027 22:19:28.878           122.078                Novosib          3814.938
       224   02 Jun 2027 22:26:28.124   02 Jun 2027 22:27:08.389            40.265                  Delhi          1258.281
       225   02 Jun 2027 23:36:59.504   02 Jun 2027 23:37:12.643            13.139                Anadyr2           410.594
       226   02 Jun 2027 23:37:55.068   02 Jun 2027 23:38:14.675            19.607                Anadyr2           612.719
       227   02 Jun 2027 23:39:13.055   02 Jun 2027 23:39:29.810            16.755                Anadyr1           523.594
       228   02 Jun 2027 23:41:49.139   02 Jun 2027 23:42:36.634            47.495                Norilsk          1484.219
       229   02 Jun 2027 23:42:51.253   02 Jun 2027 23:43:01.036             9.783                Anadyr2           305.719
       230   02 Jun 2027 23:43:18.633   02 Jun 2027 23:43:44.334            25.701                Norilsk           803.156
       231   02 Jun 2027 23:44:33.976   02 Jun 2027 23:46:26.766           112.790              Murmansk2          3524.688
       232   02 Jun 2027 23:46:51.640   02 Jun 2027 23:47:28.265            36.625                Novosib          1144.531
       233   02 Jun 2027 23:47:34.466   02 Jun 2027 23:49:13.201            98.735              Murmansk2          3085.469
       234   02 Jun 2027 23:49:13.201   02 Jun 2027 23:49:44.245            31.044              Murmansk1           970.125
       235   03 Jun 2027 00:02:31.136   03 Jun 2027 00:02:32.906             1.770                  Delhi            55.313
       236   03 Jun 2027 00:04:19.180   03 Jun 2027 00:04:45.734            26.554                  Delhi           829.813
       237   03 Jun 2027 00:36:46.764   03 Jun 2027 00:37:02.914            16.150            RioGallegos           504.688
       238   03 Jun 2027 00:39:12.663   03 Jun 2027 00:39:46.248            33.585            RioGallegos          1049.531
       239   03 Jun 2027 01:10:16.715   03 Jun 2027 01:10:49.326            32.611                Anadyr2          1019.094
       240   03 Jun 2027 01:11:23.256   03 Jun 2027 01:11:49.129            25.873                Anadyr2           808.531
       241   03 Jun 2027 01:12:29.730   03 Jun 2027 01:13:37.129            67.399                Anadyr2          2106.219
       242   03 Jun 2027 01:16:09.916   03 Jun 2027 01:16:46.630            36.714               Magadan2          1147.313
       243   03 Jun 2027 01:17:05.778   03 Jun 2027 01:18:41.197            95.419               Magadan2          2981.844
       244   03 Jun 2027 01:19:58.499   03 Jun 2027 01:21:28.514            90.015              Murmansk1          2812.969
       245   03 Jun 2027 01:23:37.182   03 Jun 2027 01:23:49.051            11.869                Irkutsk           370.906
       246   03 Jun 2027 01:24:31.220   03 Jun 2027 01:24:47.473            16.253                 Moscow           507.906
       247   03 Jun 2027 01:26:36.395   03 Jun 2027 01:27:06.633            30.238                 Moscow           944.937
       248   03 Jun 2027 01:31:07.770   03 Jun 2027 01:32:56.058           108.288                 Moscow          3384.000
       249   03 Jun 2027 01:58:52.159   03 Jun 2027 01:59:00.928             8.769               CapeTown           274.031
       250   03 Jun 2027 02:44:15.246   03 Jun 2027 02:46:14.858           119.612                Anadyr1          3737.875
       251   03 Jun 2027 02:47:37.630   03 Jun 2027 02:47:50.657            13.027                Anadyr1           407.094
       252   03 Jun 2027 02:48:06.254   03 Jun 2027 02:49:12.189            65.935               Magadan1          2060.469
       253   03 Jun 2027 02:49:12.189   03 Jun 2027 02:49:31.502            19.313               Magadan2           603.531
       254   03 Jun 2027 02:51:30.814   03 Jun 2027 02:51:56.005            25.191               Magadan1           787.219
       255   03 Jun 2027 02:53:44.869   03 Jun 2027 02:54:09.333            24.464                Norilsk           764.500
       256   03 Jun 2027 02:55:54.947   03 Jun 2027 02:57:35.840           100.893              Murmansk1          3152.906
       257   03 Jun 2027 03:02:07.225   03 Jun 2027 03:02:27.294            20.069              Murmansk2           627.156
       258   03 Jun 2027 03:02:48.224   03 Jun 2027 03:04:12.312            84.088                Norilsk          2627.750
       259   03 Jun 2027 03:04:14.008   03 Jun 2027 03:04:20.172             6.164                Novosib           192.625
       260   03 Jun 2027 03:04:23.617   03 Jun 2027 03:05:26.980            63.363              Murmansk2          1980.094
       261   03 Jun 2027 03:05:26.980   03 Jun 2027 03:06:18.171            51.191              Murmansk1          1599.719
       262   03 Jun 2027 03:06:31.667   03 Jun 2027 03:07:50.633            78.966                 Moscow          2467.687
       263   03 Jun 2027 03:23:03.519   03 Jun 2027 03:25:21.030           137.511               CapeTown          4297.219
       264   03 Jun 2027 04:26:10.573   03 Jun 2027 04:27:47.494            96.921               Magadan1          3028.781
       265   03 Jun 2027 04:28:09.158   03 Jun 2027 04:30:19.746           130.588               Magadan1          4080.875
       266   03 Jun 2027 04:30:19.746   03 Jun 2027 04:30:39.992            20.246               Magadan2           632.688
       267   03 Jun 2027 04:30:45.852   03 Jun 2027 04:31:12.885            27.033                Norilsk           844.781
       268   03 Jun 2027 04:31:26.067   03 Jun 2027 04:31:59.584            33.517               Magadan2          1047.406
       269   03 Jun 2027 04:32:01.058   03 Jun 2027 04:32:46.981            45.923              Murmansk2          1435.094
       270   03 Jun 2027 06:03:27.020   03 Jun 2027 06:05:51.878           144.858                Irkutsk          4526.812
       271   03 Jun 2027 07:38:41.862   03 Jun 2027 07:40:13.076            91.214               Magadan1          2850.437
       272   03 Jun 2027 07:40:25.012   03 Jun 2027 07:41:37.737            72.725                Anadyr2          2272.656
       273   03 Jun 2027 07:42:05.069   03 Jun 2027 07:43:46.013           100.944                Irkutsk          3154.500
       274   03 Jun 2027 07:43:48.902   03 Jun 2027 07:45:27.610            98.708              Murmansk2          3084.625
       275   03 Jun 2027 07:46:02.189   03 Jun 2027 07:46:44.127            41.938              Murmansk2          1310.562
       276   03 Jun 2027 08:18:47.510   03 Jun 2027 08:20:13.300            85.790            RioGallegos          2680.937
       277   03 Jun 2027 08:20:55.084   03 Jun 2027 08:21:39.482            44.398            RioGallegos          1387.438
       278   03 Jun 2027 08:54:53.920   03 Jun 2027 08:56:12.190            78.270                Sumatra          2445.938
       279   03 Jun 2027 09:15:22.023   03 Jun 2027 09:17:21.966           119.943                Norilsk          3748.219
       280   03 Jun 2027 09:17:23.035   03 Jun 2027 09:19:36.937           133.902              Murmansk1          4184.437
       281   03 Jun 2027 09:19:43.186   03 Jun 2027 09:20:00.290            17.104                Irkutsk           534.500
       282   03 Jun 2027 09:20:07.879   03 Jun 2027 09:20:31.358            23.479                Novosib           733.719
       283   03 Jun 2027 09:20:35.364   03 Jun 2027 09:21:17.808            42.444              Murmansk2          1326.375
       284   03 Jun 2027 09:57:33.227   03 Jun 2027 09:58:04.653            31.426            RioGallegos           982.063
       285   03 Jun 2027 09:59:42.687   03 Jun 2027 09:59:50.138             7.451            RioGallegos           232.844
       286   03 Jun 2027 10:00:34.034   03 Jun 2027 10:00:52.728            18.694            RioGallegos           584.188
       287   03 Jun 2027 10:29:55.995   03 Jun 2027 10:31:32.388            96.393                Sumatra          3012.281
       288   03 Jun 2027 10:39:14.769   03 Jun 2027 10:40:43.500            88.731                  Delhi          2772.844
       289   03 Jun 2027 10:52:06.288   03 Jun 2027 10:52:41.769            35.481              Murmansk1          1108.781
       290   03 Jun 2027 10:52:45.811   03 Jun 2027 10:53:08.541            22.730                Novosib           710.313
       291   03 Jun 2027 10:53:16.358   03 Jun 2027 10:53:43.214            26.856                Norilsk           839.250
       292   03 Jun 2027 10:53:44.088   03 Jun 2027 10:54:18.829            34.741                Novosib          1085.656
       293   03 Jun 2027 10:54:19.421   03 Jun 2027 10:54:30.691            11.270              Murmansk2           352.188
       294   03 Jun 2027 10:54:47.987   03 Jun 2027 10:55:34.952            46.965              Murmansk2          1467.656
       295   03 Jun 2027 10:55:43.430   03 Jun 2027 10:57:06.811            83.381                 Moscow          2605.656
       296   03 Jun 2027 12:14:47.484   03 Jun 2027 12:18:15.865           208.381                  Delhi          6511.906
       297   03 Jun 2027 12:23:10.006   03 Jun 2027 12:23:15.123             5.117                Novosib           159.906
       298   03 Jun 2027 12:25:35.734   03 Jun 2027 12:26:03.588            27.854                Novosib           870.437
       299   03 Jun 2027 12:26:06.585   03 Jun 2027 12:27:53.362           106.777              Murmansk1          3336.781
       300   03 Jun 2027 12:29:09.936   03 Jun 2027 12:29:16.800             6.864                Norilsk           214.500
       301   03 Jun 2027 12:31:20.461   03 Jun 2027 12:31:23.485             3.024                Norilsk            94.500
       302   03 Jun 2027 12:31:57.699   03 Jun 2027 12:32:43.662            45.963                Norilsk          1436.344
       303   03 Jun 2027 13:58:15.044   03 Jun 2027 14:00:08.516           113.472                 Moscow          3546.000
       304   03 Jun 2027 14:01:46.537   03 Jun 2027 14:03:41.994           115.457              Murmansk2          3608.031
       305   03 Jun 2027 14:03:41.994   03 Jun 2027 14:06:02.709           140.715              Murmansk1          4397.344
       306   03 Jun 2027 14:08:12.884   03 Jun 2027 14:09:24.097            71.213                Norilsk          2225.406
       307   03 Jun 2027 14:10:59.913   03 Jun 2027 14:11:17.886            17.973                Norilsk           561.656
       308   03 Jun 2027 14:18:02.140   03 Jun 2027 14:18:53.800            51.660                Anadyr2          1614.375
       309   03 Jun 2027 14:19:23.897   03 Jun 2027 14:20:59.622            95.725                Anadyr1          2991.406
       310   03 Jun 2027 15:37:15.341   03 Jun 2027 15:37:40.144            24.803                 Moscow           775.094
       311   03 Jun 2027 15:39:37.380   03 Jun 2027 15:40:04.461            27.081              Murmansk2           846.281
       312   03 Jun 2027 15:40:20.015   03 Jun 2027 15:40:52.039            32.024              Murmansk1          1000.750
       313   03 Jun 2027 15:40:52.039   03 Jun 2027 15:41:09.388            17.349              Murmansk2           542.156
       314   03 Jun 2027 15:44:43.009   03 Jun 2027 15:44:47.178             4.169              Murmansk1           130.281
       315   03 Jun 2027 15:45:43.862   03 Jun 2027 15:46:05.771            21.909              Murmansk1           684.656
       316   03 Jun 2027 15:52:23.721   03 Jun 2027 15:54:43.362           139.641                Anadyr2          4363.781
       317   03 Jun 2027 15:57:48.260   03 Jun 2027 15:57:54.181             5.921                Anadyr2           185.031
       318   03 Jun 2027 15:57:57.529   03 Jun 2027 15:58:15.270            17.741                Anadyr2           554.406
       319   03 Jun 2027 16:48:05.772   03 Jun 2027 16:48:40.618            34.846               CapeTown          1088.938
       320   03 Jun 2027 16:48:53.603   03 Jun 2027 16:49:04.088            10.485               CapeTown           327.656
       321   03 Jun 2027 16:52:58.254   03 Jun 2027 16:53:31.246            32.992               CapeTown          1031.000
       322   03 Jun 2027 17:20:12.936   03 Jun 2027 17:22:57.773           164.837              Murmansk1          5151.156
       323   03 Jun 2027 17:22:57.773   03 Jun 2027 17:24:33.698            95.925              Murmansk2          2997.656
       324   03 Jun 2027 17:28:19.811   03 Jun 2027 17:28:45.134            25.323                Anadyr2           791.344
       325   03 Jun 2027 17:30:56.159   03 Jun 2027 17:33:00.136           123.977               Magadan1          3874.281
       326   03 Jun 2027 19:04:05.256   03 Jun 2027 19:06:03.280           118.024                Anadyr1          3688.250
       327   03 Jun 2027 19:06:18.133   03 Jun 2027 19:07:58.119            99.986                Anadyr2          3124.562
       328   03 Jun 2027 19:08:18.208   03 Jun 2027 19:10:17.365           119.157               Magadan2          3723.656
       329   03 Jun 2027 19:10:17.365   03 Jun 2027 19:10:36.665            19.300               Magadan1           603.125
       330   03 Jun 2027 19:17:23.284   03 Jun 2027 19:17:27.193             3.909               Magadan2           122.156
       331   03 Jun 2027 19:18:13.489   03 Jun 2027 19:19:14.530            61.041               Magadan2          1907.531
       332   03 Jun 2027 19:59:11.497   03 Jun 2027 20:00:18.829            67.332            RioGallegos          2104.125
       333   03 Jun 2027 20:01:11.451   03 Jun 2027 20:02:22.315            70.864            RioGallegos          2214.500
       334   03 Jun 2027 20:39:49.221   03 Jun 2027 20:40:20.397            31.176                Anadyr1           974.250
       335   03 Jun 2027 20:41:58.671   03 Jun 2027 20:42:18.313            19.642                Norilsk           613.813
       336   03 Jun 2027 20:42:21.222   03 Jun 2027 20:44:52.483           151.261               Magadan1          4726.906
       337   03 Jun 2027 20:45:09.882   03 Jun 2027 20:45:42.589            32.707                Norilsk          1022.094
       338   03 Jun 2027 20:46:28.024   03 Jun 2027 20:49:06.321           158.297                Irkutsk          4946.781
       339   03 Jun 2027 20:49:50.872   03 Jun 2027 20:50:08.266            17.394                Irkutsk           543.563
       340   03 Jun 2027 21:00:38.370   03 Jun 2027 21:03:41.402           183.032                Sumatra          5719.750
       341   03 Jun 2027 21:07:26.525   03 Jun 2027 21:07:29.737             3.212                Sumatra           100.375
       342   03 Jun 2027 22:19:51.152   03 Jun 2027 22:20:39.432            48.280               Magadan1          1508.750
       343   03 Jun 2027 22:21:36.686   03 Jun 2027 22:21:43.586             6.900               Magadan1           215.625
       344   03 Jun 2027 22:21:54.841   03 Jun 2027 22:22:14.201            19.360                Irkutsk           605.000
       345   03 Jun 2027 22:22:38.708   03 Jun 2027 22:23:26.928            48.220                Novosib          1506.875
       346   03 Jun 2027 22:23:57.315   03 Jun 2027 22:25:27.821            90.506                Novosib          2828.312
       347   03 Jun 2027 22:30:38.550   03 Jun 2027 22:32:53.135           134.585                  Delhi          4205.781
       348   03 Jun 2027 23:50:59.130   03 Jun 2027 23:51:10.982            11.852                Anadyr1           370.375
       349   03 Jun 2027 23:51:29.615   03 Jun 2027 23:51:44.147            14.532                Anadyr1           454.125
       350   03 Jun 2027 23:52:29.743   03 Jun 2027 23:52:59.960            30.217                Anadyr2           944.281
       351   03 Jun 2027 23:53:50.920   03 Jun 2027 23:55:41.595           110.675                Norilsk          3458.594
       352   03 Jun 2027 23:56:11.863   03 Jun 2027 23:56:24.568            12.705               Magadan1           397.031
       353   03 Jun 2027 23:56:26.081   03 Jun 2027 23:58:27.266           121.185              Murmansk1          3787.031
       354   03 Jun 2027 23:59:05.113   04 Jun 2027 00:00:07.007            61.894              Murmansk2          1934.187
       355   04 Jun 2027 00:01:12.148   04 Jun 2027 00:01:45.896            33.748              Murmansk1          1054.625
       356   04 Jun 2027 00:07:09.426   04 Jun 2027 00:08:04.829            55.403                  Delhi          1731.344
       357   04 Jun 2027 00:47:37.553   04 Jun 2027 00:48:12.244            34.691            RioGallegos          1084.094
       358   04 Jun 2027 00:51:17.203   04 Jun 2027 00:51:43.090            25.887            RioGallegos           808.969
       359   04 Jun 2027 01:21:59.639   04 Jun 2027 01:22:35.166            35.527                Anadyr2          1110.219
       360   04 Jun 2027 01:23:19.573   04 Jun 2027 01:23:49.602            30.029                Anadyr1           938.406
       361   04 Jun 2027 01:24:31.071   04 Jun 2027 01:25:16.965            45.894                Anadyr2          1434.188
       362   04 Jun 2027 01:27:40.167   04 Jun 2027 01:28:16.573            36.406               Magadan2          1137.687
       363   04 Jun 2027 01:28:32.623   04 Jun 2027 01:30:33.814           121.191               Magadan1          3787.219
       364   04 Jun 2027 01:31:59.368   04 Jun 2027 01:33:05.364            65.996              Murmansk1          2062.375
       365   04 Jun 2027 01:33:48.863   04 Jun 2027 01:33:55.032             6.169              Murmansk2           192.781
       366   04 Jun 2027 01:34:58.583   04 Jun 2027 01:37:05.431           126.848                Novosib          3964.000
       367   04 Jun 2027 02:00:36.443   04 Jun 2027 02:01:30.926            54.483               CapeTown          1702.594
       368   04 Jun 2027 02:08:22.163   04 Jun 2027 02:09:48.301            86.138               CapeTown          2691.812
       369   04 Jun 2027 02:56:07.974   04 Jun 2027 02:57:27.855            79.881                Anadyr1          2496.281
       370   04 Jun 2027 02:59:27.037   04 Jun 2027 03:00:08.152            41.115               Magadan2          1284.844
       371   04 Jun 2027 03:15:51.113   04 Jun 2027 03:17:19.908            88.795              Murmansk1          2774.844
       372   04 Jun 2027 03:17:32.614   04 Jun 2027 03:19:07.347            94.733              Murmansk2          2960.406
       373   04 Jun 2027 03:35:13.072   04 Jun 2027 03:35:31.539            18.467               CapeTown           577.094
       374   04 Jun 2027 03:36:03.298   04 Jun 2027 03:36:35.009            31.711               CapeTown           990.969
       375   04 Jun 2027 04:32:36.641   04 Jun 2027 04:32:45.533             8.892                Anadyr2           277.875
       376   04 Jun 2027 04:38:20.296   04 Jun 2027 04:44:19.975           359.679               Magadan1         11239.969
       377   04 Jun 2027 06:15:19.298   04 Jun 2027 06:17:01.327           102.029                Irkutsk          3188.406
       378   04 Jun 2027 06:17:27.539   04 Jun 2027 06:18:27.033            59.494               Magadan1          1859.187
       379   04 Jun 2027 06:18:27.033   04 Jun 2027 06:18:29.598             2.565               Magadan2            80.156
       380   04 Jun 2027 06:19:06.613   04 Jun 2027 06:19:41.468            34.855                Anadyr1          1089.219
       381   04 Jun 2027 06:20:01.640   04 Jun 2027 06:20:47.069            45.429              Murmansk2          1419.656
       382   04 Jun 2027 07:51:10.243   04 Jun 2027 07:51:29.338            19.095                Norilsk           596.719
       383   04 Jun 2027 07:51:34.650   04 Jun 2027 07:51:53.827            19.177                Norilsk           599.281
       384   04 Jun 2027 07:51:55.832   04 Jun 2027 07:52:08.899            13.067                Norilsk           408.344
       385   04 Jun 2027 07:52:10.161   04 Jun 2027 07:54:38.888           148.727               Magadan1          4647.719
       386   04 Jun 2027 07:54:38.888   04 Jun 2027 07:55:28.252            49.364               Magadan2          1542.625
       387   04 Jun 2027 07:55:36.667   04 Jun 2027 07:56:46.195            69.528              Murmansk1          2172.750
       388   04 Jun 2027 07:57:24.396   04 Jun 2027 07:58:15.892            51.496              Murmansk2          1609.250
       389   04 Jun 2027 08:32:11.382   04 Jun 2027 08:32:41.531            30.149            RioGallegos           942.156
       390   04 Jun 2027 09:06:25.162   04 Jun 2027 09:07:03.182            38.020                Sumatra          1188.125
       391   04 Jun 2027 09:10:34.632   04 Jun 2027 09:12:17.548           102.916                Sumatra          3216.125
       392   04 Jun 2027 09:26:11.640   04 Jun 2027 09:26:14.077             2.437                Irkutsk            76.156
       393   04 Jun 2027 09:27:21.220   04 Jun 2027 09:27:23.413             2.193                Norilsk            68.531
       394   04 Jun 2027 09:27:28.954   04 Jun 2027 09:27:45.477            16.523                Irkutsk           516.344
       395   04 Jun 2027 09:27:54.862   04 Jun 2027 09:27:57.703             2.841                Norilsk            88.781
       396   04 Jun 2027 09:28:00.033   04 Jun 2027 09:28:44.473            44.440                Norilsk          1388.750
       397   04 Jun 2027 09:28:46.886   04 Jun 2027 09:29:22.498            35.612                Norilsk          1112.875
       398   04 Jun 2027 09:29:24.133   04 Jun 2027 09:29:44.955            20.822              Murmansk2           650.687
       399   04 Jun 2027 09:29:49.401   04 Jun 2027 09:29:49.444             0.043                Norilsk             1.344
       400   04 Jun 2027 09:29:54.623   04 Jun 2027 09:30:04.471             9.848              Murmansk1           307.750
       401   04 Jun 2027 09:30:06.653   04 Jun 2027 09:30:30.503            23.850                Irkutsk           745.313
       402   04 Jun 2027 09:30:45.403   04 Jun 2027 09:31:13.321            27.918                Novosib           872.437
       403   04 Jun 2027 09:31:15.457   04 Jun 2027 09:32:47.566            92.109                Novosib          2878.406
       404   04 Jun 2027 10:08:07.322   04 Jun 2027 10:08:49.014            41.692            RioGallegos          1302.875
       405   04 Jun 2027 10:42:19.698   04 Jun 2027 10:43:30.148            70.450                Sumatra          2201.563
       406   04 Jun 2027 10:52:53.858   04 Jun 2027 10:53:25.763            31.905                  Delhi           997.031
       407   04 Jun 2027 11:03:18.656   04 Jun 2027 11:03:25.479             6.823              Murmansk2           213.219
       408   04 Jun 2027 11:03:25.479   04 Jun 2027 11:04:00.388            34.909              Murmansk1          1090.906
       409   04 Jun 2027 11:04:11.912   04 Jun 2027 11:04:23.921            12.009                Irkutsk           375.281
       410   04 Jun 2027 11:04:27.894   04 Jun 2027 11:04:58.933            31.039                Irkutsk           969.969
       411   04 Jun 2027 11:05:10.072   04 Jun 2027 11:05:16.774             6.702              Murmansk1           209.437
       412   04 Jun 2027 11:05:18.352   04 Jun 2027 11:05:43.260            24.908                Norilsk           778.375
       413   04 Jun 2027 11:05:46.143   04 Jun 2027 11:06:10.224            24.081                Norilsk           752.531
       414   04 Jun 2027 11:06:20.470   04 Jun 2027 11:06:39.225            18.755              Murmansk1           586.094
       415   04 Jun 2027 11:07:08.827   04 Jun 2027 11:07:21.251            12.424                Novosib           388.250
       416   04 Jun 2027 11:07:27.793   04 Jun 2027 11:08:16.748            48.955              Murmansk1          1529.844
       417   04 Jun 2027 12:27:25.246   04 Jun 2027 12:29:49.620           144.374                  Delhi          4511.688
       418   04 Jun 2027 12:34:41.717   04 Jun 2027 12:35:09.999            28.282                 Moscow           883.812
       419   04 Jun 2027 12:35:49.271   04 Jun 2027 12:36:45.917            56.646                 Moscow          1770.188
       420   04 Jun 2027 12:37:44.046   04 Jun 2027 12:40:08.376           144.330              Murmansk2          4510.313
       421   04 Jun 2027 14:10:25.271   04 Jun 2027 14:12:06.540           101.269                 Moscow          3164.656
       422   04 Jun 2027 14:13:55.601   04 Jun 2027 14:18:13.185           257.584              Murmansk2          8049.500
       423   04 Jun 2027 14:21:41.353   04 Jun 2027 14:22:59.070            77.717                Norilsk          2428.656
       424   04 Jun 2027 14:29:33.465   04 Jun 2027 14:31:10.192            96.727                Anadyr2          3022.719
       425   04 Jun 2027 14:32:12.309   04 Jun 2027 14:33:28.540            76.231                Anadyr2          2382.219
       426   04 Jun 2027 15:23:45.716   04 Jun 2027 15:24:30.221            44.505               CapeTown          1390.781
       427   04 Jun 2027 15:50:07.682   04 Jun 2027 15:50:24.512            16.830                 Moscow           525.938
       428   04 Jun 2027 15:52:02.968   04 Jun 2027 15:53:11.381            68.413              Murmansk1          2137.906
       429   04 Jun 2027 15:54:00.178   04 Jun 2027 15:54:40.706            40.528              Murmansk1          1266.500
       430   04 Jun 2027 16:04:22.316   04 Jun 2027 16:06:37.081           134.765                Anadyr1          4211.406
       431   04 Jun 2027 17:00:24.697   04 Jun 2027 17:01:16.229            51.532               CapeTown          1610.375
       432   04 Jun 2027 17:02:15.625   04 Jun 2027 17:03:16.064            60.439               CapeTown          1888.719
       433   04 Jun 2027 17:33:12.866   04 Jun 2027 17:36:33.167           200.301              Murmansk2          6259.406
       434   04 Jun 2027 17:40:10.982   04 Jun 2027 17:41:18.008            67.026                Anadyr2          2094.562
       435   04 Jun 2027 17:42:08.481   04 Jun 2027 17:42:09.897             1.416                Anadyr2            44.250
       436   04 Jun 2027 17:42:49.900   04 Jun 2027 17:43:09.060            19.160               Magadan1           598.750
       437   04 Jun 2027 17:43:11.934   04 Jun 2027 17:44:44.816            92.882               Magadan2          2902.562
       438   04 Jun 2027 19:16:06.272   04 Jun 2027 19:18:04.849           118.577                Anadyr2          3705.531
       439   04 Jun 2027 19:18:16.288   04 Jun 2027 19:20:10.227           113.939                Anadyr1          3560.594
       440   04 Jun 2027 19:20:27.189   04 Jun 2027 19:21:26.633            59.444                Norilsk          1857.625
       441   04 Jun 2027 19:21:40.992   04 Jun 2027 19:22:12.471            31.479               Magadan2           983.719
       442   04 Jun 2027 19:22:12.471   04 Jun 2027 19:22:48.350            35.879               Magadan1          1121.219
       443   04 Jun 2027 19:23:49.355   04 Jun 2027 19:24:18.272            28.917               Magadan1           903.656
       444   04 Jun 2027 19:28:50.679   04 Jun 2027 19:28:51.376             0.697               Magadan2            21.781
       445   04 Jun 2027 20:10:52.139   04 Jun 2027 20:14:06.725           194.586            RioGallegos          6080.813
       446   04 Jun 2027 20:14:38.621   04 Jun 2027 20:15:28.670            50.049            RioGallegos          1564.031
       447   04 Jun 2027 20:17:13.309   04 Jun 2027 20:17:15.955             2.646            RioGallegos            82.688
       448   04 Jun 2027 20:51:47.040   04 Jun 2027 20:51:52.979             5.939                Anadyr2           185.594
       449   04 Jun 2027 20:52:35.696   04 Jun 2027 20:53:56.168            80.472                Anadyr2          2514.750
       450   04 Jun 2027 20:53:58.150   04 Jun 2027 20:56:09.540           131.390                Norilsk          4105.937
       451   04 Jun 2027 20:58:18.043   04 Jun 2027 20:59:12.462            54.419                Irkutsk          1700.594
       452   04 Jun 2027 20:59:33.174   04 Jun 2027 21:00:11.048            37.874                Irkutsk          1183.562
       453   04 Jun 2027 21:12:14.030   04 Jun 2027 21:13:01.385            47.355                Sumatra          1479.844
       454   04 Jun 2027 21:14:13.723   04 Jun 2027 21:15:34.358            80.635                Sumatra          2519.844
       455   04 Jun 2027 21:23:24.272   04 Jun 2027 21:24:03.895            39.623                Sumatra          1238.219
       456   04 Jun 2027 22:29:52.717   04 Jun 2027 22:30:16.718            24.001                Norilsk           750.031
       457   04 Jun 2027 22:30:30.312   04 Jun 2027 22:31:59.088            88.776               Magadan1          2774.250
       458   04 Jun 2027 22:33:33.804   04 Jun 2027 22:33:48.751            14.947                Norilsk           467.094
       459   04 Jun 2027 22:34:00.335   04 Jun 2027 22:35:07.442            67.107                Novosib          2097.094
       460   04 Jun 2027 22:35:34.272   04 Jun 2027 22:35:53.124            18.852                Novosib           589.125
       461   04 Jun 2027 22:36:46.644   04 Jun 2027 22:37:27.876            41.232                Novosib          1288.500
       462   04 Jun 2027 22:39:23.771   04 Jun 2027 22:39:44.343            20.572                Novosib           642.875
       463   04 Jun 2027 22:42:08.478   04 Jun 2027 22:45:15.468           186.990                  Delhi          5843.437
       464   05 Jun 2027 00:02:54.637   05 Jun 2027 00:03:12.302            17.665                Anadyr1           552.031
       465   05 Jun 2027 00:05:52.570   05 Jun 2027 00:07:48.586           116.016                Norilsk          3625.500
       466   05 Jun 2027 00:08:20.815   05 Jun 2027 00:11:10.290           169.475              Murmansk2          5296.094
       467   05 Jun 2027 00:13:10.645   05 Jun 2027 00:13:21.478            10.833              Murmansk1           338.531
       468   05 Jun 2027 00:14:03.297   05 Jun 2027 00:14:43.074            39.777                 Moscow          1243.031
       469   05 Jun 2027 00:15:31.921   05 Jun 2027 00:16:19.527            47.606              Murmansk1          1487.687
       470   05 Jun 2027 00:17:00.258   05 Jun 2027 00:17:41.317            41.059                 Moscow          1283.094
       471   05 Jun 2027 01:00:32.137   05 Jun 2027 01:00:34.140             2.003            RioGallegos            62.594
       472   05 Jun 2027 01:00:42.610   05 Jun 2027 01:01:46.120            63.510            RioGallegos          1984.687
       473   05 Jun 2027 01:33:43.409   05 Jun 2027 01:33:44.178             0.769                Anadyr2            24.031
       474   05 Jun 2027 01:34:00.754   05 Jun 2027 01:34:00.872             0.118                Anadyr1             3.688
       475   05 Jun 2027 01:34:34.090   05 Jun 2027 01:35:14.480            40.390                Anadyr1          1262.187
       476   05 Jun 2027 01:35:58.814   05 Jun 2027 01:36:28.589            29.775                Anadyr1           930.469
       477   05 Jun 2027 01:36:40.785   05 Jun 2027 01:36:57.206            16.421                Anadyr2           513.156
       478   05 Jun 2027 01:39:08.963   05 Jun 2027 01:40:32.088            83.125               Magadan1          2597.656
       479   05 Jun 2027 01:40:35.119   05 Jun 2027 01:40:43.776             8.657               Magadan1           270.531
       480   05 Jun 2027 01:41:12.576   05 Jun 2027 01:41:21.011             8.435               Magadan1           263.594
       481   05 Jun 2027 01:41:42.744   05 Jun 2027 01:42:06.310            23.566                Norilsk           736.438
       482   05 Jun 2027 01:43:39.545   05 Jun 2027 01:44:04.553            25.008                Norilsk           781.500
