uniorb/output/strategy_1/Drop/Drop_KinoSat_111108.txt

KinoSat_111108
-------------------------
    Access    *     Start Time (UTCG)     *     Stop Time (UTCG)  *   Duration (s)        *       Station  *  Data (Mbytes)
         1   01 Jun 2027 03:07:51.998   01 Jun 2027 03:07:58.939             6.941                Norilsk           216.906
         2   01 Jun 2027 03:08:08.183   01 Jun 2027 03:09:45.218            97.035                 Moscow          3032.344
         3   01 Jun 2027 03:10:07.893   01 Jun 2027 03:13:30.123           202.230              Murmansk2          6319.687
         4   01 Jun 2027 03:27:49.974   01 Jun 2027 03:29:59.323           129.349               CapeTown          4042.156
         5   01 Jun 2027 04:31:16.190   01 Jun 2027 04:31:38.672            22.482               Magadan1           702.562
         6   01 Jun 2027 04:31:42.230   01 Jun 2027 04:33:58.580           136.350                Anadyr2          4260.937
         7   01 Jun 2027 04:33:58.580   01 Jun 2027 04:34:25.139            26.559                Anadyr1           829.969
         8   01 Jun 2027 06:08:31.229   01 Jun 2027 06:09:11.582            40.353               Magadan2          1261.031
         9   01 Jun 2027 06:09:20.041   01 Jun 2027 06:09:45.450            25.409               Magadan1           794.031
        10   01 Jun 2027 06:09:52.683   01 Jun 2027 06:13:05.453           192.770                Anadyr1          6024.062
        11   01 Jun 2027 07:43:56.831   01 Jun 2027 07:44:25.118            28.287                Irkutsk           883.969
        12   01 Jun 2027 07:44:51.484   01 Jun 2027 07:47:14.586           143.102                Norilsk          4471.937
        13   01 Jun 2027 07:47:16.953   01 Jun 2027 07:48:21.129            64.176                Novosib          2005.500
        14   01 Jun 2027 07:48:23.584   01 Jun 2027 07:49:35.263            71.679                Novosib          2239.969
        15   01 Jun 2027 07:50:45.215   01 Jun 2027 07:51:05.146            19.931              Murmansk2           622.844
        16   01 Jun 2027 07:53:13.320   01 Jun 2027 07:53:29.021            15.701              Murmansk1           490.656
        17   01 Jun 2027 07:55:16.702   01 Jun 2027 07:55:47.934            31.232              Murmansk2           976.000
        18   01 Jun 2027 07:56:13.750   01 Jun 2027 07:57:11.670            57.920              Murmansk2          1810.000
        19   01 Jun 2027 08:26:01.437   01 Jun 2027 08:26:13.733            12.296            RioGallegos           384.250
        20   01 Jun 2027 08:59:24.932   01 Jun 2027 09:00:26.014            61.082                Sumatra          1908.813
        21   01 Jun 2027 09:03:28.743   01 Jun 2027 09:04:54.291            85.548                Sumatra          2673.375
        22   01 Jun 2027 09:20:13.112   01 Jun 2027 09:22:44.779           151.667                Irkutsk          4739.594
        23   01 Jun 2027 09:22:46.516   01 Jun 2027 09:23:36.582            50.066                Irkutsk          1564.563
        24   01 Jun 2027 09:23:50.296   01 Jun 2027 09:24:27.785            37.489                Norilsk          1171.531
        25   01 Jun 2027 09:24:29.892   01 Jun 2027 09:24:43.781            13.889                Irkutsk           434.031
        26   01 Jun 2027 09:24:52.531   01 Jun 2027 09:24:58.546             6.015              Murmansk2           187.969
        27   01 Jun 2027 09:25:02.893   01 Jun 2027 09:25:13.446            10.553              Murmansk1           329.781
        28   01 Jun 2027 09:25:20.941   01 Jun 2027 09:26:10.610            49.669                Novosib          1552.156
        29   01 Jun 2027 09:26:19.836   01 Jun 2027 09:26:26.974             7.138              Murmansk1           223.063
        30   01 Jun 2027 09:26:34.293   01 Jun 2027 09:26:44.490            10.197                Norilsk           318.656
        31   01 Jun 2027 09:27:12.275   01 Jun 2027 09:27:57.246            44.971                Norilsk          1405.344
        32   01 Jun 2027 09:28:28.710   01 Jun 2027 09:28:52.342            23.632                Norilsk           738.500
        33   01 Jun 2027 10:01:25.926   01 Jun 2027 10:02:00.922            34.996            RioGallegos          1093.625
        34   01 Jun 2027 10:08:22.133   01 Jun 2027 10:08:32.560            10.427            RioGallegos           325.844
        35   01 Jun 2027 10:34:47.608   01 Jun 2027 10:36:14.059            86.451                Sumatra          2701.594
        36   01 Jun 2027 10:57:56.581   01 Jun 2027 10:58:29.364            32.783                Norilsk          1024.469
        37   01 Jun 2027 10:58:29.433   01 Jun 2027 10:58:55.135            25.702                 Moscow           803.187
        38   01 Jun 2027 10:58:57.455   01 Jun 2027 10:59:03.157             5.702              Murmansk2           178.187
        39   01 Jun 2027 10:59:05.807   01 Jun 2027 11:00:08.840            63.033                Novosib          1969.781
        40   01 Jun 2027 11:00:25.375   01 Jun 2027 11:01:00.513            35.138                Norilsk          1098.062
        41   01 Jun 2027 11:01:53.061   01 Jun 2027 11:02:15.321            22.260              Murmansk1           695.625
        42   01 Jun 2027 12:19:44.258   01 Jun 2027 12:23:10.781           206.523                  Delhi          6453.844
        43   01 Jun 2027 12:23:34.788   01 Jun 2027 12:24:43.810            69.022                  Delhi          2156.938
        44   01 Jun 2027 12:30:17.581   01 Jun 2027 12:30:39.540            21.959                Novosib           686.219
        45   01 Jun 2027 12:30:42.833   01 Jun 2027 12:32:00.850            78.017              Murmansk2          2438.031
        46   01 Jun 2027 12:32:01.998   01 Jun 2027 12:32:52.655            50.657                Norilsk          1583.031
        47   01 Jun 2027 12:36:04.350   01 Jun 2027 12:36:40.452            36.102                Norilsk          1128.188
        48   01 Jun 2027 14:03:02.015   01 Jun 2027 14:04:50.621           108.606                 Moscow          3393.937
        49   01 Jun 2027 14:06:33.230   01 Jun 2027 14:08:14.429           101.199              Murmansk1          3162.469
        50   01 Jun 2027 14:08:23.178   01 Jun 2027 14:10:45.245           142.067              Murmansk2          4439.594
        51   01 Jun 2027 14:12:03.096   01 Jun 2027 14:12:09.902             6.806              Murmansk1           212.687
        52   01 Jun 2027 14:13:24.859   01 Jun 2027 14:14:07.728            42.869                Norilsk          1339.656
        53   01 Jun 2027 14:15:23.682   01 Jun 2027 14:15:42.822            19.140                Norilsk           598.125
        54   01 Jun 2027 14:16:01.502   01 Jun 2027 14:16:26.017            24.515                Norilsk           766.094
        55   01 Jun 2027 14:22:32.283   01 Jun 2027 14:23:25.039            52.756                Anadyr1          1648.625
        56   01 Jun 2027 14:23:25.039   01 Jun 2027 14:23:36.417            11.378                Anadyr2           355.562
        57   01 Jun 2027 14:24:39.978   01 Jun 2027 14:26:12.465            92.487                Anadyr1          2890.219
        58   01 Jun 2027 15:16:32.782   01 Jun 2027 15:17:58.255            85.473               CapeTown          2671.031
        59   01 Jun 2027 15:44:30.437   01 Jun 2027 15:45:09.359            38.922              Murmansk1          1216.312
        60   01 Jun 2027 15:45:53.072   01 Jun 2027 15:47:30.215            97.143              Murmansk1          3035.719
        61   01 Jun 2027 15:57:06.448   01 Jun 2027 15:59:21.036           134.588                Anadyr1          4205.875
        62   01 Jun 2027 16:52:55.932   01 Jun 2027 16:54:16.033            80.101               CapeTown          2503.156
        63   01 Jun 2027 16:56:28.407   01 Jun 2027 16:56:31.392             2.985               CapeTown            93.281
        64   01 Jun 2027 17:25:18.319   01 Jun 2027 17:27:41.349           143.030              Murmansk2          4469.687
        65   01 Jun 2027 17:27:41.349   01 Jun 2027 17:29:16.703            95.354              Murmansk1          2979.813
        66   01 Jun 2027 17:32:53.524   01 Jun 2027 17:34:04.753            71.229                Anadyr1          2225.906
        67   01 Jun 2027 17:35:36.856   01 Jun 2027 17:36:58.146            81.290               Magadan1          2540.312
        68   01 Jun 2027 17:37:31.107   01 Jun 2027 17:39:36.051           124.944               Magadan2          3904.500
        69   01 Jun 2027 19:08:49.044   01 Jun 2027 19:10:47.096           118.052                Anadyr1          3689.125
        70   01 Jun 2027 19:11:01.026   01 Jun 2027 19:11:37.981            36.955                Anadyr2          1154.844
        71   01 Jun 2027 19:11:58.229   01 Jun 2027 19:15:11.057           192.828               Magadan1          6025.875
        72   01 Jun 2027 20:03:46.560   01 Jun 2027 20:06:55.814           189.254            RioGallegos          5914.187
        73   01 Jun 2027 20:44:31.823   01 Jun 2027 20:46:39.413           127.590                Anadyr2          3987.188
        74   01 Jun 2027 20:46:41.736   01 Jun 2027 20:49:02.145           140.409                Norilsk          4387.781
        75   01 Jun 2027 20:49:34.445   01 Jun 2027 20:49:50.418            15.973                Norilsk           499.156
        76   01 Jun 2027 20:51:07.144   01 Jun 2027 20:52:53.991           106.847                Irkutsk          3338.969
        77   01 Jun 2027 20:54:29.365   01 Jun 2027 20:54:34.097             4.732                Irkutsk           147.875
        78   01 Jun 2027 21:05:11.238   01 Jun 2027 21:08:21.383           190.145                Sumatra          5942.031
        79   01 Jun 2027 22:24:37.134   01 Jun 2027 22:25:13.385            36.251               Magadan1          1132.844
        80   01 Jun 2027 22:26:26.464   01 Jun 2027 22:27:28.783            62.319                Irkutsk          1947.469
        81   01 Jun 2027 22:27:44.911   01 Jun 2027 22:27:48.578             3.667                Novosib           114.594
        82   01 Jun 2027 22:27:51.494   01 Jun 2027 22:28:21.085            29.591                Novosib           924.719
        83   01 Jun 2027 22:28:57.209   01 Jun 2027 22:29:55.588            58.379                Novosib          1824.344
        84   01 Jun 2027 22:35:08.961   01 Jun 2027 22:38:06.058           177.097                  Delhi          5534.281
        85   01 Jun 2027 23:55:37.276   01 Jun 2027 23:55:46.833             9.557                Anadyr1           298.656
        86   01 Jun 2027 23:56:05.918   01 Jun 2027 23:56:10.483             4.565                Anadyr1           142.656
        87   01 Jun 2027 23:58:34.949   02 Jun 2027 00:00:30.500           115.551                Norilsk          3610.969
        88   02 Jun 2027 00:00:58.589   02 Jun 2027 00:01:33.392            34.803               Magadan2          1087.594
        89   02 Jun 2027 00:02:04.421   02 Jun 2027 00:04:40.083           155.662              Murmansk1          4864.437
        90   02 Jun 2027 00:06:48.329   02 Jun 2027 00:07:07.175            18.846              Murmansk1           588.938
        91   02 Jun 2027 00:07:52.788   02 Jun 2027 00:08:31.746            38.958                 Moscow          1217.438
        92   02 Jun 2027 00:09:22.010   02 Jun 2027 00:09:28.277             6.267                 Moscow           195.844
        93   02 Jun 2027 00:09:45.121   02 Jun 2027 00:10:00.937            15.816                  Delhi           494.250
        94   02 Jun 2027 00:10:40.403   02 Jun 2027 00:11:49.489            69.086                  Delhi          2158.937
        95   02 Jun 2027 01:26:36.568   02 Jun 2027 01:26:47.245            10.677                Anadyr2           333.656
        96   02 Jun 2027 01:26:47.245   02 Jun 2027 01:27:21.585            34.340                Anadyr1          1073.125
        97   02 Jun 2027 01:28:01.297   02 Jun 2027 01:28:06.529             5.232                Anadyr1           163.500
        98   02 Jun 2027 01:28:19.735   02 Jun 2027 01:28:33.310            13.575                Anadyr1           424.219
        99   02 Jun 2027 01:29:15.193   02 Jun 2027 01:30:03.024            47.831                Anadyr2          1494.719
       100   02 Jun 2027 01:32:11.507   02 Jun 2027 01:34:02.987           111.480               Magadan2          3483.750
       101   02 Jun 2027 01:34:39.381   02 Jun 2027 01:34:39.995             0.614               Magadan1            19.187
       102   02 Jun 2027 01:34:42.623   02 Jun 2027 01:35:17.857            35.234               Magadan2          1101.063
       103   02 Jun 2027 01:36:43.150   02 Jun 2027 01:39:07.956           144.806              Murmansk1          4525.188
       104   02 Jun 2027 01:41:22.640   02 Jun 2027 01:41:28.825             6.185                 Moscow           193.281
       105   02 Jun 2027 01:42:11.494   02 Jun 2027 01:42:20.271             8.777                 Moscow           274.281
       106   02 Jun 2027 01:51:07.977   02 Jun 2027 01:51:50.456            42.479                 Moscow          1327.469
       107   02 Jun 2027 02:05:08.201   02 Jun 2027 02:05:24.961            16.760               CapeTown           523.750
       108   02 Jun 2027 02:07:45.830   02 Jun 2027 02:08:06.223            20.393               CapeTown           637.281
       109   02 Jun 2027 03:00:48.941   02 Jun 2027 03:02:10.894            81.953                Anadyr1          2561.031
       110   02 Jun 2027 03:02:10.894   02 Jun 2027 03:02:53.726            42.832                Anadyr2          1338.500
       111   02 Jun 2027 03:20:59.442   02 Jun 2027 03:22:51.423           111.981              Murmansk1          3499.406
       112   02 Jun 2027 03:22:51.423   02 Jun 2027 03:23:44.882            53.459              Murmansk2          1670.594
       113   02 Jun 2027 03:24:12.541   02 Jun 2027 03:24:40.098            27.557              Murmansk1           861.156
       114   02 Jun 2027 04:36:45.077   02 Jun 2027 04:38:02.365            77.288                Anadyr1          2415.250
       115   02 Jun 2027 04:43:04.181   02 Jun 2027 04:47:23.730           259.549               Magadan2          8110.906
       116   02 Jun 2027 04:47:37.336   02 Jun 2027 04:48:00.949            23.613                Anadyr2           737.906
       117   02 Jun 2027 04:48:00.949   02 Jun 2027 04:48:03.225             2.276                Anadyr1            71.125
       118   02 Jun 2027 04:48:15.563   02 Jun 2027 04:48:15.877             0.314               Magadan1             9.813
       119   02 Jun 2027 06:20:32.616   02 Jun 2027 06:20:45.299            12.683                Anadyr2           396.344
       120   02 Jun 2027 06:20:52.843   02 Jun 2027 06:21:32.755            39.912                Norilsk          1247.250
       121   02 Jun 2027 06:21:46.724   02 Jun 2027 06:23:21.995            95.271                Irkutsk          2977.219
       122   02 Jun 2027 06:23:32.376   02 Jun 2027 06:24:23.582            51.206                Anadyr1          1600.187
       123   02 Jun 2027 06:24:23.582   02 Jun 2027 06:25:01.793            38.211                Anadyr2          1194.094
       124   02 Jun 2027 06:25:10.545   02 Jun 2027 06:26:04.779            54.234                Norilsk          1694.812
       125   02 Jun 2027 07:02:08.701   02 Jun 2027 07:02:15.326             6.625            RioGallegos           207.031
       126   02 Jun 2027 07:03:17.576   02 Jun 2027 07:03:31.975            14.399            RioGallegos           449.969
       127   02 Jun 2027 07:03:55.385   02 Jun 2027 07:04:24.153            28.768            RioGallegos           899.000
       128   02 Jun 2027 07:55:48.874   02 Jun 2027 07:56:37.072            48.198                Norilsk          1506.188
       129   02 Jun 2027 07:56:52.023   02 Jun 2027 08:00:15.857           203.834               Magadan1          6369.813
       130   02 Jun 2027 08:00:15.857   02 Jun 2027 08:00:24.130             8.273               Magadan2           258.531
       131   02 Jun 2027 08:00:35.337   02 Jun 2027 08:02:54.813           139.476              Murmansk2          4358.625
       132   02 Jun 2027 08:02:54.813   02 Jun 2027 08:03:09.542            14.729              Murmansk1           460.281
       133   02 Jun 2027 08:35:26.552   02 Jun 2027 08:37:51.455           144.903            RioGallegos          4528.219
       134   02 Jun 2027 09:10:59.671   02 Jun 2027 09:12:54.533           114.862                Sumatra          3589.438
       135   02 Jun 2027 09:32:32.994   02 Jun 2027 09:36:43.434           250.440                Irkutsk          7826.250
       136   02 Jun 2027 10:13:02.911   02 Jun 2027 10:13:36.910            33.999            RioGallegos          1062.469
       137   02 Jun 2027 10:47:14.849   02 Jun 2027 10:48:13.990            59.141                Sumatra          1848.156
       138   02 Jun 2027 10:54:42.313   02 Jun 2027 10:55:04.551            22.238                  Delhi           694.937
       139   02 Jun 2027 10:57:40.265   02 Jun 2027 10:58:12.423            32.158                  Delhi          1004.937
       140   02 Jun 2027 11:09:50.699   02 Jun 2027 11:10:43.651            52.952                 Moscow          1654.750
       141   02 Jun 2027 11:10:46.868   02 Jun 2027 11:10:53.503             6.635                Irkutsk           207.344
       142   02 Jun 2027 11:11:01.640   02 Jun 2027 11:11:19.027            17.387              Murmansk1           543.344
       143   02 Jun 2027 11:11:54.330   02 Jun 2027 11:15:21.641           207.311                 Moscow          6478.469
       144   02 Jun 2027 11:15:30.403   02 Jun 2027 11:18:11.852           161.449              Murmansk1          5045.281
       145   02 Jun 2027 11:18:11.852   02 Jun 2027 11:19:32.933            81.081              Murmansk2          2533.781
       146   02 Jun 2027 12:32:26.799   02 Jun 2027 12:34:41.350           134.551                  Delhi          4204.719
       147   02 Jun 2027 12:35:30.607   02 Jun 2027 12:36:22.496            51.889                  Delhi          1621.531
       148   02 Jun 2027 12:39:20.897   02 Jun 2027 12:40:33.245            72.348                 Moscow          2260.875
       149   02 Jun 2027 12:41:31.908   02 Jun 2027 12:41:33.464             1.556                 Moscow            48.625
       150   02 Jun 2027 12:41:56.963   02 Jun 2027 12:42:45.257            48.294                Novosib          1509.187
       151   02 Jun 2027 12:42:46.447   02 Jun 2027 12:45:06.354           139.907              Murmansk1          4372.094
       152   02 Jun 2027 12:45:10.761   02 Jun 2027 12:45:44.067            33.306              Murmansk2          1040.812
       153   02 Jun 2027 12:46:02.435   02 Jun 2027 12:46:58.356            55.921                Norilsk          1747.531
       154   02 Jun 2027 12:48:41.558   02 Jun 2027 12:49:49.231            67.673                Norilsk          2114.781
       155   02 Jun 2027 13:57:01.083   02 Jun 2027 13:57:56.318            55.235               CapeTown          1726.094
       156   02 Jun 2027 14:15:13.535   02 Jun 2027 14:16:49.741            96.206                 Moscow          3006.437
       157   02 Jun 2027 14:18:42.993   02 Jun 2027 14:20:17.398            94.405              Murmansk2          2950.156
       158   02 Jun 2027 14:20:21.380   02 Jun 2027 14:21:40.106            78.726              Murmansk1          2460.187
       159   02 Jun 2027 14:34:09.046   02 Jun 2027 14:36:10.840           121.794                Anadyr2          3806.063
       160   02 Jun 2027 14:36:58.759   02 Jun 2027 14:38:11.671            72.912                Anadyr2          2278.500
       161   02 Jun 2027 15:28:27.338   02 Jun 2027 15:28:52.369            25.031               CapeTown           782.219
       162   02 Jun 2027 15:29:34.512   02 Jun 2027 15:31:17.460           102.948               CapeTown          3217.125
       163   02 Jun 2027 15:56:57.000   02 Jun 2027 15:57:26.698            29.698              Murmansk2           928.063
       164   02 Jun 2027 15:57:36.019   02 Jun 2027 15:57:42.916             6.897              Murmansk1           215.531
       165   02 Jun 2027 15:58:40.813   02 Jun 2027 15:59:19.459            38.646              Murmansk1          1207.688
       166   02 Jun 2027 16:01:40.786   02 Jun 2027 16:02:52.974            72.188              Murmansk1          2255.875
       167   02 Jun 2027 16:09:05.313   02 Jun 2027 16:11:22.226           136.913                Anadyr1          4278.531
       168   02 Jun 2027 17:05:16.983   02 Jun 2027 17:06:21.823            64.840               CapeTown          2026.250
       169   02 Jun 2027 17:38:23.712   02 Jun 2027 17:41:48.840           205.128              Murmansk2          6410.250
       170   02 Jun 2027 17:44:54.897   02 Jun 2027 17:47:29.678           154.781                Anadyr1          4836.906
       171   02 Jun 2027 17:47:31.279   02 Jun 2027 17:48:25.334            54.055               Magadan2          1689.219
       172   02 Jun 2027 17:48:25.334   02 Jun 2027 17:48:44.006            18.672               Magadan1           583.500
       173   02 Jun 2027 17:48:59.069   02 Jun 2027 17:49:20.782            21.713               Magadan1           678.531
       174   02 Jun 2027 17:49:20.782   02 Jun 2027 17:51:29.584           128.802               Magadan2          4025.063
       175   02 Jun 2027 19:20:49.979   02 Jun 2027 19:24:19.467           209.488                Anadyr2          6546.500
       176   02 Jun 2027 19:24:24.274   02 Jun 2027 19:24:53.871            29.597                Anadyr2           924.906
       177   02 Jun 2027 19:25:08.939   02 Jun 2027 19:27:09.456           120.517               Magadan1          3766.156
       178   02 Jun 2027 19:27:09.456   02 Jun 2027 19:27:26.441            16.985               Magadan2           530.781
       179   02 Jun 2027 20:15:29.412   02 Jun 2027 20:18:53.690           204.278            RioGallegos          6383.688
       180   02 Jun 2027 20:56:29.373   02 Jun 2027 20:57:12.504            43.131                Anadyr1          1347.844
       181   02 Jun 2027 20:58:33.241   02 Jun 2027 20:58:36.572             3.331                Anadyr1           104.094
       182   02 Jun 2027 20:58:41.486   02 Jun 2027 21:01:42.186           180.700                Norilsk          5646.875
       183   02 Jun 2027 21:02:58.225   02 Jun 2027 21:04:24.034            85.809                Irkutsk          2681.531
       184   02 Jun 2027 21:05:50.551   02 Jun 2027 21:06:56.950            66.399                Novosib          2074.969
       185   02 Jun 2027 21:16:50.013   02 Jun 2027 21:20:16.597           206.584                Sumatra          6455.750
       186   02 Jun 2027 22:34:36.859   02 Jun 2027 22:34:59.041            22.182                Norilsk           693.188
       187   02 Jun 2027 22:35:14.582   02 Jun 2027 22:36:44.050            89.468               Magadan2          2795.875
       188   02 Jun 2027 22:36:50.250   02 Jun 2027 22:37:23.648            33.398               Magadan1          1043.687
       189   02 Jun 2027 22:38:28.329   02 Jun 2027 22:39:11.177            42.848                Irkutsk          1339.000
       190   02 Jun 2027 22:39:23.983   02 Jun 2027 22:39:40.098            16.115                Irkutsk           503.594
       191   02 Jun 2027 22:39:42.134   02 Jun 2027 22:41:12.766            90.632                Novosib          2832.250
       192   02 Jun 2027 22:42:05.325   02 Jun 2027 22:42:25.836            20.511                Novosib           640.969
       193   02 Jun 2027 22:46:42.531   02 Jun 2027 22:49:55.149           192.618                  Delhi          6019.313
       194   03 Jun 2027 00:10:52.535   03 Jun 2027 00:13:01.486           128.951               Magadan2          4029.719
       195   03 Jun 2027 00:13:02.629   03 Jun 2027 00:15:43.914           161.285              Murmansk1          5040.156
       196   03 Jun 2027 00:18:24.077   03 Jun 2027 00:18:40.730            16.653                 Moscow           520.406
       197   03 Jun 2027 00:20:36.871   03 Jun 2027 00:21:01.873            25.002                 Moscow           781.312
       198   03 Jun 2027 00:21:53.457   03 Jun 2027 00:22:29.112            35.655                  Delhi          1114.219
       199   03 Jun 2027 01:38:20.706   03 Jun 2027 01:39:55.524            94.818                Anadyr1          2963.063
       200   03 Jun 2027 01:40:05.801   03 Jun 2027 01:40:33.310            27.509                Anadyr1           859.656
       201   03 Jun 2027 01:40:58.082   03 Jun 2027 01:41:34.269            36.187                Anadyr1          1130.844
       202   03 Jun 2027 01:43:39.933   03 Jun 2027 01:45:19.686            99.753               Magadan1          3117.281
       203   03 Jun 2027 01:46:25.901   03 Jun 2027 01:46:35.020             9.119                Norilsk           284.969
       204   03 Jun 2027 01:48:21.400   03 Jun 2027 01:48:43.535            22.135                Norilsk           691.719
       205   03 Jun 2027 01:48:44.397   03 Jun 2027 01:49:31.552            47.155              Murmansk2          1473.594
       206   03 Jun 2027 01:49:58.697   03 Jun 2027 01:50:47.532            48.835              Murmansk1          1526.094
       207   03 Jun 2027 01:50:48.341   03 Jun 2027 01:51:26.000            37.659                Novosib          1176.844
       208   03 Jun 2027 01:52:09.640   03 Jun 2027 01:53:20.022            70.382                 Moscow          2199.437
       209   03 Jun 2027 01:54:32.536   03 Jun 2027 01:54:39.852             7.316                 Moscow           228.625
       210   03 Jun 2027 02:16:43.043   03 Jun 2027 02:18:03.389            80.346               CapeTown          2510.812
       211   03 Jun 2027 03:12:43.943   03 Jun 2027 03:12:52.231             8.288                Anadyr2           259.000
       212   03 Jun 2027 03:12:52.231   03 Jun 2027 03:14:10.975            78.744                Anadyr1          2460.750
       213   03 Jun 2027 03:20:30.609   03 Jun 2027 03:21:06.723            36.114               Magadan2          1128.563
       214   03 Jun 2027 03:32:18.959   03 Jun 2027 03:32:32.902            13.943                Norilsk           435.719
       215   03 Jun 2027 03:32:35.971   03 Jun 2027 03:32:53.487            17.516              Murmansk1           547.375
       216   03 Jun 2027 03:33:07.724   03 Jun 2027 03:34:30.277            82.553                 Moscow          2579.781
       217   03 Jun 2027 03:35:06.774   03 Jun 2027 03:35:49.788            43.014              Murmansk2          1344.187
       218   03 Jun 2027 03:36:08.666   03 Jun 2027 03:36:14.446             5.780              Murmansk2           180.625
       219   03 Jun 2027 03:38:47.349   03 Jun 2027 03:39:27.647            40.298                 Moscow          1259.312
       220   03 Jun 2027 03:52:19.333   03 Jun 2027 03:53:46.039            86.706               CapeTown          2709.563
       221   03 Jun 2027 04:55:41.020   03 Jun 2027 04:56:37.551            56.531               Magadan2          1766.594
       222   03 Jun 2027 04:56:44.409   03 Jun 2027 04:57:22.124            37.715               Magadan2          1178.594
       223   03 Jun 2027 04:57:27.967   03 Jun 2027 04:57:49.963            21.996                Norilsk           687.375
       224   03 Jun 2027 04:58:00.390   03 Jun 2027 04:59:35.945            95.555                Anadyr2          2986.094
       225   03 Jun 2027 05:00:10.773   03 Jun 2027 05:00:39.808            29.035               Magadan1           907.344
       226   03 Jun 2027 06:31:50.467   03 Jun 2027 06:34:32.368           161.901                Anadyr2          5059.406
       227   03 Jun 2027 06:34:45.971   03 Jun 2027 06:34:51.203             5.232                Norilsk           163.500
       228   03 Jun 2027 06:34:55.550   03 Jun 2027 06:37:02.435           126.885               Magadan1          3965.156
       229   03 Jun 2027 07:13:06.053   03 Jun 2027 07:13:30.552            24.499            RioGallegos           765.594
       230   03 Jun 2027 08:07:25.121   03 Jun 2027 08:08:08.239            43.118                Novosib          1347.438
       231   03 Jun 2027 08:08:21.266   03 Jun 2027 08:09:43.070            81.804                Novosib          2556.375
       232   03 Jun 2027 08:09:47.120   03 Jun 2027 08:10:34.117            46.997                Novosib          1468.656
       233   03 Jun 2027 08:10:50.742   03 Jun 2027 08:12:43.588           112.846                Irkutsk          3526.437
       234   03 Jun 2027 08:12:46.627   03 Jun 2027 08:13:01.369            14.742                Norilsk           460.687
       235   03 Jun 2027 08:13:09.208   03 Jun 2027 08:13:52.527            43.319                Novosib          1353.719
       236   03 Jun 2027 08:14:00.619   03 Jun 2027 08:14:56.727            56.108              Murmansk1          1753.375
       237   03 Jun 2027 08:47:27.341   03 Jun 2027 08:48:41.546            74.205            RioGallegos          2318.906
       238   03 Jun 2027 09:22:42.100   03 Jun 2027 09:25:53.103           191.003                Sumatra          5968.844
       239   03 Jun 2027 09:43:55.619   03 Jun 2027 09:45:01.862            66.243                Novosib          2070.094
       240   03 Jun 2027 09:45:15.145   03 Jun 2027 09:46:20.690            65.545              Murmansk1          2048.281
       241   03 Jun 2027 09:46:20.690   03 Jun 2027 09:48:48.335           147.645              Murmansk2          4613.906
       242   03 Jun 2027 09:48:48.335   03 Jun 2027 09:49:11.884            23.549              Murmansk1           735.906
       243   03 Jun 2027 10:25:38.837   03 Jun 2027 10:25:51.808            12.971            RioGallegos           405.344
       244   03 Jun 2027 10:26:58.003   03 Jun 2027 10:27:26.473            28.470            RioGallegos           889.687
       245   03 Jun 2027 10:59:53.611   03 Jun 2027 11:00:19.593            25.982                Sumatra           811.938
       246   03 Jun 2027 11:06:36.070   03 Jun 2027 11:07:28.179            52.109                  Delhi          1628.406
       247   03 Jun 2027 11:20:54.111   03 Jun 2027 11:21:58.263            64.152              Murmansk1          2004.750
       248   03 Jun 2027 11:22:04.441   03 Jun 2027 11:22:26.652            22.211                Norilsk           694.094
       249   03 Jun 2027 11:22:28.280   03 Jun 2027 11:23:21.757            53.477                 Moscow          1671.156
       250   03 Jun 2027 11:23:32.344   03 Jun 2027 11:23:42.517            10.173                Novosib           317.906
       251   03 Jun 2027 11:23:43.971   03 Jun 2027 11:24:30.831            46.860                 Moscow          1464.375
       252   03 Jun 2027 12:45:26.265   03 Jun 2027 12:49:42.017           255.752                  Delhi          7992.250
       253   03 Jun 2027 12:53:43.907   03 Jun 2027 12:53:45.938             2.031                 Moscow            63.469
       254   03 Jun 2027 12:54:25.184   03 Jun 2027 12:57:04.313           159.129              Murmansk2          4972.781
       255   03 Jun 2027 14:07:17.901   03 Jun 2027 14:09:28.025           130.124               CapeTown          4066.375
       256   03 Jun 2027 14:12:40.654   03 Jun 2027 14:13:46.177            65.523               CapeTown          2047.594
       257   03 Jun 2027 14:28:23.850   03 Jun 2027 14:28:51.746            27.896                 Moscow           871.750
       258   03 Jun 2027 14:30:54.581   03 Jun 2027 14:32:21.953            87.372              Murmansk1          2730.375
       259   03 Jun 2027 14:33:43.218   03 Jun 2027 14:34:36.115            52.897              Murmansk2          1653.031
       260   03 Jun 2027 14:36:03.697   03 Jun 2027 14:37:35.706            92.009              Murmansk2          2875.281
       261   03 Jun 2027 14:45:53.975   03 Jun 2027 14:47:39.580           105.605                Anadyr1          3300.156
       262   03 Jun 2027 14:50:45.463   03 Jun 2027 14:51:25.806            40.343                Anadyr2          1260.719
       263   03 Jun 2027 16:08:31.386   03 Jun 2027 16:08:58.705            27.319                 Moscow           853.719
       264   03 Jun 2027 16:09:26.172   03 Jun 2027 16:10:27.475            61.303              Murmansk1          1915.719
       265   03 Jun 2027 16:11:37.533   03 Jun 2027 16:11:57.324            19.791              Murmansk2           618.469
       266   03 Jun 2027 16:13:22.680   03 Jun 2027 16:14:26.075            63.395              Murmansk1          1981.094
       267   03 Jun 2027 16:21:04.774   03 Jun 2027 16:23:14.388           129.614                Anadyr2          4050.438
       268   03 Jun 2027 16:23:14.424   03 Jun 2027 16:23:23.520             9.096                Anadyr1           284.250
       269   03 Jun 2027 16:25:59.736   03 Jun 2027 16:28:21.196           141.460               Magadan2          4420.625
       270   03 Jun 2027 17:52:22.583   03 Jun 2027 17:52:43.493            20.910              Murmansk1           653.438
       271   03 Jun 2027 17:56:56.351   03 Jun 2027 17:59:18.156           141.805                Anadyr1          4431.406
       272   03 Jun 2027 17:59:25.316   03 Jun 2027 18:00:50.918            85.602                Anadyr2          2675.062
       273   03 Jun 2027 18:00:56.864   03 Jun 2027 18:01:58.110            61.246               Magadan1          1913.937
       274   03 Jun 2027 18:03:20.916   03 Jun 2027 18:04:05.691            44.775               Magadan2          1399.219
       275   03 Jun 2027 18:04:38.200   03 Jun 2027 18:04:54.831            16.631               Magadan1           519.719
       276   03 Jun 2027 19:32:50.686   03 Jun 2027 19:34:50.127           119.441                Anadyr1          3732.531
       277   03 Jun 2027 19:34:56.174   03 Jun 2027 19:36:41.787           105.613                Anadyr2          3300.406
       278   03 Jun 2027 19:36:44.796   03 Jun 2027 19:38:17.119            92.323               Magadan2          2885.094
       279   03 Jun 2027 19:38:17.119   03 Jun 2027 19:40:06.896           109.777               Magadan1          3430.531
       280   03 Jun 2027 19:40:26.419   03 Jun 2027 19:41:04.621            38.202               Magadan1          1193.812
       281   03 Jun 2027 20:27:16.636   03 Jun 2027 20:30:33.231           196.595            RioGallegos          6143.594
       282   03 Jun 2027 21:10:41.810   03 Jun 2027 21:12:47.650           125.840                Norilsk          3932.500
       283   03 Jun 2027 21:13:06.415   03 Jun 2027 21:14:30.568            84.153               Magadan2          2629.781
       284   03 Jun 2027 21:14:51.599   03 Jun 2027 21:15:07.051            15.452                Irkutsk           482.875
       285   03 Jun 2027 21:16:07.129   03 Jun 2027 21:16:22.588            15.459                Irkutsk           483.094
       286   03 Jun 2027 21:16:33.565   03 Jun 2027 21:16:53.489            19.924                Irkutsk           622.625
       287   03 Jun 2027 21:17:24.310   03 Jun 2027 21:17:48.385            24.075                Novosib           752.344
       288   03 Jun 2027 21:18:23.050   03 Jun 2027 21:19:06.776            43.726                Novosib          1366.438
       289   03 Jun 2027 21:20:06.987   03 Jun 2027 21:21:03.266            56.279                Novosib          1758.719
       290   03 Jun 2027 21:28:35.812   03 Jun 2027 21:29:32.235            56.423                Sumatra          1763.219
       291   03 Jun 2027 21:31:16.669   03 Jun 2027 21:32:17.414            60.745                Sumatra          1898.281
       292   03 Jun 2027 22:43:56.572   03 Jun 2027 22:44:51.393            54.821                Anadyr1          1713.156
       293   03 Jun 2027 22:46:38.883   03 Jun 2027 22:47:02.273            23.390                Norilsk           730.938
       294   03 Jun 2027 22:47:16.657   03 Jun 2027 22:48:13.447            56.790               Magadan2          1774.688
       295   03 Jun 2027 22:48:13.447   03 Jun 2027 22:48:28.866            15.419               Magadan1           481.844
       296   03 Jun 2027 22:50:23.512   03 Jun 2027 22:50:34.938            11.426                Norilsk           357.063
       297   03 Jun 2027 22:50:38.279   03 Jun 2027 22:51:57.433            79.154                Novosib          2473.563
       298   03 Jun 2027 22:52:04.370   03 Jun 2027 22:52:24.863            20.493                Novosib           640.406
       299   03 Jun 2027 22:56:03.573   03 Jun 2027 22:56:32.530            28.957                Novosib           904.906
       300   03 Jun 2027 22:58:17.045   03 Jun 2027 22:59:19.968            62.923                Novosib          1966.344
       301   03 Jun 2027 23:00:09.347   03 Jun 2027 23:01:46.465            97.118                  Delhi          3034.938
       302   04 Jun 2027 00:16:40.297   04 Jun 2027 00:16:54.420            14.123                Anadyr2           441.344
       303   04 Jun 2027 00:17:22.335   04 Jun 2027 00:18:16.934            54.599                Anadyr2          1706.219
       304   04 Jun 2027 00:18:30.146   04 Jun 2027 00:18:34.137             3.991                Anadyr2           124.719
       305   04 Jun 2027 00:19:42.451   04 Jun 2027 00:19:58.828            16.377                Anadyr2           511.781
       306   04 Jun 2027 00:21:20.455   04 Jun 2027 00:21:46.524            26.069                Anadyr1           814.656
       307   04 Jun 2027 00:22:14.325   04 Jun 2027 00:22:31.079            16.754                Anadyr2           523.562
       308   04 Jun 2027 00:22:37.980   04 Jun 2027 00:22:51.456            13.476                Norilsk           421.125
       309   04 Jun 2027 00:23:04.006   04 Jun 2027 00:25:08.757           124.751               Magadan1          3898.469
       310   04 Jun 2027 00:25:10.960   04 Jun 2027 00:27:54.030           163.070              Murmansk1          5095.937
       311   04 Jun 2027 00:29:45.950   04 Jun 2027 00:31:07.814            81.864                 Moscow          2558.250
       312   04 Jun 2027 01:50:05.876   04 Jun 2027 01:52:48.497           162.621                Anadyr1          5081.906
       313   04 Jun 2027 01:53:11.658   04 Jun 2027 01:53:16.087             4.429                Anadyr1           138.406
       314   04 Jun 2027 01:53:17.635   04 Jun 2027 01:53:23.988             6.353                Anadyr2           198.531
       315   04 Jun 2027 01:55:07.844   04 Jun 2027 01:56:46.254            98.410               Magadan1          3075.312
       316   04 Jun 2027 01:58:25.078   04 Jun 2027 01:58:26.804             1.726                Norilsk            53.937
       317   04 Jun 2027 01:58:34.786   04 Jun 2027 01:59:12.459            37.673                Norilsk          1177.281
       318   04 Jun 2027 01:59:50.395   04 Jun 2027 02:00:03.493            13.098                Norilsk           409.313
       319   04 Jun 2027 02:00:45.844   04 Jun 2027 02:02:03.696            77.852              Murmansk2          2432.875
       320   04 Jun 2027 02:03:24.172   04 Jun 2027 02:05:29.472           125.300                Novosib          3915.625
       321   04 Jun 2027 02:28:23.862   04 Jun 2027 02:28:57.775            33.913               CapeTown          1059.781
       322   04 Jun 2027 02:35:00.539   04 Jun 2027 02:35:54.439            53.900               CapeTown          1684.375
       323   04 Jun 2027 03:31:51.967   04 Jun 2027 03:35:46.338           234.371                Anadyr1          7324.094
       324   04 Jun 2027 03:43:59.918   04 Jun 2027 03:44:52.491            52.573                Norilsk          1642.906
       325   04 Jun 2027 05:06:14.741   04 Jun 2027 05:07:13.035            58.294                Anadyr1          1821.687
       326   04 Jun 2027 05:07:24.757   04 Jun 2027 05:08:27.070            62.313               Magadan1          1947.281
       327   04 Jun 2027 05:08:48.442   04 Jun 2027 05:09:48.074            59.632                Norilsk          1863.500
       328   04 Jun 2027 05:09:50.900   04 Jun 2027 05:12:33.894           162.994               Magadan2          5093.562
       329   04 Jun 2027 05:12:35.781   04 Jun 2027 05:12:56.126            20.345              Murmansk2           635.781
       330   04 Jun 2027 05:13:19.123   04 Jun 2027 05:13:26.432             7.309                Anadyr1           228.406
       331   04 Jun 2027 05:53:56.096   04 Jun 2027 05:54:38.232            42.136            RioGallegos          1316.750
       332   04 Jun 2027 06:43:08.843   04 Jun 2027 06:43:41.037            32.194                Norilsk          1006.062
       333   04 Jun 2027 06:43:46.614   04 Jun 2027 06:44:12.648            26.034                Norilsk           813.562
       334   04 Jun 2027 06:44:14.987   04 Jun 2027 06:46:02.331           107.344               Magadan2          3354.500
       335   04 Jun 2027 06:46:14.727   04 Jun 2027 06:46:59.106            44.379               Magadan2          1386.844
       336   04 Jun 2027 06:46:59.106   04 Jun 2027 06:47:01.294             2.188               Magadan1            68.375
       337   04 Jun 2027 06:47:09.888   04 Jun 2027 06:47:57.858            47.970                Novosib          1499.062
       338   04 Jun 2027 06:48:04.645   04 Jun 2027 06:48:24.804            20.159              Murmansk2           629.969
       339   04 Jun 2027 06:49:16.576   04 Jun 2027 06:49:34.949            18.373                Norilsk           574.156
       340   04 Jun 2027 06:49:46.568   04 Jun 2027 06:49:59.645            13.077                Norilsk           408.656
       341   04 Jun 2027 07:24:44.274   04 Jun 2027 07:25:52.661            68.387            RioGallegos          2137.094
       342   04 Jun 2027 08:18:15.460   04 Jun 2027 08:19:27.516            72.056               Magadan1          2251.750
       343   04 Jun 2027 08:19:29.900   04 Jun 2027 08:20:21.580            51.680               Magadan1          1615.000
       344   04 Jun 2027 08:20:32.284   04 Jun 2027 08:22:07.940            95.656               Magadan2          2989.250
       345   04 Jun 2027 08:22:18.993   04 Jun 2027 08:22:23.147             4.154                Norilsk           129.812
       346   04 Jun 2027 08:22:28.542   04 Jun 2027 08:22:29.004             0.462                Irkutsk            14.438
       347   04 Jun 2027 08:22:37.563   04 Jun 2027 08:23:41.056            63.493                Norilsk          1984.156
       348   04 Jun 2027 08:23:52.572   04 Jun 2027 08:24:09.462            16.890                Norilsk           527.812
       349   04 Jun 2027 08:24:10.555   04 Jun 2027 08:24:31.363            20.808              Murmansk1           650.250
       350   04 Jun 2027 08:24:31.363   04 Jun 2027 08:25:05.840            34.477              Murmansk2          1077.406
       351   04 Jun 2027 08:25:28.242   04 Jun 2027 08:25:59.704            31.462                Novosib           983.187
       352   04 Jun 2027 08:59:31.507   04 Jun 2027 09:00:44.414            72.907            RioGallegos          2278.344
       353   04 Jun 2027 09:34:31.056   04 Jun 2027 09:35:24.770            53.714                Sumatra          1678.562
       354   04 Jun 2027 09:46:24.093   04 Jun 2027 09:47:52.727            88.634                  Delhi          2769.812
       355   04 Jun 2027 09:55:01.968   04 Jun 2027 09:55:42.836            40.868                Novosib          1277.125
       356   04 Jun 2027 09:55:53.993   04 Jun 2027 09:56:53.652            59.659                Irkutsk          1864.344
       357   04 Jun 2027 09:56:59.408   04 Jun 2027 09:57:06.029             6.621                Norilsk           206.906
       358   04 Jun 2027 09:57:28.425   04 Jun 2027 09:57:48.370            19.945                Novosib           623.281
       359   04 Jun 2027 09:57:50.105   04 Jun 2027 09:58:22.184            32.079              Murmansk1          1002.469
       360   04 Jun 2027 09:58:25.645   04 Jun 2027 09:58:57.213            31.568                Novosib           986.500
       361   04 Jun 2027 09:58:59.534   04 Jun 2027 10:00:10.363            70.829                Irkutsk          2213.406
       362   04 Jun 2027 10:00:15.000   04 Jun 2027 10:00:20.412             5.412              Murmansk2           169.125
       363   04 Jun 2027 10:00:26.295   04 Jun 2027 10:00:36.224             9.929              Murmansk2           310.281
       364   04 Jun 2027 10:01:33.077   04 Jun 2027 10:02:08.331            35.254              Murmansk2          1101.687
       365   04 Jun 2027 10:38:22.777   04 Jun 2027 10:39:00.910            38.133            RioGallegos          1191.656
       366   04 Jun 2027 10:40:12.476   04 Jun 2027 10:40:24.448            11.972            RioGallegos           374.125
       367   04 Jun 2027 10:40:52.133   04 Jun 2027 10:41:43.994            51.861            RioGallegos          1620.656
       368   04 Jun 2027 11:13:04.019   04 Jun 2027 11:14:30.196            86.177                Sumatra          2693.031
       369   04 Jun 2027 11:32:32.335   04 Jun 2027 11:33:57.436            85.101              Murmansk1          2659.406
       370   04 Jun 2027 11:34:07.109   04 Jun 2027 11:35:30.506            83.397                 Moscow          2606.156
       371   04 Jun 2027 11:35:39.602   04 Jun 2027 11:35:46.264             6.662                Novosib           208.187
       372   04 Jun 2027 11:35:49.800   04 Jun 2027 11:36:00.120            10.320                 Moscow           322.500
       373   04 Jun 2027 11:36:06.956   04 Jun 2027 11:36:13.805             6.849              Murmansk1           214.031
       374   04 Jun 2027 11:36:13.805   04 Jun 2027 11:36:55.686            41.881              Murmansk2          1308.781
       375   04 Jun 2027 12:59:02.321   04 Jun 2027 13:01:19.091           136.770                  Delhi          4274.062
       376   04 Jun 2027 13:01:59.828   04 Jun 2027 13:02:31.188            31.360                  Delhi           980.000
       377   04 Jun 2027 13:04:34.087   04 Jun 2027 13:04:55.341            21.254                 Moscow           664.187
       378   04 Jun 2027 13:05:54.085   04 Jun 2027 13:06:53.577            59.492                 Moscow          1859.125
       379   04 Jun 2027 13:07:36.017   04 Jun 2027 13:08:37.166            61.149              Murmansk1          1910.906
       380   04 Jun 2027 13:08:58.631   04 Jun 2027 13:09:50.219            51.588              Murmansk2          1612.125
       381   04 Jun 2027 13:12:10.861   04 Jun 2027 13:12:11.263             0.402                Norilsk            12.563
       382   04 Jun 2027 13:12:11.630   04 Jun 2027 13:12:34.937            23.307              Murmansk2           728.344
       383   04 Jun 2027 13:12:48.108   04 Jun 2027 13:13:50.017            61.909                Norilsk          1934.656
       384   04 Jun 2027 14:18:26.345   04 Jun 2027 14:21:07.507           161.162               CapeTown          5036.312
       385   04 Jun 2027 14:24:06.905   04 Jun 2027 14:24:32.700            25.795               CapeTown           806.094
       386   04 Jun 2027 14:26:00.046   04 Jun 2027 14:26:01.846             1.800               CapeTown            56.250
       387   04 Jun 2027 14:43:08.074   04 Jun 2027 14:44:19.292            71.218              Murmansk1          2225.563
       388   04 Jun 2027 14:44:19.292   04 Jun 2027 14:45:12.531            53.239              Murmansk2          1663.719
       389   04 Jun 2027 14:47:41.299   04 Jun 2027 14:48:03.248            21.949              Murmansk2           685.906
       390   04 Jun 2027 14:51:51.991   04 Jun 2027 14:52:03.951            11.960              Murmansk2           373.750
       391   04 Jun 2027 14:57:43.465   04 Jun 2027 15:00:14.302           150.837                Anadyr2          4713.656
       392   04 Jun 2027 15:03:08.286   04 Jun 2027 15:03:50.583            42.297                Anadyr2          1321.781
       393   04 Jun 2027 16:01:20.089   04 Jun 2027 16:02:02.182            42.093               CapeTown          1315.406
       394   04 Jun 2027 16:21:58.148   04 Jun 2027 16:23:17.689            79.541              Murmansk2          2485.656
       395   04 Jun 2027 16:23:38.723   04 Jun 2027 16:24:35.857            57.134              Murmansk1          1785.437
       396   04 Jun 2027 16:33:04.718   04 Jun 2027 16:35:11.633           126.915                Anadyr2          3966.094
       397   04 Jun 2027 16:37:07.635   04 Jun 2027 16:37:41.171            33.536                Anadyr1          1048.000
       398   04 Jun 2027 16:38:43.902   04 Jun 2027 16:40:05.741            81.839               Magadan2          2557.469
       399   04 Jun 2027 16:40:15.328   04 Jun 2027 16:40:48.847            33.519               Magadan1          1047.469
       400   04 Jun 2027 16:40:58.614   04 Jun 2027 16:41:56.103            57.489               Magadan1          1796.531
       401   04 Jun 2027 18:08:57.835   04 Jun 2027 18:11:18.676           140.841                Anadyr2          4401.281
       402   04 Jun 2027 18:11:24.257   04 Jun 2027 18:13:48.035           143.778               Magadan2          4493.063
       403   04 Jun 2027 18:15:10.101   04 Jun 2027 18:16:34.370            84.269               Magadan2          2633.406
       404   04 Jun 2027 19:44:51.114   04 Jun 2027 19:46:51.503           120.389                Anadyr2          3762.156
       405   04 Jun 2027 19:46:52.645   04 Jun 2027 19:48:41.222           108.577                Anadyr1          3393.031
       406   04 Jun 2027 19:48:53.386   04 Jun 2027 19:50:35.102           101.716               Magadan2          3178.625
       407   04 Jun 2027 19:51:29.642   04 Jun 2027 19:52:06.838            37.196               Magadan2          1162.375
       408   04 Jun 2027 19:53:35.065   04 Jun 2027 19:53:42.848             7.783                Irkutsk           243.219
       409   04 Jun 2027 19:54:18.434   04 Jun 2027 19:55:49.319            90.885                Irkutsk          2840.156
       410   04 Jun 2027 19:56:22.922   04 Jun 2027 19:57:16.348            53.426                Irkutsk          1669.562
       411   04 Jun 2027 20:39:07.059   04 Jun 2027 20:39:51.043            43.984            RioGallegos          1374.500
       412   04 Jun 2027 20:40:25.344   04 Jun 2027 20:40:35.800            10.456            RioGallegos           326.750
       413   04 Jun 2027 20:41:02.608   04 Jun 2027 20:41:07.292             4.684            RioGallegos           146.375
       414   04 Jun 2027 20:48:10.501   04 Jun 2027 20:48:35.675            25.174            RioGallegos           786.688
       415   04 Jun 2027 21:20:35.863   04 Jun 2027 21:20:40.692             4.829                Anadyr2           150.906
       416   04 Jun 2027 21:20:49.038   04 Jun 2027 21:22:37.640           108.602                Anadyr2          3393.813
       417   04 Jun 2027 21:23:13.972   04 Jun 2027 21:24:27.496            73.524               Magadan2          2297.625
       418   04 Jun 2027 21:25:04.342   04 Jun 2027 21:25:41.330            36.988               Magadan1          1155.875
       419   04 Jun 2027 21:26:46.819   04 Jun 2027 21:28:11.084            84.265                Irkutsk          2633.281
       420   04 Jun 2027 21:28:36.974   04 Jun 2027 21:29:33.807            56.833                Novosib          1776.031
       421   04 Jun 2027 21:31:07.618   04 Jun 2027 21:31:13.931             6.313                Novosib           197.281
       422   04 Jun 2027 21:31:38.910   04 Jun 2027 21:32:13.091            34.181                Novosib          1068.156
       423   04 Jun 2027 21:32:53.120   04 Jun 2027 21:33:22.957            29.837                Novosib           932.406
       424   04 Jun 2027 21:40:27.768   04 Jun 2027 21:41:15.606            47.838                Sumatra          1494.937
       425   04 Jun 2027 21:48:28.757   04 Jun 2027 21:48:58.891            30.134                Sumatra           941.688
       426   04 Jun 2027 22:54:55.177   04 Jun 2027 22:55:42.709            47.532                Anadyr1          1485.375
       427   04 Jun 2027 22:58:40.926   04 Jun 2027 22:58:58.036            17.110                Norilsk           534.688
       428   04 Jun 2027 22:59:18.338   04 Jun 2027 23:00:27.634            69.296               Magadan1          2165.500
       429   04 Jun 2027 23:00:27.634   04 Jun 2027 23:00:50.068            22.434               Magadan2           701.062
       430   04 Jun 2027 23:01:44.397   04 Jun 2027 23:02:12.510            28.113               Magadan2           878.531
       431   04 Jun 2027 23:02:34.409   04 Jun 2027 23:03:17.939            43.530                Irkutsk          1360.313
       432   04 Jun 2027 23:03:28.971   04 Jun 2027 23:04:01.879            32.908                Novosib          1028.375
       433   04 Jun 2027 23:04:06.303   04 Jun 2027 23:05:01.532            55.229                Novosib          1725.906
       434   04 Jun 2027 23:07:53.285   04 Jun 2027 23:07:57.596             4.311                Novosib           134.719
       435   04 Jun 2027 23:10:09.905   04 Jun 2027 23:12:33.534           143.629                  Delhi          4488.406
       436   05 Jun 2027 00:28:21.309   05 Jun 2027 00:28:43.875            22.566                Anadyr1           705.187
       437   05 Jun 2027 00:29:23.399   05 Jun 2027 00:30:49.631            86.232                Anadyr2          2694.750
       438   05 Jun 2027 00:33:47.857   05 Jun 2027 00:33:59.843            11.986                Anadyr2           374.562
       439   05 Jun 2027 00:34:30.048   05 Jun 2027 00:37:09.084           159.036               Magadan2          4969.875
       440   05 Jun 2027 00:37:10.090   05 Jun 2027 00:39:14.629           124.539              Murmansk2          3891.844
       441   05 Jun 2027 00:41:21.373   05 Jun 2027 00:42:51.152            89.779                 Moscow          2805.594
       442   05 Jun 2027 00:52:08.267   05 Jun 2027 00:52:33.105            24.838                  Delhi           776.188
       443   05 Jun 2027 01:10:28.304   05 Jun 2027 01:10:45.547            17.243               CapeTown           538.844
       444   05 Jun 2027 01:11:01.010   05 Jun 2027 01:12:02.997            61.987               CapeTown          1937.094
       445   05 Jun 2027 02:01:52.191   05 Jun 2027 02:02:10.737            18.546                Anadyr2           579.562
       446   05 Jun 2027 02:02:21.206   05 Jun 2027 02:02:34.192            12.986                Anadyr1           405.813
       447   05 Jun 2027 02:02:55.895   05 Jun 2027 02:03:36.619            40.724                Anadyr2          1272.625
       448   05 Jun 2027 02:04:31.889   05 Jun 2027 02:05:04.398            32.509                Anadyr2          1015.906
       449   05 Jun 2027 02:06:35.744   05 Jun 2027 02:07:55.325            79.581               Magadan2          2486.906
       450   05 Jun 2027 02:10:23.828   05 Jun 2027 02:10:54.091            30.263                Norilsk           945.719
       451   05 Jun 2027 02:12:47.438   05 Jun 2027 02:14:20.803            93.365              Murmansk1          2917.656
       452   05 Jun 2027 02:14:57.001   05 Jun 2027 02:15:31.934            34.933                Novosib          1091.656
       453   05 Jun 2027 02:18:15.689   05 Jun 2027 02:18:48.366            32.677                Novosib          1021.156
       454   05 Jun 2027 02:23:13.691   05 Jun 2027 02:23:25.207            11.516                 Moscow           359.875
       455   05 Jun 2027 02:25:39.214   05 Jun 2027 02:27:08.746            89.532                 Moscow          2797.875
       456   05 Jun 2027 02:48:07.699   05 Jun 2027 02:48:30.920            23.221               CapeTown           725.656
       457   05 Jun 2027 03:43:53.342   05 Jun 2027 03:46:45.021           171.679                Anadyr1          5364.969
       458   05 Jun 2027 03:46:45.021   05 Jun 2027 03:47:47.281            62.260                Anadyr2          1945.625
       459   05 Jun 2027 03:47:47.281   05 Jun 2027 03:48:06.669            19.388                Anadyr1           605.875
       460   05 Jun 2027 03:48:28.625   05 Jun 2027 03:49:28.228            59.603                Anadyr1          1862.594
       461   05 Jun 2027 05:19:05.099   05 Jun 2027 05:21:16.629           131.530                Anadyr2          4110.312
       462   05 Jun 2027 05:21:27.060   05 Jun 2027 05:21:32.173             5.113               Magadan1           159.781
       463   05 Jun 2027 05:21:38.889   05 Jun 2027 05:25:08.787           209.898                Anadyr1          6559.312
       464   05 Jun 2027 05:25:08.787   05 Jun 2027 05:25:26.471            17.684                Anadyr2           552.625
       465   05 Jun 2027 06:53:39.734   05 Jun 2027 06:54:02.680            22.946                Irkutsk           717.062
       466   05 Jun 2027 06:54:11.461   05 Jun 2027 06:54:47.503            36.042                Anadyr2          1126.312
       467   05 Jun 2027 06:55:11.518   05 Jun 2027 06:57:56.578           165.060                Irkutsk          5158.125
       468   05 Jun 2027 06:57:59.533   05 Jun 2027 06:59:32.191            92.658                Anadyr1          2895.562
       469   05 Jun 2027 07:00:07.613   05 Jun 2027 07:00:48.114            40.501                Novosib          1265.656
       470   05 Jun 2027 07:36:25.849   05 Jun 2027 07:38:01.483            95.634            RioGallegos          2988.563
       471   05 Jun 2027 08:29:54.325   05 Jun 2027 08:29:59.510             5.185                Novosib           162.031
       472   05 Jun 2027 08:30:05.097   05 Jun 2027 08:30:42.430            37.333                Novosib          1166.656
       473   05 Jun 2027 08:30:45.692   05 Jun 2027 08:31:13.078            27.386                Irkutsk           855.812
       474   05 Jun 2027 08:31:21.267   05 Jun 2027 08:31:40.094            18.827                Norilsk           588.344
       475   05 Jun 2027 08:31:56.453   05 Jun 2027 08:31:59.290             2.837                Irkutsk            88.656
       476   05 Jun 2027 08:32:04.738   05 Jun 2027 08:32:07.224             2.486                Norilsk            77.687
       477   05 Jun 2027 08:32:25.352   05 Jun 2027 08:32:32.722             7.370               Magadan2           230.313
       478   05 Jun 2027 08:32:51.867   05 Jun 2027 08:32:57.040             5.173                Norilsk           161.656
       479   05 Jun 2027 08:32:59.495   05 Jun 2027 08:33:06.291             6.796               Magadan1           212.375
       480   05 Jun 2027 08:33:07.151   05 Jun 2027 08:33:35.156            28.005                Norilsk           875.156
       481   05 Jun 2027 08:33:36.899   05 Jun 2027 08:35:04.103            87.204               Magadan1          2725.125
       482   05 Jun 2027 08:35:10.852   05 Jun 2027 08:35:52.454            41.602                Irkutsk          1300.062
