uniorb/output/strategy_1/Drop/Drop_KinoSat_111904.txt

KinoSat_111904
-------------------------
    Access    *     Start Time (UTCG)     *     Stop Time (UTCG)  *   Duration (s)        *       Station  *  Data (Mbytes)
         1   01 Jun 2027 03:11:17.700   01 Jun 2027 03:11:50.304            32.604               Magadan1          1018.875
         2   01 Jun 2027 03:12:36.341   01 Jun 2027 03:14:07.679            91.338                Irkutsk          2854.313
         3   01 Jun 2027 03:14:08.060   01 Jun 2027 03:14:25.796            17.736                Novosib           554.250
         4   01 Jun 2027 03:14:39.544   01 Jun 2027 03:19:01.956           262.412                Irkutsk          8200.375
         5   01 Jun 2027 04:00:01.085   01 Jun 2027 04:00:47.598            46.513            RioGallegos          1453.531
         6   01 Jun 2027 04:03:08.146   01 Jun 2027 04:03:35.308            27.162            RioGallegos           848.813
         7   01 Jun 2027 04:50:13.539   01 Jun 2027 04:50:17.395             3.856              Murmansk2           120.500
         8   01 Jun 2027 04:50:30.644   01 Jun 2027 04:53:11.514           160.870                Novosib          5027.187
         9   01 Jun 2027 04:53:18.369   01 Jun 2027 04:54:34.886            76.517                Novosib          2391.156
        10   01 Jun 2027 04:54:56.023   01 Jun 2027 04:56:06.413            70.390                Novosib          2199.688
        11   01 Jun 2027 04:56:50.487   01 Jun 2027 05:00:48.626           238.139                  Delhi          7441.844
        12   01 Jun 2027 06:29:42.744   01 Jun 2027 06:31:18.823            96.079              Murmansk1          3002.469
        13   01 Jun 2027 06:32:28.157   01 Jun 2027 06:32:40.537            12.380              Murmansk1           386.875
        14   01 Jun 2027 06:33:12.659   01 Jun 2027 06:33:25.740            13.081              Murmansk1           408.781
        15   01 Jun 2027 06:47:45.232   01 Jun 2027 06:50:35.290           170.058               CapeTown          5314.312
        16   01 Jun 2027 07:51:35.482   01 Jun 2027 07:52:55.273            79.791                Anadyr1          2493.469
        17   01 Jun 2027 07:55:21.117   01 Jun 2027 07:57:20.410           119.293                Anadyr1          3727.906
        18   01 Jun 2027 09:28:24.781   01 Jun 2027 09:29:02.093            37.312               Magadan1          1166.000
        19   01 Jun 2027 09:29:02.093   01 Jun 2027 09:32:57.604           235.511               Magadan2          7359.719
        20   01 Jun 2027 11:02:29.235   01 Jun 2027 11:05:38.326           189.091               Magadan1          5909.094
        21   01 Jun 2027 11:07:16.241   01 Jun 2027 11:08:21.722            65.481                Irkutsk          2046.281
        22   01 Jun 2027 11:08:25.188   01 Jun 2027 11:08:29.033             3.845               Magadan2           120.156
        23   01 Jun 2027 12:32:58.536   01 Jun 2027 12:35:01.546           123.010                Irkutsk          3844.063
        24   01 Jun 2027 13:20:27.582   01 Jun 2027 13:21:14.259            46.677            RioGallegos          1458.656
        25   01 Jun 2027 13:22:11.033   01 Jun 2027 13:25:30.952           199.919            RioGallegos          6247.469
        26   01 Jun 2027 13:30:24.801   01 Jun 2027 13:31:39.040            74.239            RioGallegos          2319.969
        27   01 Jun 2027 13:54:43.058   01 Jun 2027 13:56:51.180           128.122                Sumatra          4003.812
        28   01 Jun 2027 13:59:27.447   01 Jun 2027 13:59:57.078            29.631                Sumatra           925.969
        29   01 Jun 2027 14:04:38.334   01 Jun 2027 14:06:00.976            82.642                Sumatra          2582.562
        30   01 Jun 2027 14:09:55.964   01 Jun 2027 14:12:46.663           170.699                Irkutsk          5334.344
        31   01 Jun 2027 14:14:45.954   01 Jun 2027 14:15:23.584            37.630                Irkutsk          1175.937
        32   01 Jun 2027 14:15:49.021   01 Jun 2027 14:16:17.142            28.121                Irkutsk           878.781
        33   01 Jun 2027 15:39:38.701   01 Jun 2027 15:45:45.415           366.714                  Delhi         11459.812
        34   01 Jun 2027 15:48:02.659   01 Jun 2027 15:50:39.671           157.012                Novosib          4906.625
        35   01 Jun 2027 15:53:41.164   01 Jun 2027 15:54:11.919            30.755                Novosib           961.094
        36   01 Jun 2027 17:33:08.956   01 Jun 2027 17:36:20.790           191.834                Norilsk          5994.813
        37   01 Jun 2027 19:02:10.153   01 Jun 2027 19:06:36.917           266.764                 Moscow          8336.375
        38   01 Jun 2027 20:12:52.431   01 Jun 2027 20:13:35.692            43.261               CapeTown          1351.906
        39   01 Jun 2027 20:14:13.615   01 Jun 2027 20:14:39.250            25.635               CapeTown           801.094
        40   01 Jun 2027 20:15:46.371   01 Jun 2027 20:17:13.935            87.564               CapeTown          2736.375
        41   01 Jun 2027 20:23:04.734   01 Jun 2027 20:23:24.144            19.410               CapeTown           606.563
        42   01 Jun 2027 20:45:07.188   01 Jun 2027 20:50:22.052           314.864              Murmansk1          9839.500
        43   01 Jun 2027 22:28:45.497   01 Jun 2027 22:31:49.202           183.705                Anadyr2          5740.781
        44   01 Jun 2027 22:31:50.976   01 Jun 2027 22:32:54.040            63.064               Magadan2          1970.750
        45   01 Jun 2027 22:33:05.348   01 Jun 2027 22:34:17.056            71.708               Magadan1          2240.875
        46   01 Jun 2027 22:34:59.272   01 Jun 2027 22:35:21.225            21.953               Magadan1           686.031
        47   01 Jun 2027 22:35:36.712   01 Jun 2027 22:36:27.437            50.725               Magadan2          1585.156
        48   01 Jun 2027 23:23:40.406   01 Jun 2027 23:26:54.172           193.766            RioGallegos          6055.188
        49   02 Jun 2027 00:04:29.379   02 Jun 2027 00:05:38.853            69.474                Anadyr1          2171.063
        50   02 Jun 2027 00:05:39.501   02 Jun 2027 00:05:53.032            13.531                Anadyr2           422.844
        51   02 Jun 2027 00:06:34.962   02 Jun 2027 00:09:28.648           173.686                Norilsk          5427.688
        52   02 Jun 2027 00:09:38.956   02 Jun 2027 00:10:06.568            27.612                Norilsk           862.875
        53   02 Jun 2027 00:10:42.421   02 Jun 2027 00:11:19.438            37.017               Magadan2          1156.781
        54   02 Jun 2027 00:11:26.043   02 Jun 2027 00:11:52.846            26.803                Irkutsk           837.594
        55   02 Jun 2027 00:13:10.203   02 Jun 2027 00:13:17.846             7.643                Irkutsk           238.844
        56   02 Jun 2027 00:25:07.265   02 Jun 2027 00:28:14.869           187.604                Sumatra          5862.625
        57   02 Jun 2027 00:31:48.862   02 Jun 2027 00:31:51.254             2.392                Sumatra            74.750
        58   02 Jun 2027 00:58:28.292   02 Jun 2027 00:59:26.844            58.552            RioGallegos          1829.750
        59   02 Jun 2027 01:00:57.294   02 Jun 2027 01:01:40.422            43.128            RioGallegos          1347.750
        60   02 Jun 2027 01:39:29.909   02 Jun 2027 01:39:38.931             9.022                Anadyr1           281.937
        61   02 Jun 2027 01:39:50.285   02 Jun 2027 01:40:16.050            25.765                Anadyr2           805.156
        62   02 Jun 2027 01:40:48.746   02 Jun 2027 01:41:40.058            51.312                Anadyr2          1603.500
        63   02 Jun 2027 01:41:51.001   02 Jun 2027 01:42:13.357            22.356                Anadyr2           698.625
        64   02 Jun 2027 01:42:55.720   02 Jun 2027 01:44:24.047            88.327                Norilsk          2760.219
        65   02 Jun 2027 01:44:53.705   02 Jun 2027 01:45:09.142            15.437               Magadan2           482.406
        66   02 Jun 2027 01:46:22.240   02 Jun 2027 01:49:40.437           198.197                Irkutsk          6193.656
        67   02 Jun 2027 01:55:04.041   02 Jun 2027 01:55:51.564            47.523                  Delhi          1485.094
        68   02 Jun 2027 02:00:55.672   02 Jun 2027 02:04:50.050           234.378                Sumatra          7324.312
        69   02 Jun 2027 03:23:00.239   02 Jun 2027 03:23:19.058            18.819               Magadan1           588.094
        70   02 Jun 2027 03:24:36.375   02 Jun 2027 03:27:37.048           180.673                Irkutsk          5646.031
        71   02 Jun 2027 03:27:38.640   02 Jun 2027 03:29:22.178           103.538                Norilsk          3235.562
        72   02 Jun 2027 03:29:41.116   02 Jun 2027 03:31:07.387            86.271                  Delhi          2695.969
        73   02 Jun 2027 03:31:20.469   02 Jun 2027 03:32:15.416            54.947                Irkutsk          1717.094
        74   02 Jun 2027 04:12:38.968   02 Jun 2027 04:13:09.830            30.862            RioGallegos           964.438
        75   02 Jun 2027 04:13:53.354   02 Jun 2027 04:16:13.791           140.437            RioGallegos          4388.656
        76   02 Jun 2027 05:02:18.269   02 Jun 2027 05:02:57.379            39.110              Murmansk1          1222.188
        77   02 Jun 2027 05:03:02.109   02 Jun 2027 05:04:54.187           112.078                Novosib          3502.438
        78   02 Jun 2027 05:04:58.090   02 Jun 2027 05:06:46.602           108.512                Norilsk          3391.000
        79   02 Jun 2027 05:06:51.731   02 Jun 2027 05:08:13.042            81.311                Novosib          2540.969
        80   02 Jun 2027 06:40:15.208   02 Jun 2027 06:40:54.662            39.454                 Moscow          1232.937
        81   02 Jun 2027 06:41:08.808   02 Jun 2027 06:42:12.257            63.449              Murmansk1          1982.781
        82   02 Jun 2027 06:42:12.257   02 Jun 2027 06:43:16.606            64.349              Murmansk2          2010.906
        83   02 Jun 2027 06:45:26.025   02 Jun 2027 06:45:48.429            22.404                 Moscow           700.125
        84   02 Jun 2027 06:59:57.107   02 Jun 2027 07:02:46.082           168.975               CapeTown          5280.469
        85   02 Jun 2027 08:03:42.213   02 Jun 2027 08:05:00.129            77.916               Magadan2          2434.875
        86   02 Jun 2027 08:05:01.897   02 Jun 2027 08:05:50.807            48.910                Anadyr1          1528.438
        87   02 Jun 2027 08:06:23.025   02 Jun 2027 08:07:21.009            57.984                Anadyr2          1812.000
        88   02 Jun 2027 09:39:04.079   02 Jun 2027 09:40:18.459            74.380                Anadyr1          2324.375
        89   02 Jun 2027 09:41:10.115   02 Jun 2027 09:42:25.205            75.090                Anadyr2          2346.563
        90   02 Jun 2027 09:43:37.437   02 Jun 2027 09:44:58.651            81.214               Magadan2          2537.938
        91   02 Jun 2027 11:10:17.014   02 Jun 2027 11:10:46.625            29.611               Magadan1           925.344
        92   02 Jun 2027 11:15:07.864   02 Jun 2027 11:20:07.613           299.749               Magadan1          9367.156
        93   02 Jun 2027 11:20:19.420   02 Jun 2027 11:20:22.375             2.955               Magadan2            92.344
        94   02 Jun 2027 14:26:42.019   02 Jun 2027 14:27:11.213            29.194                Irkutsk           912.312
        95   02 Jun 2027 15:52:21.336   02 Jun 2027 15:54:06.273           104.937                  Delhi          3279.281
        96   02 Jun 2027 16:00:50.663   02 Jun 2027 16:05:14.365           263.702                Novosib          8240.688
        97   02 Jun 2027 19:15:06.853   02 Jun 2027 19:19:16.920           250.067                 Moscow          7814.594
        98   02 Jun 2027 19:21:12.991   02 Jun 2027 19:21:54.347            41.356                 Moscow          1292.375
        99   02 Jun 2027 20:25:14.160   02 Jun 2027 20:27:17.386           123.226               CapeTown          3850.813
       100   02 Jun 2027 20:27:33.438   02 Jun 2027 20:28:50.432            76.994               CapeTown          2406.063
       101   02 Jun 2027 20:30:22.518   02 Jun 2027 20:30:36.938            14.420               CapeTown           450.625
       102   02 Jun 2027 20:58:10.373   02 Jun 2027 21:02:02.622           232.249              Murmansk1          7257.781
       103   02 Jun 2027 22:40:46.848   02 Jun 2027 22:44:10.433           203.585                Anadyr2          6362.031
       104   02 Jun 2027 22:44:12.909   02 Jun 2027 22:46:21.880           128.971               Magadan2          4030.344
       105   02 Jun 2027 22:46:40.571   02 Jun 2027 22:46:52.703            12.132               Magadan2           379.125
       106   02 Jun 2027 22:47:34.112   02 Jun 2027 22:48:18.975            44.863               Magadan1          1401.969
       107   02 Jun 2027 23:35:23.751   02 Jun 2027 23:38:08.371           164.620            RioGallegos          5144.375
       108   02 Jun 2027 23:40:51.882   02 Jun 2027 23:41:40.433            48.551            RioGallegos          1517.219
       109   03 Jun 2027 00:16:27.339   03 Jun 2027 00:17:36.692            69.353                Anadyr2          2167.281
       110   03 Jun 2027 00:17:43.120   03 Jun 2027 00:17:48.424             5.304                Anadyr2           165.750
       111   03 Jun 2027 00:17:54.842   03 Jun 2027 00:18:44.741            49.899                Anadyr2          1559.344
       112   03 Jun 2027 00:19:05.426   03 Jun 2027 00:21:36.079           150.653               Magadan2          4707.906
       113   03 Jun 2027 00:21:45.571   03 Jun 2027 00:22:10.846            25.275               Magadan2           789.844
       114   03 Jun 2027 00:22:53.074   03 Jun 2027 00:24:17.909            84.835                Irkutsk          2651.094
       115   03 Jun 2027 00:25:38.771   03 Jun 2027 00:26:19.834            41.063                Novosib          1283.219
       116   03 Jun 2027 00:26:45.264   03 Jun 2027 00:27:07.230            21.966                Novosib           686.437
       117   03 Jun 2027 00:33:50.516   03 Jun 2027 00:33:53.518             3.002                Irkutsk            93.812
       118   03 Jun 2027 00:36:46.090   03 Jun 2027 00:38:39.297           113.207                Sumatra          3537.719
       119   03 Jun 2027 00:39:00.715   03 Jun 2027 00:39:54.186            53.471                Sumatra          1670.969
       120   03 Jun 2027 00:48:34.504   03 Jun 2027 00:48:48.826            14.322                Sumatra           447.562
       121   03 Jun 2027 01:10:28.862   03 Jun 2027 01:10:54.776            25.914            RioGallegos           809.813
       122   03 Jun 2027 01:12:05.699   03 Jun 2027 01:12:32.913            27.214            RioGallegos           850.438
       123   03 Jun 2027 01:14:27.698   03 Jun 2027 01:14:41.921            14.223            RioGallegos           444.469
       124   03 Jun 2027 01:16:11.750   03 Jun 2027 01:16:32.297            20.547            RioGallegos           642.094
       125   03 Jun 2027 01:51:19.433   03 Jun 2027 01:52:28.122            68.689                Anadyr1          2146.531
       126   03 Jun 2027 01:52:48.566   03 Jun 2027 01:53:31.632            43.066                Anadyr1          1345.812
       127   03 Jun 2027 01:54:32.025   03 Jun 2027 01:55:46.367            74.342                Norilsk          2323.188
       128   03 Jun 2027 01:56:03.044   03 Jun 2027 01:56:11.512             8.468                Norilsk           264.625
       129   03 Jun 2027 01:56:55.726   03 Jun 2027 01:57:42.928            47.202               Magadan1          1475.063
       130   03 Jun 2027 01:58:24.564   03 Jun 2027 02:00:36.856           132.292                Irkutsk          4134.125
       131   03 Jun 2027 02:06:37.841   03 Jun 2027 02:07:34.405            56.564                  Delhi          1767.625
       132   03 Jun 2027 02:09:37.208   03 Jun 2027 02:09:48.570            11.362                  Delhi           355.062
       133   03 Jun 2027 02:10:41.149   03 Jun 2027 02:11:05.343            24.194                  Delhi           756.062
       134   03 Jun 2027 02:13:28.566   03 Jun 2027 02:15:41.514           132.948                Sumatra          4154.625
       135   03 Jun 2027 02:46:48.487   03 Jun 2027 02:48:13.126            84.639            RioGallegos          2644.969
       136   03 Jun 2027 02:49:48.175   03 Jun 2027 02:50:11.707            23.532            RioGallegos           735.375
       137   03 Jun 2027 02:56:29.962   03 Jun 2027 02:57:30.968            61.006            RioGallegos          1906.438
       138   03 Jun 2027 03:36:08.666   03 Jun 2027 03:36:39.250            30.584              Murmansk1           955.750
       139   03 Jun 2027 03:36:39.640   03 Jun 2027 03:39:43.122           183.482                Irkutsk          5733.812
       140   03 Jun 2027 03:39:52.204   03 Jun 2027 03:40:02.842            10.638                Norilsk           332.437
       141   03 Jun 2027 03:40:02.923   03 Jun 2027 03:40:24.212            21.289              Murmansk2           665.281
       142   03 Jun 2027 03:40:31.214   03 Jun 2027 03:44:36.820           245.606                Irkutsk          7675.187
       143   03 Jun 2027 05:15:12.611   03 Jun 2027 05:16:31.642            79.031              Murmansk1          2469.719
       144   03 Jun 2027 05:16:51.979   03 Jun 2027 05:18:38.843           106.864                Norilsk          3339.500
       145   03 Jun 2027 05:18:50.219   03 Jun 2027 05:20:34.802           104.583                Novosib          3268.219
       146   03 Jun 2027 05:21:22.109   03 Jun 2027 05:24:17.228           175.119                 Moscow          5472.469
       147   03 Jun 2027 05:36:39.885   03 Jun 2027 05:45:58.437           558.552               CapeTown         17454.750
       148   03 Jun 2027 06:52:07.060   03 Jun 2027 06:52:59.243            52.183                Norilsk          1630.719
       149   03 Jun 2027 06:53:01.944   03 Jun 2027 06:54:14.339            72.395              Murmansk2          2262.344
       150   03 Jun 2027 06:54:24.244   03 Jun 2027 06:54:55.397            31.153                 Moscow           973.531
       151   03 Jun 2027 06:55:13.371   03 Jun 2027 06:57:35.439           142.068              Murmansk2          4439.625
       152   03 Jun 2027 06:57:46.944   03 Jun 2027 06:59:30.346           103.402                 Moscow          3231.313
       153   03 Jun 2027 07:12:14.977   03 Jun 2027 07:17:18.611           303.634               CapeTown          9488.563
       154   03 Jun 2027 08:16:50.945   03 Jun 2027 08:17:02.625            11.680                Norilsk           365.000
       155   03 Jun 2027 08:17:03.428   03 Jun 2027 08:17:48.957            45.529               Magadan2          1422.781
       156   03 Jun 2027 08:17:48.957   03 Jun 2027 08:18:08.247            19.290               Magadan1           602.812
       157   03 Jun 2027 08:18:16.979   03 Jun 2027 08:19:09.226            52.247               Magadan1          1632.719
       158   03 Jun 2027 08:19:20.335   03 Jun 2027 08:21:22.973           122.638                Anadyr1          3832.438
       159   03 Jun 2027 09:47:33.577   03 Jun 2027 09:50:55.996           202.419                Anadyr2          6325.594
       160   03 Jun 2027 09:50:55.996   03 Jun 2027 09:52:19.416            83.420                Anadyr1          2606.875
       161   03 Jun 2027 09:53:13.473   03 Jun 2027 09:56:55.531           222.058                Anadyr2          6939.313
       162   03 Jun 2027 11:22:53.203   03 Jun 2027 11:24:55.529           122.326               Magadan2          3822.687
       163   03 Jun 2027 11:26:02.451   03 Jun 2027 11:28:39.538           157.087               Magadan1          4908.969
       164   03 Jun 2027 11:28:41.086   03 Jun 2027 11:31:54.879           193.793               Magadan2          6056.031
       165   03 Jun 2027 13:00:06.935   03 Jun 2027 13:00:13.051             6.116                Irkutsk           191.125
       166   03 Jun 2027 13:00:44.094   03 Jun 2027 13:01:44.630            60.536                Norilsk          1891.750
       167   03 Jun 2027 13:45:33.313   03 Jun 2027 13:48:50.996           197.683            RioGallegos          6177.594
       168   03 Jun 2027 13:50:17.032   03 Jun 2027 13:51:30.791            73.759            RioGallegos          2304.969
       169   03 Jun 2027 14:19:49.945   03 Jun 2027 14:20:49.656            59.711                Sumatra          1865.969
       170   03 Jun 2027 14:24:31.826   03 Jun 2027 14:28:46.561           254.735                Sumatra          7960.469
       171   03 Jun 2027 14:36:30.620   03 Jun 2027 14:38:15.154           104.534                Irkutsk          3266.687
       172   03 Jun 2027 14:39:48.164   03 Jun 2027 14:42:58.713           190.549                Irkutsk          5954.656
       173   03 Jun 2027 16:05:20.750   03 Jun 2027 16:09:30.567           249.817                  Delhi          7806.781
       174   03 Jun 2027 16:13:50.307   03 Jun 2027 16:17:55.925           245.618                Novosib          7675.563
       175   03 Jun 2027 16:19:34.003   03 Jun 2027 16:20:16.893            42.890                Novosib          1340.313
       176   03 Jun 2027 19:01:07.745   03 Jun 2027 19:02:58.319           110.574               CapeTown          3455.438
       177   03 Jun 2027 19:28:21.754   03 Jun 2027 19:32:05.094           223.340                 Moscow          6979.375
       178   03 Jun 2027 19:33:04.775   03 Jun 2027 19:34:32.659            87.884              Murmansk2          2746.375
       179   03 Jun 2027 19:38:51.546   03 Jun 2027 19:39:08.430            16.884              Murmansk2           527.625
       180   03 Jun 2027 20:37:43.074   03 Jun 2027 20:41:05.283           202.209               CapeTown          6319.031
       181   03 Jun 2027 20:42:40.261   03 Jun 2027 20:44:38.072           117.811               CapeTown          3681.594
       182   03 Jun 2027 20:45:41.277   03 Jun 2027 20:46:00.046            18.769               CapeTown           586.531
       183   03 Jun 2027 21:11:42.578   03 Jun 2027 21:13:16.225            93.647              Murmansk1          2926.469
       184   03 Jun 2027 21:24:45.774   03 Jun 2027 21:25:12.683            26.909               Magadan1           840.906
       185   03 Jun 2027 21:26:52.406   03 Jun 2027 21:27:28.068            35.662               Magadan1          1114.438
       186   03 Jun 2027 21:28:01.278   03 Jun 2027 21:28:09.185             7.907               Magadan1           247.094
       187   03 Jun 2027 22:52:47.976   03 Jun 2027 22:56:36.395           228.419                Anadyr1          7138.094
       188   03 Jun 2027 22:56:37.298   03 Jun 2027 22:57:51.881            74.583                Anadyr2          2330.719
       189   03 Jun 2027 22:57:55.368   03 Jun 2027 22:58:10.131            14.763                Norilsk           461.344
       190   03 Jun 2027 22:58:24.142   03 Jun 2027 22:59:53.195            89.053               Magadan1          2782.906
       191   03 Jun 2027 23:00:13.430   03 Jun 2027 23:00:44.667            31.237               Magadan1           976.156
       192   03 Jun 2027 23:05:32.296   03 Jun 2027 23:05:51.637            19.341               Magadan1           604.406
       193   03 Jun 2027 23:06:31.337   03 Jun 2027 23:07:07.571            36.234               Magadan2          1132.312
       194   03 Jun 2027 23:47:11.463   03 Jun 2027 23:49:23.881           132.418            RioGallegos          4138.063
       195   03 Jun 2027 23:51:31.747   03 Jun 2027 23:52:09.347            37.600            RioGallegos          1175.000
       196   03 Jun 2027 23:53:07.315   03 Jun 2027 23:53:15.486             8.171            RioGallegos           255.344
       197   04 Jun 2027 00:28:24.548   04 Jun 2027 00:29:19.457            54.909                Anadyr2          1715.906
       198   04 Jun 2027 00:29:20.347   04 Jun 2027 00:29:37.361            17.014                Anadyr1           531.688
       199   04 Jun 2027 00:29:51.882   04 Jun 2027 00:30:42.077            50.195                Anadyr2          1568.594
       200   04 Jun 2027 00:30:57.206   04 Jun 2027 00:32:27.531            90.325                Norilsk          2822.656
       201   04 Jun 2027 00:33:02.146   04 Jun 2027 00:34:49.762           107.616               Magadan1          3363.000
       202   04 Jun 2027 00:35:47.480   04 Jun 2027 00:36:50.796            63.316                Irkutsk          1978.625
       203   04 Jun 2027 00:36:56.345   04 Jun 2027 00:38:16.621            80.276                Irkutsk          2508.625
       204   04 Jun 2027 00:49:19.528   04 Jun 2027 00:51:06.651           107.123                Sumatra          3347.594
       205   04 Jun 2027 01:25:41.213   04 Jun 2027 01:25:48.209             6.996            RioGallegos           218.625
       206   04 Jun 2027 01:26:23.037   04 Jun 2027 01:27:07.412            44.375            RioGallegos          1386.719
       207   04 Jun 2027 01:32:24.737   04 Jun 2027 01:32:43.098            18.361            RioGallegos           573.781
       208   04 Jun 2027 01:33:23.239   04 Jun 2027 01:34:21.061            57.822            RioGallegos          1806.937
       209   04 Jun 2027 02:03:45.794   04 Jun 2027 02:04:42.574            56.780                Anadyr2          1774.375
       210   04 Jun 2027 02:06:34.476   04 Jun 2027 02:07:39.492            65.016                Norilsk          2031.750
       211   04 Jun 2027 02:08:06.394   04 Jun 2027 02:08:57.170            50.776               Magadan2          1586.750
       212   04 Jun 2027 02:10:27.685   04 Jun 2027 02:13:35.980           188.295                Irkutsk          5884.219
       213   04 Jun 2027 02:24:40.325   04 Jun 2027 02:25:24.334            44.009                  Delhi          1375.281
       214   04 Jun 2027 02:26:15.904   04 Jun 2027 02:30:45.533           269.629                Sumatra          8425.906
       215   04 Jun 2027 03:07:42.093   04 Jun 2027 03:07:47.113             5.020            RioGallegos           156.875
       216   04 Jun 2027 03:48:46.250   04 Jun 2027 03:50:11.978            85.728                Irkutsk          2679.000
       217   04 Jun 2027 03:50:19.342   04 Jun 2027 03:52:00.791           101.449                Novosib          3170.281
       218   04 Jun 2027 03:52:07.405   04 Jun 2027 03:53:37.772            90.367                 Moscow          2823.969
       219   04 Jun 2027 03:53:48.190   04 Jun 2027 03:53:52.666             4.476              Murmansk2           139.875
       220   04 Jun 2027 03:54:02.656   04 Jun 2027 03:56:14.634           131.978                  Delhi          4124.313
       221   04 Jun 2027 03:57:33.195   04 Jun 2027 03:58:12.230            39.035                Novosib          1219.844
       222   04 Jun 2027 05:27:33.036   04 Jun 2027 05:31:53.809           260.773                Novosib          8149.156
       223   04 Jun 2027 05:32:09.719   04 Jun 2027 05:32:49.714            39.995              Murmansk2          1249.844
       224   04 Jun 2027 05:33:26.817   04 Jun 2027 05:36:31.800           184.983                 Moscow          5780.719
       225   04 Jun 2027 05:48:20.668   04 Jun 2027 05:54:42.076           381.408               CapeTown         11919.000
       226   04 Jun 2027 05:54:53.465   04 Jun 2027 05:55:33.502            40.037               CapeTown          1251.156
       227   04 Jun 2027 05:56:03.811   04 Jun 2027 05:57:43.648            99.837               CapeTown          3119.906
       228   04 Jun 2027 07:03:32.729   04 Jun 2027 07:06:09.363           156.634              Murmansk1          4894.813
       229   04 Jun 2027 07:06:09.363   04 Jun 2027 07:06:16.313             6.950              Murmansk2           217.188
       230   04 Jun 2027 07:08:46.349   04 Jun 2027 07:10:32.672           106.323                 Moscow          3322.594
       231   04 Jun 2027 07:24:39.675   04 Jun 2027 07:26:26.585           106.910               CapeTown          3340.938
       232   04 Jun 2027 07:29:20.095   04 Jun 2027 07:29:43.886            23.791               CapeTown           743.469
       233   04 Jun 2027 08:26:25.910   04 Jun 2027 08:27:37.109            71.199                Anadyr2          2224.969
       234   04 Jun 2027 08:27:51.701   04 Jun 2027 08:30:00.843           129.142               Magadan2          4035.688
       235   04 Jun 2027 08:30:17.219   04 Jun 2027 08:30:24.221             7.002                Anadyr2           218.812
       236   04 Jun 2027 08:38:21.344   04 Jun 2027 08:38:53.857            32.513                 Moscow          1016.031
       237   04 Jun 2027 08:39:46.434   04 Jun 2027 08:40:08.399            21.965                 Moscow           686.406
       238   04 Jun 2027 10:00:11.634   04 Jun 2027 10:04:50.309           278.675                Anadyr2          8708.594
       239   04 Jun 2027 10:05:10.727   04 Jun 2027 10:08:49.182           218.455                Anadyr1          6826.719
       240   04 Jun 2027 11:37:39.932   04 Jun 2027 11:43:48.774           368.842               Magadan2         11526.312
       241   04 Jun 2027 11:43:48.774   04 Jun 2027 11:44:00.949            12.175               Magadan1           380.469
       242   04 Jun 2027 11:44:29.149   04 Jun 2027 11:45:11.790            42.641                Norilsk          1332.531
       243   04 Jun 2027 11:46:45.941   04 Jun 2027 11:47:10.824            24.883              Murmansk1           777.594
       244   04 Jun 2027 12:19:27.860   04 Jun 2027 12:20:15.075            47.215            RioGallegos          1475.469
       245   04 Jun 2027 12:23:10.836   04 Jun 2027 12:23:41.243            30.407            RioGallegos           950.219
       246   04 Jun 2027 12:54:27.452   04 Jun 2027 12:57:23.420           175.968                Sumatra          5499.000
       247   04 Jun 2027 13:08:11.380   04 Jun 2027 13:08:40.563            29.183                Irkutsk           911.969
       248   04 Jun 2027 13:11:04.343   04 Jun 2027 13:12:44.824           100.481                Irkutsk          3140.031
       249   04 Jun 2027 13:15:05.750   04 Jun 2027 13:15:09.246             3.496                Norilsk           109.250
       250   04 Jun 2027 13:16:07.469   04 Jun 2027 13:16:51.776            44.307                Norilsk          1384.594
       251   04 Jun 2027 13:58:17.342   04 Jun 2027 14:00:14.928           117.586            RioGallegos          3674.563
       252   04 Jun 2027 14:03:44.042   04 Jun 2027 14:04:59.940            75.898            RioGallegos          2371.812
       253   04 Jun 2027 14:32:48.328   04 Jun 2027 14:37:01.830           253.502                Sumatra          7921.938
       254   04 Jun 2027 14:48:41.090   04 Jun 2027 14:52:33.106           232.016                Irkutsk          7250.500
       255   04 Jun 2027 16:18:55.794   04 Jun 2027 16:23:20.957           265.163                  Delhi          8286.344
       256   04 Jun 2027 16:27:11.515   04 Jun 2027 16:31:30.769           259.254                Novosib          8101.688
       257   04 Jun 2027 18:05:11.359   04 Jun 2027 18:05:42.388            31.029              Murmansk2           969.656
       258   04 Jun 2027 18:07:29.761   04 Jun 2027 18:07:33.632             3.871              Murmansk1           120.969
       259   04 Jun 2027 18:11:21.860   04 Jun 2027 18:11:34.515            12.655              Murmansk2           395.469
       260   04 Jun 2027 18:11:34.515   04 Jun 2027 18:11:58.704            24.189              Murmansk1           755.906
       261   04 Jun 2027 18:17:37.033   04 Jun 2027 18:18:03.383            26.350                Anadyr2           823.437
       262   04 Jun 2027 18:18:16.860   04 Jun 2027 18:18:33.471            16.611                Anadyr2           519.094
       263   04 Jun 2027 18:22:13.304   04 Jun 2027 18:22:38.316            25.012                Anadyr2           781.625
       264   04 Jun 2027 19:12:22.016   04 Jun 2027 19:15:21.445           179.429               CapeTown          5607.156
       265   04 Jun 2027 19:41:52.539   04 Jun 2027 19:42:37.210            44.671              Murmansk2          1395.969
       266   04 Jun 2027 19:42:38.908   04 Jun 2027 19:44:45.204           126.296              Murmansk1          3946.750
       267   04 Jun 2027 19:45:02.274   04 Jun 2027 19:47:13.007           130.733              Murmansk1          4085.406
       268   04 Jun 2027 19:48:45.381   04 Jun 2027 19:48:48.752             3.371              Murmansk2           105.344
       269   04 Jun 2027 20:50:23.863   04 Jun 2027 20:56:58.126           394.263               CapeTown         12320.719
       270   04 Jun 2027 21:32:25.319   04 Jun 2027 21:33:11.798            46.479               Magadan2          1452.469
       271   04 Jun 2027 21:35:17.026   04 Jun 2027 21:35:20.097             3.071               Magadan1            95.969
       272   04 Jun 2027 21:35:46.875   04 Jun 2027 21:36:19.592            32.717               Magadan1          1022.406
       273   04 Jun 2027 21:39:45.064   04 Jun 2027 21:39:55.802            10.738               Magadan1           335.562
       274   04 Jun 2027 21:40:11.744   04 Jun 2027 21:40:26.289            14.545               Magadan1           454.531
       275   04 Jun 2027 21:42:21.526   04 Jun 2027 21:43:19.635            58.109               Magadan2          1815.906
       276   04 Jun 2027 23:04:48.822   04 Jun 2027 23:08:29.149           220.327                Anadyr1          6885.219
       277   04 Jun 2027 23:08:29.149   04 Jun 2027 23:09:36.344            67.195                Anadyr2          2099.844
       278   04 Jun 2027 23:09:36.849   04 Jun 2027 23:10:23.693            46.844               Magadan2          1463.875
       279   04 Jun 2027 23:10:23.693   04 Jun 2027 23:10:29.152             5.459               Magadan1           170.594
       280   04 Jun 2027 23:11:06.932   04 Jun 2027 23:11:21.896            14.964               Magadan1           467.625
       281   04 Jun 2027 23:12:10.117   04 Jun 2027 23:12:20.615            10.498               Magadan1           328.063
       282   04 Jun 2027 23:12:20.615   04 Jun 2027 23:12:46.285            25.670               Magadan2           802.187
       283   04 Jun 2027 23:13:25.762   04 Jun 2027 23:14:04.090            38.328                Irkutsk          1197.750
       284   04 Jun 2027 23:16:10.212   04 Jun 2027 23:16:17.985             7.773               Magadan2           242.906
       285   04 Jun 2027 23:16:27.146   04 Jun 2027 23:17:22.352            55.206                Irkutsk          1725.188
       286   04 Jun 2027 23:59:02.375   05 Jun 2027 00:00:51.599           109.224            RioGallegos          3413.250
       287   05 Jun 2027 00:02:19.993   05 Jun 2027 00:02:36.619            16.626            RioGallegos           519.562
       288   05 Jun 2027 00:03:43.812   05 Jun 2027 00:04:01.722            17.910            RioGallegos           559.687
       289   05 Jun 2027 00:08:03.264   05 Jun 2027 00:08:31.176            27.912            RioGallegos           872.250
       290   05 Jun 2027 00:10:01.523   05 Jun 2027 00:10:28.393            26.870            RioGallegos           839.687
       291   05 Jun 2027 00:40:20.910   05 Jun 2027 00:41:01.493            40.583                Anadyr2          1268.219
       292   05 Jun 2027 00:41:27.718   05 Jun 2027 00:42:38.287            70.569                Anadyr1          2205.281
       293   05 Jun 2027 00:42:53.435   05 Jun 2027 00:44:29.811            96.376                Norilsk          3011.750
       294   05 Jun 2027 00:44:38.054   05 Jun 2027 00:45:07.640            29.586               Magadan1           924.562
       295   05 Jun 2027 00:46:18.625   05 Jun 2027 00:46:39.258            20.633               Magadan2           644.781
       296   05 Jun 2027 00:46:42.581   05 Jun 2027 00:47:32.695            50.114                Irkutsk          1566.063
       297   05 Jun 2027 00:47:52.885   05 Jun 2027 00:48:22.179            29.294                Irkutsk           915.437
       298   05 Jun 2027 00:50:24.078   05 Jun 2027 00:50:25.076             0.998                Irkutsk            31.188
       299   05 Jun 2027 00:50:30.306   05 Jun 2027 00:52:52.416           142.110                Novosib          4440.938
       300   05 Jun 2027 01:00:24.319   05 Jun 2027 01:01:05.630            41.311                Sumatra          1290.969
       301   05 Jun 2027 01:04:58.326   05 Jun 2027 01:06:25.496            87.170                Sumatra          2724.063
       302   05 Jun 2027 01:43:49.797   05 Jun 2027 01:44:09.754            19.957            RioGallegos           623.656
       303   05 Jun 2027 02:14:54.482   05 Jun 2027 02:15:44.493            50.011                Anadyr2          1562.844
       304   05 Jun 2027 02:16:53.784   05 Jun 2027 02:16:59.527             5.743                Anadyr1           179.469
       305   05 Jun 2027 02:17:13.311   05 Jun 2027 02:17:26.269            12.958                Anadyr1           404.938
       306   05 Jun 2027 02:18:36.944   05 Jun 2027 02:19:45.016            68.072                Norilsk          2127.250
       307   05 Jun 2027 02:19:47.724   05 Jun 2027 02:19:59.513            11.789               Magadan1           368.406
       308   05 Jun 2027 02:21:18.890   05 Jun 2027 02:22:01.310            42.420               Magadan1          1325.625
       309   05 Jun 2027 02:22:31.595   05 Jun 2027 02:24:55.238           143.643                Irkutsk          4488.844
       310   05 Jun 2027 02:31:07.885   05 Jun 2027 02:31:22.454            14.569                Irkutsk           455.281
       311   05 Jun 2027 02:34:19.979   05 Jun 2027 02:36:14.153           114.174                  Delhi          3567.938
       312   05 Jun 2027 02:39:31.385   05 Jun 2027 02:43:21.258           229.873                Sumatra          7183.531
       313   05 Jun 2027 03:15:29.678   05 Jun 2027 03:15:31.666             1.988            RioGallegos            62.125
       314   05 Jun 2027 04:01:06.712   05 Jun 2027 04:01:35.768            29.056                Norilsk           908.000
       315   05 Jun 2027 04:01:42.156   05 Jun 2027 04:02:22.228            40.072              Murmansk2          1252.250
       316   05 Jun 2027 04:02:28.184   05 Jun 2027 04:03:52.793            84.609                Irkutsk          2644.031
       317   05 Jun 2027 04:03:53.712   05 Jun 2027 04:04:40.394            46.682                Irkutsk          1458.813
       318   05 Jun 2027 04:04:59.287   05 Jun 2027 04:05:38.364            39.077                 Moscow          1221.156
       319   05 Jun 2027 04:05:40.965   05 Jun 2027 04:05:52.295            11.330                Norilsk           354.062
       320   05 Jun 2027 04:05:52.645   05 Jun 2027 04:07:54.628           121.983                Novosib          3811.969
       321   05 Jun 2027 04:08:03.629   05 Jun 2027 04:09:43.354            99.725                Novosib          3116.406
       322   05 Jun 2027 04:10:09.159   05 Jun 2027 04:11:19.659            70.500                  Delhi          2203.125
       323   05 Jun 2027 04:14:10.953   05 Jun 2027 04:16:25.382           134.429                  Delhi          4200.906
       324   05 Jun 2027 05:39:54.617   05 Jun 2027 05:41:34.753           100.136                Norilsk          3129.250
       325   05 Jun 2027 05:41:41.512   05 Jun 2027 05:42:48.125            66.613              Murmansk1          2081.656
       326   05 Jun 2027 05:42:55.832   05 Jun 2027 05:43:34.162            38.330                Novosib          1197.813
       327   05 Jun 2027 05:43:37.973   05 Jun 2027 05:44:09.883            31.910                 Moscow           997.188
       328   05 Jun 2027 05:44:11.602   05 Jun 2027 05:45:04.333            52.731              Murmansk1          1647.844
       329   05 Jun 2027 05:45:32.045   05 Jun 2027 05:48:42.924           190.879                 Moscow          5964.969
       330   05 Jun 2027 06:00:07.000   05 Jun 2027 06:03:42.369           215.369               CapeTown          6730.281
       331   05 Jun 2027 07:05:01.445   05 Jun 2027 07:05:10.583             9.138               Magadan2           285.562
       332   05 Jun 2027 07:07:11.472   05 Jun 2027 07:07:53.317            41.845               Magadan2          1307.656
       333   05 Jun 2027 07:15:12.436   05 Jun 2027 07:15:50.998            38.562                Norilsk          1205.062
       334   05 Jun 2027 07:15:53.776   05 Jun 2027 07:15:58.747             4.971                 Moscow           155.344
       335   05 Jun 2027 07:16:20.343   05 Jun 2027 07:17:39.249            78.906              Murmansk2          2465.812
       336   05 Jun 2027 07:17:42.222   05 Jun 2027 07:18:07.065            24.843              Murmansk2           776.344
       337   05 Jun 2027 07:18:15.299   05 Jun 2027 07:18:40.405            25.106                 Moscow           784.563
       338   05 Jun 2027 07:37:12.629   05 Jun 2027 07:42:03.275           290.646               CapeTown          9082.688
       339   05 Jun 2027 08:37:48.626   05 Jun 2027 08:38:37.298            48.672                Anadyr2          1521.000
       340   05 Jun 2027 08:38:37.298   05 Jun 2027 08:38:51.282            13.984                Anadyr1           437.000
       341   05 Jun 2027 08:39:24.361   05 Jun 2027 08:41:55.717           151.356               Magadan1          4729.875
       342   05 Jun 2027 08:42:29.560   05 Jun 2027 08:42:47.003            17.443                Anadyr1           545.094
       343   05 Jun 2027 08:42:47.003   05 Jun 2027 08:43:16.678            29.675                Anadyr2           927.344
       344   05 Jun 2027 08:43:38.378   05 Jun 2027 08:45:24.325           105.947                Anadyr1          3310.844
       345   05 Jun 2027 10:12:37.479   05 Jun 2027 10:15:08.297           150.818               Magadan2          4713.062
       346   05 Jun 2027 10:15:31.971   05 Jun 2027 10:15:38.911             6.940                Irkutsk           216.875
       347   05 Jun 2027 10:15:44.174   05 Jun 2027 10:17:08.045            83.871               Magadan1          2620.969
       348   05 Jun 2027 10:17:08.935   05 Jun 2027 10:20:40.214           211.279                Anadyr2          6602.469
       349   05 Jun 2027 11:48:25.335   05 Jun 2027 11:49:03.501            38.166               Magadan1          1192.687
       350   05 Jun 2027 11:49:03.501   05 Jun 2027 11:55:40.136           396.635               Magadan2         12394.844
       351   05 Jun 2027 11:56:28.158   05 Jun 2027 11:56:45.499            17.341              Murmansk1           541.906
       352   05 Jun 2027 11:57:01.414   05 Jun 2027 11:58:01.260            59.846                Novosib          1870.188
       353   05 Jun 2027 12:01:01.301   05 Jun 2027 12:01:10.718             9.417              Murmansk1           294.281
       354   05 Jun 2027 12:01:26.306   05 Jun 2027 12:01:39.132            12.826              Murmansk1           400.812
       355   05 Jun 2027 12:02:29.219   05 Jun 2027 12:03:21.495            52.276              Murmansk2          1633.625
       356   05 Jun 2027 12:04:06.450   05 Jun 2027 12:04:26.579            20.129              Murmansk2           629.031
       357   05 Jun 2027 12:35:40.604   05 Jun 2027 12:35:50.464             9.860            RioGallegos           308.125
       358   05 Jun 2027 12:37:07.471   05 Jun 2027 12:38:23.519            76.048            RioGallegos          2376.500
       359   05 Jun 2027 12:40:44.261   05 Jun 2027 12:41:18.870            34.609            RioGallegos          1081.531
       360   05 Jun 2027 13:09:23.010   05 Jun 2027 13:09:30.619             7.609                Sumatra           237.781
       361   05 Jun 2027 13:10:11.224   05 Jun 2027 13:10:22.329            11.105                Sumatra           347.031
       362   05 Jun 2027 13:12:18.452   05 Jun 2027 13:13:10.786            52.334                Sumatra          1635.437
       363   05 Jun 2027 13:14:56.939   05 Jun 2027 13:15:57.103            60.164                Sumatra          1880.125
       364   05 Jun 2027 13:18:14.865   05 Jun 2027 13:19:06.450            51.585                Sumatra          1612.031
       365   05 Jun 2027 13:22:46.698   05 Jun 2027 13:23:45.073            58.375                Novosib          1824.219
       366   05 Jun 2027 13:28:48.657   05 Jun 2027 13:29:52.807            64.150                Irkutsk          2004.688
       367   05 Jun 2027 13:35:52.257   05 Jun 2027 13:36:54.473            62.216                Norilsk          1944.250
       368   05 Jun 2027 14:11:12.345   05 Jun 2027 14:14:27.654           195.309            RioGallegos          6103.406
       369   05 Jun 2027 14:46:39.578   05 Jun 2027 14:49:45.933           186.355                Sumatra          5823.594
       370   05 Jun 2027 15:02:33.280   05 Jun 2027 15:05:03.115           149.835                Irkutsk          4682.344
       371   05 Jun 2027 16:34:59.420   05 Jun 2027 16:36:17.222            77.802                 Moscow          2431.313
       372   05 Jun 2027 16:38:23.619   05 Jun 2027 16:39:23.518            59.899              Murmansk1          1871.844
       373   05 Jun 2027 16:42:01.512   05 Jun 2027 16:43:37.109            95.597                Norilsk          2987.406
       374   05 Jun 2027 16:45:03.775   05 Jun 2027 16:45:44.285            40.510                Norilsk          1265.938
       375   05 Jun 2027 16:46:40.192   05 Jun 2027 16:47:44.972            64.780                Norilsk          2024.375
       376   05 Jun 2027 17:49:47.150   05 Jun 2027 17:50:17.424            30.274               CapeTown           946.063
       377   05 Jun 2027 17:50:49.760   05 Jun 2027 17:52:46.620           116.860               CapeTown          3651.875
       378   05 Jun 2027 18:12:06.104   05 Jun 2027 18:12:32.839            26.735                 Moscow           835.469
       379   05 Jun 2027 18:13:48.697   05 Jun 2027 18:17:10.934           202.237                 Moscow          6319.906
       380   05 Jun 2027 18:33:16.459   05 Jun 2027 18:33:48.147            31.688                Anadyr1           990.250
       381   05 Jun 2027 18:38:12.635   05 Jun 2027 18:38:22.815            10.180                Anadyr1           318.125
       382   05 Jun 2027 19:24:25.717   05 Jun 2027 19:26:37.864           132.147               CapeTown          4129.594
       383   05 Jun 2027 19:54:27.771   05 Jun 2027 19:55:31.644            63.873              Murmansk1          1996.031
       384   05 Jun 2027 19:56:46.165   05 Jun 2027 19:59:57.624           191.459              Murmansk1          5983.094
       385   05 Jun 2027 20:00:32.726   05 Jun 2027 20:03:05.824           153.098              Murmansk2          4784.312
       386   05 Jun 2027 21:03:32.667   05 Jun 2027 21:07:25.063           232.396               CapeTown          7262.375
       387   05 Jun 2027 21:41:36.258   05 Jun 2027 21:41:55.162            18.904                Anadyr2           590.750
       388   05 Jun 2027 21:42:41.039   05 Jun 2027 21:44:08.620            87.581                Anadyr2          2736.906
       389   05 Jun 2027 21:44:32.332   05 Jun 2027 21:45:41.388            69.056               Magadan2          2158.000
       390   05 Jun 2027 21:52:08.356   05 Jun 2027 21:52:11.189             2.833               Magadan2            88.531
       391   05 Jun 2027 21:52:11.189   05 Jun 2027 21:52:14.417             3.228               Magadan1           100.875
       392   05 Jun 2027 23:16:49.338   05 Jun 2027 23:21:21.942           272.604                Anadyr2          8518.875
       393   05 Jun 2027 23:21:21.942   05 Jun 2027 23:21:34.523            12.581                Anadyr1           393.156
       394   05 Jun 2027 23:21:56.141   05 Jun 2027 23:22:14.529            18.388                Anadyr2           574.625
       395   05 Jun 2027 23:22:21.306   05 Jun 2027 23:24:29.415           128.109               Magadan2          4003.406
       396   05 Jun 2027 23:24:35.570   05 Jun 2027 23:25:35.312            59.742                Irkutsk          1866.937
       397   05 Jun 2027 23:26:46.597   05 Jun 2027 23:27:28.957            42.360                Irkutsk          1323.750
       398   05 Jun 2027 23:27:36.555   05 Jun 2027 23:28:15.548            38.993                Irkutsk          1218.531
       399   05 Jun 2027 23:41:09.163   05 Jun 2027 23:41:58.950            49.787                Sumatra          1555.844
       400   05 Jun 2027 23:43:46.347   05 Jun 2027 23:44:35.840            49.493                Sumatra          1546.656
       401   06 Jun 2027 00:10:55.744   06 Jun 2027 00:11:55.870            60.126            RioGallegos          1878.937
       402   06 Jun 2027 00:15:44.247   06 Jun 2027 00:16:03.822            19.575            RioGallegos           611.719
       403   06 Jun 2027 00:19:13.550   06 Jun 2027 00:20:09.082            55.532            RioGallegos          1735.375
       404   06 Jun 2027 00:52:16.323   06 Jun 2027 00:52:56.590            40.267                Anadyr1          1258.344
       405   06 Jun 2027 00:53:48.007   06 Jun 2027 00:54:33.049            45.042                Anadyr1          1407.563
       406   06 Jun 2027 00:55:00.118   06 Jun 2027 00:56:32.114            91.996                Norilsk          2874.875
       407   06 Jun 2027 00:56:41.195   06 Jun 2027 00:56:59.829            18.634               Magadan1           582.313
       408   06 Jun 2027 00:57:05.947   06 Jun 2027 00:57:46.759            40.812               Magadan1          1275.375
       409   06 Jun 2027 00:58:39.783   06 Jun 2027 00:59:54.958            75.175                Irkutsk          2349.219
       410   06 Jun 2027 01:00:22.077   06 Jun 2027 01:00:25.516             3.439                Irkutsk           107.469
       411   06 Jun 2027 01:01:32.794   06 Jun 2027 01:01:39.410             6.616                Novosib           206.750
       412   06 Jun 2027 01:01:57.936   06 Jun 2027 01:02:00.708             2.772                Novosib            86.625
       413   06 Jun 2027 01:03:36.980   06 Jun 2027 01:03:42.268             5.288                Novosib           165.250
       414   06 Jun 2027 01:04:09.873   06 Jun 2027 01:05:13.945            64.072                Novosib          2002.250
       415   06 Jun 2027 01:12:22.372   06 Jun 2027 01:12:44.639            22.267                Sumatra           695.844
       416   06 Jun 2027 01:14:57.746   06 Jun 2027 01:16:29.388            91.642                Sumatra          2863.813
       417   06 Jun 2027 01:46:36.300   06 Jun 2027 01:46:47.822            11.522            RioGallegos           360.062
       418   06 Jun 2027 01:48:58.353   06 Jun 2027 01:49:18.292            19.939            RioGallegos           623.094
       419   06 Jun 2027 01:51:22.670   06 Jun 2027 01:52:00.842            38.172            RioGallegos          1192.875
       420   06 Jun 2027 01:56:13.826   06 Jun 2027 01:57:38.801            84.975            RioGallegos          2655.469
       421   06 Jun 2027 02:30:39.389   06 Jun 2027 02:31:54.876            75.487                Norilsk          2358.969
       422   06 Jun 2027 02:34:11.730   06 Jun 2027 02:35:06.741            55.011              Murmansk1          1719.094
       423   06 Jun 2027 02:35:49.053   06 Jun 2027 02:36:22.272            33.219                Novosib          1038.094
       424   06 Jun 2027 02:36:34.220   06 Jun 2027 02:36:48.079            13.859                Novosib           433.094
       425   06 Jun 2027 02:37:09.640   06 Jun 2027 02:37:18.978             9.338                Irkutsk           291.813
       426   06 Jun 2027 02:37:32.144   06 Jun 2027 02:38:03.726            31.582                Novosib           986.938
       427   06 Jun 2027 02:39:45.570   06 Jun 2027 02:39:58.889            13.319                Irkutsk           416.219
       428   06 Jun 2027 02:41:10.214   06 Jun 2027 02:41:37.388            27.174                Novosib           849.188
       429   06 Jun 2027 02:42:54.632   06 Jun 2027 02:43:59.477            64.845                  Delhi          2026.406
       430   06 Jun 2027 02:53:55.689   06 Jun 2027 02:54:31.123            35.434                  Delhi          1107.312
       431   06 Jun 2027 03:24:21.678   06 Jun 2027 03:26:19.908           118.230            RioGallegos          3694.687
       432   06 Jun 2027 03:31:20.730   06 Jun 2027 03:31:57.719            36.989            RioGallegos          1155.906
       433   06 Jun 2027 04:13:31.154   06 Jun 2027 04:16:05.514           154.360                Norilsk          4823.750
       434   06 Jun 2027 04:16:06.744   06 Jun 2027 04:18:41.475           154.731                Novosib          4835.344
       435   06 Jun 2027 04:19:11.753   06 Jun 2027 04:19:39.678            27.925                Novosib           872.656
       436   06 Jun 2027 04:21:11.679   06 Jun 2027 04:25:53.269           281.590                  Delhi          8799.688
       437   06 Jun 2027 05:52:49.780   06 Jun 2027 05:53:40.858            51.078              Murmansk2          1596.187
       438   06 Jun 2027 05:53:44.529   06 Jun 2027 05:54:46.138            61.609                 Moscow          1925.281
       439   06 Jun 2027 05:54:50.514   06 Jun 2027 05:57:14.926           144.412              Murmansk2          4512.875
       440   06 Jun 2027 05:58:48.554   06 Jun 2027 05:58:51.536             2.982                 Moscow            93.188
       441   06 Jun 2027 07:16:30.559   06 Jun 2027 07:17:04.790            34.231               Magadan2          1069.719
       442   06 Jun 2027 07:17:04.790   06 Jun 2027 07:17:12.714             7.924               Magadan1           247.625
       443   06 Jun 2027 07:17:26.227   06 Jun 2027 07:18:34.779            68.552                Anadyr2          2142.250
       444   06 Jun 2027 07:19:14.435   06 Jun 2027 07:19:54.107            39.672               Magadan1          1239.750
       445   06 Jun 2027 07:20:11.099   06 Jun 2027 07:20:28.130            17.031                Anadyr1           532.219
       446   06 Jun 2027 07:20:40.787   06 Jun 2027 07:21:04.504            23.717               Magadan1           741.156
       447   06 Jun 2027 07:27:16.692   06 Jun 2027 07:27:39.130            22.438              Murmansk2           701.188
       448   06 Jun 2027 07:27:39.130   06 Jun 2027 07:28:20.978            41.848              Murmansk1          1307.750
       449   06 Jun 2027 07:29:22.246   06 Jun 2027 07:29:40.154            17.908                 Moscow           559.625
       450   06 Jun 2027 07:30:01.785   06 Jun 2027 07:30:24.908            23.123                 Moscow           722.594
       451   06 Jun 2027 07:31:04.089   06 Jun 2027 07:32:04.312            60.223                 Moscow          1881.969
       452   06 Jun 2027 07:49:56.370   06 Jun 2027 07:54:29.763           273.393               CapeTown          8543.531
       453   06 Jun 2027 08:49:12.220   06 Jun 2027 08:50:21.826            69.606                Anadyr1          2175.188
       454   06 Jun 2027 08:50:22.232   06 Jun 2027 08:50:51.057            28.825                Anadyr2           900.781
       455   06 Jun 2027 08:51:26.204   06 Jun 2027 08:52:03.871            37.667               Magadan1          1177.094
       456   06 Jun 2027 08:52:27.582   06 Jun 2027 08:54:50.845           143.263                Anadyr2          4476.969
       457   06 Jun 2027 10:20:55.876   06 Jun 2027 10:21:31.486            35.610               Magadan2          1112.812
       458   06 Jun 2027 10:24:25.994   06 Jun 2027 10:26:12.211           106.217               Magadan2          3319.281
       459   06 Jun 2027 10:26:12.211   06 Jun 2027 10:27:05.100            52.889               Magadan1          1652.781
       460   06 Jun 2027 10:27:17.677   06 Jun 2027 10:29:08.422           110.745               Magadan2          3460.781
       461   06 Jun 2027 10:29:46.722   06 Jun 2027 10:32:27.336           160.614                Anadyr2          5019.188
       462   06 Jun 2027 10:32:38.546   06 Jun 2027 10:32:41.653             3.107                Novosib            97.094
       463   06 Jun 2027 10:32:49.325   06 Jun 2027 10:33:16.152            26.827              Murmansk2           838.344
       464   06 Jun 2027 10:33:56.340   06 Jun 2027 10:33:59.510             3.170              Murmansk1            99.063
       465   06 Jun 2027 10:35:41.236   06 Jun 2027 10:36:32.324            51.088              Murmansk1          1596.500
       466   06 Jun 2027 11:08:08.124   06 Jun 2027 11:08:13.530             5.406            RioGallegos           168.938
       467   06 Jun 2027 11:10:14.640   06 Jun 2027 11:10:41.156            26.516            RioGallegos           828.625
       468   06 Jun 2027 11:46:11.522   06 Jun 2027 11:47:19.679            68.157                Sumatra          2129.906
       469   06 Jun 2027 12:01:26.542   06 Jun 2027 12:07:17.895           351.353               Magadan1         10979.781
       470   06 Jun 2027 13:28:02.536   06 Jun 2027 13:28:54.571            52.035                Sumatra          1626.094
       471   06 Jun 2027 13:32:46.913   06 Jun 2027 13:33:00.805            13.892                Irkutsk           434.125
       472   06 Jun 2027 13:34:54.699   06 Jun 2027 13:37:44.098           169.399                Irkutsk          5293.719
       473   06 Jun 2027 14:24:25.639   06 Jun 2027 14:29:46.239           320.600            RioGallegos         10018.750
       474   06 Jun 2027 15:14:42.396   06 Jun 2027 15:14:49.608             7.212                Norilsk           225.375
       475   06 Jun 2027 15:15:44.789   06 Jun 2027 15:15:48.754             3.965                Novosib           123.906
       476   06 Jun 2027 15:17:54.707   06 Jun 2027 15:18:38.280            43.573                Norilsk          1361.656
       477   06 Jun 2027 15:18:44.381   06 Jun 2027 15:19:22.482            38.101                Norilsk          1190.656
       478   06 Jun 2027 15:24:09.644   06 Jun 2027 15:24:32.388            22.744                Norilsk           710.750
       479   06 Jun 2027 16:46:59.019   06 Jun 2027 16:49:43.315           164.296                 Moscow          5134.250
       480   06 Jun 2027 16:51:52.574   06 Jun 2027 16:51:56.541             3.967              Murmansk2           123.969
       481   06 Jun 2027 16:53:07.694   06 Jun 2027 16:53:31.935            24.241              Murmansk2           757.531
       482   06 Jun 2027 16:54:36.656   06 Jun 2027 16:55:11.808            35.152                 Moscow          1098.500
