uniorb/output/strategy_1/Drop/Drop_KinoSat_111107.txt

KinoSat_111107
-------------------------
    Access    *     Start Time (UTCG)     *     Stop Time (UTCG)  *   Duration (s)        *       Station  *  Data (Mbytes)
         1   01 Jun 2027 03:19:04.748   01 Jun 2027 03:19:50.757            46.009              Murmansk2          1437.781
         2   01 Jun 2027 03:19:50.757   01 Jun 2027 03:21:20.508            89.751              Murmansk1          2804.719
         3   01 Jun 2027 04:40:40.623   01 Jun 2027 04:40:52.644            12.021               Magadan1           375.656
         4   01 Jun 2027 04:41:05.519   01 Jun 2027 04:43:29.503           143.984                Anadyr2          4499.500
         5   01 Jun 2027 04:43:37.438   01 Jun 2027 04:44:40.673            63.235               Magadan1          1976.094
         6   01 Jun 2027 04:45:39.123   01 Jun 2027 04:46:11.351            32.228               Magadan2          1007.125
         7   01 Jun 2027 06:18:19.058   01 Jun 2027 06:19:07.149            48.091                Norilsk          1502.844
         8   01 Jun 2027 06:19:20.342   01 Jun 2027 06:20:51.347            91.005                Irkutsk          2843.906
         9   01 Jun 2027 06:21:06.628   01 Jun 2027 06:22:37.101            90.473                Anadyr1          2827.281
        10   01 Jun 2027 06:22:47.328   01 Jun 2027 06:23:29.352            42.024                Norilsk          1313.250
        11   01 Jun 2027 06:59:11.359   01 Jun 2027 06:59:31.399            20.040            RioGallegos           626.250
        12   01 Jun 2027 07:00:55.698   01 Jun 2027 07:01:30.563            34.865            RioGallegos          1089.531
        13   01 Jun 2027 07:02:44.507   01 Jun 2027 07:03:41.607            57.100            RioGallegos          1784.375
        14   01 Jun 2027 07:53:45.997   01 Jun 2027 07:55:05.014            79.017               Magadan2          2469.281
        15   01 Jun 2027 07:55:05.014   01 Jun 2027 07:56:42.725            97.711               Magadan1          3053.469
        16   01 Jun 2027 07:56:47.576   01 Jun 2027 07:57:29.743            42.167              Murmansk1          1317.719
        17   01 Jun 2027 07:57:34.354   01 Jun 2027 07:57:38.438             4.084              Murmansk1           127.625
        18   01 Jun 2027 07:57:50.428   01 Jun 2027 07:58:28.765            38.337                Novosib          1198.031
        19   01 Jun 2027 07:58:54.564   01 Jun 2027 08:00:46.569           112.005              Murmansk1          3500.156
        20   01 Jun 2027 08:00:46.569   01 Jun 2027 08:02:09.963            83.394              Murmansk2          2606.062
        21   01 Jun 2027 08:33:01.250   01 Jun 2027 08:34:28.874            87.624            RioGallegos          2738.250
        22   01 Jun 2027 08:34:49.395   01 Jun 2027 08:35:18.369            28.974            RioGallegos           905.437
        23   01 Jun 2027 09:08:38.591   01 Jun 2027 09:09:20.661            42.070                Sumatra          1314.687
        24   01 Jun 2027 09:10:23.972   01 Jun 2027 09:10:52.623            28.651                Sumatra           895.344
        25   01 Jun 2027 09:29:44.224   01 Jun 2027 09:30:04.738            20.514                Irkutsk           641.062
        26   01 Jun 2027 09:30:11.848   01 Jun 2027 09:30:31.285            19.437                Norilsk           607.406
        27   01 Jun 2027 09:30:52.332   01 Jun 2027 09:33:01.173           128.841                Novosib          4026.281
        28   01 Jun 2027 09:33:04.569   01 Jun 2027 09:34:18.042            73.473                Irkutsk          2296.031
        29   01 Jun 2027 09:34:28.424   01 Jun 2027 09:35:25.410            56.986                Norilsk          1780.813
        30   01 Jun 2027 09:35:57.397   01 Jun 2027 09:37:44.510           107.113              Murmansk1          3347.281
        31   01 Jun 2027 09:37:50.373   01 Jun 2027 09:37:57.215             6.842              Murmansk1           213.812
        32   01 Jun 2027 10:10:30.890   01 Jun 2027 10:11:08.759            37.869            RioGallegos          1183.406
        33   01 Jun 2027 10:12:27.648   01 Jun 2027 10:12:43.327            15.679            RioGallegos           489.969
        34   01 Jun 2027 10:14:56.082   01 Jun 2027 10:15:14.569            18.487            RioGallegos           577.719
        35   01 Jun 2027 10:44:42.973   01 Jun 2027 10:45:47.950            64.977                Sumatra          2030.531
        36   01 Jun 2027 10:52:18.694   01 Jun 2027 10:52:21.830             3.136                  Delhi            98.000
        37   01 Jun 2027 10:55:13.205   01 Jun 2027 10:55:50.838            37.633                  Delhi          1176.031
        38   01 Jun 2027 11:06:45.670   01 Jun 2027 11:07:16.241            30.571                Irkutsk           955.344
        39   01 Jun 2027 11:08:20.758   01 Jun 2027 11:10:50.050           149.292                 Moscow          4665.375
        40   01 Jun 2027 11:10:58.356   01 Jun 2027 11:11:39.174            40.818                Novosib          1275.563
        41   01 Jun 2027 11:11:46.122   01 Jun 2027 11:12:09.479            23.357                Norilsk           729.906
        42   01 Jun 2027 11:13:04.607   01 Jun 2027 11:13:12.466             7.859              Murmansk2           245.594
        43   01 Jun 2027 11:13:24.964   01 Jun 2027 11:13:56.441            31.477              Murmansk1           983.656
        44   01 Jun 2027 12:29:51.508   01 Jun 2027 12:32:17.629           146.121                  Delhi          4566.281
        45   01 Jun 2027 12:33:06.162   01 Jun 2027 12:34:11.129            64.967                  Delhi          2030.219
        46   01 Jun 2027 12:37:30.532   01 Jun 2027 12:38:07.512            36.980                 Moscow          1155.625
        47   01 Jun 2027 12:39:03.431   01 Jun 2027 12:39:05.871             2.440                 Moscow            76.250
        48   01 Jun 2027 12:39:42.253   01 Jun 2027 12:42:00.817           138.564                Novosib          4330.125
        49   01 Jun 2027 12:42:24.981   01 Jun 2027 12:43:02.406            37.425                Norilsk          1169.531
        50   01 Jun 2027 12:45:40.465   01 Jun 2027 12:46:15.444            34.979                Norilsk          1093.094
        51   01 Jun 2027 12:49:26.242   01 Jun 2027 12:49:37.143            10.901                Norilsk           340.656
        52   01 Jun 2027 14:12:45.381   01 Jun 2027 14:14:24.092            98.711                 Moscow          3084.719
        53   01 Jun 2027 14:15:51.268   01 Jun 2027 14:16:56.613            65.345                 Moscow          2042.031
        54   01 Jun 2027 14:17:25.843   01 Jun 2027 14:20:16.975           171.132              Murmansk1          5347.875
        55   01 Jun 2027 14:20:36.116   01 Jun 2027 14:20:38.900             2.784              Murmansk1            87.000
        56   01 Jun 2027 14:21:38.053   01 Jun 2027 14:21:46.598             8.545              Murmansk2           267.031
        57   01 Jun 2027 14:22:16.572   01 Jun 2027 14:23:10.771            54.199              Murmansk2          1693.719
        58   01 Jun 2027 14:24:37.583   01 Jun 2027 14:24:58.650            21.067                Norilsk           658.344
        59   01 Jun 2027 14:31:47.369   01 Jun 2027 14:33:09.464            82.095                Anadyr2          2565.469
        60   01 Jun 2027 14:33:29.042   01 Jun 2027 14:34:53.452            84.410                Anadyr1          2637.813
        61   01 Jun 2027 15:26:02.646   01 Jun 2027 15:26:37.439            34.793               CapeTown          1087.281
        62   01 Jun 2027 15:52:36.666   01 Jun 2027 15:52:44.049             7.383                 Moscow           230.719
        63   01 Jun 2027 15:54:25.850   01 Jun 2027 15:56:56.542           150.692              Murmansk2          4709.125
        64   01 Jun 2027 15:57:10.203   01 Jun 2027 15:57:29.386            19.183              Murmansk2           599.469
        65   01 Jun 2027 16:06:39.945   01 Jun 2027 16:09:17.127           157.182                Anadyr2          4911.937
        66   01 Jun 2027 17:02:46.683   01 Jun 2027 17:03:54.810            68.127               CapeTown          2128.969
        67   01 Jun 2027 17:35:43.433   01 Jun 2027 17:39:37.702           234.269              Murmansk2          7320.906
        68   01 Jun 2027 17:42:29.066   01 Jun 2027 17:44:27.643           118.577                Anadyr1          3705.531
        69   01 Jun 2027 17:45:06.735   01 Jun 2027 17:47:08.711           121.976               Magadan1          3811.750
        70   01 Jun 2027 17:49:05.599   01 Jun 2027 17:49:33.355            27.756               Magadan2           867.375
        71   01 Jun 2027 17:51:04.458   01 Jun 2027 17:51:04.982             0.524               Magadan1            16.375
        72   01 Jun 2027 17:52:50.920   01 Jun 2027 17:53:06.345            15.425               Magadan2           482.031
        73   01 Jun 2027 19:18:24.264   01 Jun 2027 19:20:22.737           118.473                Anadyr1          3702.281
        74   01 Jun 2027 19:20:33.931   01 Jun 2027 19:22:27.877           113.946                Anadyr2          3560.812
        75   01 Jun 2027 19:22:45.098   01 Jun 2027 19:24:03.367            78.269                Norilsk          2445.906
        76   01 Jun 2027 19:24:25.420   01 Jun 2027 19:25:09.704            44.284               Magadan2          1383.875
        77   01 Jun 2027 19:28:57.567   01 Jun 2027 19:29:37.036            39.469               Magadan1          1233.406
        78   01 Jun 2027 20:13:06.943   01 Jun 2027 20:16:29.634           202.691            RioGallegos          6334.094
        79   01 Jun 2027 20:17:48.080   01 Jun 2027 20:17:56.593             8.513            RioGallegos           266.031
        80   01 Jun 2027 20:54:04.390   01 Jun 2027 20:56:28.422           144.032                Anadyr2          4501.000
        81   01 Jun 2027 20:56:35.381   01 Jun 2027 20:59:18.425           163.044                Norilsk          5095.125
        82   01 Jun 2027 21:00:34.292   01 Jun 2027 21:01:38.494            64.202                Irkutsk          2006.313
        83   01 Jun 2027 21:01:56.574   01 Jun 2027 21:02:18.060            21.486                Irkutsk           671.437
        84   01 Jun 2027 21:03:39.175   01 Jun 2027 21:03:41.574             2.399                Irkutsk            74.969
        85   01 Jun 2027 21:04:26.290   01 Jun 2027 21:04:35.537             9.247                Novosib           288.969
        86   01 Jun 2027 21:14:28.175   01 Jun 2027 21:15:18.320            50.145                Sumatra          1567.031
        87   01 Jun 2027 21:16:35.679   01 Jun 2027 21:17:51.586            75.907                Sumatra          2372.094
        88   01 Jun 2027 22:32:10.910   01 Jun 2027 22:33:29.677            78.767                Norilsk          2461.469
        89   01 Jun 2027 22:33:39.130   01 Jun 2027 22:33:44.536             5.406                Norilsk           168.938
        90   01 Jun 2027 22:34:17.056   01 Jun 2027 22:34:59.272            42.216               Magadan1          1319.250
        91   01 Jun 2027 22:35:21.225   01 Jun 2027 22:35:36.712            15.487               Magadan1           483.969
        92   01 Jun 2027 22:35:44.522   01 Jun 2027 22:36:27.437            42.915               Magadan1          1341.094
        93   01 Jun 2027 22:36:37.179   01 Jun 2027 22:37:26.419            49.240                Novosib          1538.750
        94   01 Jun 2027 22:38:00.770   01 Jun 2027 22:38:56.281            55.511                Novosib          1734.719
        95   01 Jun 2027 22:44:21.684   01 Jun 2027 22:47:31.487           189.803                  Delhi          5931.344
        96   02 Jun 2027 00:03:41.370   02 Jun 2027 00:04:09.171            27.801                Anadyr2           868.781
        97   02 Jun 2027 00:05:01.888   02 Jun 2027 00:05:17.250            15.362                Anadyr2           480.062
        98   02 Jun 2027 00:08:07.626   02 Jun 2027 00:08:15.590             7.964                Anadyr2           248.875
        99   02 Jun 2027 00:08:21.596   02 Jun 2027 00:08:28.210             6.614                Anadyr2           206.687
       100   02 Jun 2027 00:08:28.470   02 Jun 2027 00:10:04.717            96.247               Magadan1          3007.719
       101   02 Jun 2027 00:10:37.849   02 Jun 2027 00:13:38.411           180.562              Murmansk1          5642.562
       102   02 Jun 2027 00:15:39.719   02 Jun 2027 00:16:05.982            26.263              Murmansk2           820.719
       103   02 Jun 2027 00:16:09.406   02 Jun 2027 00:16:16.136             6.730                 Moscow           210.313
       104   02 Jun 2027 00:16:47.446   02 Jun 2027 00:18:10.613            83.167                 Moscow          2598.969
       105   02 Jun 2027 01:03:12.808   02 Jun 2027 01:03:54.431            41.623            RioGallegos          1300.719
       106   02 Jun 2027 01:35:58.307   02 Jun 2027 01:36:35.451            37.144                Anadyr2          1160.750
       107   02 Jun 2027 01:36:51.022   02 Jun 2027 01:37:31.358            40.336                Anadyr1          1260.500
       108   02 Jun 2027 01:38:07.876   02 Jun 2027 01:38:42.675            34.799                Anadyr1          1087.469
       109   02 Jun 2027 01:38:50.753   02 Jun 2027 01:39:12.712            21.959                Anadyr1           686.219
       110   02 Jun 2027 01:41:20.872   02 Jun 2027 01:42:45.903            85.031               Magadan2          2657.219
       111   02 Jun 2027 01:42:53.741   02 Jun 2027 01:43:00.155             6.414               Magadan1           200.438
       112   02 Jun 2027 01:43:24.582   02 Jun 2027 01:43:49.024            24.442               Magadan1           763.812
       113   02 Jun 2027 01:45:09.142   02 Jun 2027 01:45:59.830            50.688               Magadan2          1584.000
       114   02 Jun 2027 01:46:18.579   02 Jun 2027 01:47:07.730            49.151              Murmansk2          1535.969
       115   02 Jun 2027 01:47:16.580   02 Jun 2027 01:48:18.079            61.499              Murmansk1          1921.844
       116   02 Jun 2027 01:49:44.782   02 Jun 2027 01:50:52.677            67.895                 Moscow          2121.719
       117   02 Jun 2027 02:14:22.111   02 Jun 2027 02:14:57.774            35.663               CapeTown          1114.469
       118   02 Jun 2027 02:15:47.490   02 Jun 2027 02:16:05.935            18.445               CapeTown           576.406
       119   02 Jun 2027 02:18:51.406   02 Jun 2027 02:19:07.396            15.990               CapeTown           499.688
       120   02 Jun 2027 02:20:29.036   02 Jun 2027 02:20:57.994            28.958               CapeTown           904.938
       121   02 Jun 2027 03:10:19.278   02 Jun 2027 03:11:45.296            86.018                Anadyr2          2688.063
       122   02 Jun 2027 03:30:30.534   02 Jun 2027 03:31:30.550            60.016              Murmansk1          1875.500
       123   02 Jun 2027 03:31:44.055   02 Jun 2027 03:32:07.301            23.246                 Moscow           726.438
       124   02 Jun 2027 03:32:07.890   02 Jun 2027 03:32:38.160            30.270              Murmansk1           945.937
       125   02 Jun 2027 03:32:38.160   02 Jun 2027 03:33:10.051            31.891              Murmansk2           996.594
       126   02 Jun 2027 03:33:24.953   02 Jun 2027 03:33:55.620            30.667              Murmansk2           958.344
       127   02 Jun 2027 04:52:53.785   02 Jun 2027 04:53:17.033            23.248               Magadan2           726.500
       128   02 Jun 2027 04:53:28.884   02 Jun 2027 04:55:11.070           102.186                Anadyr2          3193.312
       129   02 Jun 2027 04:55:47.774   02 Jun 2027 04:56:43.684            55.910               Magadan1          1747.187
       130   02 Jun 2027 04:57:10.788   02 Jun 2027 04:57:13.706             2.918                Anadyr2            91.187
       131   02 Jun 2027 04:57:34.882   02 Jun 2027 04:57:40.391             5.509                Anadyr2           172.156
       132   02 Jun 2027 04:57:50.572   02 Jun 2027 04:58:09.149            18.577               Magadan2           580.531
       133   02 Jun 2027 06:29:24.775   02 Jun 2027 06:30:32.799            68.024                Irkutsk          2125.750
       134   02 Jun 2027 06:31:02.018   02 Jun 2027 06:31:34.531            32.513               Magadan2          1016.031
       135   02 Jun 2027 06:31:45.414   02 Jun 2027 06:32:10.959            25.545                Norilsk           798.281
       136   02 Jun 2027 06:32:21.287   02 Jun 2027 06:32:28.218             6.931                Irkutsk           216.594
       137   02 Jun 2027 06:32:32.703   02 Jun 2027 06:34:36.912           124.209               Magadan2          3881.531
       138   02 Jun 2027 06:35:19.890   02 Jun 2027 06:35:31.609            11.719                Norilsk           366.219
       139   02 Jun 2027 06:35:52.831   02 Jun 2027 06:35:56.562             3.731              Murmansk2           116.594
       140   02 Jun 2027 07:10:45.362   02 Jun 2027 07:11:23.596            38.234            RioGallegos          1194.813
       141   02 Jun 2027 08:05:01.521   02 Jun 2027 08:06:17.858            76.337               Magadan1          2385.531
       142   02 Jun 2027 08:06:22.885   02 Jun 2027 08:08:59.421           156.536               Magadan1          4891.750
       143   02 Jun 2027 08:09:21.727   02 Jun 2027 08:09:34.322            12.595              Murmansk1           393.594
       144   02 Jun 2027 08:09:35.680   02 Jun 2027 08:09:40.515             4.835              Murmansk1           151.094
       145   02 Jun 2027 08:09:42.491   02 Jun 2027 08:10:05.030            22.539                Novosib           704.344
       146   02 Jun 2027 08:10:12.562   02 Jun 2027 08:10:17.020             4.458                Irkutsk           139.312
       147   02 Jun 2027 08:10:21.306   02 Jun 2027 08:10:38.033            16.727                Norilsk           522.719
       148   02 Jun 2027 08:10:38.355   02 Jun 2027 08:11:25.422            47.067                Novosib          1470.844
       149   02 Jun 2027 08:11:35.981   02 Jun 2027 08:12:48.086            72.105              Murmansk1          2253.281
       150   02 Jun 2027 08:45:01.370   02 Jun 2027 08:45:59.985            58.615            RioGallegos          1831.719
       151   02 Jun 2027 09:20:19.570   02 Jun 2027 09:21:57.110            97.540                Sumatra          3048.125
       152   02 Jun 2027 09:22:45.380   02 Jun 2027 09:23:20.676            35.296                Sumatra          1103.000
       153   02 Jun 2027 09:40:37.881   02 Jun 2027 09:41:33.605            55.724                Irkutsk          1741.375
       154   02 Jun 2027 09:42:16.209   02 Jun 2027 09:44:44.038           147.829                Irkutsk          4619.656
       155   02 Jun 2027 09:45:01.804   02 Jun 2027 09:45:41.458            39.654                Novosib          1239.187
       156   02 Jun 2027 09:45:52.781   02 Jun 2027 09:46:16.863            24.082                Irkutsk           752.563
       157   02 Jun 2027 10:23:05.408   02 Jun 2027 10:23:22.833            17.425            RioGallegos           544.531
       158   02 Jun 2027 10:27:28.847   02 Jun 2027 10:27:58.406            29.559            RioGallegos           923.719
       159   02 Jun 2027 10:57:19.011   02 Jun 2027 10:57:52.377            33.366                Sumatra          1042.687
       160   02 Jun 2027 10:58:42.645   02 Jun 2027 11:00:18.420            95.775                Sumatra          2992.969
       161   02 Jun 2027 11:07:08.161   02 Jun 2027 11:07:19.296            11.135                  Delhi           347.969
       162   02 Jun 2027 11:19:44.975   02 Jun 2027 11:21:44.760           119.785              Murmansk2          3743.281
       163   02 Jun 2027 12:42:46.740   02 Jun 2027 12:44:59.010           132.270                  Delhi          4133.438
       164   02 Jun 2027 12:46:53.543   02 Jun 2027 12:47:10.534            16.991                  Delhi           530.969
       165   02 Jun 2027 12:49:37.698   02 Jun 2027 12:50:08.408            30.710                 Moscow           959.687
       166   02 Jun 2027 12:51:04.327   02 Jun 2027 12:51:17.663            13.336                 Moscow           416.750
       167   02 Jun 2027 12:51:19.043   02 Jun 2027 12:51:42.684            23.641                Novosib           738.781
       168   02 Jun 2027 12:51:59.800   02 Jun 2027 12:54:39.822           160.022              Murmansk2          5000.688
       169   02 Jun 2027 12:55:38.050   02 Jun 2027 12:55:40.068             2.018                Norilsk            63.063
       170   02 Jun 2027 12:55:55.612   02 Jun 2027 12:56:39.511            43.899                Norilsk          1371.844
       171   02 Jun 2027 13:01:28.145   02 Jun 2027 13:01:39.125            10.980                Norilsk           343.125
       172   02 Jun 2027 14:05:06.536   02 Jun 2027 14:07:07.514           120.978               CapeTown          3780.563
       173   02 Jun 2027 14:08:38.377   02 Jun 2027 14:08:45.534             7.157               CapeTown           223.656
       174   02 Jun 2027 14:08:58.187   02 Jun 2027 14:09:04.718             6.531               CapeTown           204.094
       175   02 Jun 2027 14:10:17.205   02 Jun 2027 14:11:02.930            45.725               CapeTown          1428.906
       176   02 Jun 2027 14:24:59.636   02 Jun 2027 14:25:57.708            58.072                 Moscow          1814.750
       177   02 Jun 2027 14:26:21.073   02 Jun 2027 14:26:25.499             4.426                 Moscow           138.313
       178   02 Jun 2027 14:28:26.528   02 Jun 2027 14:29:55.288            88.760              Murmansk1          2773.750
       179   02 Jun 2027 14:31:17.317   02 Jun 2027 14:31:34.444            17.127              Murmansk2           535.219
       180   02 Jun 2027 14:32:07.005   02 Jun 2027 14:33:02.858            55.853              Murmansk1          1745.406
       181   02 Jun 2027 14:43:31.045   02 Jun 2027 14:43:55.605            24.560                Anadyr1           767.500
       182   02 Jun 2027 14:44:21.191   02 Jun 2027 14:45:08.269            47.078                Anadyr2          1471.188
       183   02 Jun 2027 14:46:17.709   02 Jun 2027 14:47:45.181            87.472                Anadyr2          2733.500
       184   02 Jun 2027 15:37:59.662   02 Jun 2027 15:38:57.092            57.430               CapeTown          1794.687
       185   02 Jun 2027 16:05:47.837   02 Jun 2027 16:06:32.192            44.355                 Moscow          1386.094
       186   02 Jun 2027 16:06:54.478   02 Jun 2027 16:07:16.396            21.918              Murmansk2           684.937
       187   02 Jun 2027 16:07:31.040   02 Jun 2027 16:07:52.561            21.521              Murmansk1           672.531
       188   02 Jun 2027 16:08:40.950   02 Jun 2027 16:09:11.663            30.713              Murmansk2           959.781
       189   02 Jun 2027 16:09:31.186   02 Jun 2027 16:10:02.303            31.117              Murmansk2           972.406
       190   02 Jun 2027 16:11:16.716   02 Jun 2027 16:11:55.934            39.218              Murmansk1          1225.562
       191   02 Jun 2027 16:18:39.295   02 Jun 2027 16:20:49.489           130.194                Anadyr1          4068.562
       192   02 Jun 2027 16:23:52.393   02 Jun 2027 16:25:59.488           127.095               Magadan1          3971.719
       193   02 Jun 2027 16:26:20.373   02 Jun 2027 16:26:25.399             5.026               Magadan2           157.062
       194   02 Jun 2027 17:15:13.068   02 Jun 2027 17:16:02.914            49.846               CapeTown          1557.687
       195   02 Jun 2027 17:49:13.822   02 Jun 2027 17:50:51.866            98.044              Murmansk1          3063.875
       196   02 Jun 2027 17:54:30.508   02 Jun 2027 17:57:20.943           170.435                Anadyr2          5326.094
       197   02 Jun 2027 17:57:27.650   02 Jun 2027 18:00:57.370           209.720               Magadan2          6553.750
       198   02 Jun 2027 19:30:25.020   02 Jun 2027 19:32:24.233           119.213                Anadyr1          3725.406
       199   02 Jun 2027 19:32:31.309   02 Jun 2027 19:34:16.331           105.022                Anadyr2          3281.938
       200   02 Jun 2027 19:34:24.321   02 Jun 2027 19:36:26.277           121.956               Magadan1          3811.125
       201   02 Jun 2027 20:24:53.396   02 Jun 2027 20:28:10.612           197.216            RioGallegos          6163.000
       202   02 Jun 2027 21:06:01.351   02 Jun 2027 21:07:04.802            63.451                Anadyr2          1982.844
       203   02 Jun 2027 21:07:21.456   02 Jun 2027 21:08:13.268            51.812                Anadyr2          1619.125
       204   02 Jun 2027 21:08:16.153   02 Jun 2027 21:10:39.964           143.811                Norilsk          4494.094
       205   02 Jun 2027 21:12:27.243   02 Jun 2027 21:13:40.425            73.182                Irkutsk          2286.938
       206   02 Jun 2027 21:13:57.141   02 Jun 2027 21:14:23.159            26.018                Irkutsk           813.063
       207   02 Jun 2027 21:14:27.569   02 Jun 2027 21:15:25.539            57.970                Novosib          1811.563
       208   02 Jun 2027 21:16:40.646   02 Jun 2027 21:17:40.362            59.716                Novosib          1866.125
       209   02 Jun 2027 21:26:12.634   02 Jun 2027 21:28:37.551           144.917                Sumatra          4528.656
       210   02 Jun 2027 21:29:38.849   02 Jun 2027 21:29:51.272            12.423                Sumatra           388.219
       211   02 Jun 2027 22:44:12.924   02 Jun 2027 22:45:50.722            97.798                Norilsk          3056.188
       212   02 Jun 2027 22:47:14.045   02 Jun 2027 22:47:34.112            20.067               Magadan1           627.094
       213   02 Jun 2027 22:47:53.687   02 Jun 2027 22:48:07.469            13.782                Norilsk           430.688
       214   02 Jun 2027 22:48:13.366   02 Jun 2027 22:49:30.985            77.619                Novosib          2425.594
       215   02 Jun 2027 22:49:38.123   02 Jun 2027 22:50:09.544            31.421                Novosib           981.906
       216   02 Jun 2027 22:50:44.431   02 Jun 2027 22:51:26.200            41.769                Novosib          1305.281
       217   02 Jun 2027 22:56:01.285   02 Jun 2027 22:59:07.145           185.860                  Delhi          5808.125
       218   03 Jun 2027 00:15:49.553   03 Jun 2027 00:16:48.714            59.161                Anadyr1          1848.781
       219   03 Jun 2027 00:20:12.162   03 Jun 2027 00:20:25.315            13.153                Norilsk           411.031
       220   03 Jun 2027 00:20:43.806   03 Jun 2027 00:23:19.905           156.099               Magadan1          4878.094
       221   03 Jun 2027 00:23:41.943   03 Jun 2027 00:25:04.431            82.488              Murmansk1          2577.750
       222   03 Jun 2027 00:25:07.112   03 Jun 2027 00:25:38.771            31.659                Novosib           989.344
       223   03 Jun 2027 00:27:26.699   03 Jun 2027 00:28:12.242            45.543                 Moscow          1423.219
       224   03 Jun 2027 00:28:45.386   03 Jun 2027 00:29:55.553            70.167                 Moscow          2192.719
       225   03 Jun 2027 00:31:58.068   03 Jun 2027 00:32:20.232            22.164                  Delhi           692.625
       226   03 Jun 2027 00:40:06.380   03 Jun 2027 00:40:31.150            24.770                  Delhi           774.062
       227   03 Jun 2027 01:47:43.258   03 Jun 2027 01:50:26.064           162.806                Anadyr1          5087.687
       228   03 Jun 2027 01:50:26.064   03 Jun 2027 01:50:47.618            21.554                Anadyr2           673.563
       229   03 Jun 2027 01:52:48.566   03 Jun 2027 01:53:31.632            43.066                Anadyr2          1345.812
       230   03 Jun 2027 01:54:05.144   03 Jun 2027 01:54:24.807            19.663               Magadan1           614.469
       231   03 Jun 2027 01:54:32.224   03 Jun 2027 01:54:54.815            22.591               Magadan2           705.969
       232   03 Jun 2027 01:55:42.332   03 Jun 2027 01:56:38.195            55.863               Magadan1          1745.719
       233   03 Jun 2027 01:58:19.988   03 Jun 2027 01:59:38.092            78.104              Murmansk2          2440.750
       234   03 Jun 2027 02:00:22.304   03 Jun 2027 02:02:18.424           116.120                Novosib          3628.750
       235   03 Jun 2027 02:12:44.649   03 Jun 2027 02:13:35.608            50.959                 Moscow          1592.469
       236   03 Jun 2027 02:26:01.763   03 Jun 2027 02:26:48.976            47.213               CapeTown          1475.406
       237   03 Jun 2027 02:34:12.320   03 Jun 2027 02:34:48.226            35.906               CapeTown          1122.062
       238   03 Jun 2027 03:29:26.161   03 Jun 2027 03:33:20.548           234.387                Anadyr1          7324.594
       239   03 Jun 2027 03:42:03.846   03 Jun 2027 03:44:09.250           125.404              Murmansk1          3918.875
       240   03 Jun 2027 03:44:09.250   03 Jun 2027 03:44:51.938            42.688              Murmansk2          1334.000
       241   03 Jun 2027 03:46:00.205   03 Jun 2027 03:47:15.591            75.386              Murmansk1          2355.812
       242   03 Jun 2027 05:03:46.393   03 Jun 2027 05:05:16.988            90.595                Anadyr1          2831.094
       243   03 Jun 2027 05:05:30.532   03 Jun 2027 05:07:35.656           125.124                Anadyr1          3910.125
       244   03 Jun 2027 05:07:35.656   03 Jun 2027 05:08:14.304            38.648                Anadyr2          1207.750
       245   03 Jun 2027 05:09:15.341   03 Jun 2027 05:09:45.683            30.342                Anadyr2           948.187
       246   03 Jun 2027 06:40:23.097   03 Jun 2027 06:41:25.534            62.437                Anadyr1          1951.156
       247   03 Jun 2027 06:42:11.004   03 Jun 2027 06:43:30.864            79.860               Magadan2          2495.625
       248   03 Jun 2027 06:43:31.895   03 Jun 2027 06:44:14.103            42.208                Anadyr2          1319.000
       249   03 Jun 2027 06:44:29.053   03 Jun 2027 06:45:30.342            61.289                Irkutsk          1915.281
       250   03 Jun 2027 06:45:39.942   03 Jun 2027 06:46:00.586            20.644              Murmansk1           645.125
       251   03 Jun 2027 07:22:22.882   03 Jun 2027 07:23:22.357            59.475            RioGallegos          1858.594
       252   03 Jun 2027 08:16:41.302   03 Jun 2027 08:18:31.939           110.637                Novosib          3457.406
       253   03 Jun 2027 08:18:46.836   03 Jun 2027 08:20:11.756            84.920                Norilsk          2653.750
       254   03 Jun 2027 08:20:17.080   03 Jun 2027 08:20:48.816            31.736                Norilsk           991.750
       255   03 Jun 2027 08:20:52.729   03 Jun 2027 08:22:41.576           108.847              Murmansk2          3401.469
       256   03 Jun 2027 08:23:30.106   03 Jun 2027 08:24:08.952            38.846              Murmansk2          1213.937
       257   03 Jun 2027 08:57:17.482   03 Jun 2027 08:58:10.440            52.958            RioGallegos          1654.938
       258   03 Jun 2027 09:32:07.265   03 Jun 2027 09:33:02.488            55.223                Sumatra          1725.719
       259   03 Jun 2027 09:34:59.527   03 Jun 2027 09:35:20.680            21.153                Sumatra           661.031
       260   03 Jun 2027 09:53:19.656   03 Jun 2027 09:54:14.653            54.997                Novosib          1718.656
       261   03 Jun 2027 09:54:26.061   03 Jun 2027 09:55:54.459            88.398                Irkutsk          2762.437
       262   03 Jun 2027 09:55:56.410   03 Jun 2027 09:57:34.664            98.254              Murmansk2          3070.437
       263   03 Jun 2027 09:57:39.759   03 Jun 2027 09:58:18.433            38.674                 Moscow          1208.563
       264   03 Jun 2027 10:00:46.031   03 Jun 2027 10:00:48.552             2.521              Murmansk2            78.781
       265   03 Jun 2027 10:35:47.534   03 Jun 2027 10:37:03.944            76.410            RioGallegos          2387.813
       266   03 Jun 2027 10:40:19.272   03 Jun 2027 10:40:28.675             9.403            RioGallegos           293.844
       267   03 Jun 2027 11:10:11.803   03 Jun 2027 11:12:06.274           114.471                Sumatra          3577.219
       268   03 Jun 2027 11:18:55.388   03 Jun 2027 11:19:44.979            49.591                  Delhi          1549.719
       269   03 Jun 2027 11:30:15.415   03 Jun 2027 11:30:46.068            30.653                Novosib           957.906
       270   03 Jun 2027 11:30:51.571   03 Jun 2027 11:32:03.226            71.655                Irkutsk          2239.219
       271   03 Jun 2027 11:32:10.949   03 Jun 2027 11:33:16.956            66.007                Novosib          2062.719
       272   03 Jun 2027 11:33:21.403   03 Jun 2027 11:33:22.908             1.505                Novosib            47.031
       273   03 Jun 2027 11:33:25.073   03 Jun 2027 11:34:16.901            51.828                 Moscow          1619.625
       274   03 Jun 2027 12:56:11.541   03 Jun 2027 12:58:57.589           166.048                  Delhi          5189.000
       275   03 Jun 2027 13:01:44.145   03 Jun 2027 13:02:08.626            24.481                 Moscow           765.031
       276   03 Jun 2027 13:03:26.410   03 Jun 2027 13:04:13.326            46.916                 Moscow          1466.125
       277   03 Jun 2027 13:04:14.768   03 Jun 2027 13:06:58.578           163.810              Murmansk1          5119.063
       278   03 Jun 2027 13:08:49.689   03 Jun 2027 13:09:18.153            28.464                Norilsk           889.500
       279   03 Jun 2027 13:11:47.551   03 Jun 2027 13:12:03.589            16.038                Norilsk           501.188
       280   03 Jun 2027 14:16:09.493   03 Jun 2027 14:18:45.635           156.142               CapeTown          4879.437
       281   03 Jun 2027 14:21:32.772   03 Jun 2027 14:22:08.528            35.756               CapeTown          1117.375
       282   03 Jun 2027 14:40:39.631   03 Jun 2027 14:42:01.155            81.524              Murmansk1          2547.625
       283   03 Jun 2027 14:43:19.046   03 Jun 2027 14:43:58.772            39.726              Murmansk1          1241.437
       284   03 Jun 2027 14:45:32.225   03 Jun 2027 14:45:50.635            18.410              Murmansk2           575.312
       285   03 Jun 2027 14:47:19.971   03 Jun 2027 14:47:38.699            18.728              Murmansk1           585.250
       286   03 Jun 2027 14:49:39.241   03 Jun 2027 14:51:04.939            85.698              Murmansk1          2678.062
       287   03 Jun 2027 14:55:19.776   03 Jun 2027 14:55:56.639            36.863                Anadyr2          1151.969
       288   03 Jun 2027 14:57:03.175   03 Jun 2027 14:57:35.953            32.778                Anadyr1          1024.313
       289   03 Jun 2027 14:58:27.625   03 Jun 2027 14:58:54.064            26.439                Anadyr1           826.219
       290   03 Jun 2027 15:00:46.385   03 Jun 2027 15:01:03.413            17.028                Anadyr2           532.125
       291   03 Jun 2027 15:53:06.495   03 Jun 2027 15:53:33.140            26.645               CapeTown           832.656
       292   03 Jun 2027 15:58:33.365   03 Jun 2027 15:58:39.151             5.786               CapeTown           180.812
       293   03 Jun 2027 16:01:48.849   03 Jun 2027 16:02:46.570            57.721               CapeTown          1803.781
       294   03 Jun 2027 16:19:25.862   03 Jun 2027 16:20:38.548            72.686              Murmansk1          2271.437
       295   03 Jun 2027 16:21:12.906   03 Jun 2027 16:21:33.125            20.219              Murmansk1           631.844
       296   03 Jun 2027 16:22:54.498   03 Jun 2027 16:23:18.662            24.164              Murmansk1           755.125
       297   03 Jun 2027 16:30:39.150   03 Jun 2027 16:32:46.511           127.361                Anadyr1          3980.031
       298   03 Jun 2027 16:32:47.896   03 Jun 2027 16:33:03.407            15.511                Anadyr2           484.719
       299   03 Jun 2027 16:34:51.335   03 Jun 2027 16:37:55.284           183.949               Magadan1          5748.406
       300   03 Jun 2027 18:06:31.988   03 Jun 2027 18:08:53.112           141.124                Anadyr1          4410.125
       301   03 Jun 2027 18:08:59.222   03 Jun 2027 18:11:24.260           145.038               Magadan2          4532.438
       302   03 Jun 2027 18:12:46.983   03 Jun 2027 18:14:09.815            82.832               Magadan2          2588.500
       303   03 Jun 2027 18:19:57.903   03 Jun 2027 18:20:06.482             8.579               Magadan2           268.094
       304   03 Jun 2027 19:42:25.509   03 Jun 2027 19:46:15.854           230.345                Anadyr1          7198.281
       305   03 Jun 2027 19:46:21.418   03 Jun 2027 19:48:46.064           144.646               Magadan2          4520.187
       306   03 Jun 2027 19:51:19.940   03 Jun 2027 19:51:24.776             4.836               Magadan1           151.125
       307   03 Jun 2027 19:51:26.317   03 Jun 2027 19:53:28.206           121.889                Irkutsk          3809.031
       308   03 Jun 2027 19:54:00.468   03 Jun 2027 19:54:51.148            50.680                Irkutsk          1583.750
       309   03 Jun 2027 20:36:43.240   03 Jun 2027 20:37:40.372            57.132            RioGallegos          1785.375
       310   03 Jun 2027 20:38:36.795   03 Jun 2027 20:39:55.195            78.400            RioGallegos          2450.000
       311   03 Jun 2027 21:20:16.846   03 Jun 2027 21:22:20.424           123.578                Norilsk          3861.813
       312   03 Jun 2027 21:23:13.773   03 Jun 2027 21:23:51.202            37.429                Anadyr2          1169.656
       313   03 Jun 2027 21:24:57.828   03 Jun 2027 21:25:49.427            51.599                Norilsk          1612.469
       314   03 Jun 2027 21:25:49.543   03 Jun 2027 21:27:11.488            81.945                Novosib          2560.781
       315   03 Jun 2027 21:28:33.728   03 Jun 2027 21:28:50.887            17.159                Novosib           536.219
       316   03 Jun 2027 21:29:46.337   03 Jun 2027 21:30:32.723            46.386                Novosib          1449.563
       317   03 Jun 2027 21:38:03.387   03 Jun 2027 21:38:54.025            50.638                Sumatra          1582.437
       318   03 Jun 2027 21:45:44.249   03 Jun 2027 21:46:29.622            45.373                Sumatra          1417.906
       319   03 Jun 2027 21:48:11.258   03 Jun 2027 21:48:40.317            29.059                Sumatra           908.094
       320   03 Jun 2027 22:56:14.967   03 Jun 2027 22:57:55.368           100.401                Norilsk          3137.531
       321   03 Jun 2027 22:58:08.590   03 Jun 2027 22:58:24.142            15.552               Magadan1           486.000
       322   03 Jun 2027 22:59:53.195   03 Jun 2027 23:00:44.754            51.559               Magadan2          1611.219
       323   03 Jun 2027 23:01:15.693   03 Jun 2027 23:02:20.590            64.897                Novosib          2028.031
       324   03 Jun 2027 23:02:53.489   03 Jun 2027 23:03:20.927            27.438                Novosib           857.437
       325   03 Jun 2027 23:07:46.723   03 Jun 2027 23:10:03.694           136.971                  Delhi          4280.344
       326   03 Jun 2027 23:15:02.874   03 Jun 2027 23:15:21.768            18.894                  Delhi           590.438
       327   03 Jun 2027 23:19:36.689   03 Jun 2027 23:19:37.505             0.816                  Delhi            25.500
       328   04 Jun 2027 00:25:59.625   04 Jun 2027 00:26:57.709            58.084                Anadyr1          1815.125
       329   04 Jun 2027 00:26:57.709   04 Jun 2027 00:27:59.936            62.227                Anadyr2          1944.594
       330   04 Jun 2027 00:31:22.124   04 Jun 2027 00:31:37.066            14.942                Anadyr2           466.937
       331   04 Jun 2027 00:32:07.546   04 Jun 2027 00:34:42.105           154.559               Magadan2          4829.969
       332   04 Jun 2027 00:34:44.815   04 Jun 2027 00:36:48.855           124.040              Murmansk2          3876.250
       333   04 Jun 2027 00:38:22.067   04 Jun 2027 00:38:39.202            17.135              Murmansk2           535.469
       334   04 Jun 2027 00:38:56.721   04 Jun 2027 00:39:04.789             8.068              Murmansk2           252.125
       335   04 Jun 2027 00:39:11.042   04 Jun 2027 00:40:12.009            60.967                 Moscow          1905.219
       336   04 Jun 2027 00:42:53.617   04 Jun 2027 00:43:22.322            28.705                 Moscow           897.031
       337   04 Jun 2027 01:09:06.479   04 Jun 2027 01:09:36.453            29.974               CapeTown           936.688
       338   04 Jun 2027 01:59:29.332   04 Jun 2027 02:01:13.667           104.335                Anadyr1          3260.469
       339   04 Jun 2027 02:01:40.027   04 Jun 2027 02:02:06.671            26.644                Anadyr1           832.625
       340   04 Jun 2027 02:02:50.128   04 Jun 2027 02:02:53.012             2.884                Anadyr2            90.125
       341   04 Jun 2027 02:03:45.794   04 Jun 2027 02:03:55.766             9.972                Anadyr1           311.625
       342   04 Jun 2027 02:04:00.171   04 Jun 2027 02:04:42.574            42.403                Anadyr1          1325.094
       343   04 Jun 2027 02:04:56.635   04 Jun 2027 02:06:05.555            68.920               Magadan1          2153.750
       344   04 Jun 2027 02:08:57.170   04 Jun 2027 02:08:58.025             0.855               Magadan2            26.719
       345   04 Jun 2027 02:09:16.662   04 Jun 2027 02:09:23.303             6.641                Norilsk           207.531
       346   04 Jun 2027 02:09:36.011   04 Jun 2027 02:09:46.947            10.936                Norilsk           341.750
       347   04 Jun 2027 02:10:21.558   04 Jun 2027 02:11:38.710            77.152              Murmansk1          2411.000
       348   04 Jun 2027 02:12:29.820   04 Jun 2027 02:14:34.663           124.843                Novosib          3901.344
       349   04 Jun 2027 02:25:35.510   04 Jun 2027 02:26:18.535            43.025                 Moscow          1344.531
       350   04 Jun 2027 02:41:28.738   04 Jun 2027 02:41:30.248             1.510               CapeTown            47.187
       351   04 Jun 2027 02:42:29.847   04 Jun 2027 02:44:02.449            92.602               CapeTown          2893.812
       352   04 Jun 2027 03:41:27.551   04 Jun 2027 03:44:10.587           163.036                Anadyr2          5094.875
       353   04 Jun 2027 03:45:26.235   04 Jun 2027 03:45:44.070            17.835                Anadyr2           557.344
       354   04 Jun 2027 03:46:10.098   04 Jun 2027 03:46:59.410            49.312                Anadyr1          1541.000
       355   04 Jun 2027 03:53:13.169   04 Jun 2027 03:53:51.613            38.444                Norilsk          1201.375
       356   04 Jun 2027 03:57:03.806   04 Jun 2027 03:57:16.127            12.321              Murmansk2           385.031
       357   04 Jun 2027 03:58:56.978   04 Jun 2027 03:59:16.589            19.611              Murmansk2           612.844
       358   04 Jun 2027 05:17:01.537   04 Jun 2027 05:18:52.606           111.069               Magadan2          3470.906
       359   04 Jun 2027 05:18:52.606   04 Jun 2027 05:19:10.237            17.631               Magadan1           550.969
       360   04 Jun 2027 05:19:13.159   04 Jun 2027 05:20:09.866            56.707                Anadyr2          1772.094
       361   04 Jun 2027 05:20:43.201   04 Jun 2027 05:21:53.083            69.882                Anadyr1          2183.813
       362   04 Jun 2027 05:21:53.083   04 Jun 2027 05:22:45.075            51.992                Anadyr2          1624.750
       363   04 Jun 2027 06:51:42.622   04 Jun 2027 06:51:49.000             6.378                Irkutsk           199.312
       364   04 Jun 2027 06:52:05.669   04 Jun 2027 06:57:06.725           301.056                Anadyr2          9408.000
       365   04 Jun 2027 06:57:53.482   04 Jun 2027 06:58:30.241            36.759              Murmansk1          1148.719
       366   04 Jun 2027 07:01:07.070   04 Jun 2027 07:01:14.408             7.338                Norilsk           229.313
       367   04 Jun 2027 07:04:54.046   04 Jun 2027 07:05:19.078            25.032              Murmansk2           782.250
       368   04 Jun 2027 07:34:03.780   04 Jun 2027 07:35:33.779            89.999            RioGallegos          2812.469
       369   04 Jun 2027 08:27:39.741   04 Jun 2027 08:27:48.677             8.936                Novosib           279.250
       370   04 Jun 2027 08:27:51.701   04 Jun 2027 08:30:00.843           129.142               Magadan1          4035.688
       371   04 Jun 2027 08:30:09.067   04 Jun 2027 08:31:10.882            61.815               Magadan1          1931.719
       372   04 Jun 2027 08:31:23.771   04 Jun 2027 08:31:39.355            15.584                Irkutsk           487.000
       373   04 Jun 2027 08:31:49.069   04 Jun 2027 08:33:05.163            76.094               Magadan1          2377.937
       374   04 Jun 2027 08:33:05.163   04 Jun 2027 08:33:21.775            16.612               Magadan2           519.125
       375   04 Jun 2027 08:33:29.996   04 Jun 2027 08:34:33.465            63.469              Murmansk1          1983.406
       376   04 Jun 2027 08:36:45.543   04 Jun 2027 08:36:50.047             4.504              Murmansk1           140.750
       377   04 Jun 2027 08:38:38.303   04 Jun 2027 08:38:48.835            10.532              Murmansk2           329.125
       378   04 Jun 2027 08:40:10.996   04 Jun 2027 08:40:21.162            10.166              Murmansk1           317.687
       379   04 Jun 2027 09:09:11.775   04 Jun 2027 09:10:13.072            61.297            RioGallegos          1915.531
       380   04 Jun 2027 09:44:00.948   04 Jun 2027 09:44:43.778            42.830                Sumatra          1338.437
       381   04 Jun 2027 09:47:00.554   04 Jun 2027 09:47:11.532            10.978                Sumatra           343.063
       382   04 Jun 2027 09:47:53.840   04 Jun 2027 09:48:01.455             7.615                Sumatra           237.969
       383   04 Jun 2027 09:52:26.172   04 Jun 2027 09:52:38.171            11.999                Sumatra           374.969
       384   04 Jun 2027 09:54:43.661   04 Jun 2027 09:55:03.509            19.848                  Delhi           620.250
       385   04 Jun 2027 09:58:49.494   04 Jun 2027 09:59:16.391            26.897                  Delhi           840.531
       386   04 Jun 2027 10:05:00.370   04 Jun 2027 10:05:21.632            21.262                Irkutsk           664.437
       387   04 Jun 2027 10:05:22.053   04 Jun 2027 10:05:28.024             5.971                Novosib           186.594
       388   04 Jun 2027 10:06:09.534   04 Jun 2027 10:06:09.913             0.379                Norilsk            11.844
       389   04 Jun 2027 10:06:16.010   04 Jun 2027 10:07:10.470            54.460                Novosib          1701.875
       390   04 Jun 2027 10:07:17.940   04 Jun 2027 10:07:39.492            21.552                Irkutsk           673.500
       391   04 Jun 2027 10:07:50.677   04 Jun 2027 10:07:52.275             1.598                Irkutsk            49.937
       392   04 Jun 2027 10:07:56.221   04 Jun 2027 10:09:08.348            72.127                 Moscow          2253.969
       393   04 Jun 2027 10:09:13.216   04 Jun 2027 10:10:10.801            57.585                Irkutsk          1799.531
       394   04 Jun 2027 10:10:16.923   04 Jun 2027 10:10:29.735            12.812                Norilsk           400.375
       395   04 Jun 2027 10:12:35.731   04 Jun 2027 10:12:47.142            11.411              Murmansk2           356.594
       396   04 Jun 2027 10:15:35.730   04 Jun 2027 10:15:39.211             3.481              Murmansk2           108.781
       397   04 Jun 2027 10:17:33.281   04 Jun 2027 10:17:35.497             2.216              Murmansk2            69.250
       398   04 Jun 2027 10:48:39.955   04 Jun 2027 10:49:11.021            31.066            RioGallegos           970.812
       399   04 Jun 2027 10:49:54.125   04 Jun 2027 10:50:30.921            36.796            RioGallegos          1149.875
       400   04 Jun 2027 10:55:54.881   04 Jun 2027 10:56:07.625            12.744            RioGallegos           398.250
       401   04 Jun 2027 11:23:43.044   04 Jun 2027 11:24:00.161            17.117                Sumatra           534.906
       402   04 Jun 2027 11:24:31.623   04 Jun 2027 11:25:20.318            48.695                Sumatra          1521.719
       403   04 Jun 2027 11:30:36.289   04 Jun 2027 11:30:50.211            13.922                  Delhi           435.062
       404   04 Jun 2027 11:31:21.516   04 Jun 2027 11:32:38.749            77.233                  Delhi          2413.531
       405   04 Jun 2027 11:42:19.631   04 Jun 2027 11:42:46.508            26.877                Novosib           839.906
       406   04 Jun 2027 11:42:53.306   04 Jun 2027 11:42:56.088             2.782                Irkutsk            86.937
       407   04 Jun 2027 11:42:57.784   04 Jun 2027 11:43:27.332            29.548              Murmansk2           923.375
       408   04 Jun 2027 11:43:31.523   04 Jun 2027 11:44:05.147            33.624              Murmansk2          1050.750
       409   04 Jun 2027 11:44:16.046   04 Jun 2027 11:45:00.970            44.924                Novosib          1403.875
       410   04 Jun 2027 11:45:10.867   04 Jun 2027 11:46:31.312            80.445                 Moscow          2513.906
       411   04 Jun 2027 13:12:37.388   04 Jun 2027 13:13:39.813            62.425                 Moscow          1950.781
       412   04 Jun 2027 13:13:49.978   04 Jun 2027 13:14:08.095            18.117                 Moscow           566.156
       413   04 Jun 2027 13:15:14.273   04 Jun 2027 13:16:30.953            76.680                 Moscow          2396.250
       414   04 Jun 2027 13:17:00.156   04 Jun 2027 13:19:12.178           132.022              Murmansk1          4125.688
       415   04 Jun 2027 13:19:22.322   04 Jun 2027 13:19:44.893            22.571              Murmansk2           705.344
       416   04 Jun 2027 13:20:00.200   04 Jun 2027 13:21:46.790           106.590                Norilsk          3330.937
       417   04 Jun 2027 14:27:32.484   04 Jun 2027 14:29:09.876            97.392               CapeTown          3043.500
       418   04 Jun 2027 14:30:24.959   04 Jun 2027 14:30:29.724             4.765               CapeTown           148.906
       419   04 Jun 2027 14:31:41.314   04 Jun 2027 14:32:24.431            43.117               CapeTown          1347.406
       420   04 Jun 2027 14:32:53.268   04 Jun 2027 14:34:03.248            69.980               CapeTown          2186.875
       421   04 Jun 2027 14:50:34.753   04 Jun 2027 14:50:37.306             2.553                 Moscow            79.781
       422   04 Jun 2027 14:52:54.683   04 Jun 2027 14:55:20.689           146.006              Murmansk2          4562.687
       423   04 Jun 2027 15:03:27.348   04 Jun 2027 15:04:06.899            39.551              Murmansk1          1235.969
       424   04 Jun 2027 15:07:11.707   04 Jun 2027 15:09:07.532           115.825                Anadyr2          3619.531
       425   04 Jun 2027 15:10:17.801   04 Jun 2027 15:10:22.089             4.288                Anadyr1           134.000
       426   04 Jun 2027 15:10:33.907   04 Jun 2027 15:11:16.160            42.253                Anadyr1          1320.406
       427   04 Jun 2027 16:05:11.313   04 Jun 2027 16:05:49.145            37.832               CapeTown          1182.250
       428   04 Jun 2027 16:12:59.103   04 Jun 2027 16:13:41.908            42.805               CapeTown          1337.656
       429   04 Jun 2027 16:32:00.257   04 Jun 2027 16:33:35.159            94.902              Murmansk2          2965.687
       430   04 Jun 2027 16:34:49.648   04 Jun 2027 16:35:20.522            30.874              Murmansk1           964.812
       431   04 Jun 2027 16:36:58.055   04 Jun 2027 16:37:24.283            26.228              Murmansk1           819.625
       432   04 Jun 2027 16:42:39.414   04 Jun 2027 16:43:51.046            71.632                Anadyr1          2238.500
       433   04 Jun 2027 16:43:52.858   04 Jun 2027 16:44:29.974            37.116                Anadyr2          1159.875
       434   04 Jun 2027 16:46:01.271   04 Jun 2027 16:46:33.599            32.328                Anadyr1          1010.250
       435   04 Jun 2027 16:47:26.859   04 Jun 2027 16:49:30.929           124.070               Magadan1          3877.188
       436   04 Jun 2027 16:49:37.045   04 Jun 2027 16:50:15.367            38.322               Magadan2          1197.563
       437   04 Jun 2027 18:18:33.471   04 Jun 2027 18:22:13.304           219.833                Anadyr2          6869.781
       438   04 Jun 2027 18:22:24.477   04 Jun 2027 18:23:16.286            51.809               Magadan1          1619.031
       439   04 Jun 2027 18:23:22.547   04 Jun 2027 18:24:34.491            71.944               Magadan2          2248.250
       440   04 Jun 2027 19:54:25.682   04 Jun 2027 19:56:26.901           121.219                Anadyr2          3788.094
       441   04 Jun 2027 19:56:28.516   04 Jun 2027 19:58:32.918           124.402                Anadyr1          3887.563
       442   04 Jun 2027 19:58:35.267   04 Jun 2027 20:00:49.717           134.450               Magadan1          4201.562
       443   04 Jun 2027 20:01:57.590   04 Jun 2027 20:02:30.259            32.669               Magadan1          1020.906
       444   04 Jun 2027 20:02:56.596   04 Jun 2027 20:03:05.026             8.430                Norilsk           263.438
       445   04 Jun 2027 20:04:33.525   04 Jun 2027 20:06:00.519            86.994                Irkutsk          2718.562
       446   04 Jun 2027 20:06:50.217   04 Jun 2027 20:08:20.777            90.560                Irkutsk          2830.000
       447   04 Jun 2027 20:19:21.637   04 Jun 2027 20:19:45.009            23.372                Sumatra           730.375
       448   04 Jun 2027 20:20:47.778   04 Jun 2027 20:22:24.840            97.062                Sumatra          3033.187
       449   04 Jun 2027 21:31:56.152   04 Jun 2027 21:32:10.778            14.626                Anadyr1           457.063
       450   04 Jun 2027 21:32:17.908   04 Jun 2027 21:33:39.271            81.363                Norilsk          2542.594
       451   04 Jun 2027 21:34:07.692   04 Jun 2027 21:35:17.026            69.334               Magadan2          2166.688
       452   04 Jun 2027 21:37:25.013   04 Jun 2027 21:38:54.812            89.799                Novosib          2806.219
       453   04 Jun 2027 21:41:25.856   04 Jun 2027 21:41:52.982            27.126                Novosib           847.687
       454   04 Jun 2027 21:49:59.922   04 Jun 2027 21:50:52.691            52.769                Sumatra          1649.031
       455   04 Jun 2027 21:52:28.508   04 Jun 2027 21:52:56.544            28.036                Sumatra           876.125
       456   04 Jun 2027 21:58:45.022   04 Jun 2027 21:59:11.553            26.531                Sumatra           829.094
       457   04 Jun 2027 23:04:18.141   04 Jun 2027 23:06:21.657           123.516                Anadyr2          3859.875
       458   04 Jun 2027 23:08:17.001   04 Jun 2027 23:08:37.553            20.552                Norilsk           642.250
       459   04 Jun 2027 23:08:53.768   04 Jun 2027 23:09:36.849            43.081               Magadan2          1346.281
       460   04 Jun 2027 23:09:36.849   04 Jun 2027 23:10:23.693            46.844               Magadan1          1463.875
       461   04 Jun 2027 23:12:09.120   04 Jun 2027 23:13:40.280            91.160                Novosib          2848.750
       462   04 Jun 2027 23:14:16.031   04 Jun 2027 23:14:22.573             6.542              Murmansk2           204.438
       463   04 Jun 2027 23:17:33.257   04 Jun 2027 23:17:59.823            26.566                Novosib           830.188
       464   04 Jun 2027 23:19:36.844   04 Jun 2027 23:20:44.629            67.785                  Delhi          2118.281
       465   04 Jun 2027 23:23:55.552   04 Jun 2027 23:25:43.445           107.893                  Delhi          3371.656
       466   05 Jun 2027 00:37:40.701   05 Jun 2027 00:37:51.621            10.920                Anadyr1           341.250
       467   05 Jun 2027 00:37:53.274   05 Jun 2027 00:38:01.350             8.076                Anadyr2           252.375
       468   05 Jun 2027 00:38:19.359   05 Jun 2027 00:38:58.872            39.513                Anadyr2          1234.781
       469   05 Jun 2027 00:40:02.773   05 Jun 2027 00:40:30.818            28.045                Anadyr1           876.406
       470   05 Jun 2027 00:40:32.387   05 Jun 2027 00:40:44.338            11.951                Anadyr1           373.469
       471   05 Jun 2027 00:42:45.180   05 Jun 2027 00:42:56.141            10.961                Anadyr1           342.531
       472   05 Jun 2027 00:43:31.567   05 Jun 2027 00:43:54.500            22.933                Anadyr1           716.656
       473   05 Jun 2027 00:44:05.271   05 Jun 2027 00:46:18.625           133.354               Magadan2          4167.312
       474   05 Jun 2027 00:46:31.567   05 Jun 2027 00:49:11.359           159.792              Murmansk2          4993.500
       475   05 Jun 2027 00:53:46.588   05 Jun 2027 00:54:03.952            17.364                 Moscow           542.625
       476   05 Jun 2027 01:00:25.511   05 Jun 2027 01:01:21.090            55.579                  Delhi          1736.844
       477   05 Jun 2027 01:18:25.355   05 Jun 2027 01:19:04.384            39.029               CapeTown          1219.656
       478   05 Jun 2027 01:19:38.566   05 Jun 2027 01:19:43.950             5.384               CapeTown           168.250
       479   05 Jun 2027 01:21:07.816   05 Jun 2027 01:21:19.960            12.144               CapeTown           379.500
       480   05 Jun 2027 02:11:16.622   05 Jun 2027 02:12:41.611            84.989                Anadyr1          2655.906
       481   05 Jun 2027 02:13:40.390   05 Jun 2027 02:13:56.059            15.669                Anadyr1           489.656
       482   05 Jun 2027 02:14:40.974   05 Jun 2027 02:14:44.020             3.046                Anadyr2            95.188
