uniorb/output/strategy_1/Drop/Drop_KinoSat_111910.txt

KinoSat_111910
-------------------------
    Access    *     Start Time (UTCG)     *     Stop Time (UTCG)  *   Duration (s)        *       Station  *  Data (Mbytes)
         1   01 Jun 2027 03:51:51.240   01 Jun 2027 03:53:15.320            84.080                 Moscow          2627.500
         2   01 Jun 2027 03:53:21.835   01 Jun 2027 03:56:42.660           200.825                Novosib          6275.781
         3   01 Jun 2027 03:57:26.322   01 Jun 2027 03:57:34.532             8.210                Norilsk           256.562
         4   01 Jun 2027 03:58:28.280   01 Jun 2027 04:01:03.126           154.846                  Delhi          4838.937
         5   01 Jun 2027 05:30:18.874   01 Jun 2027 05:32:45.712           146.838                Norilsk          4588.688
         6   01 Jun 2027 05:32:51.675   01 Jun 2027 05:33:53.174            61.499                 Moscow          1921.844
         7   01 Jun 2027 05:34:02.039   01 Jun 2027 05:35:07.545            65.506              Murmansk2          2047.062
         8   01 Jun 2027 05:35:45.209   01 Jun 2027 05:38:50.795           185.586                 Moscow          5799.563
         9   01 Jun 2027 05:50:34.965   01 Jun 2027 05:53:59.923           204.958               CapeTown          6404.937
        10   01 Jun 2027 05:59:58.648   01 Jun 2027 06:02:13.240           134.592               CapeTown          4206.000
        11   01 Jun 2027 06:54:38.629   01 Jun 2027 06:56:27.167           108.538                Anadyr2          3391.813
        12   01 Jun 2027 06:57:26.055   01 Jun 2027 06:58:22.224            56.169               Magadan1          1755.281
        13   01 Jun 2027 07:05:42.894   01 Jun 2027 07:08:53.394           190.500                 Moscow          5953.125
        14   01 Jun 2027 07:11:02.571   01 Jun 2027 07:11:33.943            31.372                 Moscow           980.375
        15   01 Jun 2027 07:11:43.686   01 Jun 2027 07:11:50.883             7.197                 Moscow           224.906
        16   01 Jun 2027 07:27:01.416   01 Jun 2027 07:29:19.430           138.014               CapeTown          4312.938
        17   01 Jun 2027 07:31:31.646   01 Jun 2027 07:32:03.435            31.789               CapeTown           993.406
        18   01 Jun 2027 08:29:54.116   01 Jun 2027 08:34:16.345           262.229                Anadyr2          8194.656
        19   01 Jun 2027 10:03:45.249   01 Jun 2027 10:04:37.858            52.609                Anadyr1          1644.031
        20   01 Jun 2027 10:05:04.447   01 Jun 2027 10:06:32.615            88.168                Irkutsk          2755.250
        21   01 Jun 2027 10:07:05.267   01 Jun 2027 10:07:22.978            17.711                Irkutsk           553.469
        22   01 Jun 2027 10:07:24.172   01 Jun 2027 10:08:19.964            55.792               Magadan2          1743.500
        23   01 Jun 2027 10:08:33.945   01 Jun 2027 10:11:04.851           150.906                Anadyr2          4715.812
        24   01 Jun 2027 11:37:59.947   01 Jun 2027 11:44:19.651           379.704               Magadan1         11865.750
        25   01 Jun 2027 11:46:01.903   01 Jun 2027 11:46:15.438            13.535               Magadan1           422.969
        26   01 Jun 2027 11:47:15.306   01 Jun 2027 11:47:38.938            23.632                Novosib           738.500
        27   01 Jun 2027 12:56:43.179   01 Jun 2027 12:57:28.085            44.906                Sumatra          1403.313
        28   01 Jun 2027 12:59:41.937   01 Jun 2027 12:59:48.498             6.561                Sumatra           205.031
        29   01 Jun 2027 13:00:13.557   01 Jun 2027 13:00:31.122            17.565                Sumatra           548.906
        30   01 Jun 2027 13:01:47.246   01 Jun 2027 13:02:48.045            60.799                Sumatra          1899.969
        31   01 Jun 2027 13:09:16.122   01 Jun 2027 13:09:21.580             5.458                Sumatra           170.563
        32   01 Jun 2027 13:10:30.611   01 Jun 2027 13:13:20.966           170.355                Irkutsk          5323.594
        33   01 Jun 2027 13:15:05.835   01 Jun 2027 13:16:07.712            61.877                Norilsk          1933.656
        34   01 Jun 2027 13:17:36.464   01 Jun 2027 13:18:13.605            37.141                Norilsk          1160.656
        35   01 Jun 2027 14:00:42.447   01 Jun 2027 14:07:37.992           415.545            RioGallegos         12985.781
        36   01 Jun 2027 14:35:17.957   01 Jun 2027 14:41:46.529           388.572                Sumatra         12142.875
        37   01 Jun 2027 14:51:11.921   01 Jun 2027 14:56:29.266           317.345                Irkutsk          9917.031
        38   01 Jun 2027 16:21:37.071   01 Jun 2027 16:25:16.145           219.074                  Delhi          6846.062
        39   01 Jun 2027 16:29:45.979   01 Jun 2027 16:33:36.253           230.274                Novosib          7196.062
        40   01 Jun 2027 16:37:17.110   01 Jun 2027 16:37:19.255             2.145                Norilsk            67.031
        41   01 Jun 2027 18:27:30.191   01 Jun 2027 18:27:47.650            17.459                Anadyr1           545.594
        42   01 Jun 2027 18:28:12.429   01 Jun 2027 18:28:26.553            14.124                Anadyr1           441.375
        43   01 Jun 2027 19:14:39.358   01 Jun 2027 19:15:02.209            22.851               CapeTown           714.094
        44   01 Jun 2027 19:17:31.866   01 Jun 2027 19:17:45.198            13.332               CapeTown           416.625
        45   01 Jun 2027 19:18:41.945   01 Jun 2027 19:20:21.990           100.045               CapeTown          3126.406
        46   01 Jun 2027 19:23:29.237   01 Jun 2027 19:24:16.423            47.186               CapeTown          1474.562
        47   01 Jun 2027 19:27:23.873   01 Jun 2027 19:27:24.049             0.176               CapeTown             5.500
        48   01 Jun 2027 19:44:15.040   01 Jun 2027 19:45:03.022            47.982              Murmansk1          1499.437
        49   01 Jun 2027 19:45:05.499   01 Jun 2027 19:49:37.156           271.657              Murmansk2          8489.281
        50   01 Jun 2027 19:51:00.798   01 Jun 2027 19:51:51.138            50.340              Murmansk1          1573.125
        51   01 Jun 2027 20:52:49.375   01 Jun 2027 20:59:02.690           373.315               CapeTown         11666.094
        52   01 Jun 2027 21:36:13.850   01 Jun 2027 21:37:35.433            81.583               Magadan1          2549.469
        53   01 Jun 2027 21:40:17.654   01 Jun 2027 21:40:35.275            17.621               Magadan1           550.656
        54   01 Jun 2027 21:41:57.562   01 Jun 2027 21:42:09.149            11.587               Magadan2           362.094
        55   01 Jun 2027 21:43:08.743   01 Jun 2027 21:43:40.519            31.776               Magadan2           993.000
        56   01 Jun 2027 21:44:23.534   01 Jun 2027 21:44:33.519             9.985               Magadan2           312.031
        57   01 Jun 2027 21:45:34.253   01 Jun 2027 21:45:39.527             5.274               Magadan2           164.812
        58   01 Jun 2027 23:07:05.860   01 Jun 2027 23:12:07.454           301.594                Anadyr1          9424.813
        59   01 Jun 2027 23:12:16.950   01 Jun 2027 23:12:59.497            42.547                Norilsk          1329.594
        60   01 Jun 2027 23:13:21.437   01 Jun 2027 23:13:44.363            22.926               Magadan1           716.438
        61   01 Jun 2027 23:14:05.130   01 Jun 2027 23:14:31.064            25.934                Norilsk           810.437
        62   01 Jun 2027 23:14:33.302   01 Jun 2027 23:15:03.403            30.101               Magadan1           940.656
        63   01 Jun 2027 23:15:30.434   01 Jun 2027 23:15:35.105             4.671                Anadyr1           145.969
        64   01 Jun 2027 23:15:40.814   01 Jun 2027 23:16:16.126            35.312               Magadan2          1103.500
        65   01 Jun 2027 23:16:38.407   01 Jun 2027 23:16:55.309            16.902                Irkutsk           528.187
        66   01 Jun 2027 23:17:14.905   01 Jun 2027 23:18:34.851            79.946                Irkutsk          2498.312
        67   02 Jun 2027 00:01:18.038   02 Jun 2027 00:02:43.318            85.280            RioGallegos          2665.000
        68   02 Jun 2027 00:04:58.008   02 Jun 2027 00:06:00.886            62.878            RioGallegos          1964.938
        69   02 Jun 2027 00:09:12.275   02 Jun 2027 00:09:37.033            24.758            RioGallegos           773.687
        70   02 Jun 2027 00:10:21.731   02 Jun 2027 00:10:47.131            25.400            RioGallegos           793.750
        71   02 Jun 2027 00:11:55.566   02 Jun 2027 00:12:19.153            23.587            RioGallegos           737.094
        72   02 Jun 2027 00:42:37.162   02 Jun 2027 00:42:58.938            21.776                Anadyr1           680.500
        73   02 Jun 2027 00:43:15.783   02 Jun 2027 00:43:44.130            28.347                Anadyr2           885.844
        74   02 Jun 2027 00:44:07.188   02 Jun 2027 00:44:55.404            48.216                Anadyr2          1506.750
        75   02 Jun 2027 00:45:13.636   02 Jun 2027 00:46:47.448            93.812                Norilsk          2931.625
        76   02 Jun 2027 00:46:50.884   02 Jun 2027 00:47:22.435            31.551               Magadan1           985.969
        77   02 Jun 2027 00:48:30.408   02 Jun 2027 00:48:51.896            21.488               Magadan2           671.500
        78   02 Jun 2027 00:48:58.940   02 Jun 2027 00:49:43.180            44.240                Irkutsk          1382.500
        79   02 Jun 2027 00:50:10.606   02 Jun 2027 00:50:39.951            29.345                Irkutsk           917.031
        80   02 Jun 2027 00:52:42.348   02 Jun 2027 00:53:05.617            23.269                Novosib           727.156
        81   02 Jun 2027 00:53:13.122   02 Jun 2027 00:53:51.188            38.066                Irkutsk          1189.563
        82   02 Jun 2027 00:56:17.409   02 Jun 2027 00:56:39.091            21.682                Novosib           677.562
        83   02 Jun 2027 00:57:13.670   02 Jun 2027 00:58:24.236            70.566                Irkutsk          2205.187
        84   02 Jun 2027 01:05:54.538   02 Jun 2027 01:06:35.555            41.017                Sumatra          1281.781
        85   02 Jun 2027 01:11:04.542   02 Jun 2027 01:11:08.240             3.698                Sumatra           115.563
        86   02 Jun 2027 01:12:13.495   02 Jun 2027 01:14:51.169           157.674                Sumatra          4927.313
        87   02 Jun 2027 01:48:49.575   02 Jun 2027 01:49:10.986            21.411            RioGallegos           669.094
        88   02 Jun 2027 02:17:09.133   02 Jun 2027 02:18:01.915            52.782                Anadyr2          1649.437
        89   02 Jun 2027 02:20:54.264   02 Jun 2027 02:22:01.275            67.011                Norilsk          2094.094
        90   02 Jun 2027 02:22:14.443   02 Jun 2027 02:22:21.022             6.579                Norilsk           205.594
        91   02 Jun 2027 02:23:18.998   02 Jun 2027 02:23:30.530            11.532               Magadan2           360.375
        92   02 Jun 2027 02:23:53.983   02 Jun 2027 02:23:57.908             3.925                Norilsk           122.656
        93   02 Jun 2027 02:24:40.995   02 Jun 2027 02:24:47.375             6.380                Norilsk           199.375
        94   02 Jun 2027 02:24:48.502   02 Jun 2027 02:26:49.914           121.412                Novosib          3794.125
        95   02 Jun 2027 02:30:13.246   02 Jun 2027 02:30:25.819            12.573                Irkutsk           392.906
        96   02 Jun 2027 02:31:22.481   02 Jun 2027 02:31:50.406            27.925                Novosib           872.656
        97   02 Jun 2027 02:33:38.765   02 Jun 2027 02:33:54.870            16.105                Irkutsk           503.281
        98   02 Jun 2027 02:36:29.730   02 Jun 2027 02:36:57.882            28.152                Irkutsk           879.750
        99   02 Jun 2027 02:39:06.813   02 Jun 2027 02:39:17.366            10.553                  Delhi           329.781
       100   02 Jun 2027 02:39:46.517   02 Jun 2027 02:41:11.254            84.737                  Delhi          2648.031
       101   02 Jun 2027 02:42:06.485   02 Jun 2027 02:45:45.215           218.730                Sumatra          6835.313
       102   02 Jun 2027 02:45:52.062   02 Jun 2027 02:46:55.032            62.970                Sumatra          1967.812
       103   02 Jun 2027 04:03:16.731   02 Jun 2027 04:03:31.618            14.887                Irkutsk           465.219
       104   02 Jun 2027 04:03:35.448   02 Jun 2027 04:04:04.562            29.114                Novosib           909.812
       105   02 Jun 2027 04:04:39.575   02 Jun 2027 04:07:43.504           183.929                Norilsk          5747.781
       106   02 Jun 2027 04:07:45.497   02 Jun 2027 04:08:11.748            26.251              Murmansk1           820.344
       107   02 Jun 2027 04:08:39.683   02 Jun 2027 04:09:31.142            51.459                Novosib          1608.094
       108   02 Jun 2027 04:09:48.647   02 Jun 2027 04:11:00.689            72.042                Novosib          2251.313
       109   02 Jun 2027 04:11:06.183   02 Jun 2027 04:12:03.304            57.121                Novosib          1785.031
       110   02 Jun 2027 04:16:25.324   02 Jun 2027 04:18:49.744           144.420                  Delhi          4513.125
       111   02 Jun 2027 05:42:10.829   02 Jun 2027 05:43:53.981           103.152                Norilsk          3223.500
       112   02 Jun 2027 05:43:58.868   02 Jun 2027 05:44:36.415            37.547              Murmansk2          1173.344
       113   02 Jun 2027 05:45:04.386   02 Jun 2027 05:47:23.480           139.094              Murmansk1          4346.688
       114   02 Jun 2027 05:47:50.529   02 Jun 2027 05:50:58.056           187.527                 Moscow          5860.219
       115   02 Jun 2027 06:02:22.179   02 Jun 2027 06:04:44.087           141.908               CapeTown          4434.625
       116   02 Jun 2027 06:05:15.492   02 Jun 2027 06:05:38.050            22.558               CapeTown           704.938
       117   02 Jun 2027 07:06:28.366   02 Jun 2027 07:10:39.090           250.724               Magadan2          7835.125
       118   02 Jun 2027 07:10:39.090   02 Jun 2027 07:11:04.328            25.238               Magadan1           788.687
       119   02 Jun 2027 07:17:35.626   02 Jun 2027 07:18:03.910            28.284                Norilsk           883.875
       120   02 Jun 2027 07:18:05.904   02 Jun 2027 07:22:05.053           239.149              Murmansk2          7473.406
       121   02 Jun 2027 07:22:15.480   02 Jun 2027 07:22:31.687            16.207                 Moscow           506.469
       122   02 Jun 2027 07:23:55.335   02 Jun 2027 07:24:46.285            50.950                 Moscow          1592.187
       123   02 Jun 2027 07:39:35.924   02 Jun 2027 07:44:23.902           287.978               CapeTown          8999.313
       124   02 Jun 2027 08:40:18.037   02 Jun 2027 08:40:56.204            38.167                Anadyr1          1192.719
       125   02 Jun 2027 08:41:41.714   02 Jun 2027 08:43:17.876            96.162               Magadan1          3005.062
       126   02 Jun 2027 08:43:48.485   02 Jun 2027 08:45:50.056           121.571                Anadyr2          3799.094
       127   02 Jun 2027 08:45:50.056   02 Jun 2027 08:47:41.296           111.240                Anadyr1          3476.250
       128   02 Jun 2027 10:15:19.330   02 Jun 2027 10:22:55.356           456.026                Anadyr1         14250.812
       129   02 Jun 2027 11:50:51.412   02 Jun 2027 11:57:57.056           425.644               Magadan1         13301.375
       130   02 Jun 2027 14:13:39.751   02 Jun 2027 14:20:39.852           420.101            RioGallegos         13128.156
       131   02 Jun 2027 14:49:39.365   02 Jun 2027 14:51:18.887            99.522                Sumatra          3110.062
       132   02 Jun 2027 15:05:28.331   02 Jun 2027 15:06:47.934            79.603                Irkutsk          2487.594
       133   02 Jun 2027 16:45:50.469   02 Jun 2027 16:48:24.129           153.660                Norilsk          4801.875
       134   02 Jun 2027 16:48:51.313   02 Jun 2027 16:51:15.999           144.686                Norilsk          4521.438
       135   02 Jun 2027 18:24:33.400   02 Jun 2027 18:25:20.542            47.142                 Moscow          1473.188
       136   02 Jun 2027 19:56:50.801   02 Jun 2027 19:59:04.387           133.586              Murmansk2          4174.562
       137   02 Jun 2027 19:59:28.208   02 Jun 2027 20:02:22.576           174.368              Murmansk2          5449.000
       138   02 Jun 2027 20:02:47.045   02 Jun 2027 20:05:22.362           155.317              Murmansk1          4853.656
       139   02 Jun 2027 21:06:08.341   02 Jun 2027 21:09:18.938           190.597               CapeTown          5956.156
       140   02 Jun 2027 23:19:06.321   02 Jun 2027 23:20:34.923            88.602                Anadyr1          2768.813
       141   02 Jun 2027 23:20:51.266   02 Jun 2027 23:20:54.812             3.546                Anadyr2           110.813
       142   02 Jun 2027 23:21:01.742   02 Jun 2027 23:21:31.067            29.325                Anadyr2           916.406
       143   02 Jun 2027 23:21:38.032   02 Jun 2027 23:22:37.189            59.157                Norilsk          1848.656
       144   02 Jun 2027 23:23:27.638   02 Jun 2027 23:23:46.868            19.230                Norilsk           600.938
       145   02 Jun 2027 23:24:08.675   02 Jun 2027 23:24:37.566            28.891               Magadan1           902.844
       146   02 Jun 2027 23:25:08.287   02 Jun 2027 23:25:43.157            34.870               Magadan1          1089.687
       147   02 Jun 2027 23:27:14.023   02 Jun 2027 23:28:01.551            47.528                Norilsk          1485.250
       148   02 Jun 2027 23:30:24.466   02 Jun 2027 23:30:48.741            24.275               Magadan1           758.594
       149   02 Jun 2027 23:31:02.446   02 Jun 2027 23:31:22.088            19.642               Magadan1           613.813
       150   02 Jun 2027 23:31:39.656   02 Jun 2027 23:32:04.493            24.837                Irkutsk           776.156
       151   02 Jun 2027 23:33:20.072   02 Jun 2027 23:34:07.762            47.690               Magadan2          1490.313
       152   02 Jun 2027 23:44:07.560   02 Jun 2027 23:44:20.041            12.481                Sumatra           390.031
       153   02 Jun 2027 23:45:50.095   02 Jun 2027 23:46:50.033            59.938                Sumatra          1873.063
       154   03 Jun 2027 00:18:01.234   03 Jun 2027 00:18:17.475            16.241            RioGallegos           507.531
       155   03 Jun 2027 00:18:34.291   03 Jun 2027 00:19:07.520            33.229            RioGallegos          1038.406
       156   03 Jun 2027 00:20:34.777   03 Jun 2027 00:20:53.391            18.614            RioGallegos           581.688
       157   03 Jun 2027 00:22:27.719   03 Jun 2027 00:22:42.399            14.680            RioGallegos           458.750
       158   03 Jun 2027 00:23:15.913   03 Jun 2027 00:23:52.201            36.288            RioGallegos          1134.000
       159   03 Jun 2027 00:54:32.409   03 Jun 2027 00:54:41.837             9.428                Anadyr1           294.625
       160   03 Jun 2027 00:54:49.075   03 Jun 2027 00:55:36.287            47.212                Anadyr2          1475.375
       161   03 Jun 2027 00:56:05.672   03 Jun 2027 00:56:49.831            44.159                Anadyr1          1379.969
       162   03 Jun 2027 00:56:56.215   03 Jun 2027 00:57:16.085            19.870                Norilsk           620.938
       163   03 Jun 2027 00:57:32.868   03 Jun 2027 00:58:53.864            80.996               Magadan1          2531.125
       164   03 Jun 2027 01:00:56.371   03 Jun 2027 01:02:12.119            75.748                Irkutsk          2367.125
       165   03 Jun 2027 01:04:02.774   03 Jun 2027 01:04:09.398             6.624                Novosib           207.000
       166   03 Jun 2027 01:05:12.112   03 Jun 2027 01:05:27.071            14.959                Novosib           467.469
       167   03 Jun 2027 01:05:45.242   03 Jun 2027 01:06:43.048            57.806                Irkutsk          1806.437
       168   03 Jun 2027 01:09:08.438   03 Jun 2027 01:09:57.417            48.979                Irkutsk          1530.594
       169   03 Jun 2027 01:14:57.399   03 Jun 2027 01:17:05.100           127.701                Sumatra          3990.656
       170   03 Jun 2027 01:24:07.683   03 Jun 2027 01:24:16.993             9.310                Sumatra           290.937
       171   03 Jun 2027 01:25:43.111   03 Jun 2027 01:27:21.966            98.855                Sumatra          3089.219
       172   03 Jun 2027 01:57:31.572   03 Jun 2027 01:57:48.257            16.685            RioGallegos           521.406
       173   03 Jun 2027 01:58:18.969   03 Jun 2027 01:58:31.512            12.543            RioGallegos           391.969
       174   03 Jun 2027 02:30:01.244   03 Jun 2027 02:30:21.245            20.001                Anadyr1           625.031
       175   03 Jun 2027 02:31:18.870   03 Jun 2027 02:31:28.100             9.230                Anadyr2           288.437
       176   03 Jun 2027 02:32:17.921   03 Jun 2027 02:32:34.124            16.203                Anadyr1           506.344
       177   03 Jun 2027 02:32:56.705   03 Jun 2027 02:33:44.859            48.154                Norilsk          1504.812
       178   03 Jun 2027 02:34:38.487   03 Jun 2027 02:35:21.646            43.159               Magadan1          1348.719
       179   03 Jun 2027 02:36:54.052   03 Jun 2027 02:37:09.704            15.652                Irkutsk           489.125
       180   03 Jun 2027 02:38:34.329   03 Jun 2027 02:38:48.487            14.158                Irkutsk           442.438
       181   03 Jun 2027 02:39:25.649   03 Jun 2027 02:39:33.938             8.289                Irkutsk           259.031
       182   03 Jun 2027 02:39:50.691   03 Jun 2027 02:40:56.447            65.756                Irkutsk          2054.875
       183   03 Jun 2027 02:45:00.198   03 Jun 2027 02:45:28.583            28.385                Irkutsk           887.031
       184   03 Jun 2027 02:47:51.510   03 Jun 2027 02:48:13.926            22.416                Novosib           700.500
       185   03 Jun 2027 02:48:53.044   03 Jun 2027 02:48:55.337             2.293                Irkutsk            71.656
       186   03 Jun 2027 02:49:19.973   03 Jun 2027 02:49:32.666            12.693                Novosib           396.656
       187   03 Jun 2027 02:51:54.731   03 Jun 2027 02:53:43.950           109.219                  Delhi          3413.094
       188   03 Jun 2027 03:26:41.292   03 Jun 2027 03:27:08.762            27.470            RioGallegos           858.438
       189   03 Jun 2027 03:28:17.908   03 Jun 2027 03:28:26.060             8.152            RioGallegos           254.750
       190   03 Jun 2027 03:29:41.916   03 Jun 2027 03:30:14.472            32.556            RioGallegos          1017.375
       191   03 Jun 2027 03:33:01.060   03 Jun 2027 03:34:08.360            67.300            RioGallegos          2103.125
       192   03 Jun 2027 04:15:29.940   03 Jun 2027 04:19:08.700           218.760                Novosib          6836.250
       193   03 Jun 2027 04:19:10.628   03 Jun 2027 04:20:41.201            90.573                Irkutsk          2830.406
       194   03 Jun 2027 04:21:25.141   03 Jun 2027 04:22:16.228            51.087                Novosib          1596.469
       195   03 Jun 2027 04:29:16.748   03 Jun 2027 04:30:19.849            63.101                  Delhi          1971.906
       196   03 Jun 2027 05:54:44.489   03 Jun 2027 05:55:47.079            62.590              Murmansk2          1955.938
       197   03 Jun 2027 05:55:57.967   03 Jun 2027 05:58:12.652           134.685              Murmansk2          4208.906
       198   03 Jun 2027 05:58:17.470   03 Jun 2027 06:00:10.040           112.570                 Moscow          3517.812
       199   03 Jun 2027 07:18:50.087   03 Jun 2027 07:18:56.571             6.484               Magadan2           202.625
       200   03 Jun 2027 07:18:58.427   03 Jun 2027 07:19:54.452            56.025                Anadyr2          1750.781
       201   03 Jun 2027 07:20:30.065   03 Jun 2027 07:22:33.786           123.721                Anadyr2          3866.281
       202   03 Jun 2027 07:52:21.837   03 Jun 2027 07:56:51.677           269.840               CapeTown          8432.500
       203   03 Jun 2027 08:51:28.239   03 Jun 2027 08:52:43.777            75.538                Anadyr2          2360.562
       204   03 Jun 2027 08:54:42.034   03 Jun 2027 08:59:41.245           299.211                Anadyr1          9350.344
       205   03 Jun 2027 10:23:22.580   03 Jun 2027 10:25:40.824           138.244               Magadan2          4320.125
       206   03 Jun 2027 10:26:40.886   03 Jun 2027 10:27:59.689            78.803               Magadan1          2462.594
       207   03 Jun 2027 10:27:59.689   03 Jun 2027 10:28:31.124            31.435               Magadan2           982.344
       208   03 Jun 2027 10:29:05.544   03 Jun 2027 10:30:09.991            64.447                Irkutsk          2013.969
       209   03 Jun 2027 10:30:25.318   03 Jun 2027 10:30:46.012            20.694                Irkutsk           646.688
       210   03 Jun 2027 10:30:51.510   03 Jun 2027 10:31:45.705            54.195                Norilsk          1693.594
       211   03 Jun 2027 10:31:54.702   03 Jun 2027 10:32:42.989            48.287                Irkutsk          1508.969
       212   03 Jun 2027 10:32:50.752   03 Jun 2027 10:35:13.731           142.979               Magadan1          4468.094
       213   03 Jun 2027 11:17:29.552   03 Jun 2027 11:18:30.544            60.992            RioGallegos          1906.000
       214   03 Jun 2027 11:48:13.709   03 Jun 2027 11:49:42.228            88.519                Sumatra          2766.219
       215   03 Jun 2027 12:03:55.107   03 Jun 2027 12:09:29.314           334.207               Magadan2         10443.969
       216   03 Jun 2027 13:23:48.657   03 Jun 2027 13:24:58.560            69.903                Sumatra          2184.469
       217   03 Jun 2027 13:29:27.096   03 Jun 2027 13:29:49.003            21.907                Sumatra           684.594
       218   03 Jun 2027 13:30:20.922   03 Jun 2027 13:33:19.235           178.313                Sumatra          5572.281
       219   03 Jun 2027 13:40:17.187   03 Jun 2027 13:42:00.256           103.069                Irkutsk          3220.906
       220   03 Jun 2027 14:26:57.661   03 Jun 2027 14:31:53.505           295.844            RioGallegos          9245.125
       221   03 Jun 2027 15:18:05.446   03 Jun 2027 15:18:12.590             7.144                Novosib           223.250
       222   03 Jun 2027 15:20:29.080   03 Jun 2027 15:22:27.792           118.712                Novosib          3709.750
       223   03 Jun 2027 16:49:16.155   03 Jun 2027 16:50:33.307            77.152                 Moscow          2411.000
       224   03 Jun 2027 16:54:09.180   03 Jun 2027 16:54:32.533            23.353              Murmansk1           729.781
       225   03 Jun 2027 16:57:09.446   03 Jun 2027 17:03:11.869           362.423                Norilsk         11325.719
       226   03 Jun 2027 18:26:55.645   03 Jun 2027 18:28:00.345            64.700                 Moscow          2021.875
       227   03 Jun 2027 18:29:57.528   03 Jun 2027 18:30:51.193            53.665              Murmansk1          1677.031
       228   03 Jun 2027 18:31:25.696   03 Jun 2027 18:31:51.723            26.027                 Moscow           813.344
       229   03 Jun 2027 18:33:45.944   03 Jun 2027 18:34:17.426            31.482              Murmansk2           983.812
       230   03 Jun 2027 18:37:43.452   03 Jun 2027 18:39:39.531           116.079              Murmansk1          3627.469
       231   03 Jun 2027 19:39:47.211   03 Jun 2027 19:41:21.694            94.483               CapeTown          2952.594
       232   03 Jun 2027 19:47:35.077   03 Jun 2027 19:47:52.043            16.966               CapeTown           530.188
       233   03 Jun 2027 20:09:30.017   03 Jun 2027 20:11:07.917            97.900              Murmansk1          3059.375
       234   03 Jun 2027 20:11:13.163   03 Jun 2027 20:17:19.025           365.862              Murmansk2         11433.188
       235   03 Jun 2027 21:55:15.536   03 Jun 2027 21:57:02.100           106.564                Anadyr2          3330.125
       236   03 Jun 2027 21:57:09.254   03 Jun 2027 21:57:28.252            18.998                Anadyr1           593.687
       237   03 Jun 2027 21:57:29.059   03 Jun 2027 21:58:22.739            53.680                Anadyr1          1677.500
       238   03 Jun 2027 21:58:54.336   03 Jun 2027 22:00:54.490           120.154               Magadan2          3754.812
       239   03 Jun 2027 22:01:39.171   03 Jun 2027 22:01:55.421            16.250               Magadan2           507.812
       240   03 Jun 2027 22:02:21.219   03 Jun 2027 22:02:35.845            14.626               Magadan2           457.063
       241   03 Jun 2027 22:06:35.695   03 Jun 2027 22:07:12.033            36.338               Magadan2          1135.563
       242   03 Jun 2027 22:51:53.261   03 Jun 2027 22:54:08.134           134.873            RioGallegos          4214.781
       243   03 Jun 2027 23:31:06.379   03 Jun 2027 23:32:30.532            84.153                Anadyr1          2629.781
       244   03 Jun 2027 23:32:32.318   03 Jun 2027 23:33:06.078            33.760                Anadyr2          1055.000
       245   03 Jun 2027 23:33:13.245   03 Jun 2027 23:34:52.346            99.101                Norilsk          3096.906
       246   03 Jun 2027 23:35:11.715   03 Jun 2027 23:36:32.222            80.507               Magadan1          2515.844
       247   03 Jun 2027 23:36:32.222   03 Jun 2027 23:36:44.120            11.898               Magadan2           371.813
       248   03 Jun 2027 23:37:40.470   03 Jun 2027 23:38:10.008            29.538               Magadan2           923.062
       249   03 Jun 2027 23:38:18.386   03 Jun 2027 23:38:54.172            35.786                Irkutsk          1118.313
       250   03 Jun 2027 23:39:57.710   03 Jun 2027 23:40:26.546            28.836                Irkutsk           901.125
       251   03 Jun 2027 23:43:35.964   03 Jun 2027 23:44:52.293            76.329                Irkutsk          2385.281
       252   03 Jun 2027 23:53:36.266   03 Jun 2027 23:55:29.260           112.994                Sumatra          3531.062
       253   04 Jun 2027 00:35:26.227   04 Jun 2027 00:35:53.943            27.716            RioGallegos           866.125
       254   04 Jun 2027 01:06:26.604   04 Jun 2027 01:06:57.518            30.914                Anadyr1           966.063
       255   04 Jun 2027 01:07:07.230   04 Jun 2027 01:07:30.035            22.805                Anadyr1           712.656
       256   04 Jun 2027 01:08:04.703   04 Jun 2027 01:08:42.180            37.477                Anadyr1          1171.156
       257   04 Jun 2027 01:08:58.128   04 Jun 2027 01:10:52.060           113.932                Norilsk          3560.375
       258   04 Jun 2027 01:11:04.893   04 Jun 2027 01:11:51.136            46.243               Magadan1          1445.094
       259   04 Jun 2027 01:12:55.073   04 Jun 2027 01:15:59.688           184.615                Irkutsk          5769.219
       260   04 Jun 2027 01:26:44.221   04 Jun 2027 01:27:49.823            65.602                Sumatra          2050.062
       261   04 Jun 2027 01:35:17.807   04 Jun 2027 01:35:30.284            12.477                Sumatra           389.906
       262   04 Jun 2027 02:00:58.271   04 Jun 2027 02:02:34.705            96.434            RioGallegos          3013.562
       263   04 Jun 2027 02:12:24.204   04 Jun 2027 02:12:41.281            17.077            RioGallegos           533.656
       264   04 Jun 2027 02:40:38.799   04 Jun 2027 02:41:13.156            34.357                Anadyr1          1073.656
       265   04 Jun 2027 02:43:10.470   04 Jun 2027 02:43:16.063             5.593                Anadyr2           174.781
       266   04 Jun 2027 02:44:59.100   04 Jun 2027 02:46:26.294            87.194                Norilsk          2724.812
       267   04 Jun 2027 02:47:05.128   04 Jun 2027 02:47:38.822            33.694                Norilsk          1052.938
       268   04 Jun 2027 02:47:59.510   04 Jun 2027 02:48:58.943            59.433              Murmansk1          1857.281
       269   04 Jun 2027 02:48:59.670   04 Jun 2027 02:50:12.391            72.721                Irkutsk          2272.531
       270   04 Jun 2027 02:51:35.963   04 Jun 2027 02:51:40.286             4.323                Irkutsk           135.094
       271   04 Jun 2027 02:56:09.170   04 Jun 2027 02:56:57.860            48.690                  Delhi          1521.563
       272   04 Jun 2027 03:03:05.108   04 Jun 2027 03:03:50.244            45.136                  Delhi          1410.500
       273   04 Jun 2027 03:37:56.448   04 Jun 2027 03:39:31.601            95.153            RioGallegos          2973.531
       274   04 Jun 2027 04:28:18.941   04 Jun 2027 04:28:27.717             8.776                Norilsk           274.250
       275   04 Jun 2027 04:28:34.132   04 Jun 2027 04:30:38.671           124.539              Murmansk2          3891.844
       276   04 Jun 2027 04:30:38.671   04 Jun 2027 04:30:53.281            14.610              Murmansk1           456.562
       277   04 Jun 2027 04:31:07.802   04 Jun 2027 04:32:06.331            58.529                Norilsk          1829.031
       278   04 Jun 2027 04:32:29.109   04 Jun 2027 04:32:43.923            14.814              Murmansk2           462.938
       279   04 Jun 2027 04:32:57.742   04 Jun 2027 04:33:16.389            18.647                Novosib           582.719
       280   04 Jun 2027 04:33:36.015   04 Jun 2027 04:33:43.365             7.350                Novosib           229.687
       281   04 Jun 2027 04:33:45.808   04 Jun 2027 04:38:28.524           282.716                  Delhi          8834.875
       282   04 Jun 2027 06:06:55.314   04 Jun 2027 06:07:34.179            38.865              Murmansk2          1214.531
       283   04 Jun 2027 06:07:47.321   04 Jun 2027 06:08:03.156            15.835                Novosib           494.844
       284   04 Jun 2027 06:08:07.988   04 Jun 2027 06:09:51.728           103.740                 Moscow          3241.875
       285   04 Jun 2027 06:10:01.885   04 Jun 2027 06:11:04.868            62.983                 Moscow          1968.219
       286   04 Jun 2027 06:11:22.181   04 Jun 2027 06:11:46.325            24.144              Murmansk1           754.500
       287   04 Jun 2027 06:26:12.037   04 Jun 2027 06:29:25.520           193.483               CapeTown          6046.344
       288   04 Jun 2027 07:30:37.003   04 Jun 2027 07:31:25.566            48.563               Magadan1          1517.594
       289   04 Jun 2027 07:31:42.640   04 Jun 2027 07:32:34.497            51.857                Anadyr1          1620.531
       290   04 Jun 2027 07:32:39.289   04 Jun 2027 07:35:05.018           145.729                Anadyr1          4554.031
       291   04 Jun 2027 08:05:25.432   04 Jun 2027 08:09:28.522           243.090               CapeTown          7596.562
       292   04 Jun 2027 09:05:44.933   04 Jun 2027 09:06:33.190            48.257               Magadan1          1508.031
       293   04 Jun 2027 09:07:13.221   04 Jun 2027 09:07:32.643            19.422               Magadan2           606.937
       294   04 Jun 2027 09:07:35.669   04 Jun 2027 09:07:38.353             2.684                Norilsk            83.875
       295   04 Jun 2027 09:07:50.209   04 Jun 2027 09:09:24.559            94.350                Anadyr2          2948.437
       296   04 Jun 2027 09:52:28.060   04 Jun 2027 09:52:41.426            13.366            RioGallegos           417.688
       297   04 Jun 2027 09:56:34.312   04 Jun 2027 09:56:36.620             2.308            RioGallegos            72.125
       298   04 Jun 2027 10:39:26.957   04 Jun 2027 10:39:53.069            26.112                Irkutsk           816.000
       299   04 Jun 2027 10:40:29.568   04 Jun 2027 10:41:16.682            47.114               Magadan2          1472.313
       300   04 Jun 2027 10:41:16.682   04 Jun 2027 10:43:24.930           128.248               Magadan1          4007.750
       301   04 Jun 2027 10:43:25.302   04 Jun 2027 10:45:42.464           137.162                Anadyr1          4286.312
       302   04 Jun 2027 10:45:42.464   04 Jun 2027 10:46:20.584            38.120                Anadyr2          1191.250
       303   04 Jun 2027 10:46:46.160   04 Jun 2027 10:47:16.319            30.159                Norilsk           942.469
       304   04 Jun 2027 10:48:17.816   04 Jun 2027 10:48:21.485             3.669              Murmansk2           114.656
       305   04 Jun 2027 10:49:57.326   04 Jun 2027 10:50:35.214            37.888              Murmansk2          1184.000
       306   04 Jun 2027 11:22:11.563   04 Jun 2027 11:23:02.448            50.885            RioGallegos          1590.156
       307   04 Jun 2027 11:59:06.352   04 Jun 2027 12:01:04.666           118.314                Sumatra          3697.312
       308   04 Jun 2027 12:10:20.992   04 Jun 2027 12:11:36.564            75.572                Irkutsk          2361.625
       309   04 Jun 2027 12:16:13.825   04 Jun 2027 12:17:27.065            73.240                Irkutsk          2288.750
       310   04 Jun 2027 12:18:17.508   04 Jun 2027 12:20:38.271           140.763               Magadan1          4398.844
       311   04 Jun 2027 13:01:10.577   04 Jun 2027 13:03:10.063           119.486            RioGallegos          3733.938
       312   04 Jun 2027 13:38:50.259   04 Jun 2027 13:41:00.498           130.239                Sumatra          4069.969
       313   04 Jun 2027 13:52:29.520   04 Jun 2027 13:52:47.715            18.195                Irkutsk           568.594
       314   04 Jun 2027 13:55:00.867   04 Jun 2027 13:57:30.877           150.010                Irkutsk          4687.812
       315   04 Jun 2027 15:17:23.804   04 Jun 2027 15:18:16.834            53.030                  Delhi          1657.187
       316   04 Jun 2027 15:19:46.446   04 Jun 2027 15:22:29.661           163.215                  Delhi          5100.469
       317   04 Jun 2027 15:25:31.825   04 Jun 2027 15:26:45.103            73.278                Novosib          2289.937
       318   04 Jun 2027 15:29:27.445   04 Jun 2027 15:30:04.298            36.853                Norilsk          1151.656
       319   04 Jun 2027 15:30:26.138   04 Jun 2027 15:30:58.042            31.904                Novosib           997.000
       320   04 Jun 2027 15:33:27.224   04 Jun 2027 15:34:21.806            54.582                Norilsk          1705.688
       321   04 Jun 2027 17:01:19.175   04 Jun 2027 17:02:31.328            72.153                 Moscow          2254.781
       322   04 Jun 2027 17:03:05.765   04 Jun 2027 17:04:36.628            90.863                 Moscow          2839.469
       323   04 Jun 2027 17:09:58.422   04 Jun 2027 17:14:18.038           259.616                Norilsk          8113.000
       324   04 Jun 2027 18:39:29.393   04 Jun 2027 18:41:25.734           116.341                 Moscow          3635.656
       325   04 Jun 2027 18:42:17.843   04 Jun 2027 18:44:05.307           107.464              Murmansk2          3358.250
       326   04 Jun 2027 18:45:44.078   04 Jun 2027 18:46:26.488            42.410              Murmansk2          1325.313
       327   04 Jun 2027 19:51:00.631   04 Jun 2027 19:53:26.154           145.523               CapeTown          4547.594
       328   04 Jun 2027 20:22:13.262   04 Jun 2027 20:26:42.526           269.264              Murmansk2          8414.500
       329   04 Jun 2027 20:27:51.792   04 Jun 2027 20:28:19.455            27.663              Murmansk1           864.469
       330   04 Jun 2027 20:34:19.372   04 Jun 2027 20:34:27.596             8.224               Magadan1           257.000
       331   04 Jun 2027 20:34:59.431   04 Jun 2027 20:35:32.519            33.088               Magadan1          1034.000
       332   04 Jun 2027 20:40:23.333   04 Jun 2027 20:40:26.619             3.286               Magadan1           102.688
       333   04 Jun 2027 20:41:56.938   04 Jun 2027 20:41:59.560             2.622               Magadan1            81.937
       334   04 Jun 2027 22:07:17.308   04 Jun 2027 22:11:08.064           230.756                Anadyr2          7211.125
       335   04 Jun 2027 22:11:11.899   04 Jun 2027 22:12:24.612            72.713                Anadyr1          2272.281
       336   04 Jun 2027 22:12:24.910   04 Jun 2027 22:13:38.086            73.176               Magadan1          2286.750
       337   04 Jun 2027 22:13:38.086   04 Jun 2027 22:14:31.611            53.525               Magadan2          1672.656
       338   04 Jun 2027 22:14:39.884   04 Jun 2027 22:14:46.043             6.159               Magadan1           192.469
       339   04 Jun 2027 22:17:04.591   04 Jun 2027 22:17:19.667            15.076               Magadan1           471.125
       340   04 Jun 2027 22:17:30.886   04 Jun 2027 22:17:40.364             9.478               Magadan1           296.188
       341   04 Jun 2027 22:18:38.458   04 Jun 2027 22:18:57.909            19.451               Magadan1           607.844
       342   04 Jun 2027 22:20:29.421   04 Jun 2027 22:20:53.925            24.504               Magadan2           765.750
       343   04 Jun 2027 23:03:02.294   04 Jun 2027 23:05:49.852           167.558            RioGallegos          5236.188
       344   04 Jun 2027 23:43:05.982   04 Jun 2027 23:44:40.728            94.746                Anadyr1          2960.813
       345   04 Jun 2027 23:44:46.466   04 Jun 2027 23:44:58.911            12.445                Anadyr2           388.906
       346   04 Jun 2027 23:45:10.943   04 Jun 2027 23:45:27.651            16.708                Norilsk           522.125
       347   04 Jun 2027 23:45:31.578   04 Jun 2027 23:46:14.343            42.765               Magadan1          1336.406
       348   04 Jun 2027 23:46:27.370   04 Jun 2027 23:46:36.421             9.051                Norilsk           282.844
       349   04 Jun 2027 23:47:03.339   04 Jun 2027 23:48:23.918            80.579               Magadan2          2518.094
       350   04 Jun 2027 23:49:48.230   04 Jun 2027 23:50:12.487            24.257               Magadan2           758.031
       351   04 Jun 2027 23:50:25.567   04 Jun 2027 23:51:58.303            92.736                Irkutsk          2898.000
       352   05 Jun 2027 00:04:41.644   05 Jun 2027 00:05:08.009            26.365                Sumatra           823.906
       353   05 Jun 2027 00:06:17.043   05 Jun 2027 00:07:12.995            55.952                Sumatra          1748.500
       354   05 Jun 2027 00:09:16.330   05 Jun 2027 00:10:29.489            73.159                Sumatra          2286.219
       355   05 Jun 2027 00:39:56.438   05 Jun 2027 00:40:09.808            13.370            RioGallegos           417.813
       356   05 Jun 2027 00:41:26.315   05 Jun 2027 00:41:46.337            20.022            RioGallegos           625.688
       357   05 Jun 2027 00:44:38.816   05 Jun 2027 00:45:04.267            25.451            RioGallegos           795.344
       358   05 Jun 2027 01:18:19.647   05 Jun 2027 01:19:25.443            65.796                Anadyr2          2056.125
       359   05 Jun 2027 01:20:04.198   05 Jun 2027 01:20:52.603            48.405                Anadyr2          1512.656
       360   05 Jun 2027 01:21:00.236   05 Jun 2027 01:22:41.818           101.582                Norilsk          3174.437
       361   05 Jun 2027 01:22:53.787   05 Jun 2027 01:23:24.135            30.348               Magadan2           948.375
       362   05 Jun 2027 01:24:54.880   05 Jun 2027 01:27:16.477           141.597                Irkutsk          4424.906
       363   05 Jun 2027 01:28:18.223   05 Jun 2027 01:28:33.102            14.879                Novosib           464.969
       364   05 Jun 2027 01:34:55.259   05 Jun 2027 01:36:16.547            81.288                  Delhi          2540.250
       365   05 Jun 2027 01:38:54.888   05 Jun 2027 01:39:06.674            11.786                Sumatra           368.313
       366   05 Jun 2027 01:41:38.582   05 Jun 2027 01:43:39.672           121.090                Sumatra          3784.062
       367   05 Jun 2027 02:21:26.271   05 Jun 2027 02:21:40.044            13.773            RioGallegos           430.406
       368   05 Jun 2027 02:22:42.616   05 Jun 2027 02:23:45.914            63.298            RioGallegos          1978.063
       369   05 Jun 2027 02:54:23.809   05 Jun 2027 02:55:00.639            36.830                Anadyr1          1150.937
       370   05 Jun 2027 02:57:01.426   05 Jun 2027 02:57:30.000            28.574                Norilsk           892.938
       371   05 Jun 2027 02:57:35.908   05 Jun 2027 02:58:06.280            30.372                Norilsk           949.125
       372   05 Jun 2027 02:59:46.458   05 Jun 2027 03:00:45.896            59.438              Murmansk2          1857.437
       373   05 Jun 2027 03:01:06.052   05 Jun 2027 03:01:39.027            32.975               Magadan2          1030.469
       374   05 Jun 2027 03:01:50.082   05 Jun 2027 03:02:49.026            58.944               Magadan2          1842.000
       375   05 Jun 2027 03:03:03.400   05 Jun 2027 03:03:10.750             7.350                Irkutsk           229.688
       376   05 Jun 2027 03:03:18.591   05 Jun 2027 03:04:35.379            76.788              Murmansk2          2399.625
       377   05 Jun 2027 03:04:59.558   05 Jun 2027 03:05:55.117            55.559                Irkutsk          1736.219
       378   05 Jun 2027 03:06:10.375   05 Jun 2027 03:09:36.588           206.213                Novosib          6444.156
       379   05 Jun 2027 03:11:11.437   05 Jun 2027 03:11:14.913             3.476                  Delhi           108.625
       380   05 Jun 2027 03:11:43.607   05 Jun 2027 03:12:22.029            38.422                Irkutsk          1200.687
       381   05 Jun 2027 03:50:16.396   05 Jun 2027 03:51:06.288            49.892            RioGallegos          1559.125
       382   05 Jun 2027 03:53:10.878   05 Jun 2027 03:53:44.102            33.224            RioGallegos          1038.250
       383   05 Jun 2027 03:53:50.613   05 Jun 2027 03:54:38.024            47.411            RioGallegos          1481.594
       384   05 Jun 2027 04:40:29.347   05 Jun 2027 04:42:26.660           117.313                Norilsk          3666.031
       385   05 Jun 2027 04:42:31.365   05 Jun 2027 04:42:41.132             9.767                Norilsk           305.219
       386   05 Jun 2027 04:42:48.894   05 Jun 2027 04:43:06.191            17.297                Irkutsk           540.531
       387   05 Jun 2027 04:43:22.593   05 Jun 2027 04:45:32.603           130.010                Norilsk          4062.813
       388   05 Jun 2027 04:45:34.232   05 Jun 2027 04:46:36.466            62.234                Novosib          1944.812
       389   05 Jun 2027 04:49:07.004   05 Jun 2027 04:49:49.767            42.763                 Moscow          1336.344
       390   05 Jun 2027 04:50:50.311   05 Jun 2027 04:52:39.309           108.998                  Delhi          3406.187
       391   05 Jun 2027 06:18:30.195   05 Jun 2027 06:18:33.757             3.562                 Moscow           111.313
       392   05 Jun 2027 06:18:43.777   05 Jun 2027 06:19:21.261            37.484              Murmansk1          1171.375
       393   05 Jun 2027 06:19:22.521   05 Jun 2027 06:19:47.754            25.233                Novosib           788.531
       394   05 Jun 2027 06:19:50.377   05 Jun 2027 06:21:16.408            86.031                 Moscow          2688.469
       395   05 Jun 2027 06:21:22.730   05 Jun 2027 06:22:40.123            77.393                 Moscow          2418.531
       396   05 Jun 2027 06:23:10.156   05 Jun 2027 06:23:55.002            44.846              Murmansk2          1401.437
       397   05 Jun 2027 06:23:56.013   05 Jun 2027 06:24:10.131            14.118                 Moscow           441.188
       398   05 Jun 2027 06:38:14.560   05 Jun 2027 06:41:26.334           191.774               CapeTown          5992.938
       399   05 Jun 2027 07:42:09.063   05 Jun 2027 07:43:41.031            91.968                Anadyr2          2874.000
       400   05 Jun 2027 07:44:22.525   05 Jun 2027 07:44:41.010            18.485                Anadyr2           577.656
       401   05 Jun 2027 07:45:03.151   05 Jun 2027 07:45:14.477            11.326               Magadan2           353.938
       402   05 Jun 2027 07:45:37.473   05 Jun 2027 07:47:28.570           111.097               Magadan1          3471.781
       403   05 Jun 2027 08:19:10.012   05 Jun 2027 08:22:17.760           187.748               CapeTown          5867.125
       404   05 Jun 2027 09:17:39.052   05 Jun 2027 09:21:17.316           218.264                Anadyr1          6820.750
       405   05 Jun 2027 10:52:44.983   05 Jun 2027 10:52:54.249             9.266                Norilsk           289.563
       406   05 Jun 2027 10:53:03.403   05 Jun 2027 10:56:26.734           203.331               Magadan1          6354.094
       407   05 Jun 2027 10:56:47.569   05 Jun 2027 10:56:51.912             4.343                Norilsk           135.719
       408   05 Jun 2027 10:57:16.936   05 Jun 2027 10:57:27.682            10.746                Irkutsk           335.812
       409   05 Jun 2027 10:57:33.283   05 Jun 2027 10:57:39.598             6.315                Novosib           197.344
       410   05 Jun 2027 10:57:50.811   05 Jun 2027 10:58:55.179            64.368                Irkutsk          2011.500
       411   05 Jun 2027 10:59:03.110   05 Jun 2027 10:59:07.401             4.291               Magadan1           134.094
       412   05 Jun 2027 10:59:10.484   05 Jun 2027 10:59:17.915             7.431              Murmansk2           232.219
       413   05 Jun 2027 10:59:35.653   05 Jun 2027 11:00:18.330            42.677              Murmansk1          1333.656
       414   05 Jun 2027 11:34:03.493   05 Jun 2027 11:35:13.718            70.225            RioGallegos          2194.531
       415   05 Jun 2027 12:10:20.877   05 Jun 2027 12:10:40.330            19.453                Sumatra           607.906
       416   05 Jun 2027 12:14:01.051   05 Jun 2027 12:14:55.575            54.524                Sumatra          1703.875
       417   05 Jun 2027 12:22:19.968   05 Jun 2027 12:25:15.777           175.809                Irkutsk          5494.031
       418   05 Jun 2027 12:27:15.132   05 Jun 2027 12:27:54.366            39.234                Norilsk          1226.063
       419   05 Jun 2027 12:36:12.701   05 Jun 2027 12:36:49.316            36.615                Norilsk          1144.219
       420   05 Jun 2027 13:10:43.590   05 Jun 2027 13:11:05.094            21.504            RioGallegos           672.000
       421   05 Jun 2027 13:12:30.682   05 Jun 2027 13:15:44.162           193.480            RioGallegos          6046.250
       422   05 Jun 2027 13:45:02.656   05 Jun 2027 13:45:44.924            42.268                Sumatra          1320.875
       423   05 Jun 2027 13:59:49.680   05 Jun 2027 14:01:00.190            70.510                Novosib          2203.438
       424   05 Jun 2027 14:03:06.334   05 Jun 2027 14:03:42.450            36.116                Novosib          1128.625
       425   05 Jun 2027 14:03:58.375   05 Jun 2027 14:04:40.446            42.071                Norilsk          1314.719
       426   05 Jun 2027 14:09:34.294   05 Jun 2027 14:09:55.556            21.262                Norilsk           664.438
       427   05 Jun 2027 15:29:48.867   05 Jun 2027 15:32:21.014           152.147                  Delhi          4754.594
       428   05 Jun 2027 15:34:18.268   05 Jun 2027 15:35:23.361            65.093                  Delhi          2034.156
       429   05 Jun 2027 15:38:06.835   05 Jun 2027 15:40:20.392           133.557                Novosib          4173.656
       430   05 Jun 2027 15:41:33.265   05 Jun 2027 15:42:51.906            78.641                Novosib          2457.531
       431   05 Jun 2027 15:43:36.042   05 Jun 2027 15:43:53.866            17.824                Novosib           557.000
       432   05 Jun 2027 15:46:22.152   05 Jun 2027 15:46:51.694            29.542                Norilsk           923.187
       433   05 Jun 2027 15:50:52.507   05 Jun 2027 15:51:51.036            58.529                Norilsk          1829.031
       434   05 Jun 2027 17:13:25.236   05 Jun 2027 17:14:28.151            62.915                 Moscow          1966.094
       435   05 Jun 2027 17:16:37.444   05 Jun 2027 17:17:08.044            30.600                 Moscow           956.250
       436   05 Jun 2027 17:17:34.744   05 Jun 2027 17:18:14.181            39.437              Murmansk2          1232.406
       437   05 Jun 2027 17:19:50.604   05 Jun 2027 17:20:08.752            18.148              Murmansk2           567.125
       438   05 Jun 2027 17:22:54.281   05 Jun 2027 17:27:03.175           248.894                Norilsk          7777.938
       439   05 Jun 2027 18:52:09.555   05 Jun 2027 18:56:46.112           276.557                 Moscow          8642.406
       440   05 Jun 2027 19:17:13.296   05 Jun 2027 19:17:45.882            32.586                Anadyr2          1018.312
       441   05 Jun 2027 19:18:26.379   05 Jun 2027 19:18:31.996             5.617                Anadyr2           175.531
       442   05 Jun 2027 20:03:14.200   05 Jun 2027 20:05:06.719           112.519               CapeTown          3516.219
       443   05 Jun 2027 20:06:44.265   05 Jun 2027 20:07:37.659            53.394               CapeTown          1668.562
       444   05 Jun 2027 20:35:01.491   05 Jun 2027 20:41:05.638           364.147              Murmansk1         11379.594
       445   05 Jun 2027 22:19:18.963   05 Jun 2027 22:23:09.207           230.244                Anadyr2          7195.125
       446   05 Jun 2027 22:23:17.163   05 Jun 2027 22:24:39.826            82.663                Anadyr1          2583.219
       447   05 Jun 2027 22:24:46.338   05 Jun 2027 22:25:44.535            58.197               Magadan2          1818.656
       448   05 Jun 2027 22:25:53.627   05 Jun 2027 22:26:09.860            16.233               Magadan2           507.281
       449   05 Jun 2027 22:26:25.098   05 Jun 2027 22:26:26.606             1.508               Magadan1            47.125
       450   05 Jun 2027 22:27:09.514   05 Jun 2027 22:27:15.799             6.285               Magadan1           196.406
       451   05 Jun 2027 22:30:26.691   05 Jun 2027 22:30:31.910             5.219               Magadan1           163.094
       452   05 Jun 2027 22:30:41.209   05 Jun 2027 22:31:04.695            23.486               Magadan2           733.938
       453   05 Jun 2027 23:14:31.550   05 Jun 2027 23:16:47.904           136.354            RioGallegos          4261.062
       454   05 Jun 2027 23:19:38.603   05 Jun 2027 23:20:28.871            50.268            RioGallegos          1570.875
       455   05 Jun 2027 23:55:05.055   05 Jun 2027 23:56:18.665            73.610                Anadyr1          2300.312
       456   05 Jun 2027 23:56:27.489   05 Jun 2027 23:56:38.514            11.025                Anadyr2           344.531
       457   05 Jun 2027 23:57:09.838   05 Jun 2027 23:58:55.814           105.976                Norilsk          3311.750
       458   05 Jun 2027 23:59:06.205   06 Jun 2027 00:00:08.066            61.861               Magadan2          1933.156
       459   06 Jun 2027 00:00:14.774   06 Jun 2027 00:00:53.993            39.219               Magadan2          1225.594
       460   06 Jun 2027 00:01:44.395   06 Jun 2027 00:02:51.173            66.778                Irkutsk          2086.812
       461   06 Jun 2027 00:06:18.569   06 Jun 2027 00:06:33.735            15.166                Irkutsk           473.937
       462   06 Jun 2027 00:07:19.312   06 Jun 2027 00:08:45.286            85.974                Irkutsk          2686.687
       463   06 Jun 2027 00:16:03.296   06 Jun 2027 00:16:44.769            41.473                Sumatra          1296.031
       464   06 Jun 2027 00:20:50.952   06 Jun 2027 00:21:08.279            17.327                Sumatra           541.469
       465   06 Jun 2027 00:21:35.145   06 Jun 2027 00:22:28.061            52.916                Sumatra          1653.625
       466   06 Jun 2027 00:54:49.830   06 Jun 2027 00:54:51.638             1.808            RioGallegos            56.500
       467   06 Jun 2027 00:56:46.853   06 Jun 2027 00:57:27.774            40.921            RioGallegos          1278.781
       468   06 Jun 2027 01:30:11.458   06 Jun 2027 01:30:40.881            29.423                Anadyr1           919.469
       469   06 Jun 2027 01:30:40.881   06 Jun 2027 01:31:22.577            41.696                Anadyr2          1303.000
       470   06 Jun 2027 01:32:04.106   06 Jun 2027 01:32:16.395            12.289                Anadyr1           384.031
       471   06 Jun 2027 01:32:36.703   06 Jun 2027 01:32:58.575            21.872                Anadyr1           683.500
       472   06 Jun 2027 01:33:02.492   06 Jun 2027 01:34:56.547           114.055                Norilsk          3564.219
       473   06 Jun 2027 01:36:06.172   06 Jun 2027 01:36:12.002             5.830               Magadan2           182.188
       474   06 Jun 2027 01:36:55.676   06 Jun 2027 01:39:47.450           171.774                Irkutsk          5367.938
       475   06 Jun 2027 01:46:01.890   06 Jun 2027 01:46:06.557             4.667                Irkutsk           145.844
       476   06 Jun 2027 01:46:40.018   06 Jun 2027 01:48:38.421           118.403                  Delhi          3700.094
       477   06 Jun 2027 01:56:00.589   06 Jun 2027 01:56:22.085            21.496                Sumatra           671.750
       478   06 Jun 2027 02:25:09.759   06 Jun 2027 02:26:03.034            53.275            RioGallegos          1664.844
       479   06 Jun 2027 02:27:23.937   06 Jun 2027 02:27:46.695            22.758            RioGallegos           711.188
       480   06 Jun 2027 02:30:20.342   06 Jun 2027 02:30:42.756            22.414            RioGallegos           700.438
       481   06 Jun 2027 02:35:02.037   06 Jun 2027 02:35:33.310            31.273            RioGallegos           977.281
       482   06 Jun 2027 03:13:39.784   06 Jun 2027 03:14:16.956            37.172               Magadan2          1161.625
