uniorb/output/strategy_1/Drop/Drop_KinoSat_111009.txt

KinoSat_111009
-------------------------
    Access    *     Start Time (UTCG)     *     Stop Time (UTCG)  *   Duration (s)        *       Station  *  Data (Mbytes)
         1   01 Jun 2027 03:01:48.909   01 Jun 2027 03:02:19.613            30.704              Murmansk2           959.500
         2   01 Jun 2027 03:02:19.613   01 Jun 2027 03:03:02.562            42.949              Murmansk1          1342.156
         3   01 Jun 2027 03:03:09.986   01 Jun 2027 03:03:53.053            43.067              Murmansk2          1345.844
         4   01 Jun 2027 03:04:28.110   01 Jun 2027 03:05:50.583            82.473              Murmansk1          2577.281
         5   01 Jun 2027 03:06:16.329   01 Jun 2027 03:06:21.741             5.412              Murmansk1           169.125
         6   01 Jun 2027 03:23:56.629   01 Jun 2027 03:24:36.533            39.904               CapeTown          1247.000
         7   01 Jun 2027 03:24:59.739   01 Jun 2027 03:26:59.895           120.156               CapeTown          3754.875
         8   01 Jun 2027 04:25:48.191   01 Jun 2027 04:26:34.203            46.012               Magadan1          1437.875
         9   01 Jun 2027 04:27:01.433   01 Jun 2027 04:27:17.176            15.743                Norilsk           491.969
        10   01 Jun 2027 04:27:23.924   01 Jun 2027 04:28:02.762            38.838               Magadan1          1213.687
        11   01 Jun 2027 04:28:02.762   01 Jun 2027 04:28:28.688            25.926               Magadan2           810.188
        12   01 Jun 2027 04:28:35.993   01 Jun 2027 04:29:46.529            70.536                Anadyr1          2204.250
        13   01 Jun 2027 04:30:43.718   01 Jun 2027 04:31:21.470            37.752                Anadyr2          1179.750
        14   01 Jun 2027 06:03:05.936   01 Jun 2027 06:03:55.751            49.815                Norilsk          1556.719
        15   01 Jun 2027 06:04:00.113   01 Jun 2027 06:05:18.531            78.418                Norilsk          2450.563
        16   01 Jun 2027 06:05:24.725   01 Jun 2027 06:06:32.974            68.249                Anadyr2          2132.781
        17   01 Jun 2027 06:43:27.791   01 Jun 2027 06:44:13.168            45.377            RioGallegos          1418.031
        18   01 Jun 2027 07:38:08.875   01 Jun 2027 07:38:57.762            48.887               Magadan1          1527.719
        19   01 Jun 2027 07:39:01.379   01 Jun 2027 07:41:37.861           156.482               Magadan2          4890.062
        20   01 Jun 2027 07:41:59.187   01 Jun 2027 07:42:33.051            33.864               Magadan2          1058.250
        21   01 Jun 2027 07:42:41.061   01 Jun 2027 07:44:15.322            94.261              Murmansk1          2945.656
        22   01 Jun 2027 07:44:15.322   01 Jun 2027 07:44:55.886            40.564              Murmansk2          1267.625
        23   01 Jun 2027 07:50:09.253   01 Jun 2027 07:50:45.215            35.962              Murmansk2          1123.813
        24   01 Jun 2027 08:17:43.292   01 Jun 2027 08:18:44.961            61.669            RioGallegos          1927.156
        25   01 Jun 2027 08:23:23.540   01 Jun 2027 08:24:25.409            61.869            RioGallegos          1933.406
        26   01 Jun 2027 08:53:01.922   01 Jun 2027 08:53:45.728            43.806                Sumatra          1368.937
        27   01 Jun 2027 08:55:26.967   01 Jun 2027 08:56:31.779            64.812                Sumatra          2025.375
        28   01 Jun 2027 09:05:38.427   01 Jun 2027 09:06:44.069            65.642                  Delhi          2051.313
        29   01 Jun 2027 09:14:09.030   01 Jun 2027 09:14:41.363            32.333                Irkutsk          1010.406
        30   01 Jun 2027 09:14:59.604   01 Jun 2027 09:18:13.247           193.643                Novosib          6051.344
        31   01 Jun 2027 09:18:22.952   01 Jun 2027 09:18:57.702            34.750                Norilsk          1085.938
        32   01 Jun 2027 09:21:27.267   01 Jun 2027 09:22:05.337            38.070                Norilsk          1189.688
        33   01 Jun 2027 09:22:57.838   01 Jun 2027 09:23:50.296            52.458                Norilsk          1639.312
        34   01 Jun 2027 09:55:46.599   01 Jun 2027 09:55:55.020             8.421            RioGallegos           263.156
        35   01 Jun 2027 09:56:58.827   01 Jun 2027 09:57:32.246            33.419            RioGallegos          1044.344
        36   01 Jun 2027 10:00:33.377   01 Jun 2027 10:00:50.029            16.652            RioGallegos           520.375
        37   01 Jun 2027 10:29:59.904   01 Jun 2027 10:30:26.219            26.315                Sumatra           822.344
        38   01 Jun 2027 10:31:18.401   01 Jun 2027 10:32:55.051            96.650                Sumatra          3020.313
        39   01 Jun 2027 10:52:36.253   01 Jun 2027 10:52:37.611             1.358                Novosib            42.438
        40   01 Jun 2027 10:52:46.513   01 Jun 2027 10:54:13.925            87.412                Norilsk          2731.625
        41   01 Jun 2027 10:54:18.440   01 Jun 2027 10:56:24.267           125.827                Novosib          3932.094
        42   01 Jun 2027 10:57:00.109   01 Jun 2027 10:57:36.188            36.079              Murmansk2          1127.469
        43   01 Jun 2027 12:15:27.237   01 Jun 2027 12:17:35.759           128.522                  Delhi          4016.313
        44   01 Jun 2027 12:22:09.481   01 Jun 2027 12:23:00.590            51.109                 Moscow          1597.156
        45   01 Jun 2027 12:23:45.676   01 Jun 2027 12:24:20.966            35.290                 Moscow          1102.812
        46   01 Jun 2027 12:24:41.763   01 Jun 2027 12:28:26.856           225.093              Murmansk2          7034.156
        47   01 Jun 2027 12:30:08.511   01 Jun 2027 12:30:25.903            17.392                Norilsk           543.500
        48   01 Jun 2027 12:30:56.042   01 Jun 2027 12:32:01.998            65.956                Norilsk          2061.125
        49   01 Jun 2027 13:37:50.574   01 Jun 2027 13:39:52.006           121.432               CapeTown          3794.750
        50   01 Jun 2027 13:57:41.261   01 Jun 2027 13:59:00.147            78.886                 Moscow          2465.187
        51   01 Jun 2027 14:01:08.250   01 Jun 2027 14:02:57.571           109.321              Murmansk2          3416.281
        52   01 Jun 2027 14:03:59.156   01 Jun 2027 14:04:31.390            32.234              Murmansk2          1007.313
        53   01 Jun 2027 14:16:13.699   01 Jun 2027 14:19:52.279           218.580                Anadyr2          6830.625
        54   01 Jun 2027 15:14:29.191   01 Jun 2027 15:14:42.865            13.674               CapeTown           427.312
        55   01 Jun 2027 15:38:28.244   01 Jun 2027 15:39:04.951            36.707                 Moscow          1147.094
        56   01 Jun 2027 15:39:35.898   01 Jun 2027 15:40:54.436            78.538              Murmansk2          2454.313
        57   01 Jun 2027 15:41:46.382   01 Jun 2027 15:42:06.479            20.097              Murmansk1           628.031
        58   01 Jun 2027 15:51:21.375   01 Jun 2027 15:54:12.454           171.079                Anadyr2          5346.219
        59   01 Jun 2027 15:56:38.122   01 Jun 2027 15:59:02.759           144.637               Magadan2          4519.906
        60   01 Jun 2027 17:21:54.478   01 Jun 2027 17:23:33.977            99.499              Murmansk1          3109.344
        61   01 Jun 2027 17:27:12.429   01 Jun 2027 17:29:58.303           165.874                Anadyr2          5183.563
        62   01 Jun 2027 17:30:05.062   01 Jun 2027 17:32:08.110           123.048               Magadan1          3845.250
        63   01 Jun 2027 19:03:06.862   01 Jun 2027 19:04:59.036           112.174                Anadyr2          3505.437
        64   01 Jun 2027 19:05:21.501   01 Jun 2027 19:07:01.352            99.851                Anadyr1          3120.344
        65   01 Jun 2027 19:07:18.366   01 Jun 2027 19:09:16.241           117.875               Magadan2          3683.594
        66   01 Jun 2027 19:09:39.260   01 Jun 2027 19:09:57.413            18.153                Norilsk           567.281
        67   01 Jun 2027 19:57:35.793   01 Jun 2027 20:01:11.664           215.871            RioGallegos          6745.969
        68   01 Jun 2027 20:06:55.814   01 Jun 2027 20:07:01.843             6.029            RioGallegos           188.406
        69   01 Jun 2027 20:40:15.082   01 Jun 2027 20:40:48.356            33.274                Anadyr1          1039.813
        70   01 Jun 2027 20:40:58.301   01 Jun 2027 20:43:38.798           160.497                Norilsk          5015.531
        71   01 Jun 2027 20:44:34.026   01 Jun 2027 20:45:10.541            36.515                Norilsk          1141.094
        72   01 Jun 2027 20:45:40.722   01 Jun 2027 20:46:21.391            40.669                Irkutsk          1270.906
        73   01 Jun 2027 20:47:04.475   01 Jun 2027 20:47:30.135            25.660                Irkutsk           801.875
        74   01 Jun 2027 20:47:37.944   01 Jun 2027 20:47:57.111            19.167                Irkutsk           598.969
        75   01 Jun 2027 20:48:36.064   01 Jun 2027 20:51:18.552           162.488                Novosib          5077.750
        76   01 Jun 2027 21:00:58.760   01 Jun 2027 21:01:34.925            36.165                Sumatra          1130.156
        77   01 Jun 2027 21:02:38.173   01 Jun 2027 21:03:00.513            22.340                Sumatra           698.125
        78   01 Jun 2027 22:16:54.901   01 Jun 2027 22:17:59.498            64.597                Norilsk          2018.656
        79   01 Jun 2027 22:20:16.004   01 Jun 2027 22:20:46.519            30.515                Norilsk           953.594
        80   01 Jun 2027 22:20:46.684   01 Jun 2027 22:21:29.473            42.789                Irkutsk          1337.156
        81   01 Jun 2027 22:22:31.013   01 Jun 2027 22:24:24.420           113.407                Novosib          3543.969
        82   01 Jun 2027 22:28:43.738   01 Jun 2027 22:32:10.078           206.340                  Delhi          6448.125
        83   01 Jun 2027 23:49:49.179   01 Jun 2027 23:50:04.690            15.511                Anadyr1           484.719
        84   01 Jun 2027 23:52:54.066   01 Jun 2027 23:52:57.258             3.192                Norilsk            99.750
        85   01 Jun 2027 23:53:01.367   01 Jun 2027 23:54:07.775            66.408               Magadan1          2075.250
        86   01 Jun 2027 23:54:18.444   01 Jun 2027 23:54:52.945            34.501               Magadan1          1078.156
        87   01 Jun 2027 23:55:16.931   01 Jun 2027 23:57:43.118           146.187              Murmansk2          4568.344
        88   01 Jun 2027 23:57:46.125   01 Jun 2027 23:59:25.270            99.145              Murmansk1          3098.281
        89   02 Jun 2027 00:00:09.818   02 Jun 2027 00:01:09.264            59.446                 Moscow          1857.687
        90   02 Jun 2027 00:05:09.520   02 Jun 2027 00:05:18.786             9.266                 Moscow           289.562
        91   02 Jun 2027 01:20:25.447   02 Jun 2027 01:20:35.323             9.876                Anadyr1           308.625
        92   02 Jun 2027 01:21:42.861   02 Jun 2027 01:21:50.598             7.737                Anadyr1           241.781
        93   02 Jun 2027 01:22:22.066   02 Jun 2027 01:23:06.879            44.813                Anadyr2          1400.406
        94   02 Jun 2027 01:23:22.505   02 Jun 2027 01:23:31.401             8.896                Anadyr2           278.000
        95   02 Jun 2027 01:25:31.111   02 Jun 2027 01:28:01.123           150.012               Magadan1          4687.875
        96   02 Jun 2027 01:29:20.108   02 Jun 2027 01:29:29.040             8.932               Magadan1           279.125
        97   02 Jun 2027 01:31:02.006   02 Jun 2027 01:32:13.447            71.441              Murmansk1          2232.531
        98   02 Jun 2027 01:32:39.985   02 Jun 2027 01:33:05.431            25.446              Murmansk1           795.187
        99   02 Jun 2027 01:33:17.922   02 Jun 2027 01:33:40.094            22.172              Murmansk1           692.875
       100   02 Jun 2027 01:34:23.966   02 Jun 2027 01:35:11.193            47.227                 Moscow          1475.844
       101   02 Jun 2027 01:41:56.803   02 Jun 2027 01:42:11.494            14.691                 Moscow           459.094
       102   02 Jun 2027 01:58:44.096   02 Jun 2027 01:59:49.474            65.378               CapeTown          2043.062
       103   02 Jun 2027 02:09:21.422   02 Jun 2027 02:10:31.630            70.208               CapeTown          2194.000
       104   02 Jun 2027 02:54:57.625   02 Jun 2027 02:56:18.851            81.226                Anadyr1          2538.313
       105   02 Jun 2027 02:56:42.100   02 Jun 2027 02:57:15.013            32.913                Anadyr1          1028.531
       106   02 Jun 2027 02:57:22.602   02 Jun 2027 02:57:42.465            19.863               Magadan1           620.719
       107   02 Jun 2027 02:57:59.555   02 Jun 2027 02:58:21.372            21.817               Magadan1           681.781
       108   02 Jun 2027 03:02:10.894   02 Jun 2027 03:05:05.332           174.438                Anadyr1          5451.187
       109   02 Jun 2027 03:05:38.710   02 Jun 2027 03:05:54.467            15.757               Magadan2           492.406
       110   02 Jun 2027 03:14:21.597   02 Jun 2027 03:15:07.190            45.593              Murmansk2          1424.781
       111   02 Jun 2027 03:15:20.207   02 Jun 2027 03:15:53.446            33.239                 Moscow          1038.719
       112   02 Jun 2027 03:15:56.897   02 Jun 2027 03:16:41.406            44.509              Murmansk2          1390.906
       113   02 Jun 2027 03:34:53.978   02 Jun 2027 03:35:55.470            61.492               CapeTown          1921.625
       114   02 Jun 2027 04:30:53.624   02 Jun 2027 04:31:05.558            11.934               Magadan1           372.937
       115   02 Jun 2027 04:31:05.686   02 Jun 2027 04:31:42.601            36.915               Magadan1          1153.594
       116   02 Jun 2027 04:32:12.452   02 Jun 2027 04:32:41.176            28.724                Anadyr1           897.625
       117   02 Jun 2027 04:36:23.414   02 Jun 2027 04:41:17.617           294.203               Magadan2          9193.844
       118   02 Jun 2027 06:13:52.186   02 Jun 2027 06:15:02.000            69.814                Norilsk          2181.688
       119   02 Jun 2027 06:15:06.117   02 Jun 2027 06:16:43.862            97.745                Anadyr1          3054.531
       120   02 Jun 2027 06:16:43.862   02 Jun 2027 06:17:14.245            30.383                Anadyr2           949.469
       121   02 Jun 2027 06:17:22.802   02 Jun 2027 06:17:44.466            21.664                Irkutsk           677.000
       122   02 Jun 2027 06:55:10.762   02 Jun 2027 06:55:33.814            23.052            RioGallegos           720.375
       123   02 Jun 2027 07:49:31.530   02 Jun 2027 07:54:21.372           289.842                Irkutsk          9057.562
       124   02 Jun 2027 07:54:41.762   02 Jun 2027 07:55:50.499            68.737                Novosib          2148.031
       125   02 Jun 2027 07:55:52.776   02 Jun 2027 07:56:09.561            16.785              Murmansk1           524.531
       126   02 Jun 2027 07:56:44.531   02 Jun 2027 07:57:40.333            55.802              Murmansk1          1743.813
       127   02 Jun 2027 07:57:40.333   02 Jun 2027 07:58:21.316            40.983              Murmansk2          1280.719
       128   02 Jun 2027 08:29:46.656   02 Jun 2027 08:31:51.591           124.935            RioGallegos          3904.219
       129   02 Jun 2027 09:04:49.442   02 Jun 2027 09:07:32.642           163.200                Sumatra          5100.000
       130   02 Jun 2027 09:26:49.304   02 Jun 2027 09:27:01.440            12.136                Novosib           379.250
       131   02 Jun 2027 09:27:09.334   02 Jun 2027 09:28:43.277            93.943                Irkutsk          2935.719
       132   02 Jun 2027 09:28:51.424   02 Jun 2027 09:29:32.627            41.203              Murmansk1          1287.594
       133   02 Jun 2027 09:29:32.627   02 Jun 2027 09:30:34.242            61.615              Murmansk2          1925.469
       134   02 Jun 2027 09:30:39.071   02 Jun 2027 09:30:59.744            20.673                 Moscow           646.031
       135   02 Jun 2027 09:31:17.070   02 Jun 2027 09:31:38.381            21.311                Norilsk           665.969
       136   02 Jun 2027 09:32:14.048   02 Jun 2027 09:32:37.248            23.200                Norilsk           725.000
       137   02 Jun 2027 09:32:40.456   02 Jun 2027 09:32:45.465             5.009                Norilsk           156.531
       138   02 Jun 2027 09:34:02.971   02 Jun 2027 09:34:19.095            16.124              Murmansk1           503.875
       139   02 Jun 2027 09:34:45.241   02 Jun 2027 09:35:11.218            25.977              Murmansk1           811.781
       140   02 Jun 2027 10:08:28.498   02 Jun 2027 10:08:41.314            12.816            RioGallegos           400.500
       141   02 Jun 2027 10:09:06.342   02 Jun 2027 10:09:34.896            28.554            RioGallegos           892.313
       142   02 Jun 2027 10:42:52.081   02 Jun 2027 10:44:41.163           109.082                Sumatra          3408.812
       143   02 Jun 2027 10:52:25.682   02 Jun 2027 10:53:08.182            42.500                  Delhi          1328.125
       144   02 Jun 2027 11:04:37.031   02 Jun 2027 11:05:01.344            24.313                Norilsk           759.781
       145   02 Jun 2027 11:05:08.775   02 Jun 2027 11:05:14.425             5.650              Murmansk2           176.563
       146   02 Jun 2027 11:05:29.896   02 Jun 2027 11:07:25.933           116.037              Murmansk2          3626.156
       147   02 Jun 2027 11:07:25.933   02 Jun 2027 11:07:57.734            31.801              Murmansk1           993.781
       148   02 Jun 2027 11:08:07.111   02 Jun 2027 11:09:04.705            57.594                Norilsk          1799.813
       149   02 Jun 2027 11:09:18.087   02 Jun 2027 11:09:50.699            32.612                 Moscow          1019.125
       150   02 Jun 2027 12:28:50.932   02 Jun 2027 12:31:52.976           182.044                  Delhi          5688.875
       151   02 Jun 2027 12:35:00.620   02 Jun 2027 12:36:07.409            66.789                 Moscow          2087.156
       152   02 Jun 2027 12:36:41.492   02 Jun 2027 12:40:01.455           199.963              Murmansk1          6248.844
       153   02 Jun 2027 13:48:52.727   02 Jun 2027 13:51:30.711           157.984               CapeTown          4937.000
       154   02 Jun 2027 14:09:59.065   02 Jun 2027 14:11:03.910            64.845                 Moscow          2026.406
       155   02 Jun 2027 14:13:21.278   02 Jun 2027 14:16:00.843           159.565              Murmansk1          4986.406
       156   02 Jun 2027 14:16:00.843   02 Jun 2027 14:16:35.968            35.125              Murmansk2          1097.656
       157   02 Jun 2027 14:28:02.249   02 Jun 2027 14:30:05.698           123.449                Anadyr1          3857.781
       158   02 Jun 2027 14:30:05.701   02 Jun 2027 14:31:40.748            95.047                Anadyr2          2970.219
       159   02 Jun 2027 15:23:24.083   02 Jun 2027 15:25:00.181            96.098               CapeTown          3003.063
       160   02 Jun 2027 15:52:07.189   02 Jun 2027 15:53:07.130            59.941              Murmansk2          1873.156
       161   02 Jun 2027 16:03:21.172   02 Jun 2027 16:05:22.328           121.156                Anadyr2          3786.125
       162   02 Jun 2027 16:05:39.571   02 Jun 2027 16:05:57.698            18.127                Anadyr1           566.469
       163   02 Jun 2027 16:07:34.775   02 Jun 2027 16:10:28.584           173.809               Magadan2          5431.531
       164   02 Jun 2027 17:39:13.866   02 Jun 2027 17:43:10.118           236.252                Anadyr1          7382.875
       165   02 Jun 2027 17:43:11.814   02 Jun 2027 17:45:49.908           158.094               Magadan2          4940.438
       166   02 Jun 2027 17:46:15.235   02 Jun 2027 17:47:28.604            73.369               Magadan2          2292.781
       167   02 Jun 2027 19:15:07.315   02 Jun 2027 19:17:00.410           113.095                Anadyr1          3534.219
       168   02 Jun 2027 19:17:13.814   02 Jun 2027 19:19:26.279           132.465                Anadyr2          4139.531
       169   02 Jun 2027 19:19:26.465   02 Jun 2027 19:20:44.082            77.617               Magadan1          2425.531
       170   02 Jun 2027 19:21:43.971   02 Jun 2027 19:21:59.389            15.418               Magadan1           481.813
       171   02 Jun 2027 19:23:28.815   02 Jun 2027 19:23:43.686            14.871               Magadan2           464.719
       172   02 Jun 2027 19:24:11.311   02 Jun 2027 19:24:27.876            16.565                Irkutsk           517.656
       173   02 Jun 2027 19:25:59.617   02 Jun 2027 19:26:13.060            13.443                Irkutsk           420.094
       174   02 Jun 2027 20:09:25.514   02 Jun 2027 20:12:37.514           192.000            RioGallegos          6000.000
       175   02 Jun 2027 20:50:39.323   02 Jun 2027 20:51:19.933            40.610                Anadyr1          1269.063
       176   02 Jun 2027 20:52:58.930   02 Jun 2027 20:54:56.224           117.294                Norilsk          3665.437
       177   02 Jun 2027 20:55:09.373   02 Jun 2027 20:55:39.505            30.132               Magadan2           941.625
       178   02 Jun 2027 20:56:17.139   02 Jun 2027 20:56:47.086            29.947               Magadan2           935.844
       179   02 Jun 2027 20:58:11.219   02 Jun 2027 20:58:29.122            17.903                Norilsk           559.469
       180   02 Jun 2027 20:58:32.563   02 Jun 2027 21:01:24.006           171.443                Novosib          5357.594
       181   02 Jun 2027 21:01:53.817   02 Jun 2027 21:02:14.245            20.428                Novosib           638.375
       182   02 Jun 2027 21:10:45.473   02 Jun 2027 21:13:13.827           148.354                Sumatra          4636.063
       183   02 Jun 2027 22:25:14.441   02 Jun 2027 22:25:31.593            17.152                Anadyr1           536.000
       184   02 Jun 2027 22:26:26.972   02 Jun 2027 22:26:56.854            29.882                Anadyr1           933.813
       185   02 Jun 2027 22:28:56.899   02 Jun 2027 22:29:33.845            36.946                Norilsk          1154.563
       186   02 Jun 2027 22:29:34.025   02 Jun 2027 22:29:34.438             0.413               Magadan2            12.906
       187   02 Jun 2027 22:30:38.358   02 Jun 2027 22:30:45.010             6.652                Norilsk           207.875
       188   02 Jun 2027 22:30:59.768   02 Jun 2027 22:31:29.781            30.013               Magadan2           937.906
       189   02 Jun 2027 22:32:05.180   02 Jun 2027 22:32:28.694            23.514                Norilsk           734.813
       190   02 Jun 2027 22:32:49.887   02 Jun 2027 22:33:28.910            39.023                Irkutsk          1219.469
       191   02 Jun 2027 22:34:28.847   02 Jun 2027 22:34:38.249             9.402                Irkutsk           293.813
       192   02 Jun 2027 22:34:51.065   02 Jun 2027 22:35:49.338            58.273                Novosib          1821.031
       193   02 Jun 2027 22:36:03.136   02 Jun 2027 22:38:28.954           145.818                Novosib          4556.812
       194   02 Jun 2027 22:40:29.008   02 Jun 2027 22:44:06.479           217.471                  Delhi          6795.969
       195   03 Jun 2027 00:04:49.049   03 Jun 2027 00:06:28.647            99.598               Magadan2          3112.438
       196   03 Jun 2027 00:07:14.848   03 Jun 2027 00:09:30.655           135.807              Murmansk1          4243.969
       197   03 Jun 2027 00:09:32.475   03 Jun 2027 00:09:47.509            15.034              Murmansk2           469.813
       198   03 Jun 2027 00:10:45.227   03 Jun 2027 00:11:08.987            23.760              Murmansk2           742.500
       199   03 Jun 2027 00:11:42.881   03 Jun 2027 00:13:06.975            84.094                 Moscow          2627.937
       200   03 Jun 2027 01:32:11.485   03 Jun 2027 01:33:40.338            88.853                Anadyr2          2776.656
       201   03 Jun 2027 01:34:14.956   03 Jun 2027 01:34:51.157            36.201                Anadyr2          1131.281
       202   03 Jun 2027 01:35:14.629   03 Jun 2027 01:35:14.738             0.109                Anadyr2             3.406
       203   03 Jun 2027 01:35:29.909   03 Jun 2027 01:35:39.756             9.847                Anadyr1           307.719
       204   03 Jun 2027 01:36:59.020   03 Jun 2027 01:38:26.047            87.027               Magadan1          2719.594
       205   03 Jun 2027 01:39:00.755   03 Jun 2027 01:39:30.548            29.793               Magadan2           931.031
       206   03 Jun 2027 01:40:18.004   03 Jun 2027 01:40:48.494            30.490               Magadan1           952.813
       207   03 Jun 2027 01:43:03.521   03 Jun 2027 01:44:54.644           111.123              Murmansk1          3472.594
       208   03 Jun 2027 01:46:22.097   03 Jun 2027 01:48:03.066           100.969                 Moscow          3155.281
       209   03 Jun 2027 02:10:29.135   03 Jun 2027 02:11:45.951            76.816               CapeTown          2400.500
       210   03 Jun 2027 03:06:55.701   03 Jun 2027 03:07:30.638            34.937                Anadyr1          1091.781
       211   03 Jun 2027 03:07:30.638   03 Jun 2027 03:07:56.113            25.475                Anadyr2           796.094
       212   03 Jun 2027 03:14:00.086   03 Jun 2027 03:19:21.908           321.822               Magadan2         10056.938
       213   03 Jun 2027 03:28:01.941   03 Jun 2027 03:28:08.040             6.099              Murmansk2           190.594
       214   03 Jun 2027 03:29:34.171   03 Jun 2027 03:30:47.097            72.926              Murmansk1          2278.938
       215   03 Jun 2027 04:48:17.573   03 Jun 2027 04:51:48.399           210.826                Anadyr1          6588.312
       216   03 Jun 2027 04:51:51.014   03 Jun 2027 04:53:24.734            93.720                Anadyr2          2928.750
       217   03 Jun 2027 04:53:34.072   03 Jun 2027 04:53:55.740            21.668               Magadan2           677.125
       218   03 Jun 2027 04:53:56.970   03 Jun 2027 04:55:09.600            72.630                Anadyr1          2269.687
       219   03 Jun 2027 06:23:24.076   03 Jun 2027 06:24:13.072            48.996                Irkutsk          1531.125
       220   03 Jun 2027 06:24:48.503   03 Jun 2027 06:25:10.832            22.329                Norilsk           697.781
       221   03 Jun 2027 06:25:12.018   03 Jun 2027 06:25:44.651            32.633                Norilsk          1019.781
       222   03 Jun 2027 06:25:49.004   03 Jun 2027 06:27:39.105           110.101                Irkutsk          3440.656
       223   03 Jun 2027 06:27:39.754   03 Jun 2027 06:27:47.826             8.072                Anadyr1           252.250
       224   03 Jun 2027 06:27:59.543   03 Jun 2027 06:28:22.338            22.795                Norilsk           712.344
       225   03 Jun 2027 06:28:34.113   03 Jun 2027 06:29:13.361            39.248                Norilsk          1226.500
       226   03 Jun 2027 06:29:18.191   03 Jun 2027 06:30:14.971            56.780                Norilsk          1774.375
       227   03 Jun 2027 06:30:17.425   03 Jun 2027 06:30:32.408            14.983              Murmansk1           468.219
       228   03 Jun 2027 06:30:34.525   03 Jun 2027 06:30:56.091            21.566                Novosib           673.937
       229   03 Jun 2027 06:31:00.085   03 Jun 2027 06:31:05.796             5.711              Murmansk1           178.469
       230   03 Jun 2027 06:31:05.796   03 Jun 2027 06:31:48.244            42.448              Murmansk2          1326.500
       231   03 Jun 2027 07:06:46.053   03 Jun 2027 07:08:35.258           109.205            RioGallegos          3412.656
       232   03 Jun 2027 08:01:33.855   03 Jun 2027 08:02:40.191            66.336               Magadan1          2073.000
       233   03 Jun 2027 08:02:47.917   03 Jun 2027 08:02:59.220            11.303               Magadan1           353.219
       234   03 Jun 2027 08:03:04.939   03 Jun 2027 08:05:37.371           152.432                Irkutsk          4763.500
       235   03 Jun 2027 08:05:49.259   03 Jun 2027 08:07:07.540            78.281                Irkutsk          2446.281
       236   03 Jun 2027 08:41:53.481   03 Jun 2027 08:42:58.714            65.233            RioGallegos          2038.531
       237   03 Jun 2027 09:16:42.946   03 Jun 2027 09:18:20.574            97.628                Sumatra          3050.875
       238   03 Jun 2027 09:19:35.765   03 Jun 2027 09:19:49.215            13.450                Sumatra           420.313
       239   03 Jun 2027 09:27:26.653   03 Jun 2027 09:27:37.123            10.470                  Delhi           327.187
       240   03 Jun 2027 09:38:28.481   03 Jun 2027 09:39:14.961            46.480                Norilsk          1452.500
       241   03 Jun 2027 09:39:23.874   03 Jun 2027 09:42:21.794           177.920              Murmansk2          5560.000
       242   03 Jun 2027 09:42:23.175   03 Jun 2027 09:42:29.182             6.007                Norilsk           187.719
       243   03 Jun 2027 09:42:35.681   03 Jun 2027 09:43:30.477            54.796                 Moscow          1712.375
       244   03 Jun 2027 09:43:45.473   03 Jun 2027 09:44:04.326            18.853              Murmansk2           589.156
       245   03 Jun 2027 09:44:05.216   03 Jun 2027 09:44:36.140            30.924                Norilsk           966.375
       246   03 Jun 2027 10:56:21.475   03 Jun 2027 10:56:33.440            11.965                Sumatra           373.906
       247   03 Jun 2027 10:59:37.334   03 Jun 2027 10:59:52.660            15.326                Sumatra           478.938
       248   03 Jun 2027 11:00:54.448   03 Jun 2027 11:00:57.855             3.407                  Delhi           106.469
       249   03 Jun 2027 11:03:14.554   03 Jun 2027 11:04:03.446            48.892                  Delhi          1527.875
       250   03 Jun 2027 11:15:26.388   03 Jun 2027 11:16:04.485            38.097              Murmansk2          1190.531
       251   03 Jun 2027 11:16:10.758   03 Jun 2027 11:16:27.713            16.955              Murmansk1           529.844
       252   03 Jun 2027 11:16:27.713   03 Jun 2027 11:17:02.940            35.227              Murmansk2          1100.844
       253   03 Jun 2027 11:17:07.853   03 Jun 2027 11:17:30.711            22.858              Murmansk1           714.313
       254   03 Jun 2027 11:17:33.537   03 Jun 2027 11:18:17.719            44.182                Norilsk          1380.688
       255   03 Jun 2027 11:18:24.700   03 Jun 2027 11:18:32.189             7.489                Novosib           234.031
       256   03 Jun 2027 11:18:34.176   03 Jun 2027 11:19:36.067            61.891                 Moscow          1934.094
       257   03 Jun 2027 12:45:19.337   03 Jun 2027 12:46:59.867           100.530                 Moscow          3141.563
       258   03 Jun 2027 12:47:51.950   03 Jun 2027 12:49:18.021            86.071                 Moscow          2689.719
       259   03 Jun 2027 12:49:28.045   03 Jun 2027 12:52:23.446           175.401              Murmansk2          5481.281
       260   03 Jun 2027 12:52:29.416   03 Jun 2027 12:52:53.927            24.511              Murmansk2           765.969
       261   03 Jun 2027 12:55:09.824   03 Jun 2027 12:56:01.913            52.089                Norilsk          1627.781
       262   03 Jun 2027 14:00:15.323   03 Jun 2027 14:01:27.091            71.768               CapeTown          2242.750
       263   03 Jun 2027 14:01:58.920   03 Jun 2027 14:03:15.223            76.303               CapeTown          2384.469
       264   03 Jun 2027 14:06:03.698   03 Jun 2027 14:06:54.567            50.869               CapeTown          1589.656
       265   03 Jun 2027 14:25:36.247   03 Jun 2027 14:28:02.444           146.197              Murmansk2          4568.656
       266   03 Jun 2027 14:39:54.045   03 Jun 2027 14:42:05.689           131.644                Anadyr1          4113.875
       267   03 Jun 2027 14:43:01.016   03 Jun 2027 14:43:39.567            38.551                Anadyr2          1204.719
       268   03 Jun 2027 14:45:41.533   03 Jun 2027 14:46:21.264            39.731                Anadyr2          1241.594
       269   03 Jun 2027 15:37:53.320   03 Jun 2027 15:38:51.048            57.728               CapeTown          1804.000
       270   03 Jun 2027 16:04:41.483   03 Jun 2027 16:05:21.770            40.287              Murmansk1          1258.969
       271   03 Jun 2027 16:05:48.572   03 Jun 2027 16:06:48.045            59.473              Murmansk1          1858.531
       272   03 Jun 2027 16:08:05.892   03 Jun 2027 16:08:35.736            29.844              Murmansk1           932.625
       273   03 Jun 2027 16:15:21.381   03 Jun 2027 16:17:39.280           137.899                Anadyr2          4309.344
       274   03 Jun 2027 16:19:03.550   03 Jun 2027 16:22:40.875           217.325               Magadan1          6791.406
       275   03 Jun 2027 17:51:15.306   03 Jun 2027 17:53:47.347           152.041                Anadyr2          4751.281
       276   03 Jun 2027 17:53:47.350   03 Jun 2027 17:54:07.255            19.905                Anadyr1           622.031
       277   03 Jun 2027 17:54:52.480   03 Jun 2027 17:55:52.958            60.478               Magadan2          1889.938
       278   03 Jun 2027 17:56:03.932   03 Jun 2027 17:57:36.010            92.078               Magadan1          2877.438
       279   03 Jun 2027 17:57:44.981   03 Jun 2027 17:59:27.007           102.026               Magadan1          3188.312
       280   03 Jun 2027 19:27:07.455   03 Jun 2027 19:27:19.867            12.412                Anadyr1           387.875
       281   03 Jun 2027 19:27:19.867   03 Jun 2027 19:28:06.072            46.205                Anadyr2          1443.906
       282   03 Jun 2027 19:28:23.791   03 Jun 2027 19:28:54.827            31.036                Anadyr2           969.875
       283   03 Jun 2027 19:28:54.827   03 Jun 2027 19:29:01.651             6.824                Anadyr1           213.250
       284   03 Jun 2027 19:29:19.926   03 Jun 2027 19:29:25.342             5.416                Anadyr2           169.250
       285   03 Jun 2027 19:29:27.062   03 Jun 2027 19:32:39.632           192.570                Norilsk          6017.813
       286   03 Jun 2027 19:35:08.760   03 Jun 2027 19:37:24.151           135.391                Irkutsk          4230.969
       287   03 Jun 2027 19:39:22.317   03 Jun 2027 19:39:54.649            32.332                Irkutsk          1010.375
       288   03 Jun 2027 19:40:44.356   03 Jun 2027 19:41:14.383            30.027                Irkutsk           938.344
       289   03 Jun 2027 19:52:08.719   03 Jun 2027 19:52:27.897            19.178                Sumatra           599.313
       290   03 Jun 2027 21:02:34.554   03 Jun 2027 21:02:56.900            22.346                Anadyr1           698.313
       291   03 Jun 2027 21:03:21.446   03 Jun 2027 21:03:48.422            26.976                Anadyr2           843.000
       292   03 Jun 2027 21:04:33.821   03 Jun 2027 21:04:45.979            12.158                Anadyr2           379.937
       293   03 Jun 2027 21:04:59.934   03 Jun 2027 21:06:54.852           114.918                Norilsk          3591.188
       294   03 Jun 2027 21:07:04.379   03 Jun 2027 21:08:18.387            74.008               Magadan1          2312.750
       295   03 Jun 2027 21:09:53.062   03 Jun 2027 21:10:38.307            45.245                Irkutsk          1413.906
       296   03 Jun 2027 21:11:16.835   03 Jun 2027 21:11:35.860            19.025                Novosib           594.531
       297   03 Jun 2027 21:13:51.173   03 Jun 2027 21:15:03.497            72.324                Novosib          2260.125
       298   03 Jun 2027 21:22:41.831   03 Jun 2027 21:23:41.684            59.853                Sumatra          1870.406
       299   03 Jun 2027 21:29:34.006   03 Jun 2027 21:31:16.669           102.663                Sumatra          3208.219
       300   03 Jun 2027 22:38:15.167   03 Jun 2027 22:38:54.456            39.289                Anadyr2          1227.781
       301   03 Jun 2027 22:40:58.891   03 Jun 2027 22:41:52.947            54.056                Norilsk          1689.250
       302   03 Jun 2027 22:44:51.093   03 Jun 2027 22:46:31.865           100.772                Novosib          3149.125
       303   03 Jun 2027 22:46:57.105   03 Jun 2027 22:47:02.880             5.775                Novosib           180.469
       304   03 Jun 2027 22:48:21.036   03 Jun 2027 22:48:46.353            25.317                Novosib           791.156
       305   03 Jun 2027 22:52:18.979   03 Jun 2027 22:54:43.276           144.297                  Delhi          4509.281
       306   03 Jun 2027 22:58:36.443   03 Jun 2027 22:59:18.845            42.402                  Delhi          1325.062
       307   03 Jun 2027 23:01:46.465   03 Jun 2027 23:01:48.341             1.876                  Delhi            58.625
       308   04 Jun 2027 00:10:22.887   04 Jun 2027 00:10:26.819             3.932                Anadyr1           122.875
       309   04 Jun 2027 00:11:36.899   04 Jun 2027 00:12:10.952            34.053                Anadyr2          1064.156
       310   04 Jun 2027 00:12:10.952   04 Jun 2027 00:12:52.302            41.350                Anadyr1          1292.188
       311   04 Jun 2027 00:16:32.443   04 Jun 2027 00:17:41.256            68.813               Magadan2          2150.406
       312   04 Jun 2027 00:17:44.856   04 Jun 2027 00:18:59.635            74.779               Magadan1          2336.844
       313   04 Jun 2027 00:19:13.691   04 Jun 2027 00:21:49.017           155.326              Murmansk1          4853.938
       314   04 Jun 2027 00:22:34.381   04 Jun 2027 00:23:09.350            34.969              Murmansk1          1092.781
       315   04 Jun 2027 00:24:03.202   04 Jun 2027 00:24:10.822             7.620                 Moscow           238.125
       316   04 Jun 2027 00:24:59.431   04 Jun 2027 00:25:13.597            14.166                 Moscow           442.687
       317   04 Jun 2027 00:26:15.039   04 Jun 2027 00:27:17.898            62.859                 Moscow          1964.344
       318   04 Jun 2027 00:29:20.130   04 Jun 2027 00:29:45.950            25.820                 Moscow           806.875
       319   04 Jun 2027 00:51:09.225   04 Jun 2027 00:52:26.834            77.609               CapeTown          2425.281
       320   04 Jun 2027 00:54:13.751   04 Jun 2027 00:55:04.767            51.016               CapeTown          1594.250
       321   04 Jun 2027 01:46:36.574   04 Jun 2027 01:47:07.937            31.363                Anadyr2           980.094
       322   04 Jun 2027 01:48:27.228   04 Jun 2027 01:49:45.491            78.263               Magadan1          2445.719
       323   04 Jun 2027 01:52:38.804   04 Jun 2027 01:52:49.549            10.745                Norilsk           335.781
       324   04 Jun 2027 01:55:05.157   04 Jun 2027 01:55:44.331            39.174              Murmansk2          1224.187
       325   04 Jun 2027 01:55:44.331   04 Jun 2027 01:57:48.592           124.261              Murmansk1          3883.156
       326   04 Jun 2027 01:58:21.153   04 Jun 2027 01:59:59.847            98.694                 Moscow          3084.187
       327   04 Jun 2027 02:25:22.547   04 Jun 2027 02:25:35.556            13.009               CapeTown           406.531
       328   04 Jun 2027 02:26:35.472   04 Jun 2027 02:27:02.025            26.553               CapeTown           829.781
       329   04 Jun 2027 02:34:46.940   04 Jun 2027 02:35:00.539            13.599               CapeTown           424.969
       330   04 Jun 2027 03:25:27.380   04 Jun 2027 03:27:49.477           142.097               Magadan1          4440.531
       331   04 Jun 2027 03:27:55.026   04 Jun 2027 03:30:34.693           159.667                Anadyr2          4989.594
       332   04 Jun 2027 03:30:34.693   04 Jun 2027 03:31:51.967            77.274                Anadyr1          2414.812
       333   04 Jun 2027 05:00:26.354   04 Jun 2027 05:00:40.751            14.397                Anadyr2           449.906
       334   04 Jun 2027 05:01:08.618   04 Jun 2027 05:02:01.077            52.459                Anadyr2          1639.344
       335   04 Jun 2027 05:02:05.634   04 Jun 2027 05:03:15.820            70.186                Anadyr1          2193.313
       336   04 Jun 2027 05:03:36.661   04 Jun 2027 05:04:12.573            35.912               Magadan1          1122.250
       337   04 Jun 2027 05:04:12.573   04 Jun 2027 05:04:19.831             7.258               Magadan2           226.813
       338   04 Jun 2027 05:04:31.963   04 Jun 2027 05:07:24.757           172.794               Magadan1          5399.812
       339   04 Jun 2027 05:46:33.916   04 Jun 2027 05:46:59.898            25.982            RioGallegos           811.937
       340   04 Jun 2027 05:47:42.679   04 Jun 2027 05:48:23.780            41.101            RioGallegos          1284.406
       341   04 Jun 2027 05:48:26.085   04 Jun 2027 05:48:39.481            13.396            RioGallegos           418.625
       342   04 Jun 2027 06:35:40.138   04 Jun 2027 06:36:30.098            49.960               Magadan2          1561.250
       343   04 Jun 2027 06:36:30.098   04 Jun 2027 06:37:30.685            60.587               Magadan1          1893.344
       344   04 Jun 2027 06:37:30.685   04 Jun 2027 06:39:27.937           117.252               Magadan2          3664.125
       345   04 Jun 2027 06:39:38.154   04 Jun 2027 06:41:34.919           116.765                Irkutsk          3648.906
       346   04 Jun 2027 06:41:49.730   04 Jun 2027 06:42:35.147            45.417                Norilsk          1419.281
       347   04 Jun 2027 06:42:40.746   04 Jun 2027 06:42:46.488             5.742                Norilsk           179.437
       348   04 Jun 2027 06:42:53.918   04 Jun 2027 06:43:39.865            45.947              Murmansk2          1435.844
       349   04 Jun 2027 06:43:41.037   04 Jun 2027 06:43:46.614             5.577                Norilsk           174.281
       350   04 Jun 2027 06:44:12.648   04 Jun 2027 06:46:26.744           134.096                Norilsk          4190.500
       351   04 Jun 2027 07:18:30.142   04 Jun 2027 07:20:44.513           134.371            RioGallegos          4199.094
       352   04 Jun 2027 08:12:47.913   04 Jun 2027 08:13:07.996            20.083                Novosib           627.594
       353   04 Jun 2027 08:13:14.994   04 Jun 2027 08:13:44.529            29.535                Norilsk           922.969
       354   04 Jun 2027 08:13:47.818   04 Jun 2027 08:14:01.183            13.365                Novosib           417.656
       355   04 Jun 2027 08:14:14.789   04 Jun 2027 08:14:34.411            19.622                Norilsk           613.187
       356   04 Jun 2027 08:14:34.781   04 Jun 2027 08:15:26.795            52.014               Magadan2          1625.438
       357   04 Jun 2027 08:15:40.256   04 Jun 2027 08:16:13.375            33.119                Novosib          1034.969
       358   04 Jun 2027 08:16:15.482   04 Jun 2027 08:16:19.603             4.121                Novosib           128.781
       359   04 Jun 2027 08:16:29.258   04 Jun 2027 08:17:09.175            39.917               Magadan1          1247.406
       360   04 Jun 2027 08:17:09.175   04 Jun 2027 08:17:39.208            30.033               Magadan2           938.531
       361   04 Jun 2027 08:17:39.357   04 Jun 2027 08:17:51.044            11.687              Murmansk1           365.219
       362   04 Jun 2027 08:18:09.549   04 Jun 2027 08:18:25.140            15.591                Irkutsk           487.219
       363   04 Jun 2027 08:18:32.491   04 Jun 2027 08:18:43.220            10.729                Norilsk           335.281
       364   04 Jun 2027 08:18:45.634   04 Jun 2027 08:19:17.091            31.457                Norilsk           983.031
       365   04 Jun 2027 08:19:28.038   04 Jun 2027 08:19:37.933             9.895              Murmansk2           309.219
       366   04 Jun 2027 08:19:40.053   04 Jun 2027 08:20:15.806            35.753                Norilsk          1117.281
       367   04 Jun 2027 08:21:19.394   04 Jun 2027 08:21:23.466             4.072              Murmansk1           127.250
       368   04 Jun 2027 08:54:03.945   04 Jun 2027 08:54:13.990            10.045            RioGallegos           313.906
       369   04 Jun 2027 08:54:52.938   04 Jun 2027 08:55:26.467            33.529            RioGallegos          1047.781
       370   04 Jun 2027 08:58:03.875   04 Jun 2027 08:58:23.475            19.600            RioGallegos           612.500
       371   04 Jun 2027 09:28:42.103   04 Jun 2027 09:29:02.004            19.901                Sumatra           621.906
       372   04 Jun 2027 09:30:06.665   04 Jun 2027 09:31:23.605            76.940                Sumatra          2404.375
       373   04 Jun 2027 09:38:44.833   04 Jun 2027 09:39:44.022            59.189                  Delhi          1849.656
       374   04 Jun 2027 09:48:48.022   04 Jun 2027 09:49:27.103            39.081                Novosib          1221.281
       375   04 Jun 2027 09:49:39.809   04 Jun 2027 09:49:41.606             1.797                Novosib            56.156
       376   04 Jun 2027 09:49:53.433   04 Jun 2027 09:51:07.149            73.716                Irkutsk          2303.625
       377   04 Jun 2027 09:51:11.491   04 Jun 2027 09:51:35.711            24.220              Murmansk1           756.875
       378   04 Jun 2027 09:51:37.270   04 Jun 2027 09:52:48.316            71.046                 Moscow          2220.187
       379   04 Jun 2027 09:52:54.211   04 Jun 2027 09:52:56.122             1.911                Irkutsk            59.719
       380   04 Jun 2027 09:53:06.803   04 Jun 2027 09:54:30.921            84.118                 Moscow          2628.688
       381   04 Jun 2027 09:54:57.643   04 Jun 2027 09:55:13.628            15.985              Murmansk1           499.531
       382   04 Jun 2027 09:55:59.784   04 Jun 2027 09:56:56.585            56.801              Murmansk2          1775.031
       383   04 Jun 2027 10:34:28.982   04 Jun 2027 10:35:10.575            41.593            RioGallegos          1299.781
       384   04 Jun 2027 10:37:37.992   04 Jun 2027 10:38:10.950            32.958            RioGallegos          1029.937
       385   04 Jun 2027 11:13:03.178   04 Jun 2027 11:13:47.706            44.528                  Delhi          1391.500
       386   04 Jun 2027 11:15:59.516   04 Jun 2027 11:17:10.257            70.741                  Delhi          2210.656
       387   04 Jun 2027 11:27:10.488   04 Jun 2027 11:27:53.360            42.872              Murmansk1          1339.750
       388   04 Jun 2027 11:28:13.308   04 Jun 2027 11:28:17.337             4.029              Murmansk2           125.906
       389   04 Jun 2027 11:28:19.324   04 Jun 2027 11:28:39.184            19.860                Norilsk           620.625
       390   04 Jun 2027 11:28:53.093   04 Jun 2027 11:29:24.465            31.372                Novosib           980.375
       391   04 Jun 2027 11:29:31.182   04 Jun 2027 11:29:57.823            26.641              Murmansk1           832.531
       392   04 Jun 2027 11:30:00.454   04 Jun 2027 11:30:05.350             4.896                Norilsk           153.000
       393   04 Jun 2027 11:30:13.240   04 Jun 2027 11:30:37.787            24.547              Murmansk2           767.094
       394   04 Jun 2027 11:30:38.800   04 Jun 2027 11:31:09.414            30.614                Norilsk           956.687
       395   04 Jun 2027 12:57:18.064   04 Jun 2027 13:01:22.667           244.603                 Moscow          7643.844
       396   04 Jun 2027 13:01:27.408   04 Jun 2027 13:04:05.740           158.332              Murmansk2          4947.875
       397   04 Jun 2027 14:11:48.848   04 Jun 2027 14:15:04.254           195.406               CapeTown          6106.438
       398   04 Jun 2027 14:16:27.735   04 Jun 2027 14:17:35.407            67.672               CapeTown          2114.750
       399   04 Jun 2027 14:37:53.248   04 Jun 2027 14:40:03.916           130.668              Murmansk1          4083.375
       400   04 Jun 2027 14:51:48.083   04 Jun 2027 14:54:06.044           137.961                Anadyr1          4311.281
       401   04 Jun 2027 14:57:42.803   04 Jun 2027 14:57:43.465             0.662                Anadyr2            20.688
       402   04 Jun 2027 15:00:52.112   04 Jun 2027 15:01:23.332            31.220                Anadyr2           975.625
       403   04 Jun 2027 15:47:05.459   04 Jun 2027 15:47:35.544            30.085               CapeTown           940.156
       404   04 Jun 2027 15:56:28.149   04 Jun 2027 15:56:29.987             1.838               CapeTown            57.437
       405   04 Jun 2027 16:17:19.109   04 Jun 2027 16:19:27.800           128.691              Murmansk1          4021.594
       406   04 Jun 2027 16:19:53.809   04 Jun 2027 16:20:07.540            13.731              Murmansk1           429.094
       407   04 Jun 2027 16:22:27.683   04 Jun 2027 16:23:07.177            39.494              Murmansk1          1234.188
       408   04 Jun 2027 16:27:21.928   04 Jun 2027 16:29:05.120           103.192                Anadyr2          3224.750
       409   04 Jun 2027 16:30:04.888   04 Jun 2027 16:30:14.301             9.413                Anadyr2           294.156
       410   04 Jun 2027 16:30:43.166   04 Jun 2027 16:32:22.419            99.253               Magadan1          3101.656
       411   04 Jun 2027 16:33:27.418   04 Jun 2027 16:34:22.783            55.365               Magadan2          1730.156
       412   04 Jun 2027 16:34:22.783   04 Jun 2027 16:35:52.430            89.647               Magadan1          2801.469
       413   04 Jun 2027 18:03:16.720   04 Jun 2027 18:06:20.125           183.405                Anadyr1          5731.406
       414   04 Jun 2027 18:06:25.638   04 Jun 2027 18:07:46.606            80.968               Magadan2          2530.250
       415   04 Jun 2027 18:08:05.874   04 Jun 2027 18:08:06.463             0.589               Magadan1            18.406
       416   04 Jun 2027 18:09:20.100   04 Jun 2027 18:11:23.077           122.977               Magadan1          3843.031
       417   04 Jun 2027 19:00:41.522   04 Jun 2027 19:02:25.472           103.950            RioGallegos          3248.438
       418   04 Jun 2027 19:39:07.227   04 Jun 2027 19:41:02.731           115.504                Anadyr1          3609.500
       419   04 Jun 2027 19:41:21.167   04 Jun 2027 19:42:28.881            67.714                Norilsk          2116.063
       420   04 Jun 2027 19:42:54.004   04 Jun 2027 19:43:45.274            51.270                Norilsk          1602.188
       421   04 Jun 2027 19:45:04.048   04 Jun 2027 19:45:09.892             5.844                Norilsk           182.625
       422   04 Jun 2027 19:46:34.150   04 Jun 2027 19:49:40.405           186.255                Irkutsk          5820.469
       423   04 Jun 2027 19:51:25.795   04 Jun 2027 19:52:09.885            44.090                Irkutsk          1377.813
       424   04 Jun 2027 20:02:08.376   04 Jun 2027 20:03:52.673           104.297                Sumatra          3259.281
       425   04 Jun 2027 20:07:00.926   04 Jun 2027 20:08:15.124            74.198                Sumatra          2318.688
       426   04 Jun 2027 21:17:46.301   04 Jun 2027 21:18:00.151            13.850                Norilsk           432.812
       427   04 Jun 2027 21:18:21.881   04 Jun 2027 21:18:52.749            30.868                Norilsk           964.625
       428   04 Jun 2027 21:20:58.303   04 Jun 2027 21:22:35.779            97.476                Irkutsk          3046.125
       429   04 Jun 2027 21:23:32.227   04 Jun 2027 21:24:59.924            87.697                Novosib          2740.531
       430   04 Jun 2027 21:25:45.779   04 Jun 2027 21:26:31.114            45.335                Novosib          1416.719
       431   04 Jun 2027 21:43:42.326   04 Jun 2027 21:43:47.198             4.872                Sumatra           152.250
       432   04 Jun 2027 22:48:53.844   04 Jun 2027 22:49:15.354            21.510                Anadyr1           672.187
       433   04 Jun 2027 22:50:04.742   04 Jun 2027 22:50:51.295            46.553                Anadyr1          1454.781
       434   04 Jun 2027 22:53:00.848   04 Jun 2027 22:53:05.827             4.979                Norilsk           155.594
       435   04 Jun 2027 22:53:35.789   04 Jun 2027 22:54:32.632            56.843               Magadan1          1776.344
       436   04 Jun 2027 22:56:17.492   04 Jun 2027 22:57:57.880           100.388              Murmansk1          3137.125
       437   04 Jun 2027 22:58:13.646   04 Jun 2027 22:59:46.841            93.195              Murmansk2          2912.344
       438   04 Jun 2027 23:04:12.938   04 Jun 2027 23:07:06.909           173.971                  Delhi          5436.594
       439   05 Jun 2027 00:22:04.216   05 Jun 2027 00:22:17.683            13.467                Anadyr2           420.844
       440   05 Jun 2027 00:23:34.781   05 Jun 2027 00:24:12.251            37.470                Anadyr1          1170.938
       441   05 Jun 2027 00:24:36.907   05 Jun 2027 00:24:55.264            18.357                Anadyr1           573.656
       442   05 Jun 2027 00:25:01.686   05 Jun 2027 00:25:12.065            10.379                Anadyr2           324.344
       443   05 Jun 2027 00:27:46.979   05 Jun 2027 00:27:52.456             5.477                Anadyr2           171.156
       444   05 Jun 2027 00:28:07.186   05 Jun 2027 00:28:23.881            16.695                Anadyr2           521.719
       445   05 Jun 2027 00:28:50.257   05 Jun 2027 00:30:53.452           123.195               Magadan1          3849.844
       446   05 Jun 2027 00:31:13.237   05 Jun 2027 00:33:50.620           157.383              Murmansk2          4918.219
       447   05 Jun 2027 00:35:10.246   05 Jun 2027 00:36:09.302            59.056                 Moscow          1845.500
       448   05 Jun 2027 00:36:49.501   05 Jun 2027 00:37:05.196            15.695                 Moscow           490.469
       449   05 Jun 2027 00:44:38.310   05 Jun 2027 00:45:08.328            30.018                 Moscow           938.063
       450   05 Jun 2027 01:01:55.243   05 Jun 2027 01:03:50.855           115.612               CapeTown          3612.875
       451   05 Jun 2027 01:55:47.302   05 Jun 2027 01:56:16.710            29.408                Anadyr1           919.000
       452   05 Jun 2027 01:57:24.569   05 Jun 2027 01:57:40.776            16.207                Anadyr1           506.469
       453   05 Jun 2027 01:59:56.051   05 Jun 2027 02:01:36.825           100.774               Magadan1          3149.188
       454   05 Jun 2027 02:03:28.673   05 Jun 2027 02:03:43.742            15.069               Magadan2           470.906
       455   05 Jun 2027 02:04:36.689   05 Jun 2027 02:04:47.467            10.778                Norilsk           336.812
       456   05 Jun 2027 02:06:29.902   05 Jun 2027 02:06:39.315             9.413                Norilsk           294.156
       457   05 Jun 2027 02:07:06.872   05 Jun 2027 02:07:22.796            15.924              Murmansk2           497.625
       458   05 Jun 2027 02:07:40.850   05 Jun 2027 02:08:57.433            76.583              Murmansk1          2393.219
       459   05 Jun 2027 02:09:29.337   05 Jun 2027 02:09:44.554            15.217                Novosib           475.531
       460   05 Jun 2027 02:09:53.391   05 Jun 2027 02:10:09.335            15.944                Novosib           498.250
       461   05 Jun 2027 02:11:47.617   05 Jun 2027 02:11:53.882             6.265                 Moscow           195.781
       462   05 Jun 2027 02:12:20.215   05 Jun 2027 02:12:40.508            20.293                 Moscow           634.156
       463   05 Jun 2027 02:14:36.243   05 Jun 2027 02:14:44.523             8.280                 Moscow           258.750
       464   05 Jun 2027 02:16:05.383   05 Jun 2027 02:17:36.539            91.156                 Moscow          2848.625
       465   05 Jun 2027 02:43:01.027   05 Jun 2027 02:43:20.658            19.631               CapeTown           613.469
       466   05 Jun 2027 02:46:23.788   05 Jun 2027 02:47:02.490            38.702               CapeTown          1209.437
       467   05 Jun 2027 03:37:34.548   05 Jun 2027 03:37:39.463             4.915               Magadan1           153.594
       468   05 Jun 2027 03:37:53.804   05 Jun 2027 03:38:11.649            17.845               Magadan1           557.656
       469   05 Jun 2027 03:38:11.649   05 Jun 2027 03:38:37.936            26.287               Magadan2           821.469
       470   05 Jun 2027 03:38:44.445   05 Jun 2027 03:42:30.263           225.818                Anadyr2          7056.812
       471   05 Jun 2027 03:42:30.263   05 Jun 2027 03:42:36.697             6.434                Anadyr1           201.063
       472   05 Jun 2027 03:42:55.629   05 Jun 2027 03:43:25.849            30.220               Magadan1           944.375
       473   05 Jun 2027 05:15:00.164   05 Jun 2027 05:15:35.166            35.002               Magadan2          1093.813
       474   05 Jun 2027 05:15:39.565   05 Jun 2027 05:16:11.402            31.837               Magadan1           994.906
       475   05 Jun 2027 05:16:11.402   05 Jun 2027 05:19:27.833           196.431               Magadan2          6138.469
       476   05 Jun 2027 06:48:27.595   05 Jun 2027 06:48:50.414            22.819                Norilsk           713.094
       477   05 Jun 2027 06:48:51.636   05 Jun 2027 06:49:58.294            66.658                Anadyr2          2083.062
       478   05 Jun 2027 06:49:58.294   05 Jun 2027 06:50:50.834            52.540                Anadyr1          1641.875
       479   05 Jun 2027 06:50:53.594   05 Jun 2027 06:51:39.983            46.389                Norilsk          1449.656
       480   05 Jun 2027 06:51:47.220   05 Jun 2027 06:52:14.255            27.035               Magadan2           844.844
       481   05 Jun 2027 06:52:14.255   05 Jun 2027 06:54:10.426           116.171               Magadan1          3630.344
       482   05 Jun 2027 06:54:23.896   05 Jun 2027 06:55:13.025            49.129               Magadan1          1535.281
