uniorb/output/strategy_1/Drop/Drop_KinoSat_111507.txt

KinoSat_111507
-------------------------
    Access    *     Start Time (UTCG)     *     Stop Time (UTCG)  *   Duration (s)        *       Station  *  Data (Mbytes)
         1   01 Jun 2027 03:00:38.579   01 Jun 2027 03:01:48.909            70.330              Murmansk2          2197.812
         2   01 Jun 2027 03:01:48.909   01 Jun 2027 03:02:19.613            30.704              Murmansk1           959.500
         3   01 Jun 2027 03:02:21.974   01 Jun 2027 03:02:58.419            36.445                Novosib          1138.906
         4   01 Jun 2027 03:03:02.562   01 Jun 2027 03:03:09.986             7.424              Murmansk2           232.000
         5   01 Jun 2027 03:03:14.715   01 Jun 2027 03:04:30.947            76.232                 Moscow          2382.250
         6   01 Jun 2027 03:04:44.566   01 Jun 2027 03:04:52.878             8.312                 Moscow           259.750
         7   01 Jun 2027 03:05:06.727   01 Jun 2027 03:06:03.095            56.368                Novosib          1761.500
         8   01 Jun 2027 03:06:17.542   01 Jun 2027 03:08:31.824           134.282                  Delhi          4196.312
         9   01 Jun 2027 04:38:38.851   01 Jun 2027 04:38:50.897            12.046                Novosib           376.437
        10   01 Jun 2027 04:38:51.801   01 Jun 2027 04:40:37.606           105.805              Murmansk1          3306.406
        11   01 Jun 2027 04:40:56.210   01 Jun 2027 04:41:25.062            28.852                 Moscow           901.625
        12   01 Jun 2027 04:41:50.054   01 Jun 2027 04:43:20.143            90.089                 Moscow          2815.281
        13   01 Jun 2027 04:43:21.241   01 Jun 2027 04:43:49.106            27.865              Murmansk1           870.781
        14   01 Jun 2027 04:58:08.855   01 Jun 2027 05:00:39.068           150.213               CapeTown          4694.156
        15   01 Jun 2027 05:03:55.320   01 Jun 2027 05:04:00.604             5.284               CapeTown           165.125
        16   01 Jun 2027 06:01:56.497   01 Jun 2027 06:03:33.097            96.600                Anadyr2          3018.750
        17   01 Jun 2027 06:03:34.963   01 Jun 2027 06:04:01.692            26.729               Magadan1           835.281
        18   01 Jun 2027 06:04:27.521   01 Jun 2027 06:05:24.725            57.204                Anadyr2          1787.625
        19   01 Jun 2027 07:38:51.985   01 Jun 2027 07:39:24.835            32.850                Irkutsk          1026.563
        20   01 Jun 2027 07:39:54.459   01 Jun 2027 07:40:28.436            33.977                Anadyr2          1061.781
        21   01 Jun 2027 07:40:28.436   01 Jun 2027 07:41:03.075            34.639                Anadyr1          1082.469
        22   01 Jun 2027 07:41:15.511   01 Jun 2027 07:41:59.187            43.676               Magadan1          1364.875
        23   01 Jun 2027 07:42:00.297   01 Jun 2027 07:42:34.299            34.002                Anadyr1          1062.562
        24   01 Jun 2027 07:43:18.405   01 Jun 2027 07:43:32.818            14.413                Anadyr1           450.406
        25   01 Jun 2027 09:11:47.707   01 Jun 2027 09:12:46.709            59.002               Magadan1          1843.813
        26   01 Jun 2027 09:13:12.688   01 Jun 2027 09:14:07.173            54.485               Magadan2          1702.656
        27   01 Jun 2027 09:14:25.916   01 Jun 2027 09:15:27.548            61.632               Magadan2          1926.000
        28   01 Jun 2027 09:16:10.896   01 Jun 2027 09:18:37.631           146.735               Magadan2          4585.469
        29   01 Jun 2027 09:18:49.891   01 Jun 2027 09:18:59.941            10.050              Murmansk1           314.063
        30   01 Jun 2027 09:19:01.053   01 Jun 2027 09:19:20.172            19.119              Murmansk2           597.469
        31   01 Jun 2027 09:19:20.172   01 Jun 2027 09:19:25.151             4.979              Murmansk1           155.594
        32   01 Jun 2027 09:21:27.157   01 Jun 2027 09:22:01.108            33.951              Murmansk1          1060.969
        33   01 Jun 2027 09:22:52.109   01 Jun 2027 09:23:11.225            19.116              Murmansk1           597.375
        34   01 Jun 2027 09:24:19.033   01 Jun 2027 09:24:31.372            12.339              Murmansk2           385.594
        35   01 Jun 2027 09:27:06.826   01 Jun 2027 09:27:32.565            25.739              Murmansk1           804.344
        36   01 Jun 2027 09:54:10.715   01 Jun 2027 09:54:46.884            36.169            RioGallegos          1130.281
        37   01 Jun 2027 09:58:39.518   01 Jun 2027 09:58:45.287             5.769            RioGallegos           180.281
        38   01 Jun 2027 09:59:15.766   01 Jun 2027 10:00:04.973            49.207            RioGallegos          1537.719
        39   01 Jun 2027 10:32:55.051   01 Jun 2027 10:34:31.150            96.099                Sumatra          3003.094
        40   01 Jun 2027 10:50:16.478   01 Jun 2027 10:52:52.746           156.268                Irkutsk          4883.375
        41   01 Jun 2027 10:53:11.101   01 Jun 2027 10:55:07.832           116.731                Irkutsk          3647.844
        42   01 Jun 2027 10:55:32.413   01 Jun 2027 10:57:09.654            97.241                Norilsk          3038.781
        43   01 Jun 2027 11:30:37.758   01 Jun 2027 11:31:17.931            40.173            RioGallegos          1255.406
        44   01 Jun 2027 11:32:55.388   01 Jun 2027 11:33:54.933            59.545            RioGallegos          1860.781
        45   01 Jun 2027 12:04:56.511   01 Jun 2027 12:05:11.580            15.069                Sumatra           470.906
        46   01 Jun 2027 12:06:48.342   01 Jun 2027 12:07:26.626            38.284                Sumatra          1196.375
        47   01 Jun 2027 12:09:18.008   01 Jun 2027 12:09:39.601            21.593                Sumatra           674.781
        48   01 Jun 2027 12:13:31.932   01 Jun 2027 12:14:01.224            29.292                  Delhi           915.375
        49   01 Jun 2027 12:19:43.960   01 Jun 2027 12:21:49.878           125.918                Novosib          3934.937
        50   01 Jun 2027 12:22:28.937   01 Jun 2027 12:22:55.283            26.346                Novosib           823.313
        51   01 Jun 2027 12:23:26.430   01 Jun 2027 12:25:06.488           100.058                Irkutsk          3126.813
        52   01 Jun 2027 12:26:18.211   01 Jun 2027 12:26:28.219            10.008                Norilsk           312.750
        53   01 Jun 2027 12:29:18.521   01 Jun 2027 12:30:19.523            61.002                Irkutsk          1906.313
        54   01 Jun 2027 13:49:42.701   01 Jun 2027 13:51:27.882           105.181                  Delhi          3286.906
        55   01 Jun 2027 13:54:07.243   01 Jun 2027 13:55:01.083            53.840                  Delhi          1682.500
        56   01 Jun 2027 13:58:01.056   01 Jun 2027 14:00:51.719           170.663                Novosib          5333.219
        57   01 Jun 2027 14:00:56.878   01 Jun 2027 14:01:08.250            11.372              Murmansk2           355.375
        58   01 Jun 2027 14:01:23.237   01 Jun 2027 14:02:57.445            94.208                Novosib          2944.000
        59   01 Jun 2027 14:04:31.794   01 Jun 2027 14:05:07.883            36.089                Norilsk          1127.781
        60   01 Jun 2027 14:06:25.323   01 Jun 2027 14:06:40.687            15.364                Norilsk           480.125
        61   01 Jun 2027 15:33:19.481   01 Jun 2027 15:36:49.949           210.468                 Moscow          6577.125
        62   01 Jun 2027 15:36:50.980   01 Jun 2027 15:37:28.652            37.672              Murmansk1          1177.250
        63   01 Jun 2027 15:37:58.732   01 Jun 2027 15:38:44.959            46.227              Murmansk2          1444.594
        64   01 Jun 2027 15:42:50.568   01 Jun 2027 15:47:14.050           263.482                Norilsk          8233.813
        65   01 Jun 2027 17:12:03.770   01 Jun 2027 17:12:11.960             8.190                 Moscow           255.937
        66   01 Jun 2027 17:12:34.010   01 Jun 2027 17:13:16.057            42.047                 Moscow          1313.969
        67   01 Jun 2027 17:14:34.806   01 Jun 2027 17:15:00.277            25.471              Murmansk1           795.969
        68   01 Jun 2027 17:16:00.300   01 Jun 2027 17:17:26.996            86.696              Murmansk2          2709.250
        69   01 Jun 2027 17:23:33.977   01 Jun 2027 17:23:52.378            18.401              Murmansk1           575.031
        70   01 Jun 2027 17:27:47.442   01 Jun 2027 17:28:47.957            60.515                Anadyr1          1891.094
        71   01 Jun 2027 17:30:33.240   01 Jun 2027 17:31:07.062            33.822                Anadyr2          1056.938
        72   01 Jun 2027 18:23:07.696   01 Jun 2027 18:24:02.994            55.298               CapeTown          1728.063
        73   01 Jun 2027 18:27:00.336   01 Jun 2027 18:27:32.703            32.367               CapeTown          1011.469
        74   01 Jun 2027 18:54:56.831   01 Jun 2027 18:55:57.879            61.048              Murmansk2          1907.750
        75   01 Jun 2027 18:55:57.879   01 Jun 2027 18:59:46.946           229.067              Murmansk1          7158.344
        76   01 Jun 2027 19:06:06.044   01 Jun 2027 19:07:18.366            72.322               Magadan1          2260.063
        77   01 Jun 2027 20:39:12.921   01 Jun 2027 20:41:17.805           124.884                Anadyr2          3902.625
        78   01 Jun 2027 20:41:19.375   01 Jun 2027 20:42:08.851            49.476                Anadyr1          1546.125
        79   01 Jun 2027 20:42:20.503   01 Jun 2027 20:42:56.279            35.776                Anadyr1          1118.000
        80   01 Jun 2027 20:42:58.835   01 Jun 2027 20:43:15.075            16.240               Magadan2           507.500
        81   01 Jun 2027 20:43:15.075   01 Jun 2027 20:44:40.350            85.275               Magadan1          2664.844
        82   01 Jun 2027 20:45:19.966   01 Jun 2027 20:45:37.226            17.260               Magadan2           539.375
        83   01 Jun 2027 20:45:58.210   01 Jun 2027 20:46:31.674            33.464               Magadan2          1045.750
        84   01 Jun 2027 20:46:54.370   01 Jun 2027 20:47:16.191            21.821               Magadan2           681.906
        85   01 Jun 2027 20:48:13.420   01 Jun 2027 20:48:32.514            19.094               Magadan2           596.687
        86   01 Jun 2027 21:34:27.767   01 Jun 2027 21:37:27.221           179.454            RioGallegos          5607.937
        87   01 Jun 2027 21:41:07.082   01 Jun 2027 21:41:15.523             8.441            RioGallegos           263.781
        88   01 Jun 2027 22:14:58.570   01 Jun 2027 22:15:14.546            15.976                Anadyr1           499.250
        89   01 Jun 2027 22:15:46.052   01 Jun 2027 22:15:55.241             9.189                Anadyr1           287.156
        90   01 Jun 2027 22:16:03.913   01 Jun 2027 22:16:05.730             1.817                Anadyr1            56.781
        91   01 Jun 2027 22:16:09.278   01 Jun 2027 22:16:32.104            22.826                Anadyr1           713.312
        92   01 Jun 2027 22:16:45.087   01 Jun 2027 22:18:34.219           109.132                Anadyr2          3410.375
        93   01 Jun 2027 22:18:38.408   01 Jun 2027 22:19:00.137            21.729               Magadan1           679.031
        94   01 Jun 2027 22:19:19.031   01 Jun 2027 22:19:47.269            28.238               Magadan1           882.437
        95   01 Jun 2027 22:20:09.517   01 Jun 2027 22:20:48.476            38.959               Magadan1          1217.469
        96   01 Jun 2027 22:21:26.198   01 Jun 2027 22:21:30.974             4.776               Magadan1           149.250
        97   01 Jun 2027 22:21:39.859   01 Jun 2027 22:22:38.537            58.678                Irkutsk          1833.688
        98   01 Jun 2027 22:23:57.329   01 Jun 2027 22:24:18.128            20.799                Irkutsk           649.969
        99   01 Jun 2027 22:24:55.233   01 Jun 2027 22:24:59.722             4.489                Irkutsk           140.281
       100   01 Jun 2027 22:35:58.480   01 Jun 2027 22:38:47.292           168.812                Sumatra          5275.375
       101   01 Jun 2027 23:50:04.690   01 Jun 2027 23:50:41.349            36.659                Anadyr1          1145.594
       102   01 Jun 2027 23:50:41.349   01 Jun 2027 23:51:06.620            25.271                Anadyr2           789.719
       103   01 Jun 2027 23:52:26.849   01 Jun 2027 23:52:48.716            21.867                Anadyr1           683.344
       104   01 Jun 2027 23:52:57.258   01 Jun 2027 23:54:43.403           106.145                Norilsk          3317.031
       105   01 Jun 2027 23:54:52.945   01 Jun 2027 23:55:17.929            24.984               Magadan1           780.750
       106   01 Jun 2027 23:56:49.979   01 Jun 2027 23:59:04.604           134.625                Irkutsk          4207.031
       107   01 Jun 2027 23:59:41.387   01 Jun 2027 23:59:45.670             4.283                Novosib           133.844
       108   01 Jun 2027 23:59:49.334   02 Jun 2027 00:00:15.167            25.833                Novosib           807.281
       109   02 Jun 2027 00:06:01.074   02 Jun 2027 00:06:38.818            37.744                  Delhi          1179.500
       110   02 Jun 2027 00:06:40.231   02 Jun 2027 00:08:36.963           116.732                  Delhi          3647.875
       111   02 Jun 2027 01:23:57.994   02 Jun 2027 01:23:59.105             1.111                Anadyr2            34.719
       112   02 Jun 2027 01:24:03.916   02 Jun 2027 01:24:57.422            53.506                Anadyr1          1672.063
       113   02 Jun 2027 01:25:49.196   02 Jun 2027 01:26:30.584            41.388                Anadyr2          1293.375
       114   02 Jun 2027 01:29:15.193   02 Jun 2027 01:29:22.203             7.010                Anadyr1           219.063
       115   02 Jun 2027 01:29:29.040   02 Jun 2027 01:31:19.992           110.952               Magadan1          3467.250
       116   02 Jun 2027 01:31:34.658   02 Jun 2027 01:32:54.111            79.453              Murmansk2          2482.906
       117   02 Jun 2027 01:33:03.119   02 Jun 2027 01:34:54.346           111.227                Novosib          3475.844
       118   02 Jun 2027 01:39:42.163   02 Jun 2027 01:40:04.405            22.242                Irkutsk           695.062
       119   02 Jun 2027 01:43:31.633   02 Jun 2027 01:44:05.410            33.777                  Delhi          1055.531
       120   02 Jun 2027 02:22:34.515   02 Jun 2027 02:25:00.630           146.115            RioGallegos          4566.094
       121   02 Jun 2027 02:26:47.644   02 Jun 2027 02:26:55.216             7.572            RioGallegos           236.625
       122   02 Jun 2027 02:27:15.803   02 Jun 2027 02:27:40.252            24.449            RioGallegos           764.031
       123   02 Jun 2027 02:57:15.013   02 Jun 2027 02:57:21.313             6.300                Anadyr1           196.875
       124   02 Jun 2027 02:57:38.346   02 Jun 2027 02:58:13.478            35.132                Anadyr2          1097.875
       125   02 Jun 2027 03:12:37.989   02 Jun 2027 03:13:20.193            42.204                Irkutsk          1318.875
       126   02 Jun 2027 03:13:21.962   02 Jun 2027 03:15:20.207           118.245                 Moscow          3695.156
       127   02 Jun 2027 03:15:41.506   02 Jun 2027 03:17:21.885           100.379              Murmansk1          3136.844
       128   02 Jun 2027 03:17:21.885   02 Jun 2027 03:18:01.136            39.251              Murmansk2          1226.594
       129   02 Jun 2027 03:18:25.182   02 Jun 2027 03:18:26.835             1.653              Murmansk1            51.656
       130   02 Jun 2027 03:21:00.341   02 Jun 2027 03:21:37.908            37.567                 Moscow          1173.969
       131   02 Jun 2027 03:36:28.760   02 Jun 2027 03:36:48.411            19.651               CapeTown           614.094
       132   02 Jun 2027 04:31:18.827   02 Jun 2027 04:33:19.445           120.618                Anadyr2          3769.312
       133   02 Jun 2027 04:33:19.445   02 Jun 2027 04:33:33.039            13.594                Anadyr1           424.813
       134   02 Jun 2027 04:51:36.435   02 Jun 2027 04:51:48.774            12.339                Norilsk           385.594
       135   02 Jun 2027 04:51:56.351   02 Jun 2027 04:53:55.596           119.245              Murmansk1          3726.406
       136   02 Jun 2027 04:54:42.647   02 Jun 2027 04:55:13.477            30.830              Murmansk2           963.438
       137   02 Jun 2027 04:56:53.944   02 Jun 2027 04:57:49.557            55.613                 Moscow          1737.906
       138   02 Jun 2027 06:13:36.972   02 Jun 2027 06:14:11.905            34.933               Magadan2          1091.656
       139   02 Jun 2027 06:14:11.905   02 Jun 2027 06:15:01.100            49.195               Magadan1          1537.344
       140   02 Jun 2027 06:15:01.100   02 Jun 2027 06:16:28.071            86.971               Magadan2          2717.844
       141   02 Jun 2027 07:51:12.843   02 Jun 2027 07:54:01.440           168.597                Anadyr2          5268.656
       142   02 Jun 2027 07:54:01.440   02 Jun 2027 07:55:30.334            88.894                Anadyr1          2777.937
       143   02 Jun 2027 09:26:00.733   02 Jun 2027 09:26:13.114            12.381                Irkutsk           386.906
       144   02 Jun 2027 09:26:35.375   02 Jun 2027 09:30:55.565           260.190               Magadan1          8130.938
       145   02 Jun 2027 10:41:43.427   02 Jun 2027 10:42:35.319            51.892                Sumatra          1621.625
       146   02 Jun 2027 11:02:30.715   02 Jun 2027 11:02:50.801            20.086                Norilsk           627.687
       147   02 Jun 2027 11:02:55.557   02 Jun 2027 11:03:22.085            26.528                Norilsk           829.000
       148   02 Jun 2027 11:03:24.537   02 Jun 2027 11:03:54.659            30.122                Irkutsk           941.313
       149   02 Jun 2027 11:04:03.333   02 Jun 2027 11:05:08.775            65.442              Murmansk2          2045.063
       150   02 Jun 2027 11:05:17.033   02 Jun 2027 11:06:05.734            48.701                Irkutsk          1521.906
       151   02 Jun 2027 11:06:15.766   02 Jun 2027 11:06:39.077            23.311                Norilsk           728.469
       152   02 Jun 2027 11:06:40.713   02 Jun 2027 11:07:08.480            27.767                Irkutsk           867.719
       153   02 Jun 2027 11:09:04.705   02 Jun 2027 11:09:50.353            45.648                Norilsk          1426.500
       154   02 Jun 2027 11:43:03.074   02 Jun 2027 11:43:36.429            33.355            RioGallegos          1042.344
       155   02 Jun 2027 11:47:52.410   02 Jun 2027 11:48:06.373            13.963            RioGallegos           436.344
       156   02 Jun 2027 12:17:17.160   02 Jun 2027 12:18:45.041            87.881                Sumatra          2746.281
       157   02 Jun 2027 12:25:15.766   02 Jun 2027 12:27:13.947           118.181                  Delhi          3693.156
       158   02 Jun 2027 12:31:50.501   02 Jun 2027 12:33:27.112            96.611                Novosib          3019.094
       159   02 Jun 2027 12:34:48.860   02 Jun 2027 12:35:26.151            37.291                Novosib          1165.344
       160   02 Jun 2027 12:35:45.608   02 Jun 2027 12:38:17.222           151.614                Norilsk          4737.938
       161   02 Jun 2027 14:02:16.306   02 Jun 2027 14:06:05.454           229.148                  Delhi          7160.875
       162   02 Jun 2027 14:10:42.525   02 Jun 2027 14:12:48.314           125.789                Novosib          3930.906
       163   02 Jun 2027 14:12:53.242   02 Jun 2027 14:13:12.320            19.078              Murmansk2           596.187
       164   02 Jun 2027 14:14:17.413   02 Jun 2027 14:15:42.005            84.592                Norilsk          2643.500
       165   02 Jun 2027 14:18:08.276   02 Jun 2027 14:18:27.780            19.504                Norilsk           609.500
       166   02 Jun 2027 14:19:19.382   02 Jun 2027 14:19:27.414             8.032                Norilsk           251.000
       167   02 Jun 2027 15:45:28.522   02 Jun 2027 15:47:21.707           113.185                 Moscow          3537.031
       168   02 Jun 2027 15:48:59.453   02 Jun 2027 15:52:07.189           187.736              Murmansk2          5866.750
       169   02 Jun 2027 15:56:00.561   02 Jun 2027 15:56:57.319            56.758                Norilsk          1773.688
       170   02 Jun 2027 15:58:13.151   02 Jun 2027 15:58:48.937            35.786                Norilsk          1118.313
       171   02 Jun 2027 16:58:55.711   02 Jun 2027 17:00:46.771           111.060               CapeTown          3470.625
       172   02 Jun 2027 17:25:25.151   02 Jun 2027 17:25:58.025            32.874                 Moscow          1027.313
       173   02 Jun 2027 17:26:15.176   02 Jun 2027 17:29:34.877           199.701                 Moscow          6240.656
       174   02 Jun 2027 17:31:42.221   02 Jun 2027 17:32:15.834            33.613              Murmansk1          1050.406
       175   02 Jun 2027 17:41:45.332   02 Jun 2027 17:41:51.284             5.952                Anadyr2           186.000
       176   02 Jun 2027 18:35:25.014   02 Jun 2027 18:36:49.867            84.853               CapeTown          2651.656
       177   02 Jun 2027 18:38:48.639   02 Jun 2027 18:39:33.386            44.747               CapeTown          1398.344
       178   02 Jun 2027 18:39:53.739   02 Jun 2027 18:40:10.967            17.228               CapeTown           538.375
       179   02 Jun 2027 19:07:52.117   02 Jun 2027 19:12:44.161           292.044              Murmansk2          9126.375
       180   02 Jun 2027 19:17:59.274   02 Jun 2027 19:19:18.116            78.842               Magadan2          2463.812
       181   02 Jun 2027 19:20:44.082   02 Jun 2027 19:21:26.967            42.885               Magadan1          1340.156
       182   02 Jun 2027 19:23:16.172   02 Jun 2027 19:23:28.815            12.643               Magadan2           395.094
       183   02 Jun 2027 19:23:59.433   02 Jun 2027 19:24:03.531             4.098               Magadan2           128.063
       184   02 Jun 2027 20:51:14.213   02 Jun 2027 20:54:57.161           222.948                Anadyr2          6967.125
       185   02 Jun 2027 20:55:09.373   02 Jun 2027 20:58:42.177           212.804               Magadan1          6650.125
       186   02 Jun 2027 20:58:42.177   02 Jun 2027 20:59:00.634            18.457               Magadan2           576.781
       187   02 Jun 2027 21:46:06.037   02 Jun 2027 21:49:16.458           190.421            RioGallegos          5950.656
       188   02 Jun 2027 21:52:33.223   02 Jun 2027 21:52:35.655             2.432            RioGallegos            76.000
       189   02 Jun 2027 22:26:56.854   02 Jun 2027 22:27:58.115            61.261                Anadyr1          1914.406
       190   02 Jun 2027 22:28:28.927   02 Jun 2027 22:29:11.825            42.898                Anadyr2          1340.562
       191   02 Jun 2027 22:29:31.243   02 Jun 2027 22:32:29.777           178.534               Magadan1          5579.188
       192   02 Jun 2027 22:32:29.777   02 Jun 2027 22:32:50.436            20.659               Magadan2           645.594
       193   02 Jun 2027 22:33:22.232   02 Jun 2027 22:33:27.292             5.060               Magadan1           158.125
       194   02 Jun 2027 22:33:28.910   02 Jun 2027 22:34:28.847            59.937                Irkutsk          1873.031
       195   02 Jun 2027 22:35:47.086   02 Jun 2027 22:36:49.439            62.353                Irkutsk          1948.531
       196   02 Jun 2027 22:47:30.673   02 Jun 2027 22:49:29.047           118.374                Sumatra          3699.188
       197   03 Jun 2027 00:01:55.107   03 Jun 2027 00:02:36.651            41.544                Anadyr1          1298.250
       198   03 Jun 2027 00:04:13.425   03 Jun 2027 00:04:40.666            27.241                Anadyr2           851.281
       199   03 Jun 2027 00:04:59.394   03 Jun 2027 00:06:08.910            69.516                Norilsk          2172.375
       200   03 Jun 2027 00:06:28.647   03 Jun 2027 00:07:30.484            61.837               Magadan2          1932.406
       201   03 Jun 2027 00:07:30.484   03 Jun 2027 00:07:49.835            19.351               Magadan1           604.719
       202   03 Jun 2027 00:08:51.414   03 Jun 2027 00:10:09.715            78.301                Irkutsk          2446.906
       203   03 Jun 2027 00:10:39.181   03 Jun 2027 00:12:01.148            81.967                Novosib          2561.469
       204   03 Jun 2027 00:17:26.722   03 Jun 2027 00:20:21.148           174.426                  Delhi          5450.813
       205   03 Jun 2027 01:35:39.756   03 Jun 2027 01:36:21.399            41.643                Anadyr1          1301.344
       206   03 Jun 2027 01:36:58.754   03 Jun 2027 01:37:59.372            60.618                Anadyr1          1894.313
       207   03 Jun 2027 01:38:02.747   03 Jun 2027 01:38:14.748            12.001                Anadyr1           375.031
       208   03 Jun 2027 01:41:25.442   03 Jun 2027 01:42:35.051            69.609               Magadan2          2175.281
       209   03 Jun 2027 01:43:28.895   03 Jun 2027 01:45:45.582           136.687              Murmansk2          4271.469
       210   03 Jun 2027 01:46:06.786   03 Jun 2027 01:46:17.499            10.713              Murmansk2           334.781
       211   03 Jun 2027 01:46:26.543   03 Jun 2027 01:46:27.098             0.555              Murmansk2            17.344
       212   03 Jun 2027 01:46:58.464   03 Jun 2027 01:47:18.060            19.596                Novosib           612.375
       213   03 Jun 2027 01:48:03.310   03 Jun 2027 01:48:48.992            45.682                Novosib          1427.562
       214   03 Jun 2027 01:52:11.355   03 Jun 2027 01:54:18.449           127.094                  Delhi          3971.687
       215   03 Jun 2027 02:35:16.116   03 Jun 2027 02:35:47.364            31.248            RioGallegos           976.500
       216   03 Jun 2027 02:37:07.801   03 Jun 2027 02:37:10.998             3.197            RioGallegos            99.906
       217   03 Jun 2027 02:37:20.251   03 Jun 2027 02:38:08.588            48.337            RioGallegos          1510.531
       218   03 Jun 2027 03:08:58.448   03 Jun 2027 03:09:12.378            13.930                Anadyr2           435.313
       219   03 Jun 2027 03:24:49.517   03 Jun 2027 03:25:00.018            10.501                Novosib           328.156
       220   03 Jun 2027 03:25:05.184   03 Jun 2027 03:25:17.919            12.735                 Moscow           397.969
       221   03 Jun 2027 03:25:20.365   03 Jun 2027 03:26:38.527            78.162              Murmansk1          2442.562
       222   03 Jun 2027 03:26:38.527   03 Jun 2027 03:27:03.655            25.128              Murmansk2           785.250
       223   03 Jun 2027 03:27:05.601   03 Jun 2027 03:27:29.495            23.894              Murmansk2           746.687
       224   03 Jun 2027 03:27:45.068   03 Jun 2027 03:29:13.911            88.843                Norilsk          2776.344
       225   03 Jun 2027 03:29:18.529   03 Jun 2027 03:30:47.097            88.568              Murmansk2          2767.750
       226   03 Jun 2027 03:47:27.367   03 Jun 2027 03:47:59.353            31.986               CapeTown           999.563
       227   03 Jun 2027 04:43:12.584   03 Jun 2027 04:44:25.098            72.514                Anadyr1          2266.063
       228   03 Jun 2027 05:02:53.400   03 Jun 2027 05:04:56.978           123.578                 Moscow          3861.812
       229   03 Jun 2027 05:05:26.459   03 Jun 2027 05:05:54.775            28.316              Murmansk1           884.875
       230   03 Jun 2027 05:05:54.775   03 Jun 2027 05:06:44.752            49.977              Murmansk2          1561.781
       231   03 Jun 2027 05:07:00.788   03 Jun 2027 05:08:01.114            60.326              Murmansk1          1885.187
       232   03 Jun 2027 05:22:29.388   03 Jun 2027 05:23:24.618            55.230               CapeTown          1725.937
       233   03 Jun 2027 05:27:25.146   03 Jun 2027 05:28:05.034            39.888               CapeTown          1246.500
       234   03 Jun 2027 06:25:32.610   03 Jun 2027 06:27:27.933           115.323               Magadan2          3603.844
       235   03 Jun 2027 06:27:39.754   03 Jun 2027 06:28:06.542            26.788                Anadyr2           837.125
       236   03 Jun 2027 08:03:25.502   03 Jun 2027 08:04:59.791            94.289                Norilsk          2946.531
       237   03 Jun 2027 08:05:12.568   03 Jun 2027 08:05:23.816            11.248               Magadan2           351.500
       238   03 Jun 2027 08:05:37.371   03 Jun 2027 08:05:49.259            11.888                Irkutsk           371.500
       239   03 Jun 2027 08:06:02.288   03 Jun 2027 08:06:49.128            46.840                Anadyr2          1463.750
       240   03 Jun 2027 08:06:49.128   03 Jun 2027 08:07:26.690            37.562                Anadyr1          1173.813
       241   03 Jun 2027 08:45:46.718   03 Jun 2027 08:46:26.097            39.379            RioGallegos          1230.594
       242   03 Jun 2027 09:37:48.367   03 Jun 2027 09:38:33.895            45.528                Irkutsk          1422.750
       243   03 Jun 2027 09:38:47.710   03 Jun 2027 09:42:48.140           240.430               Magadan2          7513.437
       244   03 Jun 2027 10:20:27.099   03 Jun 2027 10:20:34.261             7.162            RioGallegos           223.813
       245   03 Jun 2027 10:53:19.969   03 Jun 2027 10:54:08.115            48.146                Sumatra          1504.562
       246   03 Jun 2027 11:13:25.853   03 Jun 2027 11:14:28.548            62.695                Norilsk          1959.219
       247   03 Jun 2027 11:14:32.406   03 Jun 2027 11:14:49.355            16.949                Norilsk           529.656
       248   03 Jun 2027 11:14:51.115   03 Jun 2027 11:15:35.426            44.311                Novosib          1384.719
       249   03 Jun 2027 11:15:38.741   03 Jun 2027 11:15:39.769             1.028                Irkutsk            32.125
       250   03 Jun 2027 11:15:48.607   03 Jun 2027 11:16:37.982            49.375                Norilsk          1542.969
       251   03 Jun 2027 11:16:42.964   03 Jun 2027 11:17:22.151            39.187                Irkutsk          1224.594
       252   03 Jun 2027 11:17:30.711   03 Jun 2027 11:18:15.167            44.456              Murmansk2          1389.250
       253   03 Jun 2027 11:18:17.719   03 Jun 2027 11:18:38.747            21.028                Norilsk           657.125
       254   03 Jun 2027 11:18:47.487   03 Jun 2027 11:18:59.353            11.866                Norilsk           370.813
       255   03 Jun 2027 11:19:13.317   03 Jun 2027 11:19:48.308            34.991              Murmansk1          1093.469
       256   03 Jun 2027 11:20:09.078   03 Jun 2027 11:20:23.199            14.121                Norilsk           441.281
       257   03 Jun 2027 11:21:58.263   03 Jun 2027 11:22:03.410             5.147              Murmansk2           160.844
       258   03 Jun 2027 11:55:33.963   03 Jun 2027 11:56:14.004            40.041            RioGallegos          1251.281
       259   03 Jun 2027 11:59:02.860   03 Jun 2027 11:59:34.384            31.524            RioGallegos           985.125
       260   03 Jun 2027 12:29:46.757   03 Jun 2027 12:30:47.412            60.655                Sumatra          1895.469
       261   03 Jun 2027 12:32:36.467   03 Jun 2027 12:33:17.233            40.766                Sumatra          1273.937
       262   03 Jun 2027 12:44:00.219   03 Jun 2027 12:44:37.538            37.319                Novosib          1166.219
       263   03 Jun 2027 12:45:07.080   03 Jun 2027 12:46:54.838           107.758                Novosib          3367.437
       264   03 Jun 2027 12:47:59.788   03 Jun 2027 12:49:25.771            85.983                Norilsk          2686.969
       265   03 Jun 2027 12:49:31.410   03 Jun 2027 12:50:34.415            63.005                Irkutsk          1968.906
       266   03 Jun 2027 14:15:01.872   03 Jun 2027 14:16:20.127            78.255                  Delhi          2445.469
       267   03 Jun 2027 14:17:02.574   03 Jun 2027 14:18:00.074            57.500                  Delhi          1796.875
       268   03 Jun 2027 14:23:32.750   03 Jun 2027 14:26:58.060           205.310                Novosib          6415.938
       269   03 Jun 2027 14:29:09.337   03 Jun 2027 14:30:06.881            57.544                Norilsk          1798.250
       270   03 Jun 2027 15:38:51.048   03 Jun 2027 15:40:11.645            80.597               CapeTown          2518.656
       271   03 Jun 2027 15:41:19.029   03 Jun 2027 15:42:47.189            88.160               CapeTown          2755.000
       272   03 Jun 2027 15:57:40.873   03 Jun 2027 15:57:54.023            13.150                 Moscow           410.938
       273   03 Jun 2027 15:58:51.263   03 Jun 2027 15:59:22.061            30.798                 Moscow           962.437
       274   03 Jun 2027 16:01:09.724   03 Jun 2027 16:02:50.815           101.091              Murmansk1          3159.094
       275   03 Jun 2027 16:03:50.052   03 Jun 2027 16:04:06.857            16.805              Murmansk1           525.156
       276   03 Jun 2027 16:04:06.857   03 Jun 2027 16:04:11.595             4.738              Murmansk2           148.063
       277   03 Jun 2027 16:16:27.970   03 Jun 2027 16:17:20.098            52.128                Anadyr1          1629.000
       278   03 Jun 2027 16:17:39.280   03 Jun 2027 16:19:19.030            99.750                Anadyr2          3117.187
       279   03 Jun 2027 17:10:51.153   03 Jun 2027 17:13:00.942           129.789               CapeTown          4055.906
       280   03 Jun 2027 17:37:51.884   03 Jun 2027 17:40:27.905           156.021                 Moscow          4875.656
       281   03 Jun 2027 17:44:16.034   03 Jun 2027 17:44:21.633             5.599              Murmansk1           174.969
       282   03 Jun 2027 17:51:29.235   03 Jun 2027 17:53:05.916            96.681                Anadyr1          3021.281
       283   03 Jun 2027 18:47:47.716   03 Jun 2027 18:48:57.084            69.368               CapeTown          2167.750
       284   03 Jun 2027 18:53:01.671   03 Jun 2027 18:53:08.777             7.106               CapeTown           222.063
       285   03 Jun 2027 19:21:00.003   03 Jun 2027 19:24:20.064           200.061              Murmansk1          6251.906
       286   03 Jun 2027 19:28:06.072   03 Jun 2027 19:28:26.022            19.950                Anadyr1           623.437
       287   03 Jun 2027 19:28:54.827   03 Jun 2027 19:29:19.926            25.099                Anadyr2           784.344
       288   03 Jun 2027 19:29:25.342   03 Jun 2027 19:31:01.282            95.940                Anadyr2          2998.125
       289   03 Jun 2027 19:31:15.011   03 Jun 2027 19:32:15.403            60.392               Magadan2          1887.250
       290   03 Jun 2027 19:32:41.794   03 Jun 2027 19:33:06.682            24.888               Magadan2           777.750
       291   03 Jun 2027 19:33:40.792   03 Jun 2027 19:34:31.298            50.506               Magadan2          1578.312
       292   03 Jun 2027 21:03:15.314   03 Jun 2027 21:07:11.470           236.156                Anadyr1          7379.875
       293   03 Jun 2027 21:07:42.605   03 Jun 2027 21:08:12.979            30.374                Norilsk           949.187
       294   03 Jun 2027 21:08:18.387   03 Jun 2027 21:09:50.747            92.360               Magadan2          2886.250
       295   03 Jun 2027 21:12:30.632   03 Jun 2027 21:12:32.063             1.431               Magadan1            44.719
       296   03 Jun 2027 21:15:43.408   03 Jun 2027 21:15:56.041            12.633               Magadan1           394.781
       297   03 Jun 2027 21:15:59.189   03 Jun 2027 21:16:00.994             1.805               Magadan1            56.406
       298   03 Jun 2027 21:16:08.045   03 Jun 2027 21:16:16.815             8.770               Magadan1           274.062
       299   03 Jun 2027 21:16:31.377   03 Jun 2027 21:17:42.629            71.252               Magadan2          2226.625
       300   03 Jun 2027 21:57:50.224   03 Jun 2027 22:00:14.958           144.734            RioGallegos          4522.937
       301   03 Jun 2027 22:01:01.375   03 Jun 2027 22:01:08.455             7.080            RioGallegos           221.250
       302   03 Jun 2027 22:38:54.456   03 Jun 2027 22:39:18.187            23.731                Anadyr2           741.594
       303   03 Jun 2027 22:40:11.850   03 Jun 2027 22:40:34.816            22.966                Anadyr2           717.688
       304   03 Jun 2027 22:40:48.181   03 Jun 2027 22:41:38.240            50.059                Anadyr2          1564.344
       305   03 Jun 2027 22:41:52.947   03 Jun 2027 22:42:46.905            53.958                Norilsk          1686.188
       306   03 Jun 2027 22:43:20.744   03 Jun 2027 22:43:43.429            22.685               Magadan1           708.906
       307   03 Jun 2027 22:43:53.996   03 Jun 2027 22:44:48.446            54.450                Norilsk          1701.563
       308   03 Jun 2027 22:45:20.763   03 Jun 2027 22:46:13.781            53.018                Irkutsk          1656.812
       309   03 Jun 2027 22:47:41.408   03 Jun 2027 22:48:22.239            40.831                Irkutsk          1275.969
       310   03 Jun 2027 22:50:22.613   03 Jun 2027 22:50:38.279            15.666                Novosib           489.563
       311   03 Jun 2027 22:53:50.248   03 Jun 2027 22:55:02.031            71.783                Irkutsk          2243.219
       312   03 Jun 2027 22:59:46.483   03 Jun 2027 23:01:01.301            74.818                Sumatra          2338.062
       313   03 Jun 2027 23:42:27.586   03 Jun 2027 23:42:33.276             5.690            RioGallegos           177.812
       314   03 Jun 2027 23:43:04.037   03 Jun 2027 23:43:16.300            12.263            RioGallegos           383.219
       315   04 Jun 2027 00:13:44.203   04 Jun 2027 00:15:05.990            81.787                Anadyr1          2555.844
       316   04 Jun 2027 00:15:59.569   04 Jun 2027 00:16:10.934            11.365                Anadyr2           355.156
       317   04 Jun 2027 00:16:24.350   04 Jun 2027 00:16:39.651            15.301                Anadyr2           478.156
       318   04 Jun 2027 00:17:01.601   04 Jun 2027 00:17:10.240             8.639                Norilsk           269.969
       319   04 Jun 2027 00:17:41.256   04 Jun 2027 00:19:14.289            93.033               Magadan2          2907.281
       320   04 Jun 2027 00:20:53.684   04 Jun 2027 00:21:52.484            58.800                Irkutsk          1837.500
       321   04 Jun 2027 00:21:58.709   04 Jun 2027 00:23:15.102            76.393                Novosib          2387.281
       322   04 Jun 2027 00:23:32.169   04 Jun 2027 00:24:00.636            28.467                Novosib           889.594
       323   04 Jun 2027 00:27:56.063   04 Jun 2027 00:28:30.580            34.517                Novosib          1078.656
       324   04 Jun 2027 00:29:02.223   04 Jun 2027 00:29:49.562            47.339                  Delhi          1479.344
       325   04 Jun 2027 00:31:42.128   04 Jun 2027 00:32:10.290            28.162                  Delhi           880.063
       326   04 Jun 2027 00:38:51.103   04 Jun 2027 00:39:34.980            43.877                  Delhi          1371.156
       327   04 Jun 2027 01:09:18.314   04 Jun 2027 01:10:25.957            67.643            RioGallegos          2113.844
       328   04 Jun 2027 01:16:47.523   04 Jun 2027 01:17:03.980            16.457            RioGallegos           514.281
       329   04 Jun 2027 01:47:21.075   04 Jun 2027 01:47:34.413            13.338                Anadyr2           416.812
       330   04 Jun 2027 01:48:05.616   04 Jun 2027 01:49:41.040            95.424                Anadyr2          2982.000
       331   04 Jun 2027 01:53:11.658   04 Jun 2027 01:53:17.635             5.977                Anadyr2           186.781
       332   04 Jun 2027 01:53:19.226   04 Jun 2027 01:53:45.725            26.499               Magadan2           828.094
       333   04 Jun 2027 01:53:51.347   04 Jun 2027 01:54:43.074            51.727               Magadan1          1616.469
       334   04 Jun 2027 01:55:04.270   04 Jun 2027 01:55:05.137             0.867                Norilsk            27.094
       335   04 Jun 2027 01:55:21.016   04 Jun 2027 01:55:30.073             9.057               Magadan2           283.031
       336   04 Jun 2027 01:55:44.331   04 Jun 2027 01:56:55.542            71.211              Murmansk2          2225.344
       337   04 Jun 2027 01:57:12.059   04 Jun 2027 01:57:43.646            31.587                Novosib           987.094
       338   04 Jun 2027 01:57:55.869   04 Jun 2027 01:58:10.572            14.703                Novosib           459.469
       339   04 Jun 2027 01:58:37.857   04 Jun 2027 01:58:46.723             8.866                Novosib           277.062
       340   04 Jun 2027 01:59:07.254   04 Jun 2027 02:00:10.870            63.616                Irkutsk          1988.000
       341   04 Jun 2027 02:04:20.729   04 Jun 2027 02:05:06.318            45.589                  Delhi          1424.656
       342   04 Jun 2027 02:09:46.307   04 Jun 2027 02:10:05.639            19.332                  Delhi           604.125
       343   04 Jun 2027 03:22:16.355   04 Jun 2027 03:22:29.840            13.485                Anadyr2           421.406
       344   04 Jun 2027 03:23:00.500   04 Jun 2027 03:23:32.054            31.554                Anadyr2           986.062
       345   04 Jun 2027 03:37:36.732   04 Jun 2027 03:38:36.028            59.296                Novosib          1853.000
       346   04 Jun 2027 03:38:38.979   04 Jun 2027 03:39:00.807            21.828              Murmansk1           682.125
       347   04 Jun 2027 03:39:04.920   04 Jun 2027 03:40:29.275            84.355              Murmansk1          2636.094
       348   04 Jun 2027 03:40:30.446   04 Jun 2027 03:41:45.331            74.885                Novosib          2340.156
       349   04 Jun 2027 03:42:28.863   04 Jun 2027 03:42:50.109            21.246              Murmansk2           663.938
       350   04 Jun 2027 03:43:16.460   04 Jun 2027 03:45:41.747           145.287                 Moscow          4540.219
       351   04 Jun 2027 03:46:33.898   04 Jun 2027 03:46:49.192            15.294                 Moscow           477.937
       352   04 Jun 2027 03:59:03.496   04 Jun 2027 04:03:05.328           241.832               CapeTown          7557.250
       353   04 Jun 2027 04:03:43.473   04 Jun 2027 04:04:43.758            60.285               CapeTown          1883.906
       354   04 Jun 2027 04:06:32.672   04 Jun 2027 04:08:11.138            98.466               CapeTown          3077.062
       355   04 Jun 2027 05:11:03.867   04 Jun 2027 05:11:31.364            27.497                Novosib           859.281
       356   04 Jun 2027 05:14:13.616   04 Jun 2027 05:14:35.221            21.605              Murmansk1           675.156
       357   04 Jun 2027 05:14:57.589   04 Jun 2027 05:18:23.166           205.577              Murmansk2          6424.281
       358   04 Jun 2027 05:18:23.166   04 Jun 2027 05:19:52.541            89.375              Murmansk1          2792.969
       359   04 Jun 2027 05:21:20.381   04 Jun 2027 05:22:41.195            80.814                 Moscow          2525.438
       360   04 Jun 2027 06:38:48.996   04 Jun 2027 06:41:07.690           138.694                Anadyr2          4334.187
       361   04 Jun 2027 06:41:07.690   04 Jun 2027 06:41:38.900            31.210                Anadyr1           975.313
       362   04 Jun 2027 06:42:40.817   04 Jun 2027 06:43:51.346            70.529                Anadyr2          2204.031
       363   04 Jun 2027 08:13:35.590   04 Jun 2027 08:14:34.959            59.369                Irkutsk          1855.281
       364   04 Jun 2027 08:15:10.125   04 Jun 2027 08:15:17.391             7.266                Irkutsk           227.063
       365   04 Jun 2027 08:15:26.795   04 Jun 2027 08:16:29.258            62.463               Magadan1          1951.969
       366   04 Jun 2027 08:16:29.258   04 Jun 2027 08:17:09.175            39.917               Magadan2          1247.406
       367   04 Jun 2027 08:17:36.387   04 Jun 2027 08:18:09.549            33.162                Irkutsk          1036.313
       368   04 Jun 2027 08:18:33.213   04 Jun 2027 08:19:02.801            29.588              Murmansk1           924.625
       369   04 Jun 2027 08:55:26.467   04 Jun 2027 08:56:50.300            83.833            RioGallegos          2619.781
       370   04 Jun 2027 09:48:21.286   04 Jun 2027 09:49:50.487            89.201               Magadan2          2787.531
       371   04 Jun 2027 09:50:29.774   04 Jun 2027 09:51:03.072            33.298               Magadan2          1040.562
       372   04 Jun 2027 09:51:03.072   04 Jun 2027 09:53:37.190           154.118               Magadan1          4816.188
       373   04 Jun 2027 09:54:00.162   04 Jun 2027 09:54:25.413            25.251              Murmansk2           789.094
       374   04 Jun 2027 09:54:31.008   04 Jun 2027 09:55:01.968            30.960                Novosib           967.500
       375   04 Jun 2027 09:55:13.628   04 Jun 2027 09:55:59.784            46.156              Murmansk2          1442.375
       376   04 Jun 2027 09:56:56.585   04 Jun 2027 09:57:22.891            26.306              Murmansk2           822.062
       377   04 Jun 2027 10:29:52.734   04 Jun 2027 10:30:53.623            60.889            RioGallegos          1902.781
       378   04 Jun 2027 11:05:03.965   04 Jun 2027 11:05:43.251            39.286                Sumatra          1227.688
       379   04 Jun 2027 11:17:10.257   04 Jun 2027 11:17:49.523            39.266                  Delhi          1227.062
       380   04 Jun 2027 11:24:55.171   04 Jun 2027 11:24:57.618             2.447                Norilsk            76.469
       381   04 Jun 2027 11:25:08.506   04 Jun 2027 11:25:17.504             8.998                Irkutsk           281.187
       382   04 Jun 2027 11:25:27.127   04 Jun 2027 11:26:24.270            57.143                Irkutsk          1785.719
       383   04 Jun 2027 11:26:30.127   04 Jun 2027 11:26:34.252             4.125                Norilsk           128.906
       384   04 Jun 2027 11:26:53.709   04 Jun 2027 11:27:21.871            28.162                Novosib           880.063
       385   04 Jun 2027 11:27:27.421   04 Jun 2027 11:27:28.110             0.689                Irkutsk            21.531
       386   04 Jun 2027 11:27:37.936   04 Jun 2027 11:28:13.308            35.372              Murmansk2          1105.375
       387   04 Jun 2027 11:28:17.337   04 Jun 2027 11:28:58.286            40.949              Murmansk1          1279.656
       388   04 Jun 2027 11:29:02.039   04 Jun 2027 11:29:05.440             3.401              Murmansk1           106.281
       389   04 Jun 2027 11:29:05.440   04 Jun 2027 11:29:31.182            25.742              Murmansk2           804.438
       390   04 Jun 2027 11:29:39.189   04 Jun 2027 11:29:42.661             3.472                Novosib           108.500
       391   04 Jun 2027 11:29:57.823   04 Jun 2027 11:30:13.240            15.417              Murmansk1           481.781
       392   04 Jun 2027 11:30:19.773   04 Jun 2027 11:30:28.527             8.754                Norilsk           273.563
       393   04 Jun 2027 11:30:37.787   04 Jun 2027 11:30:49.390            11.603              Murmansk2           362.594
       394   04 Jun 2027 11:30:50.898   04 Jun 2027 11:31:24.497            33.599                Novosib          1049.969
       395   04 Jun 2027 11:32:10.956   04 Jun 2027 11:32:24.847            13.891                Norilsk           434.094
       396   04 Jun 2027 12:08:11.514   04 Jun 2027 12:09:10.225            58.711            RioGallegos          1834.719
       397   04 Jun 2027 12:10:59.722   04 Jun 2027 12:11:09.225             9.503            RioGallegos           296.969
       398   04 Jun 2027 12:13:07.455   04 Jun 2027 12:13:10.178             2.723            RioGallegos            85.094
       399   04 Jun 2027 12:42:28.991   04 Jun 2027 12:45:01.250           152.259                Sumatra          4758.094
       400   04 Jun 2027 12:56:13.293   04 Jun 2027 12:56:38.024            24.731                Novosib           772.844
       401   04 Jun 2027 12:57:21.346   04 Jun 2027 12:58:59.453            98.107                Novosib          3065.844
       402   04 Jun 2027 13:00:48.028   04 Jun 2027 13:02:11.985            83.957                Norilsk          2623.656
       403   04 Jun 2027 14:28:06.478   04 Jun 2027 14:28:57.572            51.094                  Delhi          1596.688
       404   04 Jun 2027 14:29:50.704   04 Jun 2027 14:32:08.313           137.609                  Delhi          4300.281
       405   04 Jun 2027 14:36:49.976   04 Jun 2027 14:40:03.916           193.940              Murmansk2          6060.625
       406   04 Jun 2027 14:42:04.296   04 Jun 2027 14:43:25.770            81.474                Norilsk          2546.062
       407   04 Jun 2027 15:49:28.364   04 Jun 2027 15:51:14.143           105.779               CapeTown          3305.594
       408   04 Jun 2027 16:09:56.745   04 Jun 2027 16:10:54.028            57.283                 Moscow          1790.094
       409   04 Jun 2027 16:13:21.843   04 Jun 2027 16:14:03.396            41.553              Murmansk2          1298.531
       410   04 Jun 2027 16:14:23.466   04 Jun 2027 16:15:47.607            84.141              Murmansk1          2629.406
       411   04 Jun 2027 16:28:14.544   04 Jun 2027 16:29:18.689            64.145                Anadyr1          2004.531
       412   04 Jun 2027 16:29:21.544   04 Jun 2027 16:30:00.390            38.846                Anadyr2          1213.937
       413   04 Jun 2027 16:31:05.939   04 Jun 2027 16:31:31.287            25.348                Anadyr1           792.125
       414   04 Jun 2027 17:22:49.615   04 Jun 2027 17:25:19.530           149.915               CapeTown          4684.844
       415   04 Jun 2027 17:51:14.221   04 Jun 2027 17:54:37.082           202.861                 Moscow          6339.406
       416   04 Jun 2027 18:04:16.743   04 Jun 2027 18:04:39.938            23.195                Anadyr2           724.844
       417   04 Jun 2027 18:05:07.290   04 Jun 2027 18:05:40.920            33.630                Anadyr2          1050.938
       418   04 Jun 2027 18:08:06.463   04 Jun 2027 18:09:20.100            73.637               Magadan1          2301.156
       419   04 Jun 2027 18:11:23.077   04 Jun 2027 18:11:24.257             1.180               Magadan2            36.875
       420   04 Jun 2027 19:00:18.198   04 Jun 2027 19:01:07.388            49.190               CapeTown          1537.187
       421   04 Jun 2027 19:39:21.543   04 Jun 2027 19:43:06.246           224.703                Anadyr2          7021.969
       422   04 Jun 2027 19:43:30.421   04 Jun 2027 19:46:37.090           186.669               Magadan2          5833.406
       423   04 Jun 2027 21:15:16.178   04 Jun 2027 21:17:23.011           126.833                Anadyr1          3963.531
       424   04 Jun 2027 21:17:25.373   04 Jun 2027 21:19:18.809           113.436                Anadyr2          3544.875
       425   04 Jun 2027 21:19:44.494   04 Jun 2027 21:21:10.124            85.630                Norilsk          2675.937
       426   04 Jun 2027 21:21:19.901   04 Jun 2027 21:21:47.388            27.487               Magadan1           858.969
       427   04 Jun 2027 21:22:16.941   04 Jun 2027 21:22:43.530            26.589               Magadan1           830.906
       428   04 Jun 2027 21:24:27.496   04 Jun 2027 21:25:04.342            36.846               Magadan1          1151.437
       429   04 Jun 2027 21:26:36.440   04 Jun 2027 21:26:42.743             6.303               Magadan1           196.969
       430   04 Jun 2027 21:27:37.366   04 Jun 2027 21:27:51.715            14.349               Magadan1           448.406
       431   04 Jun 2027 21:28:13.016   04 Jun 2027 21:28:18.514             5.498               Magadan1           171.813
       432   04 Jun 2027 22:09:38.465   04 Jun 2027 22:12:27.834           169.369            RioGallegos          5292.781
       433   04 Jun 2027 22:18:16.209   04 Jun 2027 22:18:35.926            19.717            RioGallegos           616.156
       434   04 Jun 2027 22:50:51.295   04 Jun 2027 22:51:19.822            28.527                Anadyr1           891.469
       435   04 Jun 2027 22:51:54.014   04 Jun 2027 22:52:11.914            17.900                Anadyr1           559.375
       436   04 Jun 2027 22:52:36.192   04 Jun 2027 22:52:48.867            12.675                Anadyr1           396.094
       437   04 Jun 2027 22:53:05.827   04 Jun 2027 22:54:17.053            71.226                Norilsk          2225.812
       438   04 Jun 2027 22:54:32.632   04 Jun 2027 22:55:27.300            54.668               Magadan1          1708.375
       439   04 Jun 2027 22:55:42.034   04 Jun 2027 22:56:49.540            67.506               Magadan1          2109.563
       440   04 Jun 2027 22:57:14.803   04 Jun 2027 22:58:06.753            51.950                Irkutsk          1623.438
       441   04 Jun 2027 22:58:57.550   04 Jun 2027 22:59:49.134            51.584                Novosib          1612.000
       442   04 Jun 2027 23:04:01.879   04 Jun 2027 23:04:06.303             4.424                Novosib           138.250
       443   04 Jun 2027 23:10:58.410   04 Jun 2027 23:13:48.910           170.500                Sumatra          5328.125
       444   04 Jun 2027 23:55:26.746   04 Jun 2027 23:55:28.043             1.297            RioGallegos            40.531
       445   04 Jun 2027 23:55:36.397   04 Jun 2027 23:55:41.266             4.869            RioGallegos           152.156
       446   05 Jun 2027 00:25:31.985   05 Jun 2027 00:27:46.979           134.994                Anadyr2          4218.563
       447   05 Jun 2027 00:29:03.846   05 Jun 2027 00:29:09.572             5.726                Norilsk           178.937
       448   05 Jun 2027 00:29:43.577   05 Jun 2027 00:31:09.569            85.992               Magadan2          2687.250
       449   05 Jun 2027 00:32:56.745   05 Jun 2027 00:33:39.821            43.076                Irkutsk          1346.125
       450   05 Jun 2027 00:34:04.810   05 Jun 2027 00:35:19.573            74.763                Novosib          2336.344
       451   05 Jun 2027 00:36:50.449   05 Jun 2027 00:37:51.166            60.717                Novosib          1897.406
       452   05 Jun 2027 00:40:44.624   05 Jun 2027 00:42:02.201            77.577                  Delhi          2424.281
       453   05 Jun 2027 00:47:03.199   05 Jun 2027 00:47:07.332             4.133                  Delhi           129.156
       454   05 Jun 2027 00:48:58.176   05 Jun 2027 00:49:29.741            31.565                  Delhi           986.406
       455   05 Jun 2027 00:51:44.559   05 Jun 2027 00:52:08.267            23.708                  Delhi           740.875
       456   05 Jun 2027 01:22:14.556   05 Jun 2027 01:22:21.845             7.289            RioGallegos           227.781
       457   05 Jun 2027 01:24:01.576   05 Jun 2027 01:24:12.409            10.833            RioGallegos           338.531
       458   05 Jun 2027 01:24:32.638   05 Jun 2027 01:24:43.101            10.463            RioGallegos           326.969
       459   05 Jun 2027 01:24:56.641   05 Jun 2027 01:25:22.737            26.096            RioGallegos           815.500
       460   05 Jun 2027 01:28:14.004   05 Jun 2027 01:28:21.634             7.630            RioGallegos           238.438
       461   05 Jun 2027 01:28:51.834   05 Jun 2027 01:29:34.667            42.833            RioGallegos          1338.531
       462   05 Jun 2027 01:59:02.149   05 Jun 2027 01:59:19.288            17.139                Anadyr1           535.594
       463   05 Jun 2027 02:00:06.097   05 Jun 2027 02:00:19.027            12.930                Anadyr2           404.062
       464   05 Jun 2027 02:01:01.453   05 Jun 2027 02:01:41.020            39.567                Anadyr2          1236.469
       465   05 Jun 2027 02:05:03.226   05 Jun 2027 02:05:03.486             0.260                Norilsk             8.125
       466   05 Jun 2027 02:05:09.551   05 Jun 2027 02:05:21.583            12.032               Magadan1           376.000
       467   05 Jun 2027 02:05:42.380   05 Jun 2027 02:06:35.744            53.364               Magadan2          1667.625
       468   05 Jun 2027 02:06:53.699   05 Jun 2027 02:07:07.359            13.660                Norilsk           426.875
       469   05 Jun 2027 02:07:22.796   05 Jun 2027 02:08:56.727            93.931              Murmansk2          2935.344
       470   05 Jun 2027 02:08:57.433   05 Jun 2027 02:09:43.202            45.769              Murmansk1          1430.281
       471   05 Jun 2027 02:12:03.060   05 Jun 2027 02:12:20.215            17.155                 Moscow           536.094
       472   05 Jun 2027 02:12:40.669   05 Jun 2027 02:12:54.209            13.540                Irkutsk           423.125
       473   05 Jun 2027 02:16:34.064   05 Jun 2027 02:17:01.620            27.556                  Delhi           861.125
       474   05 Jun 2027 02:18:38.723   05 Jun 2027 02:21:06.273           147.550                  Delhi          4610.937
       475   05 Jun 2027 03:50:23.635   05 Jun 2027 03:51:12.580            48.945                Norilsk          1529.531
       476   05 Jun 2027 03:51:31.227   05 Jun 2027 03:54:28.503           177.276                Novosib          5539.875
       477   05 Jun 2027 03:54:30.622   05 Jun 2027 03:55:21.239            50.617              Murmansk1          1581.781
       478   05 Jun 2027 03:56:04.281   05 Jun 2027 03:59:02.839           178.558                 Moscow          5579.937
       479   05 Jun 2027 04:10:45.524   05 Jun 2027 04:17:08.718           383.194               CapeTown         11974.813
       480   05 Jun 2027 04:18:11.833   05 Jun 2027 04:18:51.464            39.631               CapeTown          1238.469
       481   05 Jun 2027 05:14:26.599   05 Jun 2027 05:15:42.595            75.996                Anadyr1          2374.875
       482   05 Jun 2027 05:26:06.837   05 Jun 2027 05:27:14.362            67.525                Norilsk          2110.156
