uniorb/output/strategy_1/Drop/Drop_KinoSat_111704.txt

KinoSat_111704
-------------------------
    Access    *     Start Time (UTCG)     *     Stop Time (UTCG)  *   Duration (s)        *       Station  *  Data (Mbytes)
         1   01 Jun 2027 03:21:13.979   01 Jun 2027 03:22:12.552            58.573              Murmansk2          1830.406
         2   01 Jun 2027 03:22:30.968   01 Jun 2027 03:22:55.391            24.423                Norilsk           763.219
         3   01 Jun 2027 03:23:03.785   01 Jun 2027 03:24:51.034           107.249                 Moscow          3351.531
         4   01 Jun 2027 03:24:58.820   01 Jun 2027 03:26:57.135           118.315                Norilsk          3697.344
         5   01 Jun 2027 03:26:58.170   01 Jun 2027 03:31:23.312           265.142                  Delhi          8285.688
         6   01 Jun 2027 04:59:10.582   01 Jun 2027 05:01:04.088           113.506              Murmansk1          3547.063
         7   01 Jun 2027 05:01:04.088   01 Jun 2027 05:01:08.715             4.627              Murmansk2           144.594
         8   01 Jun 2027 05:01:30.918   01 Jun 2027 05:01:43.948            13.030                Norilsk           407.187
         9   01 Jun 2027 05:01:52.438   01 Jun 2027 05:04:46.520           174.082              Murmansk2          5440.062
        10   01 Jun 2027 05:05:01.745   01 Jun 2027 05:08:02.084           180.339                 Moscow          5635.594
        11   01 Jun 2027 05:20:24.315   01 Jun 2027 05:20:41.011            16.696               CapeTown           521.750
        12   01 Jun 2027 05:22:01.763   01 Jun 2027 05:23:11.054            69.291               CapeTown          2165.344
        13   01 Jun 2027 06:22:48.587   01 Jun 2027 06:23:45.434            56.847               Magadan2          1776.469
        14   01 Jun 2027 06:24:14.210   01 Jun 2027 06:24:33.069            18.859               Magadan1           589.344
        15   01 Jun 2027 06:24:48.857   01 Jun 2027 06:26:58.713           129.856                Anadyr1          4058.000
        16   01 Jun 2027 06:34:58.947   01 Jun 2027 06:35:14.215            15.268              Murmansk2           477.125
        17   01 Jun 2027 06:36:38.652   01 Jun 2027 06:37:24.252            45.600                 Moscow          1425.000
        18   01 Jun 2027 06:38:00.853   01 Jun 2027 06:38:44.686            43.833                 Moscow          1369.781
        19   01 Jun 2027 06:39:54.042   01 Jun 2027 06:40:11.594            17.552                 Moscow           548.500
        20   01 Jun 2027 06:57:20.905   01 Jun 2027 06:57:28.384             7.479               CapeTown           233.719
        21   01 Jun 2027 06:59:25.339   01 Jun 2027 07:02:08.773           163.434               CapeTown          5107.313
        22   01 Jun 2027 07:58:29.681   01 Jun 2027 07:59:42.887            73.206                Anadyr2          2287.688
        23   01 Jun 2027 07:59:54.365   01 Jun 2027 08:01:10.490            76.125                Anadyr2          2378.906
        24   01 Jun 2027 08:01:58.432   01 Jun 2027 08:02:19.292            20.860                Norilsk           651.875
        25   01 Jun 2027 08:02:31.093   01 Jun 2027 08:04:55.360           144.267                Anadyr1          4508.344
        26   01 Jun 2027 08:05:28.973   01 Jun 2027 08:06:38.852            69.879              Murmansk2          2183.719
        27   01 Jun 2027 08:08:13.618   01 Jun 2027 08:08:23.157             9.539                 Moscow           298.094
        28   01 Jun 2027 08:09:57.053   01 Jun 2027 08:10:10.762            13.709              Murmansk2           428.406
        29   01 Jun 2027 08:43:43.887   01 Jun 2027 08:44:05.590            21.703            RioGallegos           678.219
        30   01 Jun 2027 09:32:25.022   01 Jun 2027 09:33:04.569            39.547                Irkutsk          1235.844
        31   01 Jun 2027 09:33:08.933   01 Jun 2027 09:39:59.763           410.830                Anadyr1         12838.437
        32   01 Jun 2027 11:10:34.361   01 Jun 2027 11:11:07.685            33.324                Irkutsk          1041.375
        33   01 Jun 2027 11:11:22.392   01 Jun 2027 11:11:54.350            31.958                Irkutsk           998.687
        34   01 Jun 2027 11:11:54.896   01 Jun 2027 11:14:52.412           177.516               Magadan2          5547.375
        35   01 Jun 2027 11:15:57.395   01 Jun 2027 11:16:22.669            25.274                Irkutsk           789.812
        36   01 Jun 2027 11:17:32.630   01 Jun 2027 11:17:38.363             5.733                Novosib           179.156
        37   01 Jun 2027 11:17:52.906   01 Jun 2027 11:18:05.994            13.088                Norilsk           409.000
        38   01 Jun 2027 11:51:16.847   01 Jun 2027 11:51:26.766             9.919            RioGallegos           309.969
        39   01 Jun 2027 11:52:12.626   01 Jun 2027 11:52:57.032            44.406            RioGallegos          1387.688
        40   01 Jun 2027 11:54:12.306   01 Jun 2027 11:54:51.224            38.918            RioGallegos          1216.188
        41   01 Jun 2027 12:25:54.305   01 Jun 2027 12:28:11.366           137.061                Sumatra          4283.156
        42   01 Jun 2027 12:40:15.244   01 Jun 2027 12:41:24.387            69.143                Irkutsk          2160.719
        43   01 Jun 2027 12:42:29.239   01 Jun 2027 12:44:39.691           130.452                Irkutsk          4076.625
        44   01 Jun 2027 12:49:09.112   01 Jun 2027 12:49:26.242            17.130                Norilsk           535.312
        45   01 Jun 2027 13:31:45.768   01 Jun 2027 13:35:21.060           215.292            RioGallegos          6727.875
        46   01 Jun 2027 14:13:11.330   01 Jun 2027 14:14:46.295            94.965                  Delhi          2967.656
        47   01 Jun 2027 14:18:08.861   01 Jun 2027 14:18:19.476            10.615                Novosib           331.719
        48   01 Jun 2027 14:19:54.229   01 Jun 2027 14:23:05.019           190.790                Novosib          5962.187
        49   01 Jun 2027 15:54:30.128   01 Jun 2027 15:56:58.303           148.175                 Moscow          4630.469
        50   01 Jun 2027 15:57:57.647   01 Jun 2027 16:00:57.084           179.437              Murmansk1          5607.406
        51   01 Jun 2027 16:02:10.712   01 Jun 2027 16:04:13.375           122.663                Norilsk          3833.219
        52   01 Jun 2027 16:05:20.754   01 Jun 2027 16:07:55.178           154.424                Norilsk          4825.750
        53   01 Jun 2027 17:32:00.991   01 Jun 2027 17:32:34.022            33.031                 Moscow          1032.219
        54   01 Jun 2027 17:35:06.282   01 Jun 2027 17:36:10.340            64.058              Murmansk1          2001.812
        55   01 Jun 2027 17:36:40.168   01 Jun 2027 17:37:08.038            27.870                 Moscow           870.938
        56   01 Jun 2027 17:38:50.499   01 Jun 2027 17:39:16.185            25.686              Murmansk1           802.687
        57   01 Jun 2027 17:41:20.135   01 Jun 2027 17:42:00.143            40.008                 Moscow          1250.250
        58   01 Jun 2027 17:48:57.600   01 Jun 2027 17:49:00.478             2.878                Anadyr1            89.938
        59   01 Jun 2027 17:49:42.592   01 Jun 2027 17:50:19.008            36.416                Anadyr2          1138.000
        60   01 Jun 2027 18:44:02.304   01 Jun 2027 18:45:58.076           115.772               CapeTown          3617.875
        61   01 Jun 2027 18:46:57.519   01 Jun 2027 18:47:46.536            49.017               CapeTown          1531.781
        62   01 Jun 2027 18:52:32.349   01 Jun 2027 18:52:41.279             8.930               CapeTown           279.063
        63   01 Jun 2027 19:14:32.603   01 Jun 2027 19:20:49.393           376.790              Murmansk2         11774.688
        64   01 Jun 2027 19:29:37.036   01 Jun 2027 19:29:51.024            13.988               Magadan1           437.125
        65   01 Jun 2027 19:30:50.151   01 Jun 2027 19:31:07.256            17.105               Magadan1           534.531
        66   01 Jun 2027 19:31:32.604   01 Jun 2027 19:31:45.226            12.622               Magadan1           394.438
        67   01 Jun 2027 21:00:29.198   01 Jun 2027 21:04:11.237           222.039                Anadyr2          6938.719
        68   01 Jun 2027 21:04:16.703   01 Jun 2027 21:06:08.655           111.952               Magadan1          3498.500
        69   01 Jun 2027 21:06:08.655   01 Jun 2027 21:07:40.490            91.835               Magadan2          2869.844
        70   01 Jun 2027 21:13:47.683   01 Jun 2027 21:14:19.085            31.402               Magadan2           981.313
        71   01 Jun 2027 21:57:34.773   01 Jun 2027 21:59:27.843           113.070            RioGallegos          3533.438
        72   01 Jun 2027 22:36:20.396   01 Jun 2027 22:37:37.023            76.627                Anadyr1          2394.594
        73   01 Jun 2027 22:37:47.466   01 Jun 2027 22:38:22.477            35.011                Anadyr2          1094.094
        74   01 Jun 2027 22:38:29.416   01 Jun 2027 22:40:04.707            95.291                Norilsk          2977.844
        75   01 Jun 2027 22:40:10.361   01 Jun 2027 22:41:02.535            52.174               Magadan1          1630.438
        76   01 Jun 2027 22:41:40.955   01 Jun 2027 22:41:48.451             7.496               Magadan1           234.250
        77   01 Jun 2027 22:42:00.643   01 Jun 2027 22:42:22.710            22.067               Magadan1           689.594
        78   01 Jun 2027 22:43:40.840   01 Jun 2027 22:45:04.697            83.857                Irkutsk          2620.531
        79   01 Jun 2027 22:48:50.650   01 Jun 2027 22:50:31.378           100.728                Irkutsk          3147.750
        80   01 Jun 2027 22:59:12.358   01 Jun 2027 23:00:46.651            94.293                Sumatra          2946.656
        81   02 Jun 2027 00:11:42.252   02 Jun 2027 00:13:22.260           100.008                Anadyr2          3125.250
        82   02 Jun 2027 00:13:22.260   02 Jun 2027 00:13:40.449            18.189                Anadyr1           568.406
        83   02 Jun 2027 00:14:12.149   02 Jun 2027 00:15:42.637            90.488                Norilsk          2827.750
        84   02 Jun 2027 00:15:54.017   02 Jun 2027 00:15:55.597             1.580                Norilsk            49.375
        85   02 Jun 2027 00:16:06.869   02 Jun 2027 00:16:11.453             4.584               Magadan2           143.250
        86   02 Jun 2027 00:16:24.133   02 Jun 2027 00:16:34.517            10.384               Magadan2           324.500
        87   02 Jun 2027 00:17:14.378   02 Jun 2027 00:17:19.189             4.811               Magadan1           150.344
        88   02 Jun 2027 00:17:44.902   02 Jun 2027 00:17:56.397            11.495               Magadan1           359.219
        89   02 Jun 2027 00:18:09.755   02 Jun 2027 00:19:17.543            67.788                Irkutsk          2118.375
        90   02 Jun 2027 00:19:27.006   02 Jun 2027 00:21:00.607            93.601                Novosib          2925.031
        91   02 Jun 2027 00:25:37.713   02 Jun 2027 00:25:46.934             9.221                Novosib           288.156
        92   02 Jun 2027 00:30:52.447   02 Jun 2027 00:31:34.473            42.026                  Delhi          1313.312
        93   02 Jun 2027 00:33:38.860   02 Jun 2027 00:34:24.110            45.250                Sumatra          1414.063
        94   02 Jun 2027 00:36:30.499   02 Jun 2027 00:37:02.414            31.915                Sumatra           997.344
        95   02 Jun 2027 01:06:10.998   02 Jun 2027 01:07:27.473            76.475            RioGallegos          2389.844
        96   02 Jun 2027 01:16:33.924   02 Jun 2027 01:16:48.840            14.916            RioGallegos           466.125
        97   02 Jun 2027 01:45:57.420   02 Jun 2027 01:46:21.509            24.089                Anadyr2           752.781
        98   02 Jun 2027 01:47:00.136   02 Jun 2027 01:47:14.492            14.356                Anadyr1           448.625
        99   02 Jun 2027 01:47:42.173   02 Jun 2027 01:48:03.681            21.508                Anadyr2           672.125
       100   02 Jun 2027 01:48:23.631   02 Jun 2027 01:48:32.269             8.638                Anadyr1           269.938
       101   02 Jun 2027 01:48:32.418   02 Jun 2027 01:48:37.531             5.113                Anadyr2           159.781
       102   02 Jun 2027 01:50:12.758   02 Jun 2027 01:52:05.747           112.989                Norilsk          3530.906
       103   02 Jun 2027 01:53:20.951   02 Jun 2027 01:54:13.739            52.788              Murmansk1          1649.625
       104   02 Jun 2027 01:54:38.663   02 Jun 2027 01:55:58.239            79.576                Irkutsk          2486.750
       105   02 Jun 2027 01:56:16.972   02 Jun 2027 01:56:24.927             7.955              Murmansk1           248.594
       106   02 Jun 2027 01:57:11.868   02 Jun 2027 01:58:11.243            59.375                Novosib          1855.469
       107   02 Jun 2027 02:01:24.380   02 Jun 2027 02:02:05.107            40.727                  Delhi          1272.719
       108   02 Jun 2027 02:03:39.753   02 Jun 2027 02:04:16.845            37.092                  Delhi          1159.125
       109   02 Jun 2027 02:43:04.885   02 Jun 2027 02:43:49.761            44.876            RioGallegos          1402.375
       110   02 Jun 2027 02:44:01.566   02 Jun 2027 02:47:13.950           192.384            RioGallegos          6012.000
       111   02 Jun 2027 03:34:31.147   02 Jun 2027 03:36:49.357           138.210              Murmansk2          4319.063
       112   02 Jun 2027 03:36:49.357   02 Jun 2027 03:38:51.492           122.135              Murmansk1          3816.719
       113   02 Jun 2027 05:11:21.907   02 Jun 2027 05:12:41.261            79.354                Norilsk          2479.813
       114   02 Jun 2027 05:12:57.277   02 Jun 2027 05:16:49.659           232.382              Murmansk2          7261.937
       115   02 Jun 2027 05:16:49.659   02 Jun 2027 05:16:57.507             7.848              Murmansk1           245.250
       116   02 Jun 2027 05:31:26.545   02 Jun 2027 05:31:51.509            24.964               CapeTown           780.125
       117   02 Jun 2027 06:35:10.002   02 Jun 2027 06:36:09.149            59.147                Anadyr1          1848.344
       118   02 Jun 2027 06:36:25.448   02 Jun 2027 06:36:46.665            21.217               Magadan1           663.031
       119   02 Jun 2027 06:36:46.665   02 Jun 2027 06:37:08.322            21.657               Magadan2           676.781
       120   02 Jun 2027 06:37:17.358   02 Jun 2027 06:38:59.706           102.348                Anadyr1          3198.375
       121   02 Jun 2027 06:38:59.706   02 Jun 2027 06:39:46.857            47.151                Anadyr2          1473.469
       122   02 Jun 2027 08:12:19.823   02 Jun 2027 08:14:36.171           136.348               Magadan2          4260.875
       123   02 Jun 2027 08:14:36.171   02 Jun 2027 08:15:16.545            40.374               Magadan1          1261.687
       124   02 Jun 2027 08:15:19.988   02 Jun 2027 08:16:07.087            47.099                Anadyr2          1471.844
       125   02 Jun 2027 09:45:25.558   02 Jun 2027 09:45:51.977            26.419               Magadan2           825.594
       126   02 Jun 2027 09:46:04.807   02 Jun 2027 09:52:26.027           381.220               Magadan2         11913.125
       127   02 Jun 2027 11:22:08.247   02 Jun 2027 11:25:03.719           175.472               Magadan2          5483.500
       128   02 Jun 2027 11:26:01.494   02 Jun 2027 11:26:11.165             9.671               Magadan2           302.219
       129   02 Jun 2027 11:26:16.159   02 Jun 2027 11:27:37.535            81.376                Irkutsk          2543.000
       130   02 Jun 2027 11:27:57.893   02 Jun 2027 11:29:14.501            76.608                Norilsk          2394.000
       131   02 Jun 2027 12:03:31.819   02 Jun 2027 12:04:17.054            45.235            RioGallegos          1413.594
       132   02 Jun 2027 12:04:57.267   02 Jun 2027 12:05:09.311            12.044            RioGallegos           376.375
       133   02 Jun 2027 12:06:29.413   02 Jun 2027 12:08:06.597            97.184            RioGallegos          3037.000
       134   02 Jun 2027 12:38:57.371   02 Jun 2027 12:40:15.551            78.180                Sumatra          2443.125
       135   02 Jun 2027 12:52:38.992   02 Jun 2027 12:53:42.553            63.561                Irkutsk          1986.281
       136   02 Jun 2027 12:54:06.469   02 Jun 2027 12:55:36.751            90.282                Novosib          2821.312
       137   02 Jun 2027 12:56:39.511   02 Jun 2027 12:57:22.473            42.962                Norilsk          1342.563
       138   02 Jun 2027 12:58:17.675   02 Jun 2027 12:59:24.215            66.540                Norilsk          2079.375
       139   02 Jun 2027 13:02:22.127   02 Jun 2027 13:02:35.708            13.581                Irkutsk           424.406
       140   02 Jun 2027 13:45:42.882   02 Jun 2027 13:48:00.307           137.425            RioGallegos          4294.531
       141   02 Jun 2027 14:22:31.921   02 Jun 2027 14:22:45.411            13.490                  Delhi           421.563
       142   02 Jun 2027 14:25:03.684   02 Jun 2027 14:27:14.977           131.293                  Delhi          4102.906
       143   02 Jun 2027 14:30:36.741   02 Jun 2027 14:31:16.593            39.852                Novosib          1245.375
       144   02 Jun 2027 14:34:06.075   02 Jun 2027 14:35:46.954           100.879                Novosib          3152.469
       145   02 Jun 2027 14:37:14.280   02 Jun 2027 14:37:40.080            25.800                Norilsk           806.250
       146   02 Jun 2027 14:38:18.546   02 Jun 2027 14:39:30.025            71.479                Norilsk          2233.719
       147   02 Jun 2027 14:39:49.753   02 Jun 2027 14:40:36.816            47.063                Novosib          1470.719
       148   02 Jun 2027 16:06:32.192   02 Jun 2027 16:07:38.050            65.858                 Moscow          2058.063
       149   02 Jun 2027 16:08:21.346   02 Jun 2027 16:09:27.609            66.263                 Moscow          2070.719
       150   02 Jun 2027 16:10:02.303   02 Jun 2027 16:10:57.703            55.400              Murmansk2          1731.250
       151   02 Jun 2027 16:14:58.118   02 Jun 2027 16:20:51.044           352.926                Norilsk         11028.938
       152   02 Jun 2027 17:44:32.951   02 Jun 2027 17:45:44.772            71.821                 Moscow          2244.406
       153   02 Jun 2027 17:47:25.856   02 Jun 2027 17:49:13.822           107.966              Murmansk1          3373.938
       154   02 Jun 2027 17:50:51.866   02 Jun 2027 17:51:14.019            22.153              Murmansk2           692.281
       155   02 Jun 2027 17:52:45.489   02 Jun 2027 17:53:03.466            17.977              Murmansk1           561.781
       156   02 Jun 2027 18:00:53.911   02 Jun 2027 18:01:15.563            21.652                Anadyr1           676.625
       157   02 Jun 2027 18:56:11.282   02 Jun 2027 19:00:28.348           257.066               CapeTown          8033.312
       158   02 Jun 2027 19:27:14.529   02 Jun 2027 19:34:28.976           434.447              Murmansk2         13576.469
       159   02 Jun 2027 21:12:30.901   02 Jun 2027 21:14:06.406            95.505                Anadyr1          2984.531
       160   02 Jun 2027 21:14:48.782   02 Jun 2027 21:18:08.367           199.585               Magadan1          6237.031
       161   02 Jun 2027 21:18:36.142   02 Jun 2027 21:19:22.532            46.390               Magadan2          1449.688
       162   02 Jun 2027 21:20:26.172   02 Jun 2027 21:20:49.895            23.723               Magadan1           741.344
       163   02 Jun 2027 21:25:02.640   02 Jun 2027 21:25:35.787            33.147               Magadan1          1035.844
       164   02 Jun 2027 22:08:29.998   02 Jun 2027 22:11:06.631           156.633            RioGallegos          4894.781
       165   02 Jun 2027 22:48:20.050   02 Jun 2027 22:49:32.079            72.029                Anadyr1          2250.906
       166   02 Jun 2027 22:49:50.339   02 Jun 2027 22:50:57.224            66.885                Anadyr1          2090.156
       167   02 Jun 2027 22:51:01.715   02 Jun 2027 22:52:37.175            95.460               Magadan1          2983.125
       168   02 Jun 2027 22:53:12.239   02 Jun 2027 22:53:40.793            28.554               Magadan2           892.312
       169   02 Jun 2027 22:55:18.860   02 Jun 2027 22:55:57.733            38.873                Irkutsk          1214.781
       170   02 Jun 2027 22:57:06.645   02 Jun 2027 22:57:41.841            35.196                Irkutsk          1099.875
       171   02 Jun 2027 22:59:32.888   02 Jun 2027 22:59:37.523             4.635                Irkutsk           144.844
       172   02 Jun 2027 23:00:41.559   02 Jun 2027 23:01:25.585            44.026                Irkutsk          1375.812
       173   02 Jun 2027 23:10:10.591   02 Jun 2027 23:12:07.182           116.591                Sumatra          3643.469
       174   02 Jun 2027 23:14:07.230   02 Jun 2027 23:15:38.214            90.984                Sumatra          2843.250
       175   02 Jun 2027 23:52:59.362   02 Jun 2027 23:53:18.000            18.638            RioGallegos           582.437
       176   02 Jun 2027 23:54:14.290   02 Jun 2027 23:54:51.161            36.871            RioGallegos          1152.219
       177   03 Jun 2027 00:23:35.577   03 Jun 2027 00:23:37.942             2.365                Anadyr2            73.906
       178   03 Jun 2027 00:23:44.269   03 Jun 2027 00:23:52.440             8.171                Anadyr2           255.344
       179   03 Jun 2027 00:23:52.440   03 Jun 2027 00:23:54.400             1.960                Anadyr1            61.250
       180   03 Jun 2027 00:24:32.024   03 Jun 2027 00:25:32.191            60.167                Anadyr2          1880.219
       181   03 Jun 2027 00:26:27.806   03 Jun 2027 00:26:40.438            12.632                Anadyr2           394.750
       182   03 Jun 2027 00:26:52.291   03 Jun 2027 00:28:16.737            84.446               Magadan1          2638.937
       183   03 Jun 2027 00:28:26.711   03 Jun 2027 00:28:47.262            20.551               Magadan1           642.219
       184   03 Jun 2027 00:29:41.175   03 Jun 2027 00:29:44.869             3.694               Magadan1           115.438
       185   03 Jun 2027 00:30:09.132   03 Jun 2027 00:30:52.828            43.696                Irkutsk          1365.500
       186   03 Jun 2027 00:30:58.728   03 Jun 2027 00:32:18.191            79.463                Novosib          2483.219
       187   03 Jun 2027 00:34:19.208   03 Jun 2027 00:34:51.128            31.920                Novosib           997.500
       188   03 Jun 2027 00:35:55.058   03 Jun 2027 00:36:36.099            41.041                Novosib          1282.531
       189   03 Jun 2027 00:39:35.844   03 Jun 2027 00:39:57.351            21.507                Novosib           672.094
       190   03 Jun 2027 00:40:31.150   03 Jun 2027 00:41:23.782            52.632                  Delhi          1644.750
       191   03 Jun 2027 00:43:14.388   03 Jun 2027 00:45:22.386           127.998                  Delhi          3999.938
       192   03 Jun 2027 01:24:01.528   03 Jun 2027 01:24:40.099            38.571            RioGallegos          1205.344
       193   03 Jun 2027 01:27:54.685   03 Jun 2027 01:28:41.848            47.163            RioGallegos          1473.844
       194   03 Jun 2027 01:59:14.447   03 Jun 2027 01:59:41.424            26.977                Anadyr2           843.031
       195   03 Jun 2027 02:00:14.427   03 Jun 2027 02:00:26.643            12.216                Anadyr1           381.750
       196   03 Jun 2027 02:00:44.429   03 Jun 2027 02:01:19.821            35.392                Anadyr1          1106.000
       197   03 Jun 2027 02:02:15.013   03 Jun 2027 02:03:32.494            77.481                Norilsk          2421.281
       198   03 Jun 2027 02:03:42.030   03 Jun 2027 02:04:08.192            26.162                Norilsk           817.562
       199   03 Jun 2027 02:05:05.229   03 Jun 2027 02:05:51.971            46.742              Murmansk1          1460.688
       200   03 Jun 2027 02:06:02.549   03 Jun 2027 02:06:41.450            38.901                Novosib          1215.656
       201   03 Jun 2027 02:06:59.091   03 Jun 2027 02:07:21.918            22.827                Irkutsk           713.344
       202   03 Jun 2027 02:08:51.377   03 Jun 2027 02:09:03.346            11.969                Novosib           374.031
       203   03 Jun 2027 02:09:51.403   03 Jun 2027 02:10:02.680            11.277                Novosib           352.406
       204   03 Jun 2027 02:11:11.277   03 Jun 2027 02:12:18.426            67.149                Irkutsk          2098.406
       205   03 Jun 2027 02:19:17.164   03 Jun 2027 02:20:09.722            52.558                  Delhi          1642.437
       206   03 Jun 2027 02:23:13.347   03 Jun 2027 02:25:19.274           125.927                  Delhi          3935.219
       207   03 Jun 2027 02:55:23.114   03 Jun 2027 02:56:29.962            66.848            RioGallegos          2089.000
       208   03 Jun 2027 02:57:46.959   03 Jun 2027 02:59:07.573            80.614            RioGallegos          2519.187
       209   03 Jun 2027 03:44:38.940   03 Jun 2027 03:46:19.139           100.199                Irkutsk          3131.219
       210   03 Jun 2027 03:47:15.591   03 Jun 2027 03:47:43.759            28.168              Murmansk1           880.250
       211   03 Jun 2027 03:47:43.759   03 Jun 2027 03:47:54.290            10.531              Murmansk2           329.094
       212   03 Jun 2027 03:48:09.474   03 Jun 2027 03:49:09.444            59.970                Norilsk          1874.063
       213   03 Jun 2027 03:49:43.896   03 Jun 2027 03:50:48.585            64.689                Norilsk          2021.531
       214   03 Jun 2027 03:52:52.181   03 Jun 2027 03:53:13.253            21.072                Novosib           658.500
       215   03 Jun 2027 05:23:25.002   03 Jun 2027 05:23:30.053             5.051                Novosib           157.844
       216   03 Jun 2027 05:23:57.066   03 Jun 2027 05:24:29.323            32.257                Novosib          1008.031
       217   03 Jun 2027 05:24:35.148   03 Jun 2027 05:25:22.760            47.612                Norilsk          1487.875
       218   03 Jun 2027 05:25:41.721   03 Jun 2027 05:29:06.666           204.945              Murmansk1          6404.531
       219   03 Jun 2027 05:29:09.580   03 Jun 2027 05:29:58.450            48.870                 Moscow          1527.187
       220   03 Jun 2027 06:47:30.857   03 Jun 2027 06:49:14.197           103.340               Magadan1          3229.375
       221   03 Jun 2027 06:49:19.212   03 Jun 2027 06:49:53.035            33.823                Anadyr2          1056.969
       222   03 Jun 2027 06:50:23.190   03 Jun 2027 06:52:42.031           138.841               Magadan2          4338.781
       223   03 Jun 2027 08:24:16.317   03 Jun 2027 08:24:27.013            10.696               Magadan2           334.250
       224   03 Jun 2027 08:24:56.006   03 Jun 2027 08:28:44.850           228.844               Magadan1          7151.375
       225   03 Jun 2027 08:32:40.358   03 Jun 2027 08:34:15.635            95.277                 Moscow          2977.406
       226   03 Jun 2027 09:56:59.217   03 Jun 2027 10:02:41.124           341.907               Magadan1         10684.594
       227   03 Jun 2027 10:02:45.695   03 Jun 2027 10:03:09.668            23.973                Anadyr1           749.156
       228   03 Jun 2027 10:03:41.989   03 Jun 2027 10:04:22.546            40.557               Magadan2          1267.406
       229   03 Jun 2027 11:34:33.628   03 Jun 2027 11:35:39.431            65.803                Novosib          2056.344
       230   03 Jun 2027 11:35:48.567   03 Jun 2027 11:35:48.685             0.118                Norilsk             3.688
       231   03 Jun 2027 11:36:03.133   03 Jun 2027 11:36:12.808             9.675                Norilsk           302.344
       232   03 Jun 2027 11:36:13.734   03 Jun 2027 11:36:37.752            24.018                Novosib           750.563
       233   03 Jun 2027 11:36:44.315   03 Jun 2027 11:37:48.595            64.280                Novosib          2008.750
       234   03 Jun 2027 11:37:59.358   03 Jun 2027 11:38:02.275             2.917              Murmansk1            91.156
       235   03 Jun 2027 11:38:10.981   03 Jun 2027 11:38:44.079            33.098                Irkutsk          1034.312
       236   03 Jun 2027 11:39:12.893   03 Jun 2027 11:39:53.392            40.499                Novosib          1265.594
       237   03 Jun 2027 11:40:01.429   03 Jun 2027 11:40:27.300            25.871                Irkutsk           808.469
       238   03 Jun 2027 11:41:15.813   03 Jun 2027 11:41:24.123             8.310              Murmansk2           259.688
       239   03 Jun 2027 11:41:36.597   03 Jun 2027 11:42:03.402            26.805                Norilsk           837.656
       240   03 Jun 2027 12:15:51.050   03 Jun 2027 12:17:00.896            69.846            RioGallegos          2182.688
       241   03 Jun 2027 12:20:37.883   03 Jun 2027 12:21:12.375            34.492            RioGallegos          1077.875
       242   03 Jun 2027 12:50:11.809   03 Jun 2027 12:52:03.428           111.619                Sumatra          3488.094
       243   03 Jun 2027 13:05:02.437   03 Jun 2027 13:06:06.966            64.529                Novosib          2016.531
       244   03 Jun 2027 13:06:16.723   03 Jun 2027 13:08:38.914           142.191                Irkutsk          4443.469
       245   03 Jun 2027 13:15:34.955   03 Jun 2027 13:15:59.043            24.088                Norilsk           752.750
       246   03 Jun 2027 13:19:59.608   03 Jun 2027 13:20:58.672            59.064                Norilsk          1845.750
       247   03 Jun 2027 14:34:54.523   03 Jun 2027 14:36:10.263            75.740                  Delhi          2366.875
       248   03 Jun 2027 14:39:18.309   03 Jun 2027 14:40:07.042            48.733                  Delhi          1522.906
       249   03 Jun 2027 14:41:55.803   03 Jun 2027 14:42:58.951            63.148                  Delhi          1973.375
       250   03 Jun 2027 14:43:09.891   03 Jun 2027 14:46:04.535           174.644                Novosib          5457.625
       251   03 Jun 2027 14:47:00.146   03 Jun 2027 14:47:37.550            37.404                Norilsk          1168.875
       252   03 Jun 2027 14:51:30.484   03 Jun 2027 14:51:52.477            21.993                Norilsk           687.281
       253   03 Jun 2027 14:55:21.530   03 Jun 2027 14:56:56.576            95.046                Norilsk          2970.187
       254   03 Jun 2027 16:18:37.250   03 Jun 2027 16:21:26.626           169.376                 Moscow          5293.000
       255   03 Jun 2027 16:27:51.684   03 Jun 2027 16:32:18.574           266.890                Norilsk          8340.313
       256   03 Jun 2027 17:38:07.041   03 Jun 2027 17:38:39.532            32.491               CapeTown          1015.344
       257   03 Jun 2027 17:42:45.717   03 Jun 2027 17:43:23.981            38.264               CapeTown          1195.750
       258   03 Jun 2027 17:57:10.944   03 Jun 2027 18:01:33.659           262.715                 Moscow          8209.844
       259   03 Jun 2027 18:09:16.540   03 Jun 2027 18:09:25.669             9.129              Murmansk2           285.281
       260   03 Jun 2027 18:15:37.224   03 Jun 2027 18:15:53.008            15.784                Anadyr1           493.250
       261   03 Jun 2027 19:08:23.577   03 Jun 2027 19:10:27.540           123.963               CapeTown          3873.844
       262   03 Jun 2027 19:15:40.399   03 Jun 2027 19:16:43.374            62.975               CapeTown          1967.969
       263   03 Jun 2027 19:40:01.116   03 Jun 2027 19:44:38.534           277.418              Murmansk1          8669.313
       264   03 Jun 2027 19:44:51.571   03 Jun 2027 19:46:21.636            90.065              Murmansk2          2814.531
       265   03 Jun 2027 21:24:32.499   03 Jun 2027 21:28:17.506           225.007                Anadyr2          7031.469
       266   03 Jun 2027 21:28:21.047   03 Jun 2027 21:30:52.491           151.444               Magadan2          4732.625
       267   03 Jun 2027 21:31:33.390   03 Jun 2027 21:31:46.207            12.817               Magadan2           400.531
       268   03 Jun 2027 21:31:54.336   03 Jun 2027 21:32:16.927            22.591               Magadan2           705.969
       269   03 Jun 2027 21:33:22.895   03 Jun 2027 21:33:53.396            30.501               Magadan2           953.156
       270   03 Jun 2027 21:34:54.018   03 Jun 2027 21:35:17.901            23.883               Magadan2           746.344
       271   03 Jun 2027 22:19:54.611   03 Jun 2027 22:22:15.256           140.645            RioGallegos          4395.156
       272   03 Jun 2027 22:23:45.425   03 Jun 2027 22:24:45.334            59.909            RioGallegos          1872.156
       273   03 Jun 2027 23:00:19.203   03 Jun 2027 23:01:26.101            66.898                Anadyr2          2090.562
       274   03 Jun 2027 23:01:33.740   03 Jun 2027 23:01:55.603            21.863                Anadyr1           683.219
       275   03 Jun 2027 23:02:12.746   03 Jun 2027 23:02:44.076            31.330                Anadyr1           979.063
       276   03 Jun 2027 23:02:44.708   03 Jun 2027 23:03:19.065            34.357                Norilsk          1073.656
       277   03 Jun 2027 23:03:46.093   03 Jun 2027 23:04:15.558            29.465               Magadan2           920.781
       278   03 Jun 2027 23:04:28.378   03 Jun 2027 23:04:41.741            13.363               Magadan2           417.594
       279   03 Jun 2027 23:05:19.098   03 Jun 2027 23:05:32.296            13.198               Magadan2           412.438
       280   03 Jun 2027 23:05:34.438   03 Jun 2027 23:05:48.325            13.887                Norilsk           433.969
       281   03 Jun 2027 23:07:02.974   03 Jun 2027 23:07:56.093            53.119                Irkutsk          1659.969
       282   03 Jun 2027 23:09:30.517   03 Jun 2027 23:09:45.709            15.192                Irkutsk           474.750
       283   03 Jun 2027 23:12:35.855   03 Jun 2027 23:13:20.985            45.130                Irkutsk          1410.313
       284   03 Jun 2027 23:16:27.652   03 Jun 2027 23:16:32.974             5.322                Irkutsk           166.312
       285   03 Jun 2027 23:21:28.050   03 Jun 2027 23:22:54.443            86.393                Sumatra          2699.781
       286   03 Jun 2027 23:26:36.982   03 Jun 2027 23:27:33.796            56.814                Sumatra          1775.437
       287   04 Jun 2027 00:04:54.190   04 Jun 2027 00:05:36.556            42.366            RioGallegos          1323.937
       288   04 Jun 2027 00:35:27.703   04 Jun 2027 00:35:38.638            10.935                Anadyr1           341.719
       289   04 Jun 2027 00:35:41.090   04 Jun 2027 00:36:33.163            52.073                Anadyr2          1627.281
       290   04 Jun 2027 00:37:37.226   04 Jun 2027 00:37:55.978            18.752                Anadyr2           586.000
       291   04 Jun 2027 00:38:08.433   04 Jun 2027 00:38:22.401            13.968                Anadyr1           436.500
       292   04 Jun 2027 00:38:28.956   04 Jun 2027 00:39:59.912            90.956                Norilsk          2842.375
       293   04 Jun 2027 00:40:11.712   04 Jun 2027 00:40:29.357            17.645               Magadan2           551.406
       294   04 Jun 2027 00:41:16.788   04 Jun 2027 00:41:28.386            11.598               Magadan1           362.438
       295   04 Jun 2027 00:42:09.524   04 Jun 2027 00:44:17.574           128.050                Irkutsk          4001.563
       296   04 Jun 2027 00:45:24.312   04 Jun 2027 00:47:00.293            95.981                Novosib          2999.406
       297   04 Jun 2027 00:54:47.644   04 Jun 2027 00:54:54.786             7.142                  Delhi           223.188
       298   04 Jun 2027 00:55:13.157   04 Jun 2027 00:56:48.177            95.020                  Delhi          2969.375
       299   04 Jun 2027 01:04:50.633   04 Jun 2027 01:06:11.619            80.986                Sumatra          2530.812
       300   04 Jun 2027 01:39:35.238   04 Jun 2027 01:40:01.242            26.004            RioGallegos           812.625
       301   04 Jun 2027 01:41:31.011   04 Jun 2027 01:41:43.245            12.234            RioGallegos           382.312
       302   04 Jun 2027 02:09:30.926   04 Jun 2027 02:09:41.282            10.356                Anadyr1           323.625
       303   04 Jun 2027 02:10:19.500   04 Jun 2027 02:10:36.986            17.486                Anadyr2           546.438
       304   04 Jun 2027 02:11:14.742   04 Jun 2027 02:11:33.194            18.452                Anadyr2           576.625
       305   04 Jun 2027 02:13:35.785   04 Jun 2027 02:14:15.627            39.842                Anadyr2          1245.062
       306   04 Jun 2027 02:14:17.179   04 Jun 2027 02:14:40.977            23.798                Norilsk           743.688
       307   04 Jun 2027 02:14:51.007   04 Jun 2027 02:15:31.042            40.035               Magadan1          1251.094
       308   04 Jun 2027 02:16:55.555   04 Jun 2027 02:17:37.958            42.403              Murmansk1          1325.094
       309   04 Jun 2027 02:18:03.738   04 Jun 2027 02:18:44.808            41.070                Novosib          1283.437
       310   04 Jun 2027 02:19:23.802   04 Jun 2027 02:20:04.196            40.394                Irkutsk          1262.312
       311   04 Jun 2027 02:21:20.433   04 Jun 2027 02:21:22.624             2.191                Novosib            68.469
       312   04 Jun 2027 02:22:48.680   04 Jun 2027 02:24:04.505            75.825                Irkutsk          2369.531
       313   04 Jun 2027 02:31:13.385   04 Jun 2027 02:31:57.528            44.143                  Delhi          1379.469
       314   04 Jun 2027 03:07:47.113   04 Jun 2027 03:13:02.121           315.008            RioGallegos          9844.000
       315   04 Jun 2027 03:58:11.577   04 Jun 2027 03:58:28.532            16.955                Irkutsk           529.844
       316   04 Jun 2027 03:58:42.244   04 Jun 2027 03:59:04.005            21.761                Norilsk           680.031
       317   04 Jun 2027 03:59:06.875   04 Jun 2027 03:59:28.806            21.931                Irkutsk           685.344
       318   04 Jun 2027 03:59:35.563   04 Jun 2027 04:00:04.708            29.145                Novosib           910.781
       319   04 Jun 2027 04:00:12.763   04 Jun 2027 04:00:55.390            42.627              Murmansk1          1332.094
       320   04 Jun 2027 04:01:04.375   04 Jun 2027 04:01:45.417            41.042                Norilsk          1282.562
       321   04 Jun 2027 04:01:48.005   04 Jun 2027 04:03:12.766            84.761                 Moscow          2648.781
       322   04 Jun 2027 04:03:32.977   04 Jun 2027 04:03:40.714             7.737              Murmansk2           241.781
       323   04 Jun 2027 04:03:54.458   04 Jun 2027 04:05:14.177            79.719                Novosib          2491.219
       324   04 Jun 2027 04:05:31.542   04 Jun 2027 04:07:53.423           141.881                  Delhi          4433.781
       325   04 Jun 2027 05:36:28.079   04 Jun 2027 05:37:11.627            43.548                Norilsk          1360.875
       326   04 Jun 2027 05:37:21.579   04 Jun 2027 05:40:00.563           158.984                 Moscow          4968.250
       327   04 Jun 2027 05:40:24.116   04 Jun 2027 05:40:33.385             9.269              Murmansk2           289.656
       328   04 Jun 2027 05:40:40.436   04 Jun 2027 05:41:11.735            31.299                 Moscow           978.094
       329   04 Jun 2027 05:58:39.276   04 Jun 2027 05:59:51.916            72.640               CapeTown          2270.000
       330   04 Jun 2027 06:59:33.436   04 Jun 2027 07:02:03.226           149.790               Magadan2          4680.937
       331   04 Jun 2027 07:04:18.238   04 Jun 2027 07:05:08.960            50.722                Anadyr1          1585.062
       332   04 Jun 2027 08:34:53.485   04 Jun 2027 08:35:15.193            21.708                Anadyr1           678.375
       333   04 Jun 2027 08:35:17.738   04 Jun 2027 08:35:58.751            41.013               Magadan1          1281.656
       334   04 Jun 2027 08:36:00.382   04 Jun 2027 08:36:58.196            57.814               Magadan2          1806.688
       335   04 Jun 2027 08:37:11.115   04 Jun 2027 08:38:17.545            66.430                Anadyr2          2075.938
       336   04 Jun 2027 08:38:17.545   04 Jun 2027 08:40:38.787           141.242                Anadyr1          4413.813
       337   04 Jun 2027 10:10:13.761   04 Jun 2027 10:12:25.241           131.480               Magadan1          4108.750
       338   04 Jun 2027 10:12:34.725   04 Jun 2027 10:12:59.365            24.640                Novosib           770.000
       339   04 Jun 2027 10:13:01.231   04 Jun 2027 10:13:43.605            42.374                Irkutsk          1324.188
       340   04 Jun 2027 10:14:24.750   04 Jun 2027 10:14:27.245             2.495                Irkutsk            77.969
       341   04 Jun 2027 10:14:42.110   04 Jun 2027 10:15:36.685            54.575               Magadan1          1705.469
       342   04 Jun 2027 10:15:39.211   04 Jun 2027 10:15:46.566             7.355              Murmansk2           229.844
       343   04 Jun 2027 10:15:50.822   04 Jun 2027 10:16:11.750            20.928              Murmansk2           654.000
       344   04 Jun 2027 10:16:11.750   04 Jun 2027 10:16:36.465            24.715              Murmansk1           772.344
       345   04 Jun 2027 10:51:13.889   04 Jun 2027 10:51:54.672            40.783            RioGallegos          1274.469
       346   04 Jun 2027 10:52:19.133   04 Jun 2027 10:53:05.479            46.346            RioGallegos          1448.312
       347   04 Jun 2027 11:27:11.529   04 Jun 2027 11:27:21.369             9.840                Sumatra           307.500
       348   04 Jun 2027 11:32:45.152   04 Jun 2027 11:33:33.712            48.560                Sumatra          1517.500
       349   04 Jun 2027 11:42:56.088   04 Jun 2027 11:43:07.761            11.673                Irkutsk           364.781
       350   04 Jun 2027 11:46:28.479   04 Jun 2027 11:47:31.411            62.932                Norilsk          1966.625
       351   04 Jun 2027 11:47:35.222   04 Jun 2027 11:48:08.074            32.852                Novosib          1026.625
       352   04 Jun 2027 11:48:15.677   04 Jun 2027 11:49:09.145            53.468                Norilsk          1670.875
       353   04 Jun 2027 11:49:12.830   04 Jun 2027 11:51:20.611           127.781                Irkutsk          3993.156
       354   04 Jun 2027 11:51:35.734   04 Jun 2027 11:52:15.753            40.019              Murmansk2          1250.594
       355   04 Jun 2027 11:52:52.942   04 Jun 2027 11:53:05.837            12.895              Murmansk1           402.969
       356   04 Jun 2027 11:53:18.773   04 Jun 2027 11:53:35.092            16.319                Norilsk           509.969
       357   04 Jun 2027 12:28:14.981   04 Jun 2027 12:28:38.571            23.590            RioGallegos           737.187
       358   04 Jun 2027 12:29:05.177   04 Jun 2027 12:29:59.844            54.667            RioGallegos          1708.344
       359   04 Jun 2027 12:34:41.036   04 Jun 2027 12:35:58.607            77.571            RioGallegos          2424.094
       360   04 Jun 2027 13:02:30.411   04 Jun 2027 13:03:43.965            73.554                Sumatra          2298.563
       361   04 Jun 2027 13:10:46.996   04 Jun 2027 13:12:25.249            98.253                Sumatra          3070.406
       362   04 Jun 2027 13:17:08.153   04 Jun 2027 13:18:04.043            55.890                Novosib          1746.562
       363   04 Jun 2027 13:20:20.911   04 Jun 2027 13:21:16.191            55.280                Novosib          1727.500
       364   04 Jun 2027 13:23:17.250   04 Jun 2027 13:23:20.885             3.635                Irkutsk           113.594
       365   04 Jun 2027 13:26:23.010   04 Jun 2027 13:27:30.290            67.280                Irkutsk          2102.500
       366   04 Jun 2027 14:47:25.449   04 Jun 2027 14:51:18.297           232.848                  Delhi          7276.500
       367   04 Jun 2027 14:55:49.329   04 Jun 2027 15:00:59.074           309.745                Novosib          9679.531
       368   04 Jun 2027 16:30:45.436   04 Jun 2027 16:31:49.984            64.548                 Moscow          2017.125
       369   04 Jun 2027 16:32:34.094   04 Jun 2027 16:33:51.569            77.475                 Moscow          2421.094
       370   04 Jun 2027 16:36:51.649   04 Jun 2027 16:37:17.983            26.334              Murmansk2           822.938
       371   04 Jun 2027 16:39:04.922   04 Jun 2027 16:39:18.929            14.007              Murmansk1           437.719
       372   04 Jun 2027 16:40:41.008   04 Jun 2027 16:41:11.115            30.107              Murmansk1           940.844
       373   04 Jun 2027 16:42:35.055   04 Jun 2027 16:44:20.682           105.627                Norilsk          3300.844
       374   04 Jun 2027 16:50:14.507   04 Jun 2027 16:50:19.723             5.216                Anadyr2           163.000
       375   04 Jun 2027 16:52:17.129   04 Jun 2027 16:52:38.676            21.547                Anadyr2           673.344
       376   04 Jun 2027 16:53:51.251   04 Jun 2027 16:54:36.101            44.850                Anadyr2          1401.563
       377   04 Jun 2027 17:45:29.659   04 Jun 2027 17:46:00.141            30.482               CapeTown           952.562
       378   04 Jun 2027 17:48:27.607   04 Jun 2027 17:50:04.147            96.540               CapeTown          3016.875
       379   04 Jun 2027 18:09:56.498   04 Jun 2027 18:11:29.359            92.861                 Moscow          2901.906
       380   04 Jun 2027 18:12:11.774   04 Jun 2027 18:13:21.320            69.546              Murmansk2          2173.312
       381   04 Jun 2027 18:17:04.061   04 Jun 2027 18:17:24.287            20.226              Murmansk1           632.062
       382   04 Jun 2027 18:19:09.663   04 Jun 2027 18:20:41.786            92.123              Murmansk1          2878.844
       383   04 Jun 2027 19:20:39.791   04 Jun 2027 19:21:58.948            79.157               CapeTown          2473.656
       384   04 Jun 2027 19:24:22.067   04 Jun 2027 19:25:07.888            45.821               CapeTown          1431.906
       385   04 Jun 2027 19:29:48.586   04 Jun 2027 19:30:30.389            41.803               CapeTown          1306.344
       386   04 Jun 2027 19:52:53.919   04 Jun 2027 19:57:22.189           268.270              Murmansk2          8383.437
       387   04 Jun 2027 20:06:44.026   04 Jun 2027 20:07:05.767            21.741               Magadan1           679.406
       388   04 Jun 2027 20:07:52.155   04 Jun 2027 20:08:05.286            13.131               Magadan2           410.344
       389   04 Jun 2027 20:09:19.986   04 Jun 2027 20:09:23.076             3.090               Magadan1            96.563
       390   04 Jun 2027 20:09:24.740   04 Jun 2027 20:10:08.585            43.845               Magadan1          1370.156
       391   04 Jun 2027 21:36:33.956   04 Jun 2027 21:41:43.521           309.565                Anadyr2          9673.906
       392   04 Jun 2027 21:42:05.379   04 Jun 2027 21:44:52.992           167.613               Magadan1          5237.906
       393   04 Jun 2027 22:31:30.820   04 Jun 2027 22:33:13.859           103.039            RioGallegos          3219.969
       394   04 Jun 2027 22:33:49.999   04 Jun 2027 22:34:21.995            31.996            RioGallegos           999.875
       395   04 Jun 2027 22:36:37.433   04 Jun 2027 22:36:50.462            13.029            RioGallegos           407.156
       396   04 Jun 2027 22:39:32.337   04 Jun 2027 22:40:09.904            37.567            RioGallegos          1173.969
       397   04 Jun 2027 23:12:17.771   04 Jun 2027 23:13:18.996            61.225                Anadyr2          1913.281
       398   04 Jun 2027 23:13:41.017   04 Jun 2027 23:14:08.516            27.499                Anadyr1           859.344
       399   04 Jun 2027 23:14:24.292   04 Jun 2027 23:16:01.436            97.144                Norilsk          3035.750
       400   04 Jun 2027 23:16:05.884   04 Jun 2027 23:17:20.940            75.056               Magadan1          2345.500
       401   04 Jun 2027 23:18:51.209   04 Jun 2027 23:19:39.349            48.140                Irkutsk          1504.375
       402   04 Jun 2027 23:21:01.007   04 Jun 2027 23:22:17.964            76.957                Irkutsk          2404.906
       403   04 Jun 2027 23:32:57.520   04 Jun 2027 23:33:08.586            11.066                Sumatra           345.813
       404   04 Jun 2027 23:34:23.183   04 Jun 2027 23:35:59.867            96.684                Sumatra          3021.375
       405   05 Jun 2027 00:12:00.124   05 Jun 2027 00:12:08.857             8.733            RioGallegos           272.906
       406   05 Jun 2027 00:13:49.638   05 Jun 2027 00:14:28.567            38.929            RioGallegos          1216.531
       407   05 Jun 2027 00:47:18.556   05 Jun 2027 00:49:37.723           139.167                Anadyr1          4348.969
       408   05 Jun 2027 00:50:26.104   05 Jun 2027 00:50:32.029             5.925                Norilsk           185.156
       409   05 Jun 2027 00:50:58.436   05 Jun 2027 00:52:13.814            75.378               Magadan2          2355.562
       410   05 Jun 2027 00:52:32.038   05 Jun 2027 00:52:58.810            26.772               Magadan2           836.625
       411   05 Jun 2027 00:54:10.840   05 Jun 2027 00:56:34.736           143.896                Irkutsk          4496.750
       412   05 Jun 2027 01:00:14.549   05 Jun 2027 01:00:37.803            23.254                Novosib           726.688
       413   05 Jun 2027 01:01:03.871   05 Jun 2027 01:01:53.321            49.450                Novosib          1545.312
       414   05 Jun 2027 01:08:42.705   05 Jun 2027 01:09:56.543            73.838                Sumatra          2307.437
       415   05 Jun 2027 01:18:35.288   05 Jun 2027 01:18:41.459             6.171                Sumatra           192.844
       416   05 Jun 2027 01:42:28.447   05 Jun 2027 01:42:47.957            19.510            RioGallegos           609.687
       417   05 Jun 2027 01:44:20.466   05 Jun 2027 01:45:13.354            52.888            RioGallegos          1652.750
       418   05 Jun 2027 01:52:59.421   05 Jun 2027 01:53:17.635            18.214            RioGallegos           569.187
       419   05 Jun 2027 02:21:05.529   05 Jun 2027 02:21:32.227            26.698                Anadyr1           834.313
       420   05 Jun 2027 02:21:32.227   05 Jun 2027 02:21:39.062             6.835                Anadyr2           213.594
       421   05 Jun 2027 02:22:46.344   05 Jun 2027 02:23:15.338            28.994                Anadyr1           906.063
       422   05 Jun 2027 02:25:37.164   05 Jun 2027 02:26:35.158            57.994                Anadyr2          1812.312
       423   05 Jun 2027 02:26:48.274   05 Jun 2027 02:27:27.059            38.785               Magadan2          1212.031
       424   05 Jun 2027 02:28:49.288   05 Jun 2027 02:29:25.929            36.641              Murmansk2          1145.031
       425   05 Jun 2027 02:29:25.929   05 Jun 2027 02:30:11.391            45.462              Murmansk1          1420.688
       426   05 Jun 2027 02:30:17.990   05 Jun 2027 02:30:30.240            12.250                Novosib           382.813
       427   05 Jun 2027 02:30:33.002   05 Jun 2027 02:31:04.951            31.949                Irkutsk           998.406
       428   05 Jun 2027 02:32:23.156   05 Jun 2027 02:33:37.371            74.215                Irkutsk          2319.219
       429   05 Jun 2027 02:43:39.481   05 Jun 2027 02:45:36.140           116.659                  Delhi          3645.594
       430   05 Jun 2027 03:20:23.086   05 Jun 2027 03:20:52.723            29.637            RioGallegos           926.156
       431   05 Jun 2027 03:21:54.633   05 Jun 2027 03:22:30.899            36.266            RioGallegos          1133.312
       432   05 Jun 2027 03:22:44.088   05 Jun 2027 03:24:07.470            83.382            RioGallegos          2605.687
       433   05 Jun 2027 04:10:34.717   05 Jun 2027 04:12:24.568           109.851              Murmansk1          3432.844
       434   05 Jun 2027 04:12:39.559   05 Jun 2027 04:13:07.231            27.672                 Moscow           864.750
       435   05 Jun 2027 04:13:12.222   05 Jun 2027 04:15:43.680           151.458              Murmansk1          4733.062
       436   05 Jun 2027 04:15:43.680   05 Jun 2027 04:16:01.692            18.012              Murmansk2           562.875
       437   05 Jun 2027 04:16:18.494   05 Jun 2027 04:16:58.689            40.195                 Moscow          1256.094
       438   05 Jun 2027 04:17:28.818   05 Jun 2027 04:18:56.324            87.506                 Moscow          2734.562
       439   05 Jun 2027 04:38:21.138   05 Jun 2027 04:39:07.051            45.913               CapeTown          1434.781
       440   05 Jun 2027 04:42:54.504   05 Jun 2027 04:43:10.079            15.575               CapeTown           486.719
       441   05 Jun 2027 05:48:26.600   05 Jun 2027 05:50:00.878            94.278              Murmansk2          2946.188
       442   05 Jun 2027 05:50:20.430   05 Jun 2027 05:52:16.048           115.618              Murmansk1          3613.063
       443   05 Jun 2027 05:52:16.048   05 Jun 2027 05:52:58.487            42.439              Murmansk2          1326.219
       444   05 Jun 2027 05:54:04.207   05 Jun 2027 05:54:50.868            46.661                 Moscow          1458.156
       445   05 Jun 2027 07:11:42.500   05 Jun 2027 07:14:07.051           144.551               Magadan1          4517.219
       446   05 Jun 2027 07:19:57.172   05 Jun 2027 07:20:26.866            29.694                 Moscow           927.937
       447   05 Jun 2027 08:46:55.301   05 Jun 2027 08:47:49.643            54.342               Magadan1          1698.187
       448   05 Jun 2027 08:47:50.978   05 Jun 2027 08:48:22.182            31.204                Anadyr1           975.125
       449   05 Jun 2027 08:49:00.099   05 Jun 2027 08:49:27.806            27.707               Magadan2           865.844
       450   05 Jun 2027 08:49:36.393   05 Jun 2027 08:51:21.779           105.386               Magadan1          3293.313
       451   05 Jun 2027 09:30:07.598   05 Jun 2027 09:30:55.546            47.948            RioGallegos          1498.375
       452   05 Jun 2027 10:18:42.151   05 Jun 2027 10:20:58.569           136.418               Magadan1          4263.063
       453   05 Jun 2027 10:22:02.987   05 Jun 2027 10:23:19.835            76.848               Magadan2          2401.500
       454   05 Jun 2027 10:23:19.835   05 Jun 2027 10:24:40.126            80.291               Magadan1          2509.094
       455   05 Jun 2027 10:24:58.517   05 Jun 2027 10:26:42.597           104.080               Magadan2          3252.500
       456   05 Jun 2027 10:26:42.597   05 Jun 2027 10:28:06.296            83.699               Magadan1          2615.594
       457   05 Jun 2027 10:28:21.060   05 Jun 2027 10:28:36.388            15.328                Norilsk           479.000
       458   05 Jun 2027 10:29:31.867   05 Jun 2027 10:29:45.425            13.558              Murmansk2           423.687
       459   05 Jun 2027 10:30:23.616   05 Jun 2027 10:30:53.041            29.425              Murmansk2           919.531
       460   05 Jun 2027 11:03:11.278   05 Jun 2027 11:04:04.222            52.944            RioGallegos          1654.500
       461   05 Jun 2027 11:38:45.697   05 Jun 2027 11:40:01.976            76.279                Sumatra          2383.719
       462   05 Jun 2027 11:49:30.484   05 Jun 2027 11:49:51.846            21.362                Sumatra           667.563
       463   05 Jun 2027 11:58:34.007   05 Jun 2027 12:01:35.182           181.175                Irkutsk          5661.719
       464   05 Jun 2027 12:02:23.356   05 Jun 2027 12:03:14.591            51.235                Irkutsk          1601.094
       465   05 Jun 2027 12:08:09.211   05 Jun 2027 12:08:22.970            13.759                Norilsk           429.969
       466   05 Jun 2027 12:08:58.369   05 Jun 2027 12:09:30.650            32.281              Murmansk1          1008.781
       467   05 Jun 2027 12:45:01.452   05 Jun 2027 12:45:50.105            48.653            RioGallegos          1520.406
       468   05 Jun 2027 12:46:02.591   05 Jun 2027 12:46:45.487            42.896            RioGallegos          1340.500
       469   05 Jun 2027 12:49:59.889   05 Jun 2027 12:50:46.164            46.275            RioGallegos          1446.094
       470   05 Jun 2027 13:19:06.450   05 Jun 2027 13:20:08.555            62.105                Sumatra          1940.781
       471   05 Jun 2027 13:22:35.129   05 Jun 2027 13:24:41.130           126.001                Sumatra          3937.531
       472   05 Jun 2027 13:35:11.078   05 Jun 2027 13:35:29.156            18.078                Irkutsk           564.937
       473   05 Jun 2027 13:36:03.392   05 Jun 2027 13:36:37.465            34.073                Irkutsk          1064.781
       474   05 Jun 2027 13:41:38.753   05 Jun 2027 13:41:47.362             8.609                Norilsk           269.031
       475   05 Jun 2027 13:43:24.310   05 Jun 2027 13:44:14.177            49.867                Norilsk          1558.344
       476   05 Jun 2027 15:00:07.245   05 Jun 2027 15:02:04.068           116.823                  Delhi          3650.719
       477   05 Jun 2027 15:03:14.807   05 Jun 2027 15:04:55.906           101.099                  Delhi          3159.344
       478   05 Jun 2027 15:06:35.781   05 Jun 2027 15:07:13.082            37.301                  Delhi          1165.656
       479   05 Jun 2027 15:08:36.778   05 Jun 2027 15:09:52.217            75.439                Novosib          2357.469
       480   05 Jun 2027 15:11:59.030   05 Jun 2027 15:12:14.632            15.602                Norilsk           487.563
       481   05 Jun 2027 15:15:26.477   05 Jun 2027 15:16:06.451            39.974                Norilsk          1249.187
       482   05 Jun 2027 15:17:00.183   05 Jun 2027 15:17:37.706            37.523                Norilsk          1172.594
