uniorb/output/strategy_1/Drop/Drop_KinoSat_111707.txt

KinoSat_111707
-------------------------
    Access    *     Start Time (UTCG)     *     Stop Time (UTCG)  *   Duration (s)        *       Station  *  Data (Mbytes)
         1   01 Jun 2027 04:30:44.718   01 Jun 2027 04:31:48.406            63.688                Norilsk          1990.250
         2   01 Jun 2027 04:32:07.166   01 Jun 2027 04:34:08.218           121.052                 Moscow          3782.875
         3   01 Jun 2027 04:34:10.522   01 Jun 2027 04:35:10.012            59.490                Novosib          1859.062
         4   01 Jun 2027 04:35:20.959   01 Jun 2027 04:35:29.865             8.906              Murmansk1           278.312
         5   01 Jun 2027 04:36:06.208   01 Jun 2027 04:39:13.276           187.068                 Moscow          5845.875
         6   01 Jun 2027 04:51:18.294   01 Jun 2027 04:55:22.512           244.218               CapeTown          7631.812
         7   01 Jun 2027 04:56:59.597   01 Jun 2027 04:58:08.855            69.258               CapeTown          2164.312
         8   01 Jun 2027 06:06:52.389   01 Jun 2027 06:07:42.508            50.119                Norilsk          1566.219
         9   01 Jun 2027 06:07:53.337   01 Jun 2027 06:09:59.453           126.116                 Moscow          3941.125
        10   01 Jun 2027 06:10:09.506   01 Jun 2027 06:10:41.527            32.021              Murmansk2          1000.656
        11   01 Jun 2027 06:10:58.123   01 Jun 2027 06:12:25.388            87.265              Murmansk2          2727.031
        12   01 Jun 2027 06:27:14.718   01 Jun 2027 06:28:01.537            46.819               CapeTown          1463.094
        13   01 Jun 2027 06:29:21.495   01 Jun 2027 06:31:42.775           141.280               CapeTown          4415.000
        14   01 Jun 2027 07:31:17.286   01 Jun 2027 07:31:38.252            20.966                Norilsk           655.187
        15   01 Jun 2027 07:31:41.469   01 Jun 2027 07:35:52.443           250.974               Magadan2          7842.938
        16   01 Jun 2027 07:37:06.188   01 Jun 2027 07:38:10.105            63.917              Murmansk1          1997.406
        17   01 Jun 2027 09:05:34.825   01 Jun 2027 09:07:46.797           131.972                Anadyr1          4124.125
        18   01 Jun 2027 09:08:07.106   01 Jun 2027 09:08:14.060             6.954                Anadyr1           217.313
        19   01 Jun 2027 09:08:32.210   01 Jun 2027 09:09:07.707            35.497                Anadyr1          1109.281
        20   01 Jun 2027 09:09:29.985   01 Jun 2027 09:11:47.707           137.722               Magadan1          4303.812
        21   01 Jun 2027 10:40:37.754   01 Jun 2027 10:42:34.793           117.039               Magadan1          3657.469
        22   01 Jun 2027 10:43:05.173   01 Jun 2027 10:43:54.653            49.480               Magadan2          1546.250
        23   01 Jun 2027 10:44:45.738   01 Jun 2027 10:45:28.570            42.832                Irkutsk          1338.500
        24   01 Jun 2027 10:45:41.650   01 Jun 2027 10:46:55.714            74.064               Magadan2          2314.500
        25   01 Jun 2027 11:22:13.760   01 Jun 2027 11:24:26.939           133.179            RioGallegos          4161.844
        26   01 Jun 2027 11:57:20.820   01 Jun 2027 11:59:38.066           137.246                Sumatra          4288.937
        27   01 Jun 2027 12:10:53.480   01 Jun 2027 12:12:37.528           104.048                Irkutsk          3251.500
        28   01 Jun 2027 12:15:34.436   01 Jun 2027 12:17:33.001           118.565                Norilsk          3705.156
        29   01 Jun 2027 13:00:42.490   01 Jun 2027 13:00:42.917             0.427            RioGallegos            13.344
        30   01 Jun 2027 13:03:10.987   01 Jun 2027 13:05:32.336           141.349            RioGallegos          4417.156
        31   01 Jun 2027 13:05:58.750   01 Jun 2027 13:06:42.492            43.742            RioGallegos          1366.937
        32   01 Jun 2027 13:35:03.522   01 Jun 2027 13:37:58.921           175.399                Sumatra          5481.219
        33   01 Jun 2027 13:41:02.887   01 Jun 2027 13:43:07.429           124.542                Sumatra          3891.938
        34   01 Jun 2027 13:50:52.087   01 Jun 2027 13:54:44.019           231.932                Irkutsk          7247.875
        35   01 Jun 2027 15:20:48.729   01 Jun 2027 15:22:01.504            72.775                  Delhi          2274.219
        36   01 Jun 2027 15:29:15.340   01 Jun 2027 15:33:23.564           248.224                Novosib          7757.000
        37   01 Jun 2027 17:13:49.030   01 Jun 2027 17:14:14.057            25.027              Murmansk2           782.094
        38   01 Jun 2027 17:20:30.895   01 Jun 2027 17:21:36.271            65.376                Anadyr1          2043.000
        39   01 Jun 2027 17:22:35.634   01 Jun 2027 17:22:58.160            22.526                Anadyr1           703.937
        40   01 Jun 2027 17:23:33.807   01 Jun 2027 17:23:38.993             5.186                Anadyr2           162.063
        41   01 Jun 2027 17:24:07.730   01 Jun 2027 17:24:54.339            46.609                Anadyr1          1456.531
        42   01 Jun 2027 18:21:57.066   01 Jun 2027 18:22:43.099            46.033               CapeTown          1438.531
        43   01 Jun 2027 18:44:02.680   01 Jun 2027 18:47:27.608           204.928                 Moscow          6404.000
        44   01 Jun 2027 18:48:00.907   01 Jun 2027 18:49:37.361            96.454              Murmansk2          3014.187
        45   01 Jun 2027 19:01:56.928   01 Jun 2027 19:02:55.288            58.360               Magadan1          1823.750
        46   01 Jun 2027 19:04:41.349   01 Jun 2027 19:04:53.449            12.100               Magadan1           378.125
        47   01 Jun 2027 19:52:48.921   01 Jun 2027 19:53:19.543            30.622               CapeTown           956.937
        48   01 Jun 2027 19:55:40.268   01 Jun 2027 19:56:36.465            56.197               CapeTown          1756.156
        49   01 Jun 2027 19:57:40.038   01 Jun 2027 19:57:49.858             9.820               CapeTown           306.875
        50   01 Jun 2027 20:31:42.086   01 Jun 2027 20:34:58.841           196.755                Anadyr2          6148.594
        51   01 Jun 2027 20:35:02.172   01 Jun 2027 20:36:27.848            85.676               Magadan1          2677.375
        52   01 Jun 2027 20:37:13.645   01 Jun 2027 20:37:44.518            30.873               Magadan2           964.781
        53   01 Jun 2027 22:07:36.715   01 Jun 2027 22:11:19.457           222.742                Anadyr2          6960.687
        54   01 Jun 2027 22:11:19.846   01 Jun 2027 22:13:23.986           124.140                Norilsk          3879.375
        55   01 Jun 2027 22:13:35.740   01 Jun 2027 22:13:53.767            18.027               Magadan2           563.344
        56   01 Jun 2027 22:14:55.483   01 Jun 2027 22:15:55.804            60.321               Magadan2          1885.031
        57   01 Jun 2027 22:17:06.890   01 Jun 2027 22:17:39.144            32.254                Irkutsk          1007.937
        58   01 Jun 2027 22:18:03.779   01 Jun 2027 22:18:41.302            37.523                Irkutsk          1172.594
        59   01 Jun 2027 23:01:55.556   01 Jun 2027 23:03:45.368           109.812            RioGallegos          3431.625
        60   01 Jun 2027 23:07:47.365   01 Jun 2027 23:07:56.049             8.684            RioGallegos           271.375
        61   01 Jun 2027 23:43:10.950   01 Jun 2027 23:45:02.844           111.894                Anadyr1          3496.687
        62   01 Jun 2027 23:45:25.649   01 Jun 2027 23:47:07.271           101.622                Norilsk          3175.688
        63   01 Jun 2027 23:47:16.986   01 Jun 2027 23:48:31.298            74.312               Magadan1          2322.250
        64   01 Jun 2027 23:49:33.338   01 Jun 2027 23:50:59.092            85.754                Irkutsk          2679.813
        65   01 Jun 2027 23:51:07.037   01 Jun 2027 23:52:04.930            57.893                Novosib          1809.156
        66   01 Jun 2027 23:57:36.886   01 Jun 2027 23:57:40.735             3.849                Novosib           120.281
        67   02 Jun 2027 00:03:56.258   02 Jun 2027 00:05:54.260           118.002                Sumatra          3687.563
        68   02 Jun 2027 00:41:10.010   02 Jun 2027 00:42:15.620            65.610            RioGallegos          2050.312
        69   02 Jun 2027 01:18:17.772   02 Jun 2027 01:18:58.520            40.748                Anadyr2          1273.375
        70   02 Jun 2027 01:19:39.606   02 Jun 2027 01:20:25.447            45.841                Anadyr1          1432.531
        71   02 Jun 2027 01:21:24.353   02 Jun 2027 01:23:07.414           103.061                Norilsk          3220.656
        72   02 Jun 2027 01:23:12.843   02 Jun 2027 01:23:28.228            15.385               Magadan1           480.781
        73   02 Jun 2027 01:25:17.908   02 Jun 2027 01:27:11.868           113.960                Irkutsk          3561.250
        74   02 Jun 2027 01:27:54.983   02 Jun 2027 01:27:59.368             4.385                Novosib           137.031
        75   02 Jun 2027 01:29:25.514   02 Jun 2027 01:30:26.282            60.768                Irkutsk          1899.000
        76   02 Jun 2027 01:38:37.680   02 Jun 2027 01:39:19.248            41.568                  Delhi          1299.000
        77   02 Jun 2027 01:41:35.628   02 Jun 2027 01:43:53.575           137.947                Sumatra          4310.844
        78   02 Jun 2027 02:16:53.172   02 Jun 2027 02:17:20.439            27.267            RioGallegos           852.094
        79   02 Jun 2027 02:51:17.709   02 Jun 2027 02:51:19.651             1.942                Anadyr2            60.688
        80   02 Jun 2027 02:52:36.750   02 Jun 2027 02:53:51.181            74.431                Anadyr2          2325.969
        81   02 Jun 2027 02:57:23.757   02 Jun 2027 02:58:12.511            48.754                Norilsk          1523.562
        82   02 Jun 2027 02:59:41.762   02 Jun 2027 03:00:43.765            62.003              Murmansk2          1937.594
        83   02 Jun 2027 03:02:24.910   02 Jun 2027 03:03:11.076            46.166                Norilsk          1442.687
        84   02 Jun 2027 03:03:12.605   02 Jun 2027 03:03:23.089            10.484              Murmansk2           327.625
        85   02 Jun 2027 03:03:28.688   02 Jun 2027 03:04:17.108            48.420                Norilsk          1513.125
        86   02 Jun 2027 03:04:41.464   02 Jun 2027 03:05:41.652            60.188                 Moscow          1880.875
        87   02 Jun 2027 03:05:46.391   02 Jun 2027 03:05:55.703             9.312                Norilsk           291.000
        88   02 Jun 2027 03:05:55.777   02 Jun 2027 03:06:23.726            27.949                Novosib           873.406
        89   02 Jun 2027 03:06:40.545   02 Jun 2027 03:07:29.567            49.022                Novosib          1531.938
        90   02 Jun 2027 03:07:36.341   02 Jun 2027 03:08:28.812            52.471              Murmansk2          1639.719
        91   02 Jun 2027 03:08:28.812   02 Jun 2027 03:08:41.088            12.276              Murmansk1           383.625
        92   02 Jun 2027 03:08:56.906   02 Jun 2027 03:10:00.573            63.667                Novosib          1989.594
        93   02 Jun 2027 03:10:53.023   02 Jun 2027 03:13:21.625           148.602                  Delhi          4643.813
        94   02 Jun 2027 04:42:01.066   02 Jun 2027 04:43:17.940            76.874                Novosib          2402.313
        95   02 Jun 2027 04:43:32.369   02 Jun 2027 04:43:56.828            24.459                Novosib           764.344
        96   02 Jun 2027 04:44:03.046   02 Jun 2027 04:45:52.096           109.050                Novosib          3407.813
        97   02 Jun 2027 04:45:55.091   02 Jun 2027 04:46:30.603            35.512                 Moscow          1109.750
        98   02 Jun 2027 04:46:40.420   02 Jun 2027 04:46:46.212             5.792                 Moscow           181.000
        99   02 Jun 2027 04:46:49.146   02 Jun 2027 04:47:45.439            56.293              Murmansk1          1759.156
       100   02 Jun 2027 04:48:10.966   02 Jun 2027 04:48:24.210            13.244                 Moscow           413.875
       101   02 Jun 2027 05:03:01.820   02 Jun 2027 05:06:25.811           203.991               CapeTown          6374.719
       102   02 Jun 2027 06:06:32.467   02 Jun 2027 06:06:43.960            11.493               Magadan2           359.156
       103   02 Jun 2027 06:06:45.251   02 Jun 2027 06:07:02.586            17.335                Anadyr2           541.719
       104   02 Jun 2027 06:07:31.475   02 Jun 2027 06:08:05.336            33.861               Magadan1          1058.156
       105   02 Jun 2027 06:08:05.742   02 Jun 2027 06:08:30.230            24.488                Anadyr2           765.250
       106   02 Jun 2027 06:08:30.230   02 Jun 2027 06:09:38.516            68.286                Anadyr1          2133.937
       107   02 Jun 2027 06:09:44.312   02 Jun 2027 06:09:49.664             5.352               Magadan2           167.250
       108   02 Jun 2027 06:10:45.351   02 Jun 2027 06:10:52.413             7.062               Magadan2           220.687
       109   02 Jun 2027 06:18:01.698   02 Jun 2027 06:18:21.842            20.144              Murmansk1           629.500
       110   02 Jun 2027 06:18:24.816   02 Jun 2027 06:18:38.488            13.672                 Moscow           427.250
       111   02 Jun 2027 06:18:49.932   02 Jun 2027 06:18:56.164             6.232                Norilsk           194.750
       112   02 Jun 2027 06:18:59.717   02 Jun 2027 06:22:34.287           214.570              Murmansk1          6705.313
       113   02 Jun 2027 06:22:41.827   02 Jun 2027 06:23:00.353            18.526              Murmansk1           578.938
       114   02 Jun 2027 06:39:43.119   02 Jun 2027 06:40:32.396            49.277               CapeTown          1539.906
       115   02 Jun 2027 07:42:06.419   02 Jun 2027 07:42:32.928            26.509               Magadan2           828.406
       116   02 Jun 2027 07:42:54.733   02 Jun 2027 07:48:12.388           317.655                Anadyr2          9926.719
       117   02 Jun 2027 07:51:47.128   02 Jun 2027 07:52:50.644            63.516                 Moscow          1984.875
       118   02 Jun 2027 09:15:42.592   02 Jun 2027 09:16:12.822            30.230               Magadan1           944.687
       119   02 Jun 2027 09:17:21.407   02 Jun 2027 09:19:43.907           142.500                Anadyr2          4453.125
       120   02 Jun 2027 09:19:43.907   02 Jun 2027 09:20:59.638            75.731                Anadyr1          2366.594
       121   02 Jun 2027 09:21:52.365   02 Jun 2027 09:23:47.296           114.931               Magadan1          3591.594
       122   02 Jun 2027 10:52:11.109   02 Jun 2027 10:55:23.427           192.318               Magadan2          6009.938
       123   02 Jun 2027 10:55:25.840   02 Jun 2027 10:55:27.577             1.737               Magadan2            54.281
       124   02 Jun 2027 10:57:05.158   02 Jun 2027 10:58:41.032            95.874               Magadan2          2996.062
       125   02 Jun 2027 10:58:47.855   02 Jun 2027 10:59:34.788            46.933                Irkutsk          1466.656
       126   02 Jun 2027 12:24:22.101   02 Jun 2027 12:25:09.496            47.395                Novosib          1481.094
       127   02 Jun 2027 12:27:39.130   02 Jun 2027 12:28:43.594            64.464                Norilsk          2014.500
       128   02 Jun 2027 13:13:31.308   02 Jun 2027 13:14:38.533            67.225            RioGallegos          2100.781
       129   02 Jun 2027 13:15:06.226   02 Jun 2027 13:18:07.563           181.337            RioGallegos          5666.781
       130   02 Jun 2027 14:02:07.502   02 Jun 2027 14:03:16.837            69.335                Novosib          2166.719
       131   02 Jun 2027 14:04:15.155   02 Jun 2027 14:07:16.948           181.793                Irkutsk          5681.031
       132   02 Jun 2027 15:35:37.528   02 Jun 2027 15:36:23.554            46.026                  Delhi          1438.313
       133   02 Jun 2027 15:37:49.178   02 Jun 2027 15:38:45.134            55.956                 Moscow          1748.625
       134   02 Jun 2027 15:41:10.993   02 Jun 2027 15:42:07.532            56.539              Murmansk2          1766.844
       135   02 Jun 2027 15:43:02.300   02 Jun 2027 15:45:34.832           152.532                Novosib          4766.625
       136   02 Jun 2027 15:47:37.563   02 Jun 2027 15:48:21.217            43.654                Norilsk          1364.187
       137   02 Jun 2027 15:49:12.415   02 Jun 2027 15:49:56.284            43.869                Norilsk          1370.906
       138   02 Jun 2027 17:15:00.252   02 Jun 2027 17:15:43.463            43.211                 Moscow          1350.344
       139   02 Jun 2027 17:16:44.617   02 Jun 2027 17:18:54.435           129.818                 Moscow          4056.812
       140   02 Jun 2027 17:19:51.712   02 Jun 2027 17:20:31.654            39.942              Murmansk2          1248.187
       141   02 Jun 2027 17:26:18.568   02 Jun 2027 17:27:34.672            76.104              Murmansk1          2378.250
       142   02 Jun 2027 17:32:59.078   02 Jun 2027 17:33:29.312            30.234                Anadyr2           944.812
       143   02 Jun 2027 18:27:11.903   02 Jun 2027 18:29:24.175           132.272               CapeTown          4133.500
       144   02 Jun 2027 18:56:58.189   02 Jun 2027 18:57:33.211            35.022              Murmansk1          1094.437
       145   02 Jun 2027 18:58:23.916   02 Jun 2027 19:02:05.291           221.375              Murmansk2          6917.969
       146   02 Jun 2027 19:03:21.089   02 Jun 2027 19:03:56.931            35.842              Murmansk2          1120.063
       147   02 Jun 2027 19:11:36.173   02 Jun 2027 19:11:58.983            22.810               Magadan1           712.812
       148   02 Jun 2027 20:05:39.032   02 Jun 2027 20:08:58.125           199.093               CapeTown          6221.656
       149   02 Jun 2027 20:43:43.893   02 Jun 2027 20:44:32.907            49.014                Anadyr2          1531.688
       150   02 Jun 2027 20:45:13.745   02 Jun 2027 20:45:39.513            25.768                Anadyr2           805.250
       151   02 Jun 2027 20:46:07.617   02 Jun 2027 20:47:07.611            59.994               Magadan2          1874.813
       152   02 Jun 2027 20:47:07.611   02 Jun 2027 20:47:39.070            31.459               Magadan1           983.094
       153   02 Jun 2027 20:47:56.306   02 Jun 2027 20:48:26.290            29.984               Magadan2           937.000
       154   02 Jun 2027 20:49:38.866   02 Jun 2027 20:50:32.686            53.820               Magadan2          1681.875
       155   02 Jun 2027 22:19:37.313   02 Jun 2027 22:21:36.150           118.837                Anadyr1          3713.656
       156   02 Jun 2027 22:21:42.969   02 Jun 2027 22:22:49.725            66.756                Anadyr2          2086.125
       157   02 Jun 2027 22:22:54.502   02 Jun 2027 22:24:49.930           115.428                Norilsk          3607.125
       158   02 Jun 2027 22:25:32.806   02 Jun 2027 22:25:38.269             5.463               Magadan2           170.719
       159   02 Jun 2027 22:27:04.570   02 Jun 2027 22:27:34.065            29.495               Magadan1           921.719
       160   02 Jun 2027 22:27:47.032   02 Jun 2027 22:28:13.197            26.165                Irkutsk           817.656
       161   02 Jun 2027 22:29:11.554   02 Jun 2027 22:29:18.873             7.319                Irkutsk           228.719
       162   02 Jun 2027 22:29:51.567   02 Jun 2027 22:30:18.978            27.411                Irkutsk           856.594
       163   02 Jun 2027 23:13:47.623   02 Jun 2027 23:14:53.662            66.039            RioGallegos          2063.719
       164   02 Jun 2027 23:16:07.990   02 Jun 2027 23:16:44.437            36.447            RioGallegos          1138.969
       165   02 Jun 2027 23:55:06.776   02 Jun 2027 23:58:00.285           173.509                Anadyr2          5422.156
       166   02 Jun 2027 23:58:01.755   02 Jun 2027 23:58:34.526            32.771               Magadan2          1024.094
       167   02 Jun 2027 23:58:39.216   02 Jun 2027 23:59:09.441            30.225                Norilsk           944.531
       168   02 Jun 2027 23:59:17.360   02 Jun 2027 23:59:48.672            31.312               Magadan1           978.500
       169   03 Jun 2027 00:00:03.798   03 Jun 2027 00:00:30.771            26.973               Magadan2           842.906
       170   03 Jun 2027 00:00:50.162   03 Jun 2027 00:01:10.331            20.169               Magadan2           630.281
       171   03 Jun 2027 00:01:29.687   03 Jun 2027 00:02:33.864            64.177                Irkutsk          2005.531
       172   03 Jun 2027 00:02:40.100   03 Jun 2027 00:03:54.886            74.786                Novosib          2337.063
       173   03 Jun 2027 00:15:11.133   03 Jun 2027 00:16:31.068            79.935                Sumatra          2497.969
       174   03 Jun 2027 00:23:54.618   03 Jun 2027 00:24:45.514            50.896                Sumatra          1590.500
       175   03 Jun 2027 00:49:22.837   03 Jun 2027 00:49:41.028            18.191            RioGallegos           568.469
       176   03 Jun 2027 00:49:56.141   03 Jun 2027 00:49:58.736             2.595            RioGallegos            81.094
       177   03 Jun 2027 00:52:33.745   03 Jun 2027 00:53:14.803            41.058            RioGallegos          1283.062
       178   03 Jun 2027 01:29:45.688   03 Jun 2027 01:30:25.762            40.074                Anadyr1          1252.312
       179   03 Jun 2027 01:30:58.805   03 Jun 2027 01:31:40.920            42.115                Anadyr1          1316.094
       180   03 Jun 2027 01:33:26.713   03 Jun 2027 01:35:09.042           102.329                Norilsk          3197.781
       181   03 Jun 2027 01:35:10.490   03 Jun 2027 01:35:21.709            11.219               Magadan2           350.594
       182   03 Jun 2027 01:37:19.824   03 Jun 2027 01:39:12.254           112.430                Novosib          3513.438
       183   03 Jun 2027 01:40:14.204   03 Jun 2027 01:40:51.938            37.734                Novosib          1179.187
       184   03 Jun 2027 01:42:04.439   03 Jun 2027 01:44:17.771           133.332                Novosib          4166.625
       185   03 Jun 2027 01:55:24.740   03 Jun 2027 01:58:10.378           165.638                Sumatra          5176.188
       186   03 Jun 2027 03:15:23.595   03 Jun 2027 03:16:21.179            57.584              Murmansk1          1799.500
       187   03 Jun 2027 03:16:21.179   03 Jun 2027 03:16:44.478            23.299              Murmansk2           728.094
       188   03 Jun 2027 03:16:51.231   03 Jun 2027 03:17:00.121             8.890                Norilsk           277.813
       189   03 Jun 2027 03:17:01.003   03 Jun 2027 03:17:07.762             6.759                Norilsk           211.219
       190   03 Jun 2027 03:17:08.955   03 Jun 2027 03:18:08.049            59.094                Novosib          1846.687
       191   03 Jun 2027 03:18:17.299   03 Jun 2027 03:18:26.213             8.914                Novosib           278.563
       192   03 Jun 2027 03:18:33.966   03 Jun 2027 03:19:00.480            26.514                Norilsk           828.563
       193   03 Jun 2027 03:19:00.843   03 Jun 2027 03:21:02.901           122.058                Novosib          3814.313
       194   03 Jun 2027 03:21:18.443   03 Jun 2027 03:22:55.838            97.395                  Delhi          3043.594
       195   03 Jun 2027 03:24:33.860   03 Jun 2027 03:25:36.579            62.719                  Delhi          1959.969
       196   03 Jun 2027 04:54:42.052   03 Jun 2027 04:56:05.327            83.275                Norilsk          2602.344
       197   03 Jun 2027 04:56:21.146   03 Jun 2027 04:59:59.039           217.893              Murmansk1          6809.156
       198   03 Jun 2027 05:00:16.245   03 Jun 2027 05:01:07.961            51.716                 Moscow          1616.125
       199   03 Jun 2027 05:01:31.924   03 Jun 2027 05:02:53.400            81.476                 Moscow          2546.125
       200   03 Jun 2027 05:14:50.684   03 Jun 2027 05:17:07.963           137.279               CapeTown          4289.969
       201   03 Jun 2027 05:17:49.468   03 Jun 2027 05:18:14.643            25.175               CapeTown           786.719
       202   03 Jun 2027 05:18:20.828   03 Jun 2027 05:18:26.516             5.688               CapeTown           177.750
       203   03 Jun 2027 06:17:38.180   03 Jun 2027 06:17:55.199            17.019                Anadyr1           531.844
       204   03 Jun 2027 06:17:55.199   03 Jun 2027 06:18:30.986            35.787                Anadyr2          1118.344
       205   03 Jun 2027 06:18:56.333   03 Jun 2027 06:19:18.444            22.111               Magadan1           690.969
       206   03 Jun 2027 06:19:38.027   03 Jun 2027 06:22:15.241           157.214                Anadyr2          4912.937
       207   03 Jun 2027 06:22:15.241   03 Jun 2027 06:22:36.163            20.922                Anadyr1           653.813
       208   03 Jun 2027 06:23:31.448   03 Jun 2027 06:23:33.091             1.643               Magadan1            51.344
       209   03 Jun 2027 06:29:58.981   03 Jun 2027 06:30:32.408            33.427              Murmansk2          1044.594
       210   03 Jun 2027 06:30:43.215   03 Jun 2027 06:30:47.974             4.759                Norilsk           148.719
       211   03 Jun 2027 06:30:52.037   03 Jun 2027 06:31:19.840            27.803                Norilsk           868.844
       212   03 Jun 2027 06:31:56.631   03 Jun 2027 06:32:15.452            18.821                 Moscow           588.156
       213   03 Jun 2027 06:32:59.600   03 Jun 2027 06:34:19.469            79.869                 Moscow          2495.906
       214   03 Jun 2027 06:52:20.791   03 Jun 2027 06:52:41.038            20.247               CapeTown           632.719
       215   03 Jun 2027 07:53:19.771   03 Jun 2027 07:54:38.369            78.598               Magadan2          2456.187
       216   03 Jun 2027 07:54:58.384   03 Jun 2027 07:57:55.342           176.958                Anadyr1          5529.937
       217   03 Jun 2027 07:58:06.516   03 Jun 2027 07:59:08.258            61.742                Anadyr2          1929.438
       218   03 Jun 2027 09:27:12.975   03 Jun 2027 09:28:00.366            47.391               Magadan2          1480.969
       219   03 Jun 2027 09:28:06.927   03 Jun 2027 09:32:29.080           262.153                Anadyr2          8192.281
       220   03 Jun 2027 09:33:19.869   03 Jun 2027 09:33:51.988            32.119               Magadan1          1003.719
       221   03 Jun 2027 09:34:06.992   03 Jun 2027 09:35:22.140            75.148                Anadyr2          2348.375
       222   03 Jun 2027 11:05:43.106   03 Jun 2027 11:06:20.396            37.290                Norilsk          1165.313
       223   03 Jun 2027 11:06:41.157   03 Jun 2027 11:07:02.927            21.770                Norilsk           680.312
       224   03 Jun 2027 11:07:13.281   03 Jun 2027 11:08:27.665            74.384                Irkutsk          2324.500
       225   03 Jun 2027 11:08:32.514   03 Jun 2027 11:08:51.782            19.268                Novosib           602.125
       226   03 Jun 2027 11:08:52.310   03 Jun 2027 11:09:04.746            12.436                Norilsk           388.625
       227   03 Jun 2027 11:09:08.584   03 Jun 2027 11:09:34.154            25.570                Irkutsk           799.062
       228   03 Jun 2027 11:09:38.345   03 Jun 2027 11:10:20.034            41.689               Magadan1          1302.781
       229   03 Jun 2027 11:10:21.446   03 Jun 2027 11:11:05.997            44.551              Murmansk1          1392.219
       230   03 Jun 2027 11:11:10.684   03 Jun 2027 11:11:28.891            18.207                Norilsk           568.969
       231   03 Jun 2027 11:11:38.550   03 Jun 2027 11:11:42.462             3.912                Novosib           122.250
       232   03 Jun 2027 11:12:24.774   03 Jun 2027 11:12:36.530            11.756              Murmansk2           367.375
       233   03 Jun 2027 11:12:55.338   03 Jun 2027 11:12:57.067             1.729                Norilsk            54.031
       234   03 Jun 2027 11:13:08.480   03 Jun 2027 11:13:25.485            17.005              Murmansk1           531.406
       235   03 Jun 2027 11:14:37.328   03 Jun 2027 11:14:58.854            21.526              Murmansk1           672.687
       236   03 Jun 2027 11:46:29.388   03 Jun 2027 11:47:01.533            32.145            RioGallegos          1004.531
       237   03 Jun 2027 11:47:28.136   03 Jun 2027 11:48:15.103            46.967            RioGallegos          1467.719
       238   03 Jun 2027 11:50:14.776   03 Jun 2027 11:50:41.273            26.497            RioGallegos           828.031
       239   03 Jun 2027 12:21:10.782   03 Jun 2027 12:23:49.129           158.347                Sumatra          4948.344
       240   03 Jun 2027 12:35:24.643   03 Jun 2027 12:36:39.802            75.159                Irkutsk          2348.719
       241   03 Jun 2027 12:37:15.953   03 Jun 2027 12:37:58.699            42.746                Novosib          1335.813
       242   03 Jun 2027 12:39:45.386   03 Jun 2027 12:40:56.584            71.198                Norilsk          2224.938
       243   03 Jun 2027 12:41:32.283   03 Jun 2027 12:42:31.736            59.453                Norilsk          1857.906
       244   03 Jun 2027 13:26:33.751   03 Jun 2027 13:30:30.599           236.848            RioGallegos          7401.500
       245   03 Jun 2027 14:13:16.715   03 Jun 2027 14:13:17.719             1.004                Novosib            31.375
       246   03 Jun 2027 14:15:13.146   03 Jun 2027 14:17:23.955           130.809                Novosib          4087.781
       247   03 Jun 2027 14:18:07.534   03 Jun 2027 14:18:52.084            44.550                Norilsk          1392.187
       248   03 Jun 2027 15:49:47.259   03 Jun 2027 15:53:05.271           198.012                 Moscow          6187.875
       249   03 Jun 2027 15:53:13.456   03 Jun 2027 15:54:53.384            99.928              Murmansk2          3122.750
       250   03 Jun 2027 15:57:11.211   03 Jun 2027 15:58:44.521            93.310                Norilsk          2915.937
       251   03 Jun 2027 16:00:38.723   03 Jun 2027 16:01:37.662            58.939                Norilsk          1841.844
       252   03 Jun 2027 17:04:23.279   03 Jun 2027 17:05:25.707            62.428               CapeTown          1950.875
       253   03 Jun 2027 17:27:07.445   03 Jun 2027 17:27:53.229            45.784                 Moscow          1430.750
       254   03 Jun 2027 17:28:13.269   03 Jun 2027 17:28:39.740            26.471                 Moscow           827.219
       255   03 Jun 2027 17:30:16.601   03 Jun 2027 17:30:34.117            17.516              Murmansk1           547.375
       256   03 Jun 2027 17:30:54.357   03 Jun 2027 17:32:08.922            74.565                 Moscow          2330.156
       257   03 Jun 2027 17:32:33.551   03 Jun 2027 17:34:07.710            94.159              Murmansk2          2942.469
       258   03 Jun 2027 17:44:16.535   03 Jun 2027 17:44:16.812             0.277                Anadyr1             8.656
       259   03 Jun 2027 17:44:59.498   03 Jun 2027 17:45:38.972            39.474                Anadyr2          1233.563
       260   03 Jun 2027 17:47:03.844   03 Jun 2027 17:47:20.733            16.889                Anadyr1           527.781
       261   03 Jun 2027 18:39:16.845   03 Jun 2027 18:41:03.810           106.965               CapeTown          3342.656
       262   03 Jun 2027 18:42:45.159   03 Jun 2027 18:43:22.150            36.991               CapeTown          1155.969
       263   03 Jun 2027 19:09:34.972   03 Jun 2027 19:10:30.416            55.444              Murmansk2          1732.625
       264   03 Jun 2027 19:11:52.261   03 Jun 2027 19:14:27.471           155.210              Murmansk1          4850.312
       265   03 Jun 2027 19:23:03.649   03 Jun 2027 19:23:15.685            12.036                Anadyr2           376.125
       266   03 Jun 2027 19:23:50.358   03 Jun 2027 19:25:39.226           108.868               Magadan1          3402.125
       267   03 Jun 2027 19:28:51.973   03 Jun 2027 19:29:05.471            13.498               Magadan1           421.812
       268   03 Jun 2027 19:30:55.415   03 Jun 2027 19:31:01.098             5.683               Magadan1           177.594
       269   03 Jun 2027 20:19:45.101   03 Jun 2027 20:20:36.222            51.121               CapeTown          1597.531
       270   03 Jun 2027 20:55:45.682   03 Jun 2027 20:57:22.899            97.217                Anadyr1          3038.031
       271   03 Jun 2027 20:57:41.248   03 Jun 2027 20:59:31.530           110.282                Anadyr2          3446.313
       272   03 Jun 2027 20:59:35.444   03 Jun 2027 21:01:14.578            99.134               Magadan2          3097.938
       273   03 Jun 2027 21:01:14.578   03 Jun 2027 21:02:02.786            48.208               Magadan1          1506.500
       274   03 Jun 2027 21:02:59.187   03 Jun 2027 21:03:18.986            19.799               Magadan1           618.719
       275   03 Jun 2027 21:08:33.381   03 Jun 2027 21:08:51.206            17.825               Magadan1           557.031
       276   03 Jun 2027 21:08:56.446   03 Jun 2027 21:09:05.664             9.218               Magadan1           288.062
       277   03 Jun 2027 21:53:53.932   03 Jun 2027 21:54:55.128            61.196            RioGallegos          1912.375
       278   03 Jun 2027 22:31:37.553   03 Jun 2027 22:35:18.191           220.638                Anadyr2          6894.937
       279   03 Jun 2027 22:35:25.790   03 Jun 2027 22:37:24.653           118.863               Magadan2          3714.469
       280   03 Jun 2027 22:39:08.610   03 Jun 2027 22:39:19.035            10.425                Irkutsk           325.781
       281   03 Jun 2027 22:40:11.465   03 Jun 2027 22:41:36.295            84.830                Irkutsk          2650.937
       282   03 Jun 2027 22:55:01.591   03 Jun 2027 22:56:28.475            86.884                Sumatra          2715.125
       283   03 Jun 2027 22:57:44.097   03 Jun 2027 22:59:11.115            87.018                Sumatra          2719.313
       284   04 Jun 2027 00:07:01.611   04 Jun 2027 00:08:35.347            93.736                Anadyr2          2929.250
       285   04 Jun 2027 00:09:28.626   04 Jun 2027 00:11:11.640           103.014                Norilsk          3219.188
       286   04 Jun 2027 00:11:22.269   04 Jun 2027 00:11:50.712            28.443               Magadan1           888.844
       287   04 Jun 2027 00:12:48.102   04 Jun 2027 00:13:03.451            15.349               Magadan2           479.656
       288   04 Jun 2027 00:13:27.434   04 Jun 2027 00:14:34.949            67.515                Irkutsk          2109.844
       289   04 Jun 2027 00:15:02.734   04 Jun 2027 00:15:05.122             2.388                Irkutsk            74.625
       290   04 Jun 2027 00:16:16.467   04 Jun 2027 00:17:27.321            70.854                Novosib          2214.188
       291   04 Jun 2027 00:20:32.108   04 Jun 2027 00:21:58.709            86.601                Novosib          2706.281
       292   04 Jun 2027 00:27:11.846   04 Jun 2027 00:27:17.048             5.202                Sumatra           162.562
       293   04 Jun 2027 00:31:18.669   04 Jun 2027 00:31:38.951            20.282                Sumatra           633.812
       294   04 Jun 2027 00:36:19.977   04 Jun 2027 00:36:25.073             5.096                Sumatra           159.250
       295   04 Jun 2027 00:37:56.949   04 Jun 2027 00:39:08.380            71.431                Sumatra          2232.219
       296   04 Jun 2027 01:07:36.332   04 Jun 2027 01:07:42.370             6.038            RioGallegos           188.687
       297   04 Jun 2027 01:07:52.106   04 Jun 2027 01:08:23.736            31.630            RioGallegos           988.438
       298   04 Jun 2027 01:12:01.833   04 Jun 2027 01:12:31.645            29.812            RioGallegos           931.625
       299   04 Jun 2027 01:41:31.061   04 Jun 2027 01:41:39.820             8.759                Anadyr1           273.719
       300   04 Jun 2027 01:42:31.256   04 Jun 2027 01:43:27.169            55.913                Anadyr2          1747.281
       301   04 Jun 2027 01:45:29.043   04 Jun 2027 01:47:14.167           105.124                Norilsk          3285.125
       302   04 Jun 2027 01:48:38.085   04 Jun 2027 01:48:51.305            13.220                Norilsk           413.125
       303   04 Jun 2027 01:49:08.986   04 Jun 2027 01:49:16.286             7.300                Norilsk           228.125
       304   04 Jun 2027 01:49:19.210   04 Jun 2027 01:51:25.841           126.631                Novosib          3957.219
       305   04 Jun 2027 01:52:25.582   04 Jun 2027 01:53:09.302            43.720                Novosib          1366.250
       306   04 Jun 2027 01:54:59.004   04 Jun 2027 01:55:09.658            10.654                Irkutsk           332.937
       307   04 Jun 2027 01:56:43.089   04 Jun 2027 01:57:31.958            48.869                  Delhi          1527.156
       308   04 Jun 2027 02:04:02.420   04 Jun 2027 02:04:20.729            18.309                  Delhi           572.156
       309   04 Jun 2027 02:38:16.129   04 Jun 2027 02:42:08.227           232.098            RioGallegos          7253.062
       310   04 Jun 2027 03:28:32.713   04 Jun 2027 03:33:09.231           276.518                Irkutsk          8641.188
       311   04 Jun 2027 05:06:32.901   04 Jun 2027 05:06:46.020            13.119              Murmansk1           409.969
       312   04 Jun 2027 05:06:55.922   04 Jun 2027 05:07:08.429            12.507                 Moscow           390.844
       313   04 Jun 2027 05:07:20.493   04 Jun 2027 05:08:25.201            64.708                 Moscow          2022.125
       314   04 Jun 2027 05:08:27.346   04 Jun 2027 05:12:10.726           223.380              Murmansk2          6980.625
       315   04 Jun 2027 06:30:32.541   04 Jun 2027 06:31:22.767            50.226                Anadyr1          1569.562
       316   04 Jun 2027 08:04:38.617   04 Jun 2027 08:05:56.761            78.144                Anadyr2          2442.000
       317   04 Jun 2027 08:06:09.953   04 Jun 2027 08:07:37.665            87.712               Magadan2          2741.000
       318   04 Jun 2027 08:07:37.665   04 Jun 2027 08:08:09.835            32.170               Magadan1          1005.313
       319   04 Jun 2027 08:08:25.114   04 Jun 2027 08:08:40.789            15.675               Magadan2           489.844
       320   04 Jun 2027 08:08:40.789   04 Jun 2027 08:09:53.035            72.246               Magadan1          2257.688
       321   04 Jun 2027 08:10:11.179   04 Jun 2027 08:11:19.569            68.390                Anadyr1          2137.188
       322   04 Jun 2027 08:18:57.770   04 Jun 2027 08:19:57.379            59.609                 Moscow          1862.781
       323   04 Jun 2027 09:39:00.343   04 Jun 2027 09:40:31.514            91.171               Magadan1          2849.094
       324   04 Jun 2027 09:40:48.078   04 Jun 2027 09:41:16.394            28.316               Magadan1           884.875
       325   04 Jun 2027 09:41:45.671   04 Jun 2027 09:45:11.973           206.302               Magadan2          6446.938
       326   04 Jun 2027 09:45:30.448   04 Jun 2027 09:46:21.392            50.944                Irkutsk          1592.000
       327   04 Jun 2027 09:46:43.436   04 Jun 2027 09:47:44.185            60.749               Magadan1          1898.406
       328   04 Jun 2027 10:22:50.267   04 Jun 2027 10:23:04.888            14.621            RioGallegos           456.906
       329   04 Jun 2027 10:23:24.493   04 Jun 2027 10:23:34.751            10.258            RioGallegos           320.563
       330   04 Jun 2027 10:24:54.537   04 Jun 2027 10:25:32.394            37.857            RioGallegos          1183.031
       331   04 Jun 2027 11:00:20.425   04 Jun 2027 11:02:04.204           103.779                Sumatra          3243.094
       332   04 Jun 2027 11:16:49.174   04 Jun 2027 11:16:58.476             9.302                Novosib           290.688
       333   04 Jun 2027 11:17:03.092   04 Jun 2027 11:17:14.906            11.814                Norilsk           369.187
       334   04 Jun 2027 11:17:45.148   04 Jun 2027 11:17:54.168             9.020                Novosib           281.875
       335   04 Jun 2027 11:18:12.878   04 Jun 2027 11:18:43.241            30.363                Norilsk           948.844
       336   04 Jun 2027 11:18:59.791   04 Jun 2027 11:19:15.146            15.355                Novosib           479.844
       337   04 Jun 2027 11:19:28.264   04 Jun 2027 11:20:04.290            36.026                Norilsk          1125.812
       338   04 Jun 2027 11:20:09.844   04 Jun 2027 11:20:11.159             1.315                Novosib            41.094
       339   04 Jun 2027 11:20:16.838   04 Jun 2027 11:20:43.761            26.923                Norilsk           841.344
       340   04 Jun 2027 11:20:53.393   04 Jun 2027 11:21:04.497            11.104                Norilsk           347.000
       341   04 Jun 2027 11:21:12.682   04 Jun 2027 11:21:36.493            23.811              Murmansk2           744.094
       342   04 Jun 2027 11:21:41.843   04 Jun 2027 11:22:14.142            32.299                Novosib          1009.344
       343   04 Jun 2027 11:22:20.580   04 Jun 2027 11:22:41.603            21.023                Novosib           656.969
       344   04 Jun 2027 11:22:43.147   04 Jun 2027 11:23:19.285            36.138              Murmansk2          1129.312
       345   04 Jun 2027 11:23:38.403   04 Jun 2027 11:24:49.268            70.865                Novosib          2214.531
       346   04 Jun 2027 11:58:42.842   04 Jun 2027 11:59:32.886            50.044            RioGallegos          1563.875
       347   04 Jun 2027 12:33:14.337   04 Jun 2027 12:34:47.100            92.763                Sumatra          2898.844
       348   04 Jun 2027 12:47:46.609   04 Jun 2027 12:49:43.689           117.080                Irkutsk          3658.750
       349   04 Jun 2027 12:50:24.576   04 Jun 2027 12:50:36.745            12.169                Novosib           380.281
       350   04 Jun 2027 12:51:53.258   04 Jun 2027 12:53:33.977           100.719                Norilsk          3147.469
       351   04 Jun 2027 13:40:03.924   04 Jun 2027 13:42:53.174           169.250            RioGallegos          5289.062
       352   04 Jun 2027 14:25:30.462   04 Jun 2027 14:26:03.694            33.232                  Delhi          1038.500
       353   04 Jun 2027 14:26:10.167   04 Jun 2027 14:26:25.211            15.044                Novosib           470.125
       354   04 Jun 2027 14:26:30.236   04 Jun 2027 14:27:07.914            37.678                Novosib          1177.438
       355   04 Jun 2027 14:29:23.704   04 Jun 2027 14:30:47.197            83.493                Novosib          2609.156
       356   04 Jun 2027 14:30:58.623   04 Jun 2027 14:32:17.806            79.183              Murmansk2          2474.469
       357   04 Jun 2027 14:32:32.081   04 Jun 2027 14:32:56.489            24.408                Norilsk           762.750
       358   04 Jun 2027 14:33:18.663   04 Jun 2027 14:34:27.643            68.980                Norilsk          2155.625
       359   04 Jun 2027 16:01:48.217   04 Jun 2027 16:04:34.989           166.772                 Moscow          5211.625
       360   04 Jun 2027 16:05:17.504   04 Jun 2027 16:06:15.164            57.660              Murmansk2          1801.875
       361   04 Jun 2027 16:06:32.926   04 Jun 2027 16:07:02.168            29.242              Murmansk1           913.813
       362   04 Jun 2027 16:09:56.784   04 Jun 2027 16:15:53.493           356.709                Norilsk         11147.156
       363   04 Jun 2027 17:40:06.368   04 Jun 2027 17:40:32.044            25.676                 Moscow           802.375
       364   04 Jun 2027 17:42:35.365   04 Jun 2027 17:43:38.273            62.908              Murmansk2          1965.875
       365   04 Jun 2027 17:46:30.499   04 Jun 2027 17:46:33.161             2.662              Murmansk1            83.187
       366   04 Jun 2027 17:46:33.161   04 Jun 2027 17:46:54.564            21.403              Murmansk2           668.844
       367   04 Jun 2027 17:56:12.309   04 Jun 2027 17:56:16.903             4.594                Anadyr1           143.562
       368   04 Jun 2027 17:56:20.181   04 Jun 2027 17:57:36.194            76.013                Anadyr2          2375.406
       369   04 Jun 2027 18:51:24.672   04 Jun 2027 18:53:13.417           108.745               CapeTown          3398.281
       370   04 Jun 2027 19:00:11.849   04 Jun 2027 19:00:18.198             6.349               CapeTown           198.406
       371   04 Jun 2027 19:22:15.373   04 Jun 2027 19:23:42.739            87.366              Murmansk1          2730.187
       372   04 Jun 2027 19:23:44.214   04 Jun 2027 19:27:51.763           247.549              Murmansk2          7735.906
       373   04 Jun 2027 19:35:25.765   04 Jun 2027 19:35:42.085            16.320               Magadan2           510.000
       374   04 Jun 2027 19:37:55.735   04 Jun 2027 19:38:05.434             9.699               Magadan2           303.094
       375   04 Jun 2027 19:38:18.898   04 Jun 2027 19:38:20.017             1.119               Magadan2            34.969
       376   04 Jun 2027 19:39:03.139   04 Jun 2027 19:40:03.060            59.921               Magadan2          1872.531
       377   04 Jun 2027 21:07:47.416   04 Jun 2027 21:11:16.464           209.048                Anadyr2          6532.750
       378   04 Jun 2027 21:11:17.396   04 Jun 2027 21:13:43.659           146.263               Magadan1          4570.719
       379   04 Jun 2027 21:14:50.553   04 Jun 2027 21:15:28.521            37.968               Magadan2          1186.500
       380   04 Jun 2027 21:18:24.873   04 Jun 2027 21:18:32.440             7.567               Magadan1           236.469
       381   04 Jun 2027 21:18:35.981   04 Jun 2027 21:18:54.573            18.592               Magadan2           581.000
       382   04 Jun 2027 21:20:19.016   04 Jun 2027 21:20:52.801            33.785               Magadan1          1055.781
       383   04 Jun 2027 22:04:06.001   04 Jun 2027 22:06:30.949           144.948            RioGallegos          4529.625
       384   04 Jun 2027 22:43:37.379   04 Jun 2027 22:45:42.851           125.472                Anadyr1          3921.000
       385   04 Jun 2027 22:45:44.578   04 Jun 2027 22:47:25.451           100.873                Norilsk          3152.281
       386   04 Jun 2027 22:48:40.263   04 Jun 2027 22:49:01.534            21.271               Magadan1           664.719
       387   04 Jun 2027 22:50:43.457   04 Jun 2027 22:51:15.583            32.126                Irkutsk          1003.938
       388   04 Jun 2027 22:52:22.988   04 Jun 2027 22:52:57.161            34.173                Irkutsk          1067.906
       389   04 Jun 2027 22:54:37.136   04 Jun 2027 22:54:54.295            17.159                Irkutsk           536.219
       390   04 Jun 2027 22:56:21.067   04 Jun 2027 22:57:14.803            53.736                Irkutsk          1679.250
       391   04 Jun 2027 23:05:48.145   04 Jun 2027 23:07:44.768           116.623                Sumatra          3644.469
       392   05 Jun 2027 00:18:55.371   05 Jun 2027 00:20:44.408           109.037                Anadyr1          3407.406
       393   05 Jun 2027 00:20:44.408   05 Jun 2027 00:20:55.102            10.694                Anadyr2           334.188
       394   05 Jun 2027 00:20:59.534   05 Jun 2027 00:21:32.929            33.395                Anadyr2          1043.594
       395   05 Jun 2027 00:21:48.484   05 Jun 2027 00:22:09.624            21.140                Norilsk           660.625
       396   05 Jun 2027 00:22:37.090   05 Jun 2027 00:23:24.798            47.708               Magadan2          1490.875
       397   05 Jun 2027 00:23:24.798   05 Jun 2027 00:23:52.280            27.482               Magadan1           858.813
       398   05 Jun 2027 00:24:16.341   05 Jun 2027 00:24:31.291            14.950               Magadan2           467.188
       399   05 Jun 2027 00:24:58.819   05 Jun 2027 00:25:24.137            25.318               Magadan2           791.187
       400   05 Jun 2027 00:25:26.394   05 Jun 2027 00:26:32.843            66.449                Irkutsk          2076.531
       401   05 Jun 2027 00:27:10.469   05 Jun 2027 00:27:52.170            41.701                Novosib          1303.156
       402   05 Jun 2027 00:30:33.905   05 Jun 2027 00:31:02.042            28.137                Novosib           879.281
       403   05 Jun 2027 00:32:07.029   05 Jun 2027 00:34:04.810           117.781                Novosib          3680.656
       404   05 Jun 2027 00:48:57.276   05 Jun 2027 00:50:55.729           118.453                Sumatra          3701.656
       405   05 Jun 2027 01:53:35.629   05 Jun 2027 01:54:11.162            35.533                Anadyr2          1110.406
       406   05 Jun 2027 01:54:58.179   05 Jun 2027 01:55:35.750            37.571                Anadyr2          1174.094
       407   05 Jun 2027 01:57:24.569   05 Jun 2027 01:57:40.776            16.207                Anadyr2           506.469
       408   05 Jun 2027 01:58:09.157   05 Jun 2027 01:59:23.376            74.219               Magadan1          2319.344
       409   05 Jun 2027 02:00:27.405   05 Jun 2027 02:02:12.745           105.340              Murmansk1          3291.875
       410   05 Jun 2027 02:02:25.203   05 Jun 2027 02:03:27.000            61.797                Novosib          1931.156
       411   05 Jun 2027 02:03:30.423   05 Jun 2027 02:03:46.776            16.353                Irkutsk           511.031
       412   05 Jun 2027 02:08:40.061   05 Jun 2027 02:09:18.919            38.858                  Delhi          1214.312
       413   05 Jun 2027 02:15:29.957   05 Jun 2027 02:16:17.415            47.458                  Delhi          1483.062
       414   05 Jun 2027 02:50:32.851   05 Jun 2027 02:54:32.824           239.973            RioGallegos          7499.156
       415   05 Jun 2027 03:42:13.056   05 Jun 2027 03:44:20.687           127.631                Irkutsk          3988.469
       416   05 Jun 2027 03:44:24.537   05 Jun 2027 03:46:00.209            95.672              Murmansk2          2989.750
       417   05 Jun 2027 03:46:00.209   05 Jun 2027 03:46:25.197            24.988              Murmansk1           780.875
       418   05 Jun 2027 03:46:46.283   05 Jun 2027 03:50:28.900           222.617                  Delhi          6956.781
       419   05 Jun 2027 05:19:00.199   05 Jun 2027 05:19:10.711            10.512                Novosib           328.500
       420   05 Jun 2027 05:19:16.957   05 Jun 2027 05:20:49.935            92.978                Novosib          2905.562
       421   05 Jun 2027 05:21:11.035   05 Jun 2027 05:24:20.565           189.530              Murmansk2          5922.812
       422   05 Jun 2027 05:24:26.067   05 Jun 2027 05:25:19.114            53.047                 Moscow          1657.719
       423   05 Jun 2027 05:38:43.659   05 Jun 2027 05:41:22.691           159.032               CapeTown          4969.750
       424   05 Jun 2027 06:42:41.789   05 Jun 2027 06:43:22.250            40.461                Anadyr2          1264.406
       425   05 Jun 2027 06:43:22.250   05 Jun 2027 06:45:07.748           105.498                Anadyr1          3296.812
       426   05 Jun 2027 06:45:07.905   05 Jun 2027 06:46:17.146            69.241                Anadyr2          2163.781
       427   05 Jun 2027 06:46:34.942   05 Jun 2027 06:46:51.208            16.266               Magadan1           508.313
       428   05 Jun 2027 06:47:36.259   05 Jun 2027 06:47:41.781             5.522                Anadyr1           172.562
       429   05 Jun 2027 08:18:14.625   05 Jun 2027 08:18:15.624             0.999                Anadyr2            31.219
       430   05 Jun 2027 08:18:34.254   05 Jun 2027 08:18:49.425            15.171                Norilsk           474.094
       431   05 Jun 2027 08:18:57.400   05 Jun 2027 08:20:12.355            74.955               Magadan1          2342.344
       432   05 Jun 2027 08:20:28.570   05 Jun 2027 08:22:20.808           112.238                Anadyr2          3507.438
       433   05 Jun 2027 08:22:20.808   05 Jun 2027 08:22:50.199            29.391                Anadyr1           918.469
       434   05 Jun 2027 09:51:15.756   05 Jun 2027 09:51:48.616            32.860                Irkutsk          1026.875
       435   05 Jun 2027 09:52:16.371   05 Jun 2027 09:54:40.851           144.480               Magadan2          4515.000
       436   05 Jun 2027 09:55:32.974   05 Jun 2027 09:55:36.954             3.980                Irkutsk           124.375
       437   05 Jun 2027 09:55:38.848   05 Jun 2027 09:57:05.216            86.368                Irkutsk          2699.000
       438   05 Jun 2027 09:57:23.499   05 Jun 2027 09:58:16.978            53.479                Anadyr1          1671.219
       439   05 Jun 2027 09:58:36.649   05 Jun 2027 09:58:50.174            13.525                Norilsk           422.656
       440   05 Jun 2027 09:58:54.436   05 Jun 2027 09:59:41.154            46.718               Magadan1          1459.937
       441   05 Jun 2027 09:59:45.996   05 Jun 2027 10:00:05.887            19.891              Murmansk2           621.594
       442   05 Jun 2027 10:34:39.964   05 Jun 2027 10:35:32.921            52.957            RioGallegos          1654.906
       443   05 Jun 2027 10:43:19.125   05 Jun 2027 10:44:08.366            49.241            RioGallegos          1538.781
       444   05 Jun 2027 11:11:21.718   05 Jun 2027 11:11:54.207            32.489                Sumatra          1015.281
       445   05 Jun 2027 11:13:17.344   05 Jun 2027 11:13:45.604            28.260                Sumatra           883.125
       446   05 Jun 2027 11:29:00.525   05 Jun 2027 11:29:19.804            19.279                Novosib           602.469
       447   05 Jun 2027 11:30:40.197   05 Jun 2027 11:30:45.313             5.116                Norilsk           159.875
       448   05 Jun 2027 11:30:46.491   05 Jun 2027 11:32:32.282           105.791               Magadan1          3305.969
       449   05 Jun 2027 11:32:45.831   05 Jun 2027 11:32:54.144             8.313                Norilsk           259.781
       450   05 Jun 2027 11:33:01.053   05 Jun 2027 11:33:15.162            14.109              Murmansk2           440.906
       451   05 Jun 2027 11:33:15.162   05 Jun 2027 11:33:24.158             8.996              Murmansk1           281.125
       452   05 Jun 2027 11:33:25.663   05 Jun 2027 11:33:31.974             6.311                Irkutsk           197.219
       453   05 Jun 2027 11:33:37.284   05 Jun 2027 11:33:41.405             4.121                Norilsk           128.781
       454   05 Jun 2027 11:33:52.513   05 Jun 2027 11:34:26.267            33.754                Novosib          1054.812
       455   05 Jun 2027 11:34:35.441   05 Jun 2027 11:35:37.156            61.715                Novosib          1928.594
       456   05 Jun 2027 11:36:48.492   05 Jun 2027 11:37:04.566            16.074                Novosib           502.313
       457   05 Jun 2027 12:11:36.756   05 Jun 2027 12:12:16.443            39.687            RioGallegos          1240.219
       458   05 Jun 2027 12:15:33.463   05 Jun 2027 12:15:42.349             8.886            RioGallegos           277.688
       459   05 Jun 2027 12:45:23.761   05 Jun 2027 12:47:24.523           120.762                Sumatra          3773.813
       460   05 Jun 2027 13:00:13.479   05 Jun 2027 13:00:55.599            42.120                Irkutsk          1316.250
       461   05 Jun 2027 13:01:24.743   05 Jun 2027 13:02:32.651            67.908                Novosib          2122.125
       462   05 Jun 2027 13:04:02.799   05 Jun 2027 13:05:37.122            94.323                Norilsk          2947.594
       463   05 Jun 2027 13:14:37.451   05 Jun 2027 13:15:14.904            37.453                Norilsk          1170.406
       464   05 Jun 2027 14:30:02.251   05 Jun 2027 14:30:49.320            47.069                  Delhi          1470.906
       465   05 Jun 2027 14:34:34.763   05 Jun 2027 14:35:04.693            29.930                  Delhi           935.313
       466   05 Jun 2027 14:37:06.261   05 Jun 2027 14:38:18.591            72.330                  Delhi          2260.313
       467   05 Jun 2027 14:38:39.094   05 Jun 2027 14:43:16.643           277.549                Novosib          8673.406
       468   05 Jun 2027 14:46:47.425   05 Jun 2027 14:46:57.255             9.830                Norilsk           307.187
       469   05 Jun 2027 16:13:52.134   05 Jun 2027 16:17:01.166           189.032                 Moscow          5907.250
       470   05 Jun 2027 16:17:23.184   05 Jun 2027 16:18:34.895            71.711              Murmansk1          2240.969
       471   05 Jun 2027 16:22:19.767   05 Jun 2027 16:22:33.674            13.907              Murmansk1           434.594
       472   05 Jun 2027 16:22:47.743   05 Jun 2027 16:27:18.584           270.841                Norilsk          8463.781
       473   05 Jun 2027 17:37:40.408   05 Jun 2027 17:37:44.025             3.617               CapeTown           113.031
       474   05 Jun 2027 17:38:03.609   05 Jun 2027 17:38:45.376            41.767               CapeTown          1305.219
       475   05 Jun 2027 17:52:12.973   05 Jun 2027 17:54:02.836           109.863                 Moscow          3433.219
       476   05 Jun 2027 17:54:56.311   05 Jun 2027 17:56:36.815           100.504              Murmansk2          3140.750
       477   05 Jun 2027 18:08:09.392   05 Jun 2027 18:08:17.349             7.957                Anadyr1           248.656
       478   05 Jun 2027 18:08:46.623   05 Jun 2027 18:09:36.681            50.058                Anadyr1          1564.313
       479   05 Jun 2027 18:14:42.983   05 Jun 2027 18:15:11.590            28.607                Anadyr1           893.969
       480   05 Jun 2027 19:03:35.664   05 Jun 2027 19:05:12.674            97.010               CapeTown          3031.562
       481   05 Jun 2027 19:12:04.638   05 Jun 2027 19:13:02.087            57.449               CapeTown          1795.281
       482   05 Jun 2027 19:35:00.074   05 Jun 2027 19:39:40.485           280.411              Murmansk1          8762.844
