uniorb/output/strategy_1/Drop/Drop_KinoSat_111001.txt

KinoSat_111001
-------------------------
    Access    *     Start Time (UTCG)     *     Stop Time (UTCG)  *   Duration (s)        *       Station  *  Data (Mbytes)
         1   01 Jun 2027 04:07:12.318   01 Jun 2027 04:07:18.878             6.560               Magadan1           205.000
         2   01 Jun 2027 04:07:21.802   01 Jun 2027 04:08:37.981            76.179                Anadyr2          2380.594
         3   01 Jun 2027 04:09:25.399   01 Jun 2027 04:10:23.040            57.641                Anadyr1          1801.281
         4   01 Jun 2027 04:10:33.298   01 Jun 2027 04:10:42.595             9.297               Magadan1           290.531
         5   01 Jun 2027 04:11:30.003   01 Jun 2027 04:11:37.005             7.002               Magadan1           218.813
         6   01 Jun 2027 04:11:37.005   01 Jun 2027 04:11:49.704            12.699               Magadan2           396.844
         7   01 Jun 2027 04:11:49.704   01 Jun 2027 04:12:03.810            14.106               Magadan1           440.812
         8   01 Jun 2027 05:43:52.014   01 Jun 2027 05:44:42.122            50.108                Irkutsk          1565.875
         9   01 Jun 2027 05:44:51.892   01 Jun 2027 05:47:47.502           175.610                Anadyr1          5487.812
        10   01 Jun 2027 05:47:47.502   01 Jun 2027 05:47:59.117            11.615                Anadyr2           362.969
        11   01 Jun 2027 07:19:38.456   01 Jun 2027 07:23:40.846           242.390                Irkutsk          7574.687
        12   01 Jun 2027 07:23:49.007   01 Jun 2027 07:24:45.387            56.380              Murmansk2          1761.875
        13   01 Jun 2027 07:58:35.837   01 Jun 2027 07:59:24.122            48.285            RioGallegos          1508.906
        14   01 Jun 2027 08:00:12.878   01 Jun 2027 08:01:02.069            49.191            RioGallegos          1537.219
        15   01 Jun 2027 08:34:27.289   01 Jun 2027 08:35:04.577            37.288                Sumatra          1165.250
        16   01 Jun 2027 08:35:39.477   01 Jun 2027 08:36:36.534            57.057                Sumatra          1783.031
        17   01 Jun 2027 08:55:27.174   01 Jun 2027 08:55:31.069             3.895                Novosib           121.719
        18   01 Jun 2027 08:55:37.142   01 Jun 2027 08:57:37.105           119.963                Norilsk          3748.844
        19   01 Jun 2027 08:57:39.018   01 Jun 2027 08:58:19.551            40.533              Murmansk1          1266.656
        20   01 Jun 2027 08:58:22.516   01 Jun 2027 08:59:41.532            79.016              Murmansk2          2469.250
        21   01 Jun 2027 09:01:37.733   01 Jun 2027 09:02:31.792            54.059              Murmansk2          1689.344
        22   01 Jun 2027 09:35:45.850   01 Jun 2027 09:36:26.817            40.967            RioGallegos          1280.219
        23   01 Jun 2027 10:09:59.288   01 Jun 2027 10:11:14.777            75.489                Sumatra          2359.031
        24   01 Jun 2027 10:14:13.888   01 Jun 2027 10:14:23.440             9.552                Sumatra           298.500
        25   01 Jun 2027 10:19:11.990   01 Jun 2027 10:20:40.798            88.808                  Delhi          2775.250
        26   01 Jun 2027 10:32:40.611   01 Jun 2027 10:34:47.256           126.645                Irkutsk          3957.656
        27   01 Jun 2027 10:35:11.280   01 Jun 2027 10:37:16.681           125.401              Murmansk1          3918.781
        28   01 Jun 2027 11:54:58.514   01 Jun 2027 11:58:35.466           216.952                  Delhi          6779.750
        29   01 Jun 2027 12:05:49.457   01 Jun 2027 12:06:10.023            20.566                Novosib           642.688
        30   01 Jun 2027 12:06:27.252   01 Jun 2027 12:07:31.460            64.208                Novosib          2006.500
        31   01 Jun 2027 13:44:56.824   01 Jun 2027 13:46:09.274            72.450              Murmansk1          2264.062
        32   01 Jun 2027 13:46:36.655   01 Jun 2027 13:47:08.404            31.749              Murmansk2           992.156
        33   01 Jun 2027 13:47:26.932   01 Jun 2027 13:48:22.358            55.426              Murmansk2          1732.063
        34   01 Jun 2027 13:48:48.403   01 Jun 2027 13:49:34.976            46.573                Norilsk          1455.406
        35   01 Jun 2027 13:50:39.076   01 Jun 2027 13:51:06.109            27.033                Norilsk           844.781
        36   01 Jun 2027 13:57:35.278   01 Jun 2027 13:58:58.977            83.699                Anadyr2          2615.594
        37   01 Jun 2027 13:59:48.434   01 Jun 2027 14:00:48.313            59.879                Anadyr1          1871.219
        38   01 Jun 2027 14:02:15.400   01 Jun 2027 14:02:45.615            30.215                Anadyr2           944.219
        39   01 Jun 2027 15:22:32.236   01 Jun 2027 15:23:12.101            39.865                 Moscow          1245.781
        40   01 Jun 2027 15:24:36.494   01 Jun 2027 15:24:44.219             7.725              Murmansk1           241.406
        41   01 Jun 2027 15:24:44.219   01 Jun 2027 15:24:53.364             9.145              Murmansk2           285.781
        42   01 Jun 2027 15:25:29.408   01 Jun 2027 15:26:25.406            55.998              Murmansk2          1749.937
        43   01 Jun 2027 15:29:10.052   01 Jun 2027 15:29:58.458            48.406              Murmansk2          1512.688
        44   01 Jun 2027 15:33:01.871   01 Jun 2027 15:33:22.042            20.171                Anadyr2           630.344
        45   01 Jun 2027 15:33:42.038   01 Jun 2027 15:33:51.943             9.905                Anadyr2           309.531
        46   01 Jun 2027 15:35:27.109   01 Jun 2027 15:36:07.918            40.809                Anadyr2          1275.281
        47   01 Jun 2027 15:37:28.664   01 Jun 2027 15:37:59.412            30.748                Anadyr2           960.875
        48   01 Jun 2027 15:39:02.933   01 Jun 2027 15:40:10.415            67.482                Anadyr1          2108.812
        49   01 Jun 2027 17:00:37.079   01 Jun 2027 17:02:40.390           123.311              Murmansk1          3853.469
        50   01 Jun 2027 17:03:05.853   01 Jun 2027 17:04:15.238            69.385              Murmansk1          2168.281
        51   01 Jun 2027 17:10:58.633   01 Jun 2027 17:11:26.644            28.011               Magadan1           875.344
        52   01 Jun 2027 17:11:35.061   01 Jun 2027 17:11:47.372            12.311               Magadan2           384.719
        53   01 Jun 2027 17:12:05.273   01 Jun 2027 17:12:12.750             7.477               Magadan2           233.656
        54   01 Jun 2027 17:12:57.642   01 Jun 2027 17:13:06.787             9.145               Magadan1           285.781
        55   01 Jun 2027 17:13:31.943   01 Jun 2027 17:14:27.833            55.890               Magadan1          1746.562
        56   01 Jun 2027 17:18:24.846   01 Jun 2027 17:18:56.283            31.437               Magadan1           982.406
        57   01 Jun 2027 17:20:31.223   01 Jun 2027 17:21:20.155            48.932               Magadan1          1529.125
        58   01 Jun 2027 18:43:56.652   01 Jun 2027 18:46:53.307           176.655                Anadyr1          5520.469
        59   01 Jun 2027 18:47:07.463   01 Jun 2027 18:47:25.958            18.495                Anadyr1           577.969
        60   01 Jun 2027 18:47:49.767   01 Jun 2027 18:48:10.988            21.221               Magadan2           663.156
        61   01 Jun 2027 18:48:48.328   01 Jun 2027 18:49:29.771            41.443               Magadan2          1295.094
        62   01 Jun 2027 18:51:08.641   01 Jun 2027 18:51:29.468            20.827               Magadan2           650.844
        63   01 Jun 2027 18:52:26.196   01 Jun 2027 18:52:46.322            20.126               Magadan2           628.937
        64   01 Jun 2027 18:53:52.361   01 Jun 2027 18:54:31.067            38.706               Magadan2          1209.562
        65   01 Jun 2027 18:56:38.725   01 Jun 2027 18:57:12.026            33.301               Magadan2          1040.656
        66   01 Jun 2027 19:38:50.810   01 Jun 2027 19:40:24.818            94.008            RioGallegos          2937.750
        67   01 Jun 2027 19:41:44.366   01 Jun 2027 19:42:24.090            39.724            RioGallegos          1241.375
        68   01 Jun 2027 19:43:34.744   01 Jun 2027 19:44:41.101            66.357            RioGallegos          2073.656
        69   01 Jun 2027 19:47:55.679   01 Jun 2027 19:48:06.776            11.097            RioGallegos           346.781
        70   01 Jun 2027 20:21:32.113   01 Jun 2027 20:22:06.377            34.264                Anadyr2          1070.750
        71   01 Jun 2027 20:22:13.505   01 Jun 2027 20:22:47.243            33.738               Magadan2          1054.312
        72   01 Jun 2027 20:23:02.605   01 Jun 2027 20:23:11.709             9.104                Norilsk           284.500
        73   01 Jun 2027 20:23:31.664   01 Jun 2027 20:24:08.912            37.248               Magadan1          1164.000
        74   01 Jun 2027 20:24:26.791   01 Jun 2027 20:25:45.820            79.029                Norilsk          2469.656
        75   01 Jun 2027 20:26:13.005   01 Jun 2027 20:26:33.395            20.390                Irkutsk           637.188
        76   01 Jun 2027 20:27:36.409   01 Jun 2027 20:28:00.018            23.609                Irkutsk           737.781
        77   01 Jun 2027 20:28:18.127   01 Jun 2027 20:29:34.819            76.692                Irkutsk          2396.625
        78   01 Jun 2027 20:32:14.643   01 Jun 2027 20:32:18.993             4.350                Irkutsk           135.938
        79   01 Jun 2027 20:35:35.856   01 Jun 2027 20:35:37.983             2.127                Irkutsk            66.469
        80   01 Jun 2027 20:41:03.271   01 Jun 2027 20:41:54.004            50.733                Sumatra          1585.406
        81   01 Jun 2027 20:42:48.311   01 Jun 2027 20:43:31.572            43.261                Sumatra          1351.906
        82   01 Jun 2027 20:49:59.309   01 Jun 2027 20:50:32.775            33.466                Sumatra          1045.812
        83   01 Jun 2027 21:57:21.092   01 Jun 2027 21:57:26.954             5.862                Anadyr2           183.188
        84   01 Jun 2027 21:57:39.092   01 Jun 2027 21:58:26.156            47.064                Anadyr1          1470.750
        85   01 Jun 2027 21:58:29.720   01 Jun 2027 21:59:24.882            55.162                Norilsk          1723.812
        86   01 Jun 2027 22:00:19.164   01 Jun 2027 22:00:38.014            18.850               Magadan2           589.062
        87   01 Jun 2027 22:01:19.675   01 Jun 2027 22:01:37.107            17.432               Magadan1           544.750
        88   01 Jun 2027 22:01:53.574   01 Jun 2027 22:02:39.594            46.020                Novosib          1438.125
        89   01 Jun 2027 22:05:43.866   01 Jun 2027 22:06:41.275            57.409                Novosib          1794.031
        90   01 Jun 2027 22:10:11.190   01 Jun 2027 22:11:36.044            84.854                  Delhi          2651.687
        91   01 Jun 2027 22:12:22.313   01 Jun 2027 22:13:14.628            52.315                  Delhi          1634.844
        92   01 Jun 2027 22:16:58.236   01 Jun 2027 22:17:07.267             9.031                  Delhi           282.219
        93   01 Jun 2027 22:18:01.087   01 Jun 2027 22:19:25.126            84.039                  Delhi          2626.219
        94   01 Jun 2027 23:30:46.255   01 Jun 2027 23:31:08.630            22.375                Anadyr2           699.219
        95   01 Jun 2027 23:33:42.740   01 Jun 2027 23:34:16.450            33.710                Norilsk          1053.437
        96   01 Jun 2027 23:34:38.886   01 Jun 2027 23:36:08.512            89.626               Magadan1          2800.812
        97   01 Jun 2027 23:36:14.024   01 Jun 2027 23:38:35.256           141.232              Murmansk1          4413.500
        98   01 Jun 2027 23:41:48.792   01 Jun 2027 23:42:02.105            13.313              Murmansk1           416.031
        99   01 Jun 2027 23:42:33.213   01 Jun 2027 23:44:00.090            86.877                 Moscow          2714.906
       100   01 Jun 2027 23:44:13.125   01 Jun 2027 23:44:27.808            14.683                 Moscow           458.844
       101   01 Jun 2027 23:56:19.967   01 Jun 2027 23:57:05.159            45.192                  Delhi          1412.250
       102   02 Jun 2027 01:01:41.017   02 Jun 2027 01:01:54.886            13.869                Anadyr1           433.406
       103   02 Jun 2027 01:02:08.658   02 Jun 2027 01:02:41.415            32.757                Anadyr2          1023.656
       104   02 Jun 2027 01:03:54.568   02 Jun 2027 01:04:23.452            28.884                Anadyr1           902.625
       105   02 Jun 2027 01:04:28.930   02 Jun 2027 01:04:53.011            24.081                Anadyr2           752.531
       106   02 Jun 2027 01:07:08.795   02 Jun 2027 01:07:29.788            20.993                Anadyr1           656.031
       107   02 Jun 2027 01:07:49.168   02 Jun 2027 01:07:54.737             5.569                Anadyr1           174.031
       108   02 Jun 2027 01:08:22.171   02 Jun 2027 01:09:42.444            80.273               Magadan2          2508.531
       109   02 Jun 2027 01:09:45.727   02 Jun 2027 01:09:46.004             0.277                Norilsk             8.656
       110   02 Jun 2027 01:10:20.650   02 Jun 2027 01:10:59.740            39.090               Magadan1          1221.562
       111   02 Jun 2027 01:11:50.982   02 Jun 2027 01:13:06.445            75.463              Murmansk2          2358.219
       112   02 Jun 2027 01:13:23.863   02 Jun 2027 01:13:38.577            14.714              Murmansk2           459.812
       113   02 Jun 2027 01:13:45.380   02 Jun 2027 01:13:45.415             0.035              Murmansk2             1.094
       114   02 Jun 2027 01:14:16.999   02 Jun 2027 01:15:44.388            87.389              Murmansk1          2730.906
       115   02 Jun 2027 01:24:48.842   02 Jun 2027 01:26:27.243            98.401                 Moscow          3075.031
       116   02 Jun 2027 01:46:54.059   02 Jun 2027 01:47:02.181             8.122               CapeTown           253.813
       117   02 Jun 2027 01:50:34.199   02 Jun 2027 01:51:11.208            37.009               CapeTown          1156.531
       118   02 Jun 2027 02:35:55.370   02 Jun 2027 02:37:09.857            74.487                Anadyr2          2327.719
       119   02 Jun 2027 02:38:54.262   02 Jun 2027 02:40:17.305            83.043               Magadan1          2595.094
       120   02 Jun 2027 02:40:17.305   02 Jun 2027 02:40:29.705            12.400               Magadan2           387.500
       121   02 Jun 2027 02:42:28.900   02 Jun 2027 02:42:32.258             3.358               Magadan2           104.938
       122   02 Jun 2027 02:44:08.598   02 Jun 2027 02:44:25.241            16.643               Magadan2           520.094
       123   02 Jun 2027 02:45:45.374   02 Jun 2027 02:46:13.216            27.842                Norilsk           870.063
       124   02 Jun 2027 02:47:48.639   02 Jun 2027 02:48:46.258            57.619              Murmansk1          1800.594
       125   02 Jun 2027 02:48:46.258   02 Jun 2027 02:48:51.780             5.522              Murmansk2           172.562
       126   02 Jun 2027 02:49:36.339   02 Jun 2027 02:49:37.506             1.167              Murmansk1            36.469
       127   02 Jun 2027 02:49:56.141   02 Jun 2027 02:50:08.869            12.728              Murmansk2           397.750
       128   02 Jun 2027 02:50:57.886   02 Jun 2027 02:51:50.970            53.084                Novosib          1658.875
       129   02 Jun 2027 02:54:43.865   02 Jun 2027 02:54:49.244             5.379                Novosib           168.094
       130   02 Jun 2027 02:57:42.063   02 Jun 2027 02:57:50.881             8.818                 Moscow           275.562
       131   02 Jun 2027 02:58:38.577   02 Jun 2027 02:59:56.614            78.037                 Moscow          2438.656
       132   02 Jun 2027 04:18:16.953   02 Jun 2027 04:18:37.951            20.998               Magadan2           656.188
       133   02 Jun 2027 04:18:48.177   02 Jun 2027 04:21:32.214           164.037               Magadan2          5126.156
       134   02 Jun 2027 05:56:16.010   02 Jun 2027 05:58:19.488           123.478               Magadan1          3858.687
       135   02 Jun 2027 05:58:23.045   02 Jun 2027 05:58:54.600            31.555                Anadyr2           986.094
       136   02 Jun 2027 05:58:54.600   02 Jun 2027 05:59:24.903            30.303                Anadyr1           946.969
       137   02 Jun 2027 07:31:27.405   02 Jun 2027 07:32:56.095            88.690               Magadan1          2771.562
       138   02 Jun 2027 07:33:01.401   02 Jun 2027 07:33:53.442            52.041                Novosib          1626.281
       139   02 Jun 2027 07:34:00.434   02 Jun 2027 07:34:51.679            51.245                Novosib          1601.406
       140   02 Jun 2027 07:35:00.379   02 Jun 2027 07:35:19.707            19.328                Norilsk           604.000
       141   02 Jun 2027 07:35:20.873   02 Jun 2027 07:36:38.337            77.464              Murmansk1          2420.750
       142   02 Jun 2027 07:39:10.599   02 Jun 2027 07:39:31.402            20.803              Murmansk2           650.094
       143   02 Jun 2027 08:10:33.919   02 Jun 2027 08:12:04.605            90.686            RioGallegos          2833.937
       144   02 Jun 2027 08:12:57.778   02 Jun 2027 08:13:00.767             2.989            RioGallegos            93.406
       145   02 Jun 2027 08:46:03.510   02 Jun 2027 08:48:06.182           122.672                Sumatra          3833.500
       146   02 Jun 2027 08:59:41.786   02 Jun 2027 09:00:08.986            27.200                  Delhi           850.000
       147   02 Jun 2027 09:07:15.117   02 Jun 2027 09:08:43.727            88.610                Norilsk          2769.063
       148   02 Jun 2027 09:08:45.434   02 Jun 2027 09:11:36.658           171.224                Irkutsk          5350.750
       149   02 Jun 2027 10:22:28.230   02 Jun 2027 10:22:39.828            11.598                Sumatra           362.437
       150   02 Jun 2027 10:45:06.829   02 Jun 2027 10:46:11.342            64.513              Murmansk2          2016.031
       151   02 Jun 2027 10:46:12.134   02 Jun 2027 10:46:42.814            30.680              Murmansk2           958.750
       152   02 Jun 2027 10:46:52.841   02 Jun 2027 10:48:08.182            75.341                 Moscow          2354.406
       153   02 Jun 2027 10:48:17.802   02 Jun 2027 10:49:16.515            58.713                Novosib          1834.781
       154   02 Jun 2027 10:49:34.955   02 Jun 2027 10:50:29.521            54.566                Norilsk          1705.188
       155   02 Jun 2027 10:50:50.363   02 Jun 2027 10:51:17.506            27.143                Norilsk           848.219
       156   02 Jun 2027 12:07:43.466   02 Jun 2027 12:10:31.187           167.721                  Delhi          5241.281
       157   02 Jun 2027 12:11:22.447   02 Jun 2027 12:12:15.557            53.110                  Delhi          1659.688
       158   02 Jun 2027 12:15:53.768   02 Jun 2027 12:16:26.809            33.041                  Delhi          1032.531
       159   02 Jun 2027 12:16:49.346   02 Jun 2027 12:17:13.537            24.191                Novosib           755.969
       160   02 Jun 2027 12:17:33.633   02 Jun 2027 12:20:51.762           198.129              Murmansk1          6191.531
       161   02 Jun 2027 12:22:02.553   02 Jun 2027 12:22:18.008            15.455              Murmansk1           482.969
       162   02 Jun 2027 13:31:40.447   02 Jun 2027 13:32:59.331            78.884               CapeTown          2465.125
       163   02 Jun 2027 13:34:33.504   02 Jun 2027 13:35:14.659            41.155               CapeTown          1286.094
       164   02 Jun 2027 13:50:23.469   02 Jun 2027 13:51:50.448            86.979                 Moscow          2718.094
       165   02 Jun 2027 13:53:52.448   02 Jun 2027 13:55:18.283            85.835              Murmansk2          2682.344
       166   02 Jun 2027 13:55:25.785   02 Jun 2027 13:55:56.462            30.677              Murmansk1           958.656
       167   02 Jun 2027 13:57:33.054   02 Jun 2027 13:58:13.522            40.468              Murmansk2          1264.625
       168   02 Jun 2027 14:09:13.810   02 Jun 2027 14:12:40.286           206.476                Anadyr1          6452.375
       169   02 Jun 2027 15:11:27.756   02 Jun 2027 15:11:55.081            27.325               CapeTown           853.906
       170   02 Jun 2027 15:31:26.335   02 Jun 2027 15:31:55.189            28.854                 Moscow           901.688
       171   02 Jun 2027 15:32:27.729   02 Jun 2027 15:32:43.304            15.575              Murmansk2           486.719
       172   02 Jun 2027 15:33:01.639   02 Jun 2027 15:33:39.091            37.452              Murmansk1          1170.375
       173   02 Jun 2027 15:44:12.774   02 Jun 2027 15:46:19.283           126.509                Anadyr2          3953.406
       174   02 Jun 2027 16:42:04.980   02 Jun 2027 16:43:24.336            79.356               CapeTown          2479.875
       175   02 Jun 2027 17:13:46.033   02 Jun 2027 17:16:46.629           180.596              Murmansk1          5643.625
       176   02 Jun 2027 17:20:02.630   02 Jun 2027 17:20:53.035            50.405                Anadyr2          1575.156
       177   02 Jun 2027 17:21:08.548   02 Jun 2027 17:21:38.129            29.581                Anadyr1           924.406
       178   02 Jun 2027 17:22:38.066   02 Jun 2027 17:22:57.684            19.618               Magadan1           613.062
       179   02 Jun 2027 17:23:08.125   02 Jun 2027 17:23:48.015            39.890               Magadan1          1246.563
       180   02 Jun 2027 17:26:54.296   02 Jun 2027 17:27:19.442            25.146                Anadyr1           785.812
       181   02 Jun 2027 17:28:17.109   02 Jun 2027 17:28:32.123            15.014               Magadan1           469.188
       182   02 Jun 2027 17:28:39.736   02 Jun 2027 17:28:44.096             4.360               Magadan2           136.250
       183   02 Jun 2027 17:28:52.131   02 Jun 2027 17:30:24.631            92.500               Magadan2          2890.625
       184   02 Jun 2027 18:55:57.501   02 Jun 2027 18:58:14.646           137.145                Anadyr2          4285.781
       185   02 Jun 2027 18:58:26.666   02 Jun 2027 18:59:31.397            64.731               Magadan2          2022.844
       186   02 Jun 2027 18:59:31.397   02 Jun 2027 18:59:50.318            18.921               Magadan1           591.281
       187   02 Jun 2027 19:00:16.110   02 Jun 2027 19:02:07.204           111.094                Norilsk          3471.687
       188   02 Jun 2027 19:07:36.015   02 Jun 2027 19:08:15.585            39.570               Magadan1          1236.563
       189   02 Jun 2027 19:50:34.506   02 Jun 2027 19:51:39.990            65.484            RioGallegos          2046.375
       190   02 Jun 2027 19:52:02.889   02 Jun 2027 19:52:24.660            21.771            RioGallegos           680.344
       191   02 Jun 2027 19:52:38.471   02 Jun 2027 19:54:03.984            85.513            RioGallegos          2672.281
       192   02 Jun 2027 20:31:36.133   02 Jun 2027 20:32:03.394            27.261                Anadyr2           851.906
       193   02 Jun 2027 20:33:56.713   02 Jun 2027 20:34:04.191             7.478                Norilsk           233.688
       194   02 Jun 2027 20:34:10.578   02 Jun 2027 20:35:38.368            87.790                Norilsk          2743.437
       195   02 Jun 2027 20:38:04.482   02 Jun 2027 20:39:20.881            76.399                Irkutsk          2387.469
       196   02 Jun 2027 20:40:19.736   02 Jun 2027 20:41:02.329            42.593                Irkutsk          1331.031
       197   02 Jun 2027 20:41:35.721   02 Jun 2027 20:42:52.747            77.026                Novosib          2407.063
       198   02 Jun 2027 20:44:05.804   02 Jun 2027 20:44:07.872             2.068                Novosib            64.625
       199   02 Jun 2027 20:45:44.673   02 Jun 2027 20:46:50.742            66.069                Irkutsk          2064.656
       200   02 Jun 2027 20:56:04.422   02 Jun 2027 20:56:30.658            26.236                Sumatra           819.875
       201   02 Jun 2027 20:59:13.894   02 Jun 2027 20:59:51.322            37.428                Sumatra          1169.625
       202   02 Jun 2027 21:02:21.164   02 Jun 2027 21:03:39.212            78.048                Sumatra          2439.000
       203   02 Jun 2027 22:10:41.401   02 Jun 2027 22:11:48.200            66.799               Magadan2          2087.469
       204   02 Jun 2027 22:13:48.733   02 Jun 2027 22:13:52.627             3.894                Novosib           121.687
       205   02 Jun 2027 22:14:19.181   02 Jun 2027 22:14:24.592             5.411                Irkutsk           169.094
       206   02 Jun 2027 22:15:19.469   02 Jun 2027 22:15:33.543            14.074                Novosib           439.813
       207   02 Jun 2027 22:15:56.810   02 Jun 2027 22:17:26.800            89.990                Novosib          2812.187
       208   02 Jun 2027 22:21:46.222   02 Jun 2027 22:22:20.869            34.647                  Delhi          1082.719
       209   02 Jun 2027 22:22:50.492   02 Jun 2027 22:25:04.947           134.455                  Delhi          4201.719
       210   02 Jun 2027 23:41:58.008   02 Jun 2027 23:42:13.499            15.491                Anadyr2           484.094
       211   02 Jun 2027 23:45:44.270   02 Jun 2027 23:45:47.370             3.100                Norilsk            96.875
       212   02 Jun 2027 23:45:57.890   02 Jun 2027 23:47:53.941           116.051               Magadan1          3626.594
       213   02 Jun 2027 23:47:53.941   02 Jun 2027 23:49:08.575            74.634               Magadan2          2332.312
       214   02 Jun 2027 23:49:13.201   02 Jun 2027 23:51:51.987           158.786              Murmansk2          4962.063
       215   02 Jun 2027 23:53:23.622   02 Jun 2027 23:54:02.113            38.491                 Moscow          1202.844
       216   02 Jun 2027 23:54:54.713   02 Jun 2027 23:56:15.616            80.903                 Moscow          2528.219
       217   03 Jun 2027 01:13:25.328   03 Jun 2027 01:13:31.170             5.842                Anadyr1           182.563
       218   03 Jun 2027 01:15:13.305   03 Jun 2027 01:15:45.295            31.990                Anadyr2           999.688
       219   03 Jun 2027 01:16:08.022   03 Jun 2027 01:16:19.041            11.019                Anadyr2           344.344
       220   03 Jun 2027 01:16:22.919   03 Jun 2027 01:16:34.544            11.625                Anadyr2           363.281
       221   03 Jun 2027 01:18:41.197   03 Jun 2027 01:20:21.766           100.569               Magadan2          3142.781
       222   03 Jun 2027 01:20:21.766   03 Jun 2027 01:20:44.615            22.849               Magadan1           714.031
       223   03 Jun 2027 01:20:54.583   03 Jun 2027 01:21:05.583            11.000               Magadan1           343.750
       224   03 Jun 2027 01:22:26.749   03 Jun 2027 01:22:38.189            11.440               Magadan2           357.500
       225   03 Jun 2027 01:23:52.216   03 Jun 2027 01:24:30.705            38.489              Murmansk2          1202.781
       226   03 Jun 2027 01:24:35.084   03 Jun 2027 01:25:25.663            50.579              Murmansk1          1580.594
       227   03 Jun 2027 01:27:16.630   03 Jun 2027 01:27:23.451             6.821                 Moscow           213.156
       228   03 Jun 2027 01:28:53.260   03 Jun 2027 01:29:06.035            12.775                Novosib           399.219
       229   03 Jun 2027 01:29:22.958   03 Jun 2027 01:29:40.660            17.702                 Moscow           553.187
       230   03 Jun 2027 01:32:56.058   03 Jun 2027 01:33:07.650            11.592                 Moscow           362.250
       231   03 Jun 2027 01:33:57.360   03 Jun 2027 01:34:11.073            13.713                 Moscow           428.531
       232   03 Jun 2027 01:37:17.698   03 Jun 2027 01:38:26.513            68.815                 Moscow          2150.469
       233   03 Jun 2027 01:58:09.681   03 Jun 2027 01:58:17.382             7.701               CapeTown           240.656
       234   03 Jun 2027 01:59:00.928   03 Jun 2027 01:59:06.894             5.966               CapeTown           186.438
       235   03 Jun 2027 02:00:04.017   03 Jun 2027 02:00:27.013            22.996               CapeTown           718.625
       236   03 Jun 2027 02:47:50.657   03 Jun 2027 02:50:40.696           170.039                Anadyr1          5313.719
       237   03 Jun 2027 02:50:50.313   03 Jun 2027 02:51:30.814            40.501               Magadan1          1265.656
       238   03 Jun 2027 02:52:31.834   03 Jun 2027 02:53:22.016            50.182               Magadan1          1568.187
       239   03 Jun 2027 02:59:50.322   03 Jun 2027 02:59:56.775             6.453              Murmansk2           201.656
       240   03 Jun 2027 03:07:34.279   03 Jun 2027 03:08:09.562            35.283                Norilsk          1102.594
       241   03 Jun 2027 03:08:39.447   03 Jun 2027 03:10:53.750           134.303              Murmansk2          4196.969
       242   03 Jun 2027 03:28:01.191   03 Jun 2027 03:28:46.700            45.509               CapeTown          1422.156
       243   03 Jun 2027 04:23:50.208   03 Jun 2027 04:26:10.573           140.365               Magadan2          4386.406
       244   03 Jun 2027 04:26:57.446   03 Jun 2027 04:27:07.822            10.376                Anadyr2           324.250
       245   03 Jun 2027 04:30:19.746   03 Jun 2027 04:31:59.584            99.838               Magadan1          3119.938
       246   03 Jun 2027 04:32:10.348   03 Jun 2027 04:33:17.431            67.083               Magadan2          2096.344
       247   03 Jun 2027 04:33:30.806   03 Jun 2027 04:34:08.807            38.001               Magadan2          1187.531
       248   03 Jun 2027 04:34:52.574   03 Jun 2027 04:35:05.175            12.601                Anadyr2           393.781
       249   03 Jun 2027 06:05:51.878   03 Jun 2027 06:06:05.289            13.411                Irkutsk           419.094
       250   03 Jun 2027 06:07:22.267   03 Jun 2027 06:08:48.245            85.978                Irkutsk          2686.813
       251   03 Jun 2027 06:08:55.362   03 Jun 2027 06:09:01.621             6.259                Anadyr1           195.594
       252   03 Jun 2027 06:09:03.411   03 Jun 2027 06:10:25.745            82.334               Magadan2          2572.937
       253   03 Jun 2027 06:10:32.551   03 Jun 2027 06:10:53.739            21.188                Irkutsk           662.125
       254   03 Jun 2027 06:48:09.272   03 Jun 2027 06:48:44.309            35.037            RioGallegos          1094.906
       255   03 Jun 2027 07:42:35.674   03 Jun 2027 07:42:55.255            19.581               Magadan1           611.906
       256   03 Jun 2027 07:43:24.849   03 Jun 2027 07:43:28.685             3.836                Norilsk           119.875
       257   03 Jun 2027 07:43:32.869   03 Jun 2027 07:44:43.087            70.218                Novosib          2194.313
       258   03 Jun 2027 07:44:59.495   03 Jun 2027 07:47:19.541           140.046               Magadan2          4376.438
       259   03 Jun 2027 07:47:21.112   03 Jun 2027 07:49:32.199           131.087                Norilsk          4096.469
       260   03 Jun 2027 07:49:42.597   03 Jun 2027 07:51:11.616            89.019              Murmansk1          2781.844
       261   03 Jun 2027 07:51:11.616   03 Jun 2027 07:51:30.417            18.801              Murmansk2           587.531
       262   03 Jun 2027 07:52:01.157   03 Jun 2027 07:52:25.675            24.518                Norilsk           766.188
       263   03 Jun 2027 07:52:44.353   03 Jun 2027 07:52:56.025            11.672              Murmansk2           364.750
       264   03 Jun 2027 07:54:59.404   03 Jun 2027 07:55:52.342            52.938              Murmansk2          1654.312
       265   03 Jun 2027 08:23:16.689   03 Jun 2027 08:24:00.950            44.261            RioGallegos          1383.156
       266   03 Jun 2027 08:30:27.595   03 Jun 2027 08:30:44.733            17.138            RioGallegos           535.562
       267   03 Jun 2027 08:57:47.146   03 Jun 2027 08:59:59.891           132.745                Sumatra          4148.281
       268   03 Jun 2027 09:09:54.292   03 Jun 2027 09:11:28.133            93.841                  Delhi          2932.531
       269   03 Jun 2027 09:18:56.460   03 Jun 2027 09:19:20.613            24.153                Irkutsk           754.781
       270   03 Jun 2027 09:19:44.733   03 Jun 2027 09:20:07.879            23.146                Novosib           723.313
       271   03 Jun 2027 09:20:20.159   03 Jun 2027 09:21:17.808            57.649              Murmansk1          1801.531
       272   03 Jun 2027 09:21:17.808   03 Jun 2027 09:22:48.676            90.868              Murmansk2          2839.625
       273   03 Jun 2027 09:23:02.576   03 Jun 2027 09:24:34.473            91.897                Norilsk          2871.781
       274   03 Jun 2027 09:24:45.456   03 Jun 2027 09:25:25.716            40.260                Novosib          1258.125
       275   03 Jun 2027 09:25:28.725   03 Jun 2027 09:26:14.898            46.173              Murmansk2          1442.906
       276   03 Jun 2027 09:28:02.116   03 Jun 2027 09:28:43.805            41.689              Murmansk2          1302.781
       277   03 Jun 2027 10:01:42.587   03 Jun 2027 10:02:24.178            41.591            RioGallegos          1299.719
       278   03 Jun 2027 10:03:47.148   03 Jun 2027 10:04:51.878            64.730            RioGallegos          2022.812
       279   03 Jun 2027 10:35:09.540   03 Jun 2027 10:35:20.346            10.806                Sumatra           337.687
       280   03 Jun 2027 10:41:42.959   03 Jun 2027 10:42:05.126            22.167                  Delhi           692.719
       281   03 Jun 2027 10:42:28.716   03 Jun 2027 10:42:51.364            22.648                  Delhi           707.750
       282   03 Jun 2027 10:44:41.128   03 Jun 2027 10:45:00.608            19.480                  Delhi           608.750
       283   03 Jun 2027 10:56:26.878   03 Jun 2027 10:57:01.947            35.069              Murmansk2          1095.906
       284   03 Jun 2027 10:57:05.070   03 Jun 2027 10:57:46.321            41.251                Norilsk          1289.094
       285   03 Jun 2027 10:57:52.890   03 Jun 2027 10:58:39.625            46.735                Norilsk          1460.469
       286   03 Jun 2027 10:58:42.897   03 Jun 2027 10:59:26.278            43.381                Novosib          1355.656
       287   03 Jun 2027 10:59:29.552   03 Jun 2027 10:59:33.013             3.461                 Moscow           108.156
       288   03 Jun 2027 10:59:34.692   03 Jun 2027 11:00:24.914            50.222              Murmansk2          1569.437
       289   03 Jun 2027 12:20:47.139   03 Jun 2027 12:24:42.027           234.888                  Delhi          7340.250
       290   03 Jun 2027 12:28:41.683   03 Jun 2027 12:29:08.949            27.266                 Moscow           852.062
       291   03 Jun 2027 12:29:32.524   03 Jun 2027 12:32:08.324           155.800              Murmansk2          4868.750
       292   03 Jun 2027 12:33:58.682   03 Jun 2027 12:34:05.248             6.566              Murmansk2           205.187
       293   03 Jun 2027 13:42:14.497   03 Jun 2027 13:44:33.584           139.087               CapeTown          4346.469
       294   03 Jun 2027 13:47:52.561   03 Jun 2027 13:49:07.638            75.077               CapeTown          2346.156
       295   03 Jun 2027 14:03:41.495   03 Jun 2027 14:03:52.461            10.966                 Moscow           342.687
       296   03 Jun 2027 14:06:04.345   03 Jun 2027 14:08:50.889           166.544              Murmansk1          5204.500
       297   03 Jun 2027 14:09:29.386   03 Jun 2027 14:10:05.768            36.382              Murmansk2          1136.938
       298   03 Jun 2027 14:20:59.622   03 Jun 2027 14:22:56.847           117.225                Anadyr1          3663.281
       299   03 Jun 2027 14:23:20.853   03 Jun 2027 14:24:34.444            73.591                Anadyr2          2299.719
       300   03 Jun 2027 15:17:35.209   03 Jun 2027 15:17:59.693            24.484               CapeTown           765.125
       301   03 Jun 2027 15:43:56.844   03 Jun 2027 15:43:57.741             0.897                 Moscow            28.031
       302   03 Jun 2027 15:44:39.282   03 Jun 2027 15:45:50.675            71.393              Murmansk2          2231.031
       303   03 Jun 2027 15:46:38.049   03 Jun 2027 15:46:58.673            20.624              Murmansk2           644.500
       304   03 Jun 2027 15:48:40.403   03 Jun 2027 15:48:55.242            14.839              Murmansk2           463.719
       305   03 Jun 2027 15:53:49.749   03 Jun 2027 15:54:16.789            27.040              Murmansk1           845.000
       306   03 Jun 2027 15:56:12.281   03 Jun 2027 15:58:25.185           132.904                Anadyr1          4153.250
       307   03 Jun 2027 16:00:55.581   03 Jun 2027 16:01:19.739            24.158               Magadan2           754.937
       308   03 Jun 2027 16:02:46.105   03 Jun 2027 16:04:36.342           110.237               Magadan2          3444.906
       309   03 Jun 2027 16:04:36.342   03 Jun 2027 16:04:43.276             6.934               Magadan1           216.687
       310   03 Jun 2027 17:32:04.050   03 Jun 2027 17:34:41.989           157.939                Anadyr2          4935.594
       311   03 Jun 2027 17:34:54.386   03 Jun 2027 17:36:58.963           124.577               Magadan2          3893.031
       312   03 Jun 2027 17:40:19.367   03 Jun 2027 17:40:41.807            22.440               Magadan1           701.250
       313   03 Jun 2027 17:42:09.164   03 Jun 2027 17:43:13.518            64.354               Magadan2          2011.062
       314   03 Jun 2027 19:07:58.119   03 Jun 2027 19:11:53.682           235.563                Anadyr2          7361.344
       315   03 Jun 2027 19:11:58.822   03 Jun 2027 19:13:35.361            96.539               Magadan2          3016.844
       316   03 Jun 2027 19:14:32.828   03 Jun 2027 19:15:13.189            40.361                Norilsk          1261.281
       317   03 Jun 2027 20:02:22.315   03 Jun 2027 20:05:51.719           209.404            RioGallegos          6543.875
       318   03 Jun 2027 20:45:32.792   03 Jun 2027 20:45:39.180             6.388                Anadyr1           199.625
       319   03 Jun 2027 20:45:49.555   03 Jun 2027 20:47:40.020           110.465                Norilsk          3452.031
       320   03 Jun 2027 20:49:07.111   03 Jun 2027 20:49:34.762            27.651               Magadan1           864.094
       321   03 Jun 2027 20:49:48.094   03 Jun 2027 20:50:22.027            33.933                Norilsk          1060.406
       322   03 Jun 2027 20:51:00.288   03 Jun 2027 20:51:32.647            32.359                Norilsk          1011.219
       323   03 Jun 2027 20:51:34.582   03 Jun 2027 20:52:22.141            47.559                Irkutsk          1486.219
       324   03 Jun 2027 20:52:30.632   03 Jun 2027 20:54:44.983           134.351                Novosib          4198.469
       325   03 Jun 2027 21:03:41.402   03 Jun 2027 21:06:18.151           156.749                Sumatra          4898.406
       326   03 Jun 2027 22:21:46.752   03 Jun 2027 22:22:49.300            62.548                Norilsk          1954.625
       327   03 Jun 2027 22:25:38.929   03 Jun 2027 22:26:26.278            47.349                Irkutsk          1479.656
       328   03 Jun 2027 22:27:01.318   03 Jun 2027 22:29:07.097           125.779                Novosib          3930.594
       329   03 Jun 2027 22:33:28.184   03 Jun 2027 22:36:59.202           211.018                  Delhi          6594.312
       330   03 Jun 2027 23:53:57.540   03 Jun 2027 23:54:10.143            12.603                Anadyr2           393.844
       331   03 Jun 2027 23:54:15.098   03 Jun 2027 23:54:28.871            13.773                Anadyr2           430.406
       332   03 Jun 2027 23:57:45.635   03 Jun 2027 23:57:49.452             3.817                Norilsk           119.281
       333   03 Jun 2027 23:58:03.843   03 Jun 2027 23:59:37.501            93.658               Magadan2          2926.813
       334   04 Jun 2027 00:00:07.007   04 Jun 2027 00:02:28.484           141.477              Murmansk2          4421.156
       335   04 Jun 2027 00:02:37.608   04 Jun 2027 00:03:37.872            60.264              Murmansk1          1883.250
       336   04 Jun 2027 00:04:48.649   04 Jun 2027 00:05:59.159            70.510                 Moscow          2203.437
       337   04 Jun 2027 00:07:53.757   04 Jun 2027 00:08:15.224            21.467                 Moscow           670.844
       338   04 Jun 2027 00:09:48.509   04 Jun 2027 00:10:09.771            21.262                 Moscow           664.437
       339   04 Jun 2027 01:25:10.690   04 Jun 2027 01:25:46.453            35.763                Anadyr1          1117.594
       340   04 Jun 2027 01:26:32.573   04 Jun 2027 01:26:50.986            18.413                Anadyr1           575.406
       341   04 Jun 2027 01:27:13.056   04 Jun 2027 01:27:32.233            19.177                Anadyr2           599.281
       342   04 Jun 2027 01:27:32.233   04 Jun 2027 01:27:51.700            19.467                Anadyr1           608.344
       343   04 Jun 2027 01:28:32.893   04 Jun 2027 01:28:45.881            12.988                Anadyr2           405.875
       344   04 Jun 2027 01:30:09.128   04 Jun 2027 01:32:02.369           113.241               Magadan2          3538.781
       345   04 Jun 2027 01:32:02.369   04 Jun 2027 01:32:16.078            13.709               Magadan1           428.406
       346   04 Jun 2027 01:33:40.325   04 Jun 2027 01:33:58.529            18.204               Magadan1           568.875
       347   04 Jun 2027 01:35:53.650   04 Jun 2027 01:36:23.317            29.667              Murmansk2           927.094
       348   04 Jun 2027 01:36:29.362   04 Jun 2027 01:37:34.180            64.818              Murmansk1          2025.562
       349   04 Jun 2027 01:37:40.900   04 Jun 2027 01:37:45.424             4.524              Murmansk1           141.375
       350   04 Jun 2027 01:37:59.755   04 Jun 2027 01:38:02.097             2.342                Novosib            73.187
       351   04 Jun 2027 01:38:15.827   04 Jun 2027 01:38:42.874            27.047              Murmansk2           845.219
       352   04 Jun 2027 01:39:14.128   04 Jun 2027 01:40:54.626           100.498                 Moscow          3140.563
       353   04 Jun 2027 02:04:39.384   04 Jun 2027 02:06:01.066            81.682               CapeTown          2552.563
       354   04 Jun 2027 02:59:47.671   04 Jun 2027 03:00:21.616            33.945                Anadyr1          1060.781
       355   04 Jun 2027 03:00:21.616   04 Jun 2027 03:01:10.239            48.623                Anadyr2          1519.469
       356   04 Jun 2027 03:01:59.394   04 Jun 2027 03:02:08.627             9.233                Anadyr1           288.531
       357   04 Jun 2027 03:02:22.002   04 Jun 2027 03:03:02.620            40.618                Anadyr2          1269.312
       358   04 Jun 2027 03:06:37.775   04 Jun 2027 03:06:58.849            21.074               Magadan1           658.562
       359   04 Jun 2027 03:07:02.140   04 Jun 2027 03:09:17.339           135.199                Anadyr2          4224.969
       360   04 Jun 2027 03:09:17.339   04 Jun 2027 03:09:55.922            38.583                Anadyr1          1205.719
       361   04 Jun 2027 03:10:45.152   04 Jun 2027 03:11:08.875            23.723                Anadyr2           741.344
       362   04 Jun 2027 03:19:07.347   04 Jun 2027 03:19:28.620            21.273              Murmansk2           664.781
       363   04 Jun 2027 03:19:32.280   04 Jun 2027 03:19:57.986            25.706                Norilsk           803.312
       364   04 Jun 2027 03:24:01.385   04 Jun 2027 03:24:48.223            46.838              Murmansk1          1463.687
       365   04 Jun 2027 04:40:51.794   04 Jun 2027 04:41:57.446            65.652                Anadyr1          2051.625
       366   04 Jun 2027 04:42:22.664   04 Jun 2027 04:42:41.801            19.137               Magadan2           598.031
       367   04 Jun 2027 04:42:54.195   04 Jun 2027 04:48:11.502           317.307                Anadyr1          9915.844
       368   04 Jun 2027 06:17:34.382   04 Jun 2027 06:18:12.014            37.632                Irkutsk          1176.000
       369   04 Jun 2027 06:18:29.598   04 Jun 2027 06:18:30.659             1.061               Magadan2            33.156
       370   04 Jun 2027 06:18:33.219   04 Jun 2027 06:21:24.723           171.504               Magadan2          5359.500
       371   04 Jun 2027 06:22:00.270   04 Jun 2027 06:22:43.850            43.580                Novosib          1361.875
       372   04 Jun 2027 06:22:45.432   04 Jun 2027 06:24:09.175            83.743               Magadan2          2616.969
       373   04 Jun 2027 06:59:48.101   04 Jun 2027 07:01:22.392            94.291            RioGallegos          2946.594
       374   04 Jun 2027 07:54:08.354   04 Jun 2027 07:54:35.194            26.840                Novosib           838.750
       375   04 Jun 2027 07:54:38.888   04 Jun 2027 07:55:28.252            49.364               Magadan1          1542.625
       376   04 Jun 2027 07:55:28.252   04 Jun 2027 07:56:34.392            66.140               Magadan2          2066.875
       377   04 Jun 2027 07:56:57.670   04 Jun 2027 07:57:55.369            57.699                Novosib          1803.094
       378   04 Jun 2027 07:57:57.642   04 Jun 2027 07:58:02.034             4.392                Norilsk           137.250
       379   04 Jun 2027 07:58:04.037   04 Jun 2027 07:58:55.185            51.148                Novosib          1598.375
       380   04 Jun 2027 07:58:58.322   04 Jun 2027 07:59:06.531             8.209              Murmansk1           256.531
       381   04 Jun 2027 07:59:17.275   04 Jun 2027 07:59:21.844             4.569                Norilsk           142.781
       382   04 Jun 2027 07:59:29.327   04 Jun 2027 08:00:58.318            88.991              Murmansk1          2780.969
       383   04 Jun 2027 08:01:31.014   04 Jun 2027 08:02:27.688            56.674              Murmansk2          1771.062
       384   04 Jun 2027 08:34:40.039   04 Jun 2027 08:35:46.586            66.547            RioGallegos          2079.594
       385   04 Jun 2027 09:09:37.154   04 Jun 2027 09:10:34.632            57.478                Sumatra          1796.187
       386   04 Jun 2027 09:12:46.103   04 Jun 2027 09:13:02.270            16.167                Sumatra           505.219
       387   04 Jun 2027 09:21:09.201   04 Jun 2027 09:21:41.497            32.296                  Delhi          1009.250
       388   04 Jun 2027 09:24:17.529   04 Jun 2027 09:25:10.369            52.840                  Delhi          1651.250
       389   04 Jun 2027 09:29:57.476   04 Jun 2027 09:30:06.653             9.177                Irkutsk           286.781
       390   04 Jun 2027 09:30:49.426   04 Jun 2027 09:30:53.840             4.414                Irkutsk           137.937
       391   04 Jun 2027 09:31:13.321   04 Jun 2027 09:31:14.727             1.406                Novosib            43.938
       392   04 Jun 2027 09:31:33.558   04 Jun 2027 09:31:34.138             0.580                Norilsk            18.125
       393   04 Jun 2027 09:31:52.704   04 Jun 2027 09:32:00.319             7.615                Irkutsk           237.969
       394   04 Jun 2027 09:32:13.513   04 Jun 2027 09:32:14.129             0.616                Norilsk            19.250
       395   04 Jun 2027 09:32:22.636   04 Jun 2027 09:32:30.979             8.343              Murmansk2           260.719
       396   04 Jun 2027 09:32:41.523   04 Jun 2027 09:33:08.350            26.827              Murmansk1           838.344
       397   04 Jun 2027 09:33:08.350   04 Jun 2027 09:33:40.410            32.060              Murmansk2          1001.875
       398   04 Jun 2027 09:33:45.502   04 Jun 2027 09:33:51.520             6.018                Irkutsk           188.063
       399   04 Jun 2027 09:33:54.996   04 Jun 2027 09:34:53.122            58.126                 Moscow          1816.438
       400   04 Jun 2027 09:35:10.670   04 Jun 2027 09:35:46.144            35.474                Irkutsk          1108.562
       401   04 Jun 2027 09:37:25.197   04 Jun 2027 09:38:05.124            39.927              Murmansk2          1247.719
       402   04 Jun 2027 10:14:33.485   04 Jun 2027 10:15:08.079            34.594            RioGallegos          1081.062
       403   04 Jun 2027 10:48:12.236   04 Jun 2027 10:49:28.533            76.297                Sumatra          2384.281
       404   04 Jun 2027 10:56:16.961   04 Jun 2027 10:56:54.145            37.184                  Delhi          1162.000
       405   04 Jun 2027 11:07:40.599   04 Jun 2027 11:08:10.271            29.672                Novosib           927.250
       406   04 Jun 2027 11:08:16.748   04 Jun 2027 11:08:47.996            31.248              Murmansk1           976.500
       407   04 Jun 2027 11:09:00.872   04 Jun 2027 11:09:26.552            25.680                Novosib           802.500
       408   04 Jun 2027 11:09:28.830   04 Jun 2027 11:09:51.698            22.868                Norilsk           714.625
       409   04 Jun 2027 11:09:57.278   04 Jun 2027 11:10:02.946             5.668              Murmansk2           177.125
       410   04 Jun 2027 11:10:06.228   04 Jun 2027 11:10:21.205            14.977              Murmansk2           468.031
       411   04 Jun 2027 11:10:29.557   04 Jun 2027 11:11:07.808            38.251                Norilsk          1195.344
       412   04 Jun 2027 11:11:19.200   04 Jun 2027 11:11:28.406             9.206                Novosib           287.688
       413   04 Jun 2027 11:11:28.567   04 Jun 2027 11:11:50.685            22.118                 Moscow           691.188
       414   04 Jun 2027 11:17:02.838   04 Jun 2027 11:17:26.509            23.671              Murmansk1           739.719
       415   04 Jun 2027 12:34:37.353   04 Jun 2027 12:36:44.845           127.492                  Delhi          3984.125
       416   04 Jun 2027 12:39:37.074   04 Jun 2027 12:41:36.243           119.169                 Moscow          3724.031
       417   04 Jun 2027 12:41:39.303   04 Jun 2027 12:43:37.710           118.407              Murmansk2          3700.219
       418   04 Jun 2027 12:44:54.333   04 Jun 2027 12:44:57.926             3.593              Murmansk1           112.281
       419   04 Jun 2027 13:53:26.915   04 Jun 2027 13:56:14.839           167.924               CapeTown          5247.625
       420   04 Jun 2027 13:58:47.915   04 Jun 2027 13:59:47.914            59.999               CapeTown          1874.969
       421   04 Jun 2027 14:00:53.938   04 Jun 2027 14:00:57.018             3.080               CapeTown            96.250
       422   04 Jun 2027 14:18:18.150   04 Jun 2027 14:20:52.545           154.395              Murmansk1          4824.844
       423   04 Jun 2027 14:26:33.253   04 Jun 2027 14:26:51.140            17.887              Murmansk2           558.969
       424   04 Jun 2027 14:32:49.646   04 Jun 2027 14:36:24.672           215.026                Anadyr1          6719.563
       425   04 Jun 2027 15:31:44.817   04 Jun 2027 15:32:01.026            16.209               CapeTown           506.531
       426   04 Jun 2027 15:57:11.756   04 Jun 2027 15:58:04.160            52.404              Murmansk1          1637.625
       427   04 Jun 2027 15:58:39.178   04 Jun 2027 15:58:59.107            19.929              Murmansk2           622.781
       428   04 Jun 2027 16:00:29.661   04 Jun 2027 16:01:26.312            56.651              Murmansk2          1770.344
       429   04 Jun 2027 16:08:12.255   04 Jun 2027 16:10:12.457           120.202                Anadyr1          3756.313
       430   04 Jun 2027 16:10:40.481   04 Jun 2027 16:10:50.490            10.009                Anadyr2           312.781
       431   04 Jun 2027 16:12:11.289   04 Jun 2027 16:14:09.510           118.221               Magadan2          3694.406
       432   04 Jun 2027 16:14:09.510   04 Jun 2027 16:15:29.571            80.061               Magadan1          2501.906
       433   04 Jun 2027 16:16:39.041   04 Jun 2027 16:17:25.692            46.651               Magadan1          1457.844
       434   04 Jun 2027 17:44:05.489   04 Jun 2027 17:45:56.297           110.808                Anadyr1          3462.750
       435   04 Jun 2027 17:46:01.511   04 Jun 2027 17:46:17.724            16.213                Anadyr2           506.656
       436   04 Jun 2027 17:46:31.360   04 Jun 2027 17:46:48.807            17.447               Magadan1           545.219
       437   04 Jun 2027 17:46:48.807   04 Jun 2027 17:48:12.388            83.581               Magadan2          2611.906
       438   04 Jun 2027 17:48:39.692   04 Jun 2027 17:49:01.006            21.314               Magadan1           666.063
       439   04 Jun 2027 17:53:37.101   04 Jun 2027 17:53:46.260             9.159               Magadan2           286.219
       440   04 Jun 2027 17:57:30.590   04 Jun 2027 17:57:39.978             9.388               Magadan1           293.375
       441   04 Jun 2027 19:19:58.455   04 Jun 2027 19:23:52.949           234.494                Anadyr2          7327.938
       442   04 Jun 2027 19:23:54.131   04 Jun 2027 19:26:03.991           129.860                Norilsk          4058.125
       443   04 Jun 2027 19:26:43.068   04 Jun 2027 19:27:17.758            34.690               Magadan1          1084.062
       444   04 Jun 2027 19:28:30.893   04 Jun 2027 19:28:39.223             8.330                Irkutsk           260.313
       445   04 Jun 2027 19:29:10.960   04 Jun 2027 19:32:10.525           179.565                Irkutsk          5611.406
       446   04 Jun 2027 20:15:28.670   04 Jun 2027 20:16:22.687            54.017            RioGallegos          1688.031
       447   04 Jun 2027 20:57:32.601   04 Jun 2027 20:58:04.098            31.497                Anadyr1           984.281
       448   04 Jun 2027 20:58:21.736   04 Jun 2027 20:58:22.225             0.489               Magadan1            15.281
       449   04 Jun 2027 20:58:27.961   04 Jun 2027 21:00:32.417           124.456                Norilsk          3889.250
       450   04 Jun 2027 21:01:34.407   04 Jun 2027 21:01:49.591            15.184                Norilsk           474.500
       451   04 Jun 2027 21:01:53.627   04 Jun 2027 21:03:29.288            95.661                Irkutsk          2989.406
       452   04 Jun 2027 21:04:00.263   04 Jun 2027 21:06:31.136           150.873                Novosib          4714.781
       453   04 Jun 2027 21:16:23.906   04 Jun 2027 21:17:20.071            56.165                Sumatra          1755.156
       454   04 Jun 2027 22:30:06.445   04 Jun 2027 22:30:14.881             8.436                Anadyr2           263.625
       455   04 Jun 2027 22:33:48.751   04 Jun 2027 22:33:56.288             7.537                Norilsk           235.531
       456   04 Jun 2027 22:34:25.623   04 Jun 2027 22:35:38.027            72.404               Magadan1          2262.625
       457   04 Jun 2027 22:37:42.248   04 Jun 2027 22:37:51.833             9.585               Magadan2           299.531
       458   04 Jun 2027 22:38:16.577   04 Jun 2027 22:39:29.551            72.974                Irkutsk          2280.438
       459   04 Jun 2027 22:39:44.343   04 Jun 2027 22:39:58.388            14.045                Novosib           438.906
       460   04 Jun 2027 22:40:24.446   04 Jun 2027 22:40:30.341             5.895                Irkutsk           184.219
       461   04 Jun 2027 22:40:54.064   04 Jun 2027 22:43:06.629           132.565                Novosib          4142.656
       462   04 Jun 2027 22:45:15.468   04 Jun 2027 22:46:30.883            75.415                  Delhi          2356.719
       463   04 Jun 2027 22:52:42.086   04 Jun 2027 22:54:00.632            78.546                  Delhi          2454.563
       464   05 Jun 2027 00:05:53.170   05 Jun 2027 00:06:30.818            37.648                Anadyr1          1176.500
       465   05 Jun 2027 00:09:33.873   05 Jun 2027 00:10:27.276            53.403               Magadan1          1668.844
       466   05 Jun 2027 00:10:27.276   05 Jun 2027 00:10:31.057             3.781               Magadan2           118.156
       467   05 Jun 2027 00:10:52.090   05 Jun 2027 00:11:07.611            15.521               Magadan1           485.031
       468   05 Jun 2027 00:11:23.063   05 Jun 2027 00:12:09.197            46.134               Magadan1          1441.687
       469   05 Jun 2027 00:12:09.872   05 Jun 2027 00:14:39.050           149.178              Murmansk2          4661.813
       470   05 Jun 2027 00:14:39.050   05 Jun 2027 00:15:31.921            52.871              Murmansk1          1652.219
       471   05 Jun 2027 00:16:25.547   05 Jun 2027 00:17:00.258            34.711                 Moscow          1084.719
       472   05 Jun 2027 00:17:41.317   05 Jun 2027 00:17:57.286            15.969                 Moscow           499.031
       473   05 Jun 2027 00:20:12.039   05 Jun 2027 00:20:53.018            40.979                 Moscow          1280.594
       474   05 Jun 2027 00:21:38.305   05 Jun 2027 00:21:56.311            18.006                 Moscow           562.687
       475   05 Jun 2027 00:45:06.144   05 Jun 2027 00:46:03.964            57.820               CapeTown          1806.875
       476   05 Jun 2027 00:47:22.484   05 Jun 2027 00:48:08.896            46.412               CapeTown          1450.375
       477   05 Jun 2027 01:39:12.868   05 Jun 2027 01:39:36.437            23.569                Anadyr2           736.531
       478   05 Jun 2027 01:40:03.059   05 Jun 2027 01:40:20.042            16.983                Anadyr1           530.719
       479   05 Jun 2027 01:41:37.111   05 Jun 2027 01:43:44.873           127.762               Magadan2          3992.563
       480   05 Jun 2027 01:47:55.220   05 Jun 2027 01:50:31.346           156.126              Murmansk1          4878.937
       481   05 Jun 2027 01:53:52.499   05 Jun 2027 01:53:53.282             0.783                 Moscow            24.469
       482   05 Jun 2027 01:54:00.201   05 Jun 2027 01:54:28.061            27.860                Novosib           870.625
