uniorb/output/strategy_1/Drop/Drop_KinoSat_111806.txt

KinoSat_111806
-------------------------
    Access    *     Start Time (UTCG)     *     Stop Time (UTCG)  *   Duration (s)        *       Station  *  Data (Mbytes)
         1   01 Jun 2027 03:00:12.057   01 Jun 2027 03:00:44.932            32.875                Norilsk          1027.344
         2   01 Jun 2027 03:00:47.489   01 Jun 2027 03:01:08.841            21.352                 Moscow           667.250
         3   01 Jun 2027 03:01:21.229   01 Jun 2027 03:01:36.061            14.832                 Moscow           463.500
         4   01 Jun 2027 03:01:48.740   01 Jun 2027 03:02:21.974            33.234                Novosib          1038.562
         5   01 Jun 2027 03:03:23.219   01 Jun 2027 03:03:31.576             8.357                Norilsk           261.156
         6   01 Jun 2027 03:03:56.531   01 Jun 2027 03:04:17.559            21.028                  Delhi           657.125
         7   01 Jun 2027 03:45:23.211   01 Jun 2027 03:45:32.661             9.450            RioGallegos           295.313
         8   01 Jun 2027 04:35:10.012   01 Jun 2027 04:37:36.696           146.684                Novosib          4583.875
         9   01 Jun 2027 04:37:58.037   01 Jun 2027 04:38:55.919            57.882                Norilsk          1808.813
        10   01 Jun 2027 04:38:58.142   01 Jun 2027 04:39:23.027            24.885                Norilsk           777.656
        11   01 Jun 2027 04:39:44.796   01 Jun 2027 04:40:27.388            42.592                Novosib          1331.000
        12   01 Jun 2027 06:13:22.027   01 Jun 2027 06:13:50.802            28.775                Norilsk           899.219
        13   01 Jun 2027 06:14:04.801   01 Jun 2027 06:16:33.877           149.076              Murmansk2          4658.625
        14   01 Jun 2027 06:16:33.877   01 Jun 2027 06:17:07.646            33.769              Murmansk1          1055.281
        15   01 Jun 2027 06:17:12.582   01 Jun 2027 06:19:18.240           125.658                 Moscow          3926.813
        16   01 Jun 2027 06:32:34.169   01 Jun 2027 06:34:18.673           104.504               CapeTown          3265.750
        17   01 Jun 2027 07:37:22.756   01 Jun 2027 07:39:19.110           116.354                Norilsk          3636.063
        18   01 Jun 2027 07:39:26.061   01 Jun 2027 07:40:35.179            69.118                Norilsk          2159.937
        19   01 Jun 2027 07:41:03.075   01 Jun 2027 07:42:00.297            57.222                Anadyr1          1788.188
        20   01 Jun 2027 07:44:00.167   01 Jun 2027 07:44:18.532            18.365                Norilsk           573.906
        21   01 Jun 2027 07:44:37.627   01 Jun 2027 07:44:44.984             7.357                Norilsk           229.906
        22   01 Jun 2027 07:45:18.032   01 Jun 2027 07:46:19.429            61.397                 Moscow          1918.656
        23   01 Jun 2027 07:47:42.532   01 Jun 2027 07:48:17.014            34.482                 Moscow          1077.562
        24   01 Jun 2027 07:54:52.385   01 Jun 2027 07:54:52.993             0.608                 Moscow            19.000
        25   01 Jun 2027 09:12:34.158   01 Jun 2027 09:17:38.893           304.735                Anadyr1          9522.969
        26   01 Jun 2027 10:48:11.727   01 Jun 2027 10:52:53.540           281.813               Magadan2          8806.656
        27   01 Jun 2027 10:52:53.540   01 Jun 2027 10:53:01.719             8.179               Magadan1           255.594
        28   01 Jun 2027 13:57:17.092   01 Jun 2027 13:59:53.218           156.126                Irkutsk          4878.938
        29   01 Jun 2027 15:24:54.474   01 Jun 2027 15:29:38.748           284.274                  Delhi          8883.562
        30   01 Jun 2027 15:34:41.835   01 Jun 2027 15:37:06.919           145.084                Novosib          4533.875
        31   01 Jun 2027 17:19:32.121   01 Jun 2027 17:20:24.590            52.469                Norilsk          1639.656
        32   01 Jun 2027 18:27:32.703   01 Jun 2027 18:27:37.223             4.520               CapeTown           141.250
        33   01 Jun 2027 18:47:38.609   01 Jun 2027 18:51:58.776           260.167                 Moscow          8130.219
        34   01 Jun 2027 18:53:56.112   01 Jun 2027 18:54:38.161            42.049              Murmansk1          1314.031
        35   01 Jun 2027 19:57:49.858   01 Jun 2027 19:58:46.066            56.208               CapeTown          1756.500
        36   01 Jun 2027 20:00:21.108   01 Jun 2027 20:01:45.957            84.849               CapeTown          2651.531
        37   01 Jun 2027 20:06:36.492   01 Jun 2027 20:07:30.588            54.096               CapeTown          1690.500
        38   01 Jun 2027 20:30:41.797   01 Jun 2027 20:34:43.358           241.561              Murmansk2          7548.781
        39   01 Jun 2027 20:40:05.207   01 Jun 2027 20:40:17.470            12.263               Magadan1           383.219
        40   01 Jun 2027 20:42:40.562   01 Jun 2027 20:42:58.835            18.273               Magadan2           571.031
        41   01 Jun 2027 20:42:58.835   01 Jun 2027 20:43:15.075            16.240               Magadan1           507.500
        42   01 Jun 2027 20:48:32.514   01 Jun 2027 20:49:25.864            53.350               Magadan2          1667.188
        43   01 Jun 2027 22:13:25.297   01 Jun 2027 22:16:45.087           199.790                Anadyr2          6243.438
        44   01 Jun 2027 22:16:47.897   01 Jun 2027 22:18:38.408           110.511               Magadan1          3453.469
        45   01 Jun 2027 22:18:41.225   01 Jun 2027 22:18:43.254             2.029                Norilsk            63.406
        46   01 Jun 2027 22:19:00.137   01 Jun 2027 22:19:19.031            18.894               Magadan1           590.438
        47   01 Jun 2027 22:19:47.269   01 Jun 2027 22:20:15.508            28.239               Magadan2           882.469
        48   01 Jun 2027 22:20:48.476   01 Jun 2027 22:21:26.198            37.722               Magadan2          1178.812
        49   01 Jun 2027 22:27:02.261   01 Jun 2027 22:27:04.991             2.730               Magadan1            85.313
        50   01 Jun 2027 23:08:04.321   01 Jun 2027 23:11:23.354           199.033            RioGallegos          6219.781
        51   01 Jun 2027 23:49:06.092   01 Jun 2027 23:50:41.349            95.257                Anadyr2          2976.781
        52   01 Jun 2027 23:51:14.131   01 Jun 2027 23:52:54.066            99.935                Norilsk          3122.969
        53   01 Jun 2027 23:53:23.356   01 Jun 2027 23:54:07.775            44.419               Magadan2          1388.094
        54   01 Jun 2027 23:54:07.775   01 Jun 2027 23:54:18.444            10.669               Magadan1           333.406
        55   01 Jun 2027 23:55:32.751   01 Jun 2027 23:56:49.979            77.228                Irkutsk          2413.375
        56   01 Jun 2027 23:58:32.077   01 Jun 2027 23:59:41.387            69.310                Novosib          2165.937
        57   01 Jun 2027 23:59:45.670   01 Jun 2027 23:59:49.334             3.664                Novosib           114.500
        58   02 Jun 2027 00:00:15.167   02 Jun 2027 00:00:19.127             3.960                Novosib           123.750
        59   02 Jun 2027 00:09:26.859   02 Jun 2027 00:11:05.854            98.995                Sumatra          3093.594
        60   02 Jun 2027 00:43:07.442   02 Jun 2027 00:43:38.525            31.083            RioGallegos           971.344
        61   02 Jun 2027 00:44:06.919   02 Jun 2027 00:44:46.329            39.410            RioGallegos          1231.562
        62   02 Jun 2027 01:23:59.105   02 Jun 2027 01:25:49.196           110.091                Anadyr2          3440.344
        63   02 Jun 2027 01:25:58.191   02 Jun 2027 01:26:15.601            17.410                Anadyr1           544.063
        64   02 Jun 2027 01:27:10.522   02 Jun 2027 01:28:56.884           106.362                Norilsk          3323.812
        65   02 Jun 2027 01:29:20.108   02 Jun 2027 01:29:36.729            16.621               Magadan2           519.406
        66   02 Jun 2027 01:31:02.913   02 Jun 2027 01:31:38.882            35.969                Irkutsk          1124.031
        67   02 Jun 2027 01:31:49.346   02 Jun 2027 01:32:55.763            66.417                Irkutsk          2075.531
        68   02 Jun 2027 01:34:38.456   02 Jun 2027 01:35:52.827            74.371                Irkutsk          2324.094
        69   02 Jun 2027 01:42:26.002   02 Jun 2027 01:42:47.572            21.570                  Delhi           674.063
        70   02 Jun 2027 01:45:56.289   02 Jun 2027 01:45:57.991             1.702                  Delhi            53.187
        71   02 Jun 2027 01:46:02.769   02 Jun 2027 01:46:40.786            38.017                Sumatra          1188.031
        72   02 Jun 2027 01:48:32.637   02 Jun 2027 01:49:48.983            76.346                Sumatra          2385.812
        73   02 Jun 2027 02:20:55.646   02 Jun 2027 02:22:34.515            98.869            RioGallegos          3089.656
        74   02 Jun 2027 02:58:21.098   02 Jun 2027 02:58:31.186            10.088                Anadyr2           315.250
        75   02 Jun 2027 02:59:52.865   02 Jun 2027 03:00:04.636            11.771                Anadyr2           367.844
        76   02 Jun 2027 03:07:19.124   02 Jun 2027 03:07:32.391            13.267               Magadan2           414.594
        77   02 Jun 2027 03:08:14.529   02 Jun 2027 03:08:28.812            14.283              Murmansk1           446.344
        78   02 Jun 2027 03:08:41.088   02 Jun 2027 03:09:15.262            34.174              Murmansk2          1067.938
        79   02 Jun 2027 03:09:15.262   02 Jun 2027 03:09:36.351            21.089              Murmansk1           659.031
        80   02 Jun 2027 03:09:54.784   02 Jun 2027 03:12:14.750           139.966                Norilsk          4373.938
        81   02 Jun 2027 03:12:15.888   02 Jun 2027 03:12:31.938            16.050              Murmansk2           501.562
        82   02 Jun 2027 03:12:38.920   02 Jun 2027 03:12:40.810             1.890              Murmansk2            59.063
        83   02 Jun 2027 03:12:41.181   02 Jun 2027 03:13:16.699            35.518                Novosib          1109.937
        84   02 Jun 2027 03:13:20.193   02 Jun 2027 03:15:01.588           101.395                Irkutsk          3168.594
        85   02 Jun 2027 03:17:11.111   02 Jun 2027 03:18:48.153            97.042                  Delhi          3032.563
        86   02 Jun 2027 04:30:58.492   02 Jun 2027 04:31:03.242             4.750                Anadyr1           148.438
        87   02 Jun 2027 04:31:16.877   02 Jun 2027 04:32:12.452            55.575                Anadyr1          1736.719
        88   02 Jun 2027 04:47:45.439   02 Jun 2027 04:48:29.359            43.920              Murmansk2          1372.500
        89   02 Jun 2027 04:48:33.241   02 Jun 2027 04:48:53.173            19.932                Norilsk           622.875
        90   02 Jun 2027 04:48:53.787   02 Jun 2027 04:49:17.449            23.662              Murmansk2           739.438
        91   02 Jun 2027 04:49:34.166   02 Jun 2027 04:52:07.206           153.040                 Moscow          4782.500
        92   02 Jun 2027 04:52:29.586   02 Jun 2027 04:53:09.618            40.032              Murmansk2          1251.000
        93   02 Jun 2027 04:53:54.098   02 Jun 2027 04:56:53.944           179.846                 Moscow          5620.188
        94   02 Jun 2027 05:09:21.113   02 Jun 2027 05:12:26.852           185.739               CapeTown          5804.344
        95   02 Jun 2027 05:12:52.129   02 Jun 2027 05:13:18.374            26.245               CapeTown           820.156
        96   02 Jun 2027 05:14:08.298   02 Jun 2027 05:15:22.273            73.975               CapeTown          2311.719
        97   02 Jun 2027 06:24:51.404   02 Jun 2027 06:27:19.005           147.601              Murmansk2          4612.531
        98   02 Jun 2027 06:44:51.276   02 Jun 2027 06:46:13.086            81.810               CapeTown          2556.563
        99   02 Jun 2027 06:49:23.757   02 Jun 2027 06:49:46.359            22.602               CapeTown           706.312
       100   02 Jun 2027 07:48:12.388   02 Jun 2027 07:49:30.442            78.054                Anadyr2          2439.187
       101   02 Jun 2027 07:49:33.982   02 Jun 2027 07:50:45.107            71.125               Magadan2          2222.656
       102   02 Jun 2027 09:25:01.501   02 Jun 2027 09:26:40.416            98.915                Anadyr1          3091.094
       103   02 Jun 2027 09:26:57.553   02 Jun 2027 09:27:09.334            11.781                Irkutsk           368.156
       104   02 Jun 2027 09:27:25.162   02 Jun 2027 09:29:37.786           132.624               Magadan2          4144.500
       105   02 Jun 2027 10:55:27.577   02 Jun 2027 10:57:05.158            97.581               Magadan2          3049.406
       106   02 Jun 2027 10:58:41.032   02 Jun 2027 11:00:17.734            96.702               Magadan2          3021.938
       107   02 Jun 2027 11:01:11.262   02 Jun 2027 11:04:52.915           221.653               Magadan1          6926.656
       108   02 Jun 2027 12:33:22.397   02 Jun 2027 12:34:27.631            65.234                Norilsk          2038.562
       109   02 Jun 2027 13:18:07.563   02 Jun 2027 13:20:37.156           149.593            RioGallegos          4674.781
       110   02 Jun 2027 13:23:03.117   02 Jun 2027 13:23:53.557            50.440            RioGallegos          1576.250
       111   02 Jun 2027 13:52:23.227   02 Jun 2027 13:53:47.172            83.945                Sumatra          2623.281
       112   02 Jun 2027 13:55:47.421   02 Jun 2027 13:57:13.819            86.398                Sumatra          2699.938
       113   02 Jun 2027 13:59:06.310   02 Jun 2027 14:01:30.974           144.664                Sumatra          4520.750
       114   02 Jun 2027 14:08:03.988   02 Jun 2027 14:08:56.194            52.206                Irkutsk          1631.438
       115   02 Jun 2027 14:09:12.347   02 Jun 2027 14:12:30.001           197.654                Irkutsk          6176.688
       116   02 Jun 2027 15:37:51.410   02 Jun 2027 15:45:26.356           454.946                  Delhi         14217.063
       117   02 Jun 2027 17:27:34.672   02 Jun 2027 17:27:55.964            21.292              Murmansk1           665.375
       118   02 Jun 2027 18:32:59.850   02 Jun 2027 18:35:25.014           145.164               CapeTown          4536.375
       119   02 Jun 2027 19:00:50.719   02 Jun 2027 19:04:46.741           236.022                 Moscow          7375.687
       120   02 Jun 2027 19:06:00.096   02 Jun 2027 19:07:01.334            61.238              Murmansk2          1913.688
       121   02 Jun 2027 20:10:17.674   02 Jun 2027 20:10:54.314            36.640               CapeTown          1145.000
       122   02 Jun 2027 20:11:08.246   02 Jun 2027 20:13:35.308           147.062               CapeTown          4595.687
       123   02 Jun 2027 20:44:07.986   02 Jun 2027 20:46:02.648           114.662              Murmansk2          3583.188
       124   02 Jun 2027 20:52:01.370   02 Jun 2027 20:53:10.259            68.889               Magadan2          2152.781
       125   02 Jun 2027 20:53:27.373   02 Jun 2027 20:54:26.024            58.651               Magadan2          1832.844
       126   02 Jun 2027 22:25:26.407   02 Jun 2027 22:28:28.927           182.520                Anadyr2          5703.750
       127   02 Jun 2027 22:28:40.473   02 Jun 2027 22:29:31.243            50.770               Magadan1          1586.563
       128   02 Jun 2027 22:29:33.845   02 Jun 2027 22:30:38.358            64.513                Norilsk          2016.031
       129   02 Jun 2027 22:31:29.781   02 Jun 2027 22:31:57.519            27.738               Magadan2           866.813
       130   02 Jun 2027 22:32:29.777   02 Jun 2027 22:32:50.436            20.659               Magadan1           645.594
       131   02 Jun 2027 22:32:59.744   02 Jun 2027 22:33:18.978            19.234               Magadan2           601.062
       132   02 Jun 2027 23:19:51.540   02 Jun 2027 23:23:17.199           205.659            RioGallegos          6426.844
       133   03 Jun 2027 00:01:03.348   03 Jun 2027 00:01:47.118            43.770                Anadyr2          1367.812
       134   03 Jun 2027 00:02:36.651   03 Jun 2027 00:03:06.547            29.896                Anadyr1           934.250
       135   03 Jun 2027 00:03:14.862   03 Jun 2027 00:04:59.394           104.532                Norilsk          3266.625
       136   03 Jun 2027 00:05:42.571   03 Jun 2027 00:07:30.484           107.913               Magadan1          3372.281
       137   03 Jun 2027 00:08:19.117   03 Jun 2027 00:08:51.414            32.297                Irkutsk          1009.281
       138   03 Jun 2027 00:09:19.880   03 Jun 2027 00:10:39.181            79.301                Novosib          2478.156
       139   03 Jun 2027 00:12:01.148   03 Jun 2027 00:13:50.280           109.132                Novosib          3410.375
       140   03 Jun 2027 00:21:12.042   03 Jun 2027 00:21:55.357            43.315                Sumatra          1353.594
       141   03 Jun 2027 00:23:20.570   03 Jun 2027 00:23:54.618            34.048                Sumatra          1064.000
       142   03 Jun 2027 00:55:08.843   03 Jun 2027 00:55:12.679             3.836            RioGallegos           119.875
       143   03 Jun 2027 00:55:29.892   03 Jun 2027 00:55:37.220             7.328            RioGallegos           229.000
       144   03 Jun 2027 00:55:56.488   03 Jun 2027 00:56:09.120            12.632            RioGallegos           394.750
       145   03 Jun 2027 01:36:21.399   03 Jun 2027 01:36:58.754            37.355                Anadyr1          1167.344
       146   03 Jun 2027 01:37:57.957   03 Jun 2027 01:38:24.372            26.415                Anadyr2           825.469
       147   03 Jun 2027 01:39:12.922   03 Jun 2027 01:40:58.931           106.009                Norilsk          3312.781
       148   03 Jun 2027 01:43:05.893   03 Jun 2027 01:44:54.958           109.065                Irkutsk          3408.281
       149   03 Jun 2027 01:45:11.301   03 Jun 2027 01:46:58.464           107.163                Novosib          3348.844
       150   03 Jun 2027 01:50:59.693   03 Jun 2027 01:52:11.355            71.662                  Delhi          2239.438
       151   03 Jun 2027 02:01:44.407   03 Jun 2027 02:03:27.398           102.991                Sumatra          3218.469
       152   03 Jun 2027 02:31:35.097   03 Jun 2027 02:33:00.435            85.338            RioGallegos          2666.812
       153   03 Jun 2027 02:35:05.286   03 Jun 2027 02:35:16.116            10.830            RioGallegos           338.437
       154   03 Jun 2027 03:20:56.846   03 Jun 2027 03:21:01.949             5.103              Murmansk2           159.469
       155   03 Jun 2027 03:21:02.350   03 Jun 2027 03:21:56.838            54.488                Irkutsk          1702.750
       156   03 Jun 2027 03:22:09.208   03 Jun 2027 03:24:02.964           113.756                Novosib          3554.875
       157   03 Jun 2027 03:24:18.335   03 Jun 2027 03:25:41.814            83.479                Norilsk          2608.719
       158   03 Jun 2027 03:25:45.016   03 Jun 2027 03:26:01.216            16.200                Novosib           506.250
       159   03 Jun 2027 03:26:08.702   03 Jun 2027 03:26:26.993            18.291              Murmansk2           571.594
       160   03 Jun 2027 03:26:27.359   03 Jun 2027 03:26:36.179             8.820                Norilsk           275.625
       161   03 Jun 2027 03:26:39.520   03 Jun 2027 03:31:19.452           279.932                  Delhi          8747.875
       162   03 Jun 2027 04:59:04.969   03 Jun 2027 04:59:30.481            25.512                Novosib           797.250
       163   03 Jun 2027 05:00:00.125   03 Jun 2027 05:00:19.149            19.024              Murmansk1           594.500
       164   03 Jun 2027 05:00:22.426   03 Jun 2027 05:00:34.531            12.105                Norilsk           378.281
       165   03 Jun 2027 05:00:53.969   03 Jun 2027 05:03:34.269           160.300              Murmansk2          5009.375
       166   03 Jun 2027 05:03:34.269   03 Jun 2027 05:03:40.754             6.485              Murmansk1           202.656
       167   03 Jun 2027 05:03:42.170   03 Jun 2027 05:04:48.288            66.118                Novosib          2066.187
       168   03 Jun 2027 05:04:56.978   03 Jun 2027 05:06:14.719            77.741                 Moscow          2429.406
       169   03 Jun 2027 05:21:01.223   03 Jun 2027 05:22:29.388            88.165               CapeTown          2755.156
       170   03 Jun 2027 05:23:24.618   03 Jun 2027 05:24:19.782            55.164               CapeTown          1723.875
       171   03 Jun 2027 06:24:49.879   03 Jun 2027 06:25:58.112            68.233                Anadyr1          2132.281
       172   03 Jun 2027 06:36:10.132   03 Jun 2027 06:36:52.579            42.447              Murmansk1          1326.469
       173   03 Jun 2027 06:36:52.579   03 Jun 2027 06:38:21.910            89.331              Murmansk2          2791.594
       174   03 Jun 2027 06:38:37.283   03 Jun 2027 06:38:48.907            11.624                 Moscow           363.250
       175   03 Jun 2027 06:57:15.087   03 Jun 2027 06:58:12.549            57.462               CapeTown          1795.688
       176   03 Jun 2027 07:01:26.313   03 Jun 2027 07:02:26.089            59.776               CapeTown          1868.000
       177   03 Jun 2027 07:59:57.409   03 Jun 2027 08:02:59.220           181.811               Magadan2          5681.594
       178   03 Jun 2027 08:02:59.220   03 Jun 2027 08:03:43.961            44.741               Magadan1          1398.156
       179   03 Jun 2027 08:03:52.603   03 Jun 2027 08:06:02.288           129.685                Anadyr2          4052.656
       180   03 Jun 2027 09:34:06.992   03 Jun 2027 09:35:22.140            75.148                Anadyr1          2348.375
       181   03 Jun 2027 09:35:22.140   03 Jun 2027 09:36:03.057            40.917                Anadyr2          1278.656
       182   03 Jun 2027 09:36:37.649   03 Jun 2027 09:37:49.633            71.984               Magadan2          2249.500
       183   03 Jun 2027 09:37:53.483   03 Jun 2027 09:41:28.355           214.872                Anadyr1          6714.750
       184   03 Jun 2027 11:10:20.034   03 Jun 2027 11:12:49.903           149.869               Magadan1          4683.406
       185   03 Jun 2027 11:13:18.030   03 Jun 2027 11:14:10.016            51.986               Magadan2          1624.562
       186   03 Jun 2027 11:14:59.289   03 Jun 2027 11:15:26.413            27.124                Irkutsk           847.625
       187   03 Jun 2027 11:15:35.426   03 Jun 2027 11:16:34.617            59.191                Novosib          1849.719
       188   03 Jun 2027 11:16:37.982   03 Jun 2027 11:16:59.590            21.608                Norilsk           675.250
       189   03 Jun 2027 11:17:02.561   03 Jun 2027 11:17:33.537            30.976                Norilsk           968.000
       190   03 Jun 2027 11:17:47.419   03 Jun 2027 11:18:07.862            20.443                Novosib           638.844
       191   03 Jun 2027 11:20:36.535   03 Jun 2027 11:20:54.111            17.576              Murmansk2           549.250
       192   03 Jun 2027 11:52:05.816   03 Jun 2027 11:53:04.915            59.099            RioGallegos          1846.844
       193   03 Jun 2027 11:54:08.161   03 Jun 2027 11:55:20.900            72.739            RioGallegos          2273.094
       194   03 Jun 2027 12:27:49.966   03 Jun 2027 12:29:46.757           116.791                Sumatra          3649.719
       195   03 Jun 2027 12:40:48.479   03 Jun 2027 12:41:15.976            27.497                Irkutsk           859.281
       196   03 Jun 2027 12:42:16.079   03 Jun 2027 12:43:00.308            44.229                Novosib          1382.156
       197   03 Jun 2027 12:44:27.473   03 Jun 2027 12:45:15.950            48.477                Irkutsk          1514.906
       198   03 Jun 2027 12:45:26.210   03 Jun 2027 12:46:27.780            61.570                Norilsk          1924.063
       199   03 Jun 2027 13:30:50.527   03 Jun 2027 13:32:53.359           122.832            RioGallegos          3838.500
       200   03 Jun 2027 14:05:18.568   03 Jun 2027 14:09:43.542           264.974                Sumatra          8280.438
       201   03 Jun 2027 14:21:10.784   03 Jun 2027 14:24:26.070           195.286                Irkutsk          6102.688
       202   03 Jun 2027 15:51:19.871   03 Jun 2027 15:54:39.807           199.936                  Delhi          6248.000
       203   03 Jun 2027 15:59:39.301   03 Jun 2027 16:03:12.036           212.735                Novosib          6647.969
       204   03 Jun 2027 17:32:19.343   03 Jun 2027 17:33:21.334            61.991                 Moscow          1937.219
       205   03 Jun 2027 17:35:02.596   03 Jun 2027 17:36:37.203            94.607                 Moscow          2956.469
       206   03 Jun 2027 17:37:44.882   03 Jun 2027 17:38:20.673            35.791              Murmansk2          1118.469
       207   03 Jun 2027 17:38:44.486   03 Jun 2027 17:39:28.262            43.776              Murmansk2          1368.000
       208   03 Jun 2027 17:50:16.969   03 Jun 2027 17:51:15.306            58.337                Anadyr2          1823.031
       209   03 Jun 2027 17:53:23.420   03 Jun 2027 17:53:47.350            23.930                Anadyr1           747.812
       210   03 Jun 2027 18:45:00.385   03 Jun 2027 18:47:15.312           134.927               CapeTown          4216.469
       211   03 Jun 2027 19:14:27.471   03 Jun 2027 19:19:35.711           308.240              Murmansk1          9632.500
       212   03 Jun 2027 19:29:44.288   03 Jun 2027 19:30:55.415            71.127               Magadan1          2222.719
       213   03 Jun 2027 20:22:56.514   03 Jun 2027 20:24:33.831            97.317               CapeTown          3041.156
       214   03 Jun 2027 20:25:19.302   03 Jun 2027 20:27:28.458           129.156               CapeTown          4036.125
       215   03 Jun 2027 21:02:56.900   03 Jun 2027 21:03:15.314            18.414                Anadyr1           575.438
       216   03 Jun 2027 21:03:48.422   03 Jun 2027 21:04:33.821            45.399                Anadyr2          1418.719
       217   03 Jun 2027 21:04:56.630   03 Jun 2027 21:05:54.561            57.931               Magadan1          1810.344
       218   03 Jun 2027 21:05:54.561   03 Jun 2027 21:06:32.402            37.841               Magadan2          1182.531
       219   03 Jun 2027 21:06:50.191   03 Jun 2027 21:07:04.379            14.188               Magadan2           443.375
       220   03 Jun 2027 21:08:18.387   03 Jun 2027 21:08:33.381            14.994               Magadan1           468.562
       221   03 Jun 2027 21:08:51.206   03 Jun 2027 21:08:56.446             5.240               Magadan1           163.750
       222   03 Jun 2027 21:09:05.664   03 Jun 2027 21:09:35.148            29.484               Magadan1           921.375
       223   03 Jun 2027 22:37:27.239   03 Jun 2027 22:41:11.738           224.499                Anadyr1          7015.594
       224   03 Jun 2027 22:41:14.566   03 Jun 2027 22:43:20.744           126.178               Magadan1          3943.063
       225   03 Jun 2027 22:43:20.744   03 Jun 2027 22:43:34.657            13.913               Magadan2           434.781
       226   03 Jun 2027 22:43:40.230   03 Jun 2027 22:43:53.996            13.766                Norilsk           430.187
       227   03 Jun 2027 22:44:09.283   03 Jun 2027 22:44:41.067            31.784               Magadan1           993.250
       228   03 Jun 2027 22:46:13.781   03 Jun 2027 22:46:38.914            25.133                Irkutsk           785.406
       229   03 Jun 2027 22:46:58.787   03 Jun 2027 22:47:41.408            42.621                Irkutsk          1331.906
       230   03 Jun 2027 23:31:42.069   03 Jun 2027 23:34:48.447           186.378            RioGallegos          5824.312
       231   03 Jun 2027 23:42:00.162   03 Jun 2027 23:42:12.246            12.084            RioGallegos           377.625
       232   03 Jun 2027 23:42:33.276   03 Jun 2027 23:43:04.037            30.761            RioGallegos           961.281
       233   04 Jun 2027 00:12:59.773   04 Jun 2027 00:13:44.203            44.430                Anadyr1          1388.438
       234   04 Jun 2027 00:14:01.525   04 Jun 2027 00:14:27.776            26.251                Anadyr2           820.344
       235   04 Jun 2027 00:14:36.197   04 Jun 2027 00:15:59.569            83.372                Anadyr2          2605.375
       236   04 Jun 2027 00:16:09.871   04 Jun 2027 00:16:47.077            37.206                Norilsk          1162.688
       237   04 Jun 2027 00:16:48.177   04 Jun 2027 00:17:20.044            31.867               Magadan1           995.844
       238   04 Jun 2027 00:18:59.635   04 Jun 2027 00:20:14.854            75.219               Magadan1          2350.594
       239   04 Jun 2027 00:20:25.319   04 Jun 2027 00:20:53.684            28.365                Irkutsk           886.406
       240   04 Jun 2027 00:23:15.102   04 Jun 2027 00:23:16.933             1.831                Novosib            57.219
       241   04 Jun 2027 00:23:26.363   04 Jun 2027 00:23:32.169             5.806                Novosib           181.437
       242   04 Jun 2027 00:24:00.636   04 Jun 2027 00:24:33.928            33.292                Novosib          1040.375
       243   04 Jun 2027 00:28:31.324   04 Jun 2027 00:28:53.475            22.151                Irkutsk           692.219
       244   04 Jun 2027 00:33:03.552   04 Jun 2027 00:33:42.977            39.425                Sumatra          1232.031
       245   04 Jun 2027 00:36:05.513   04 Jun 2027 00:36:19.977            14.464                Sumatra           452.000
       246   04 Jun 2027 00:41:09.878   04 Jun 2027 00:42:35.236            85.358                Sumatra          2667.437
       247   04 Jun 2027 01:10:25.957   04 Jun 2027 01:10:39.437            13.480            RioGallegos           421.250
       248   04 Jun 2027 01:11:04.351   04 Jun 2027 01:11:41.999            37.648            RioGallegos          1176.500
       249   04 Jun 2027 01:17:03.980   04 Jun 2027 01:17:09.655             5.675            RioGallegos           177.344
       250   04 Jun 2027 01:17:25.399   04 Jun 2027 01:17:40.934            15.535            RioGallegos           485.469
       251   04 Jun 2027 01:47:34.413   04 Jun 2027 01:48:05.616            31.203                Anadyr2           975.094
       252   04 Jun 2027 01:48:05.616   04 Jun 2027 01:49:00.112            54.496                Anadyr1          1703.000
       253   04 Jun 2027 01:49:41.040   04 Jun 2027 01:49:51.217            10.177                Anadyr2           318.031
       254   04 Jun 2027 01:50:03.297   04 Jun 2027 01:50:05.876             2.579                Anadyr1            80.594
       255   04 Jun 2027 01:51:15.343   04 Jun 2027 01:52:38.804            83.461                Norilsk          2608.156
       256   04 Jun 2027 01:52:49.549   04 Jun 2027 01:53:01.143            11.594                Norilsk           362.313
       257   04 Jun 2027 01:55:09.658   04 Jun 2027 01:56:55.212           105.554                Irkutsk          3298.563
       258   04 Jun 2027 01:57:43.646   04 Jun 2027 01:57:55.869            12.223                Novosib           381.969
       259   04 Jun 2027 01:58:10.572   04 Jun 2027 01:58:37.857            27.285                Novosib           852.656
       260   04 Jun 2027 01:59:29.411   04 Jun 2027 02:00:00.477            31.066                Novosib           970.812
       261   04 Jun 2027 02:00:49.486   04 Jun 2027 02:00:50.916             1.430                Irkutsk            44.687
       262   04 Jun 2027 02:02:45.902   04 Jun 2027 02:03:32.106            46.204                  Delhi          1443.875
       263   04 Jun 2027 02:09:23.354   04 Jun 2027 02:09:46.307            22.953                  Delhi           717.281
       264   04 Jun 2027 02:11:51.846   04 Jun 2027 02:13:05.668            73.822                  Delhi          2306.937
       265   04 Jun 2027 02:13:33.846   04 Jun 2027 02:16:02.786           148.940                Sumatra          4654.375
       266   04 Jun 2027 02:47:51.964   04 Jun 2027 02:48:03.358            11.394            RioGallegos           356.063
       267   04 Jun 2027 02:52:21.361   04 Jun 2027 02:52:45.182            23.821            RioGallegos           744.406
       268   04 Jun 2027 03:33:15.256   04 Jun 2027 03:34:24.042            68.786              Murmansk1          2149.562
       269   04 Jun 2027 03:34:31.994   04 Jun 2027 03:34:55.956            23.962                Irkutsk           748.813
       270   04 Jun 2027 03:35:01.637   04 Jun 2027 03:36:07.014            65.377              Murmansk2          2043.031
       271   04 Jun 2027 03:36:07.014   04 Jun 2027 03:36:32.924            25.910              Murmansk1           809.688
       272   04 Jun 2027 03:36:34.548   04 Jun 2027 03:37:10.154            35.606                Irkutsk          1112.688
       273   04 Jun 2027 03:37:22.491   04 Jun 2027 03:39:06.200           103.709                Irkutsk          3240.906
       274   04 Jun 2027 03:40:14.175   04 Jun 2027 03:40:30.446            16.271                Novosib           508.469
       275   04 Jun 2027 03:41:45.331   04 Jun 2027 03:42:24.843            39.512                Novosib          1234.750
       276   04 Jun 2027 03:42:53.984   04 Jun 2027 03:43:46.975            52.991                  Delhi          1655.969
       277   04 Jun 2027 05:12:09.626   04 Jun 2027 05:13:13.968            64.342              Murmansk1          2010.687
       278   04 Jun 2027 05:13:13.968   04 Jun 2027 05:14:02.079            48.111              Murmansk2          1503.469
       279   04 Jun 2027 05:14:06.724   04 Jun 2027 05:14:31.739            25.015                Norilsk           781.719
       280   04 Jun 2027 05:14:35.221   04 Jun 2027 05:14:37.500             2.279              Murmansk1            71.219
       281   04 Jun 2027 05:14:56.654   04 Jun 2027 05:16:16.862            80.208                Novosib          2506.500
       282   04 Jun 2027 05:16:23.382   04 Jun 2027 05:17:41.278            77.896              Murmansk1          2434.250
       283   04 Jun 2027 05:18:03.646   04 Jun 2027 05:21:20.381           196.735                 Moscow          6147.969
       284   04 Jun 2027 05:32:46.921   04 Jun 2027 05:39:01.157           374.236               CapeTown         11694.875
       285   04 Jun 2027 06:36:59.857   04 Jun 2027 06:38:17.886            78.029                Anadyr1          2438.406
       286   04 Jun 2027 06:39:27.937   04 Jun 2027 06:40:34.229            66.292               Magadan2          2071.625
       287   04 Jun 2027 06:48:04.645   04 Jun 2027 06:51:59.760           235.115              Murmansk1          7347.344
       288   04 Jun 2027 07:09:46.934   04 Jun 2027 07:10:17.139            30.205               CapeTown           943.906
       289   04 Jun 2027 08:10:28.215   04 Jun 2027 08:12:12.235           104.020                Anadyr2          3250.625
       290   04 Jun 2027 08:12:12.235   04 Jun 2027 08:13:15.546            63.311                Anadyr1          1978.469
       291   04 Jun 2027 08:13:33.091   04 Jun 2027 08:15:26.795           113.704               Magadan1          3553.250
       292   04 Jun 2027 08:15:44.944   04 Jun 2027 08:15:50.495             5.551                Anadyr1           173.469
       293   04 Jun 2027 08:15:50.495   04 Jun 2027 08:16:44.309            53.814                Anadyr2          1681.687
       294   04 Jun 2027 08:23:48.606   04 Jun 2027 08:24:02.573            13.967                 Moscow           436.469
       295   04 Jun 2027 09:45:11.973   04 Jun 2027 09:45:31.457            19.484               Magadan1           608.875
       296   04 Jun 2027 09:45:44.366   04 Jun 2027 09:45:56.469            12.103               Magadan2           378.219
       297   04 Jun 2027 09:45:56.469   04 Jun 2027 09:46:43.436            46.967               Magadan1          1467.719
       298   04 Jun 2027 09:47:06.286   04 Jun 2027 09:48:31.945            85.659                Anadyr2          2676.844
       299   04 Jun 2027 09:48:57.166   04 Jun 2027 09:49:49.862            52.696                Anadyr1          1646.750
       300   04 Jun 2027 09:49:49.862   04 Jun 2027 09:53:19.665           209.803                Anadyr2          6556.344
       301   04 Jun 2027 11:20:57.886   04 Jun 2027 11:23:32.786           154.900               Magadan1          4840.625
       302   04 Jun 2027 11:24:11.792   04 Jun 2027 11:25:08.506            56.714                Irkutsk          1772.313
       303   04 Jun 2027 11:25:10.455   04 Jun 2027 11:28:24.201           193.746               Magadan2          6054.562
       304   04 Jun 2027 11:28:48.718   04 Jun 2027 11:29:19.519            30.801                Irkutsk           962.531
       305   04 Jun 2027 11:29:24.465   04 Jun 2027 11:29:39.189            14.724                Novosib           460.125
       306   04 Jun 2027 11:29:57.823   04 Jun 2027 11:30:13.240            15.417              Murmansk2           481.781
       307   04 Jun 2027 11:31:39.601   04 Jun 2027 11:31:59.184            19.583              Murmansk2           611.969
       308   04 Jun 2027 12:04:13.268   04 Jun 2027 12:04:59.044            45.776            RioGallegos          1430.500
       309   04 Jun 2027 12:07:20.862   04 Jun 2027 12:08:11.514            50.652            RioGallegos          1582.875
       310   04 Jun 2027 12:39:01.511   04 Jun 2027 12:39:34.298            32.787                Sumatra          1024.594
       311   04 Jun 2027 12:45:48.109   04 Jun 2027 12:47:23.308            95.199                Sumatra          2974.969
       312   04 Jun 2027 12:53:03.648   04 Jun 2027 12:54:20.620            76.972                Irkutsk          2405.375
       313   04 Jun 2027 12:55:19.984   04 Jun 2027 12:55:29.143             9.159                Novosib           286.219
       314   04 Jun 2027 12:57:31.547   04 Jun 2027 12:58:48.864            77.317                Norilsk          2416.156
       315   04 Jun 2027 13:06:47.420   04 Jun 2027 13:07:36.017            48.597              Murmansk2          1518.656
       316   04 Jun 2027 13:43:44.001   04 Jun 2027 13:44:48.222            64.221            RioGallegos          2006.906
       317   04 Jun 2027 14:18:57.565   04 Jun 2027 14:22:25.912           208.347                Sumatra          6510.844
       318   04 Jun 2027 14:31:52.124   04 Jun 2027 14:33:05.809            73.685                Novosib          2302.656
       319   04 Jun 2027 14:34:53.617   04 Jun 2027 14:37:55.601           181.984                Irkutsk          5687.000
       320   04 Jun 2027 16:07:38.234   04 Jun 2027 16:08:50.640            72.406                 Moscow          2262.687
       321   04 Jun 2027 16:09:54.828   04 Jun 2027 16:09:56.745             1.917                 Moscow            59.906
       322   04 Jun 2027 16:10:54.028   04 Jun 2027 16:11:16.974            22.946                 Moscow           717.062
       323   04 Jun 2027 16:12:01.320   04 Jun 2027 16:12:16.008            14.688              Murmansk2           459.000
       324   04 Jun 2027 16:13:01.290   04 Jun 2027 16:13:02.615             1.325              Murmansk2            41.406
       325   04 Jun 2027 16:14:03.396   04 Jun 2027 16:14:56.150            52.754              Murmansk2          1648.562
       326   04 Jun 2027 16:15:53.493   04 Jun 2027 16:18:26.531           153.038                Norilsk          4782.438
       327   04 Jun 2027 16:19:19.512   04 Jun 2027 16:20:10.903            51.391                Norilsk          1605.969
       328   04 Jun 2027 17:22:29.314   04 Jun 2027 17:22:49.615            20.301               CapeTown           634.406
       329   04 Jun 2027 17:25:19.530   04 Jun 2027 17:26:02.534            43.004               CapeTown          1343.875
       330   04 Jun 2027 17:30:24.548   04 Jun 2027 17:30:42.559            18.011               CapeTown           562.844
       331   04 Jun 2027 17:44:41.850   04 Jun 2027 17:44:54.165            12.315                 Moscow           384.844
       332   04 Jun 2027 17:45:28.649   04 Jun 2027 17:46:31.527            62.878                 Moscow          1964.938
       333   04 Jun 2027 17:48:20.196   04 Jun 2027 17:49:00.030            39.834              Murmansk1          1244.812
       334   04 Jun 2027 17:49:40.791   04 Jun 2027 17:50:22.693            41.902              Murmansk1          1309.438
       335   04 Jun 2027 17:52:01.736   04 Jun 2027 17:52:26.062            24.326              Murmansk1           760.188
       336   04 Jun 2027 17:54:10.803   04 Jun 2027 17:55:36.197            85.394              Murmansk1          2668.563
       337   04 Jun 2027 18:04:39.938   04 Jun 2027 18:05:07.290            27.352                Anadyr2           854.750
       338   04 Jun 2027 18:57:03.711   04 Jun 2027 18:59:05.426           121.715               CapeTown          3803.594
       339   04 Jun 2027 19:08:16.961   04 Jun 2027 19:08:34.465            17.504               CapeTown           547.000
       340   04 Jun 2027 19:27:02.307   04 Jun 2027 19:32:27.504           325.197              Murmansk1         10162.406
       341   04 Jun 2027 19:33:09.038   04 Jun 2027 19:35:10.157           121.119              Murmansk1          3784.969
       342   04 Jun 2027 20:35:59.572   04 Jun 2027 20:37:21.150            81.578               CapeTown          2549.312
       343   04 Jun 2027 20:38:33.346   04 Jun 2027 20:40:16.129           102.783               CapeTown          3211.969
       344   04 Jun 2027 21:14:14.170   04 Jun 2027 21:14:44.065            29.895                Anadyr2           934.219
       345   04 Jun 2027 21:15:57.089   04 Jun 2027 21:16:53.380            56.291               Magadan2          1759.094
       346   04 Jun 2027 21:16:53.380   04 Jun 2027 21:18:07.776            74.396               Magadan1          2324.875
       347   04 Jun 2027 21:18:29.162   04 Jun 2027 21:18:35.981             6.819               Magadan2           213.094
       348   04 Jun 2027 21:18:54.573   04 Jun 2027 21:20:01.795            67.222               Magadan1          2100.688
       349   04 Jun 2027 22:49:27.752   04 Jun 2027 22:54:11.219           283.467                Anadyr2          8858.344
       350   04 Jun 2027 22:54:17.053   04 Jun 2027 22:55:17.133            60.080                Norilsk          1877.500
       351   04 Jun 2027 22:55:27.300   04 Jun 2027 22:55:42.034            14.734               Magadan1           460.437
       352   04 Jun 2027 22:56:49.540   04 Jun 2027 22:57:51.056            61.516               Magadan2          1922.375
       353   04 Jun 2027 22:58:06.753   04 Jun 2027 22:58:40.440            33.687                Irkutsk          1052.719
       354   04 Jun 2027 22:59:23.437   04 Jun 2027 22:59:56.618            33.181                Irkutsk          1036.906
       355   04 Jun 2027 23:01:57.656   04 Jun 2027 23:02:34.409            36.753                Irkutsk          1148.531
       356   04 Jun 2027 23:14:06.397   04 Jun 2027 23:16:32.759           146.362                Sumatra          4573.813
       357   04 Jun 2027 23:53:49.059   04 Jun 2027 23:54:06.750            17.691            RioGallegos           552.844
       358   04 Jun 2027 23:55:02.462   04 Jun 2027 23:55:26.746            24.284            RioGallegos           758.875
       359   05 Jun 2027 00:24:55.264   05 Jun 2027 00:26:34.590            99.326                Anadyr1          3103.938
       360   05 Jun 2027 00:27:17.571   05 Jun 2027 00:29:03.846           106.275                Norilsk          3321.094
       361   05 Jun 2027 00:29:05.968   05 Jun 2027 00:29:31.124            25.156               Magadan2           786.125
       362   05 Jun 2027 00:31:18.704   05 Jun 2027 00:32:56.745            98.041                Irkutsk          3063.781
       363   05 Jun 2027 00:35:34.611   05 Jun 2027 00:36:05.604            30.993                Novosib           968.531
       364   05 Jun 2027 00:38:28.311   05 Jun 2027 00:38:53.107            24.796                Novosib           774.875
       365   05 Jun 2027 00:40:32.390   05 Jun 2027 00:40:51.521            19.131                Irkutsk           597.844
       366   05 Jun 2027 00:45:00.899   05 Jun 2027 00:47:44.023           163.124                Sumatra          5097.625
       367   05 Jun 2027 01:24:43.101   05 Jun 2027 01:24:56.641            13.540            RioGallegos           423.125
       368   05 Jun 2027 01:27:27.320   05 Jun 2027 01:27:45.269            17.949            RioGallegos           560.906
       369   05 Jun 2027 01:28:44.400   05 Jun 2027 01:28:51.834             7.434            RioGallegos           232.312
       370   05 Jun 2027 01:29:34.667   05 Jun 2027 01:30:04.197            29.530            RioGallegos           922.812
       371   05 Jun 2027 02:00:06.097   05 Jun 2027 02:01:01.453            55.356                Anadyr1          1729.875
       372   05 Jun 2027 02:01:23.315   05 Jun 2027 02:01:41.020            17.705                Anadyr1           553.281
       373   05 Jun 2027 02:01:41.020   05 Jun 2027 02:01:52.191            11.171                Anadyr2           349.094
       374   05 Jun 2027 02:03:17.741   05 Jun 2027 02:04:26.932            69.191                Norilsk          2162.219
       375   05 Jun 2027 02:04:47.467   05 Jun 2027 02:05:03.226            15.759                Norilsk           492.469
       376   05 Jun 2027 02:06:56.388   05 Jun 2027 02:07:06.872            10.484              Murmansk2           327.625
       377   05 Jun 2027 02:07:09.565   05 Jun 2027 02:08:22.651            73.086                Novosib          2283.937
       378   05 Jun 2027 02:08:36.284   05 Jun 2027 02:08:56.418            20.134                Irkutsk           629.187
       379   05 Jun 2027 02:09:44.554   05 Jun 2027 02:09:53.391             8.837                Novosib           276.156
       380   05 Jun 2027 02:10:09.335   05 Jun 2027 02:10:42.054            32.719                Novosib          1022.469
       381   05 Jun 2027 02:14:30.259   05 Jun 2027 02:14:57.001            26.742                Novosib           835.688
       382   05 Jun 2027 02:17:01.620   05 Jun 2027 02:17:24.482            22.862                  Delhi           714.438
       383   05 Jun 2027 02:21:12.158   05 Jun 2027 02:21:27.122            14.964                  Delhi           467.625
       384   05 Jun 2027 02:22:08.771   05 Jun 2027 02:22:37.117            28.346                  Delhi           885.812
       385   05 Jun 2027 02:55:58.039   05 Jun 2027 02:57:12.782            74.743            RioGallegos          2335.719
       386   05 Jun 2027 02:57:44.910   05 Jun 2027 02:58:09.924            25.014            RioGallegos           781.688
       387   05 Jun 2027 02:58:51.262   05 Jun 2027 03:00:23.588            92.326            RioGallegos          2885.187
       388   05 Jun 2027 03:03:50.069   05 Jun 2027 03:04:40.889            50.820            RioGallegos          1588.125
       389   05 Jun 2027 03:46:34.599   05 Jun 2027 03:48:42.534           127.935                Irkutsk          3997.969
       390   05 Jun 2027 03:48:50.396   05 Jun 2027 03:51:29.725           159.329                Irkutsk          4979.031
       391   05 Jun 2027 03:51:36.428   05 Jun 2027 03:51:58.760            22.332                Norilsk           697.875
       392   05 Jun 2027 03:54:28.503   05 Jun 2027 03:54:36.249             7.746                Novosib           242.063
       393   05 Jun 2027 03:55:18.636   05 Jun 2027 03:56:31.620            72.984                  Delhi          2280.750
       394   05 Jun 2027 05:24:20.565   05 Jun 2027 05:24:59.945            39.380              Murmansk1          1230.625
       395   05 Jun 2027 05:24:59.945   05 Jun 2027 05:25:11.765            11.820              Murmansk2           369.375
       396   05 Jun 2027 05:25:12.340   05 Jun 2027 05:26:06.837            54.497                Norilsk          1703.031
       397   05 Jun 2027 05:26:13.318   05 Jun 2027 05:27:18.939            65.621              Murmansk1          2050.656
       398   05 Jun 2027 05:27:33.409   05 Jun 2027 05:27:35.750             2.341                 Moscow            73.156
       399   05 Jun 2027 05:27:36.657   05 Jun 2027 05:29:54.140           137.483              Murmansk2          4296.344
       400   05 Jun 2027 05:32:53.746   05 Jun 2027 05:33:28.582            34.836                 Moscow          1088.625
       401   05 Jun 2027 05:44:37.856   05 Jun 2027 05:47:14.734           156.878               CapeTown          4902.438
       402   05 Jun 2027 05:47:42.087   05 Jun 2027 05:47:50.569             8.482               CapeTown           265.062
       403   05 Jun 2027 06:48:24.006   05 Jun 2027 06:49:09.911            45.905                Anadyr1          1434.531
       404   05 Jun 2027 06:49:19.917   05 Jun 2027 06:49:44.316            24.399               Magadan1           762.469
       405   05 Jun 2027 06:49:47.378   05 Jun 2027 06:50:10.987            23.609               Magadan1           737.781
       406   05 Jun 2027 06:51:09.399   05 Jun 2027 06:51:47.220            37.821               Magadan2          1181.906
       407   05 Jun 2027 06:51:47.220   05 Jun 2027 06:52:14.255            27.035               Magadan1           844.844
       408   05 Jun 2027 06:53:37.242   05 Jun 2027 06:54:11.461            34.219                Anadyr2          1069.344
       409   05 Jun 2027 07:00:00.102   05 Jun 2027 07:00:23.292            23.190              Murmansk1           724.688
       410   05 Jun 2027 07:00:53.749   05 Jun 2027 07:02:17.920            84.171              Murmansk1          2630.344
       411   05 Jun 2027 07:02:22.487   05 Jun 2027 07:03:54.455            91.968                 Moscow          2874.000
       412   05 Jun 2027 07:25:22.831   05 Jun 2027 07:27:11.581           108.750               CapeTown          3398.437
       413   05 Jun 2027 08:21:45.898   05 Jun 2027 08:22:20.808            34.910                Anadyr1          1090.937
       414   05 Jun 2027 08:22:50.199   05 Jun 2027 08:23:33.246            43.047                Anadyr1          1345.219
       415   05 Jun 2027 08:23:33.246   05 Jun 2027 08:24:11.280            38.034                Anadyr2          1188.563
       416   05 Jun 2027 08:24:35.240   05 Jun 2027 08:25:31.573            56.333               Magadan1          1760.406
       417   05 Jun 2027 08:25:31.573   05 Jun 2027 08:25:55.102            23.529               Magadan2           735.281
       418   05 Jun 2027 08:26:07.281   05 Jun 2027 08:26:21.712            14.431                Norilsk           450.969
       419   05 Jun 2027 08:26:23.625   05 Jun 2027 08:26:31.698             8.073               Magadan2           252.281
       420   05 Jun 2027 08:26:31.698   05 Jun 2027 08:27:46.208            74.510               Magadan1          2328.437
       421   05 Jun 2027 08:29:05.700   05 Jun 2027 08:29:48.439            42.739               Magadan1          1335.594
       422   05 Jun 2027 09:57:01.314   05 Jun 2027 09:57:58.018            56.704               Magadan1          1772.000
       423   05 Jun 2027 09:58:08.618   05 Jun 2027 09:58:15.120             6.502               Magadan1           203.188
       424   05 Jun 2027 09:58:16.978   05 Jun 2027 10:01:43.414           206.436                Anadyr1          6451.125
       425   05 Jun 2027 10:01:44.668   05 Jun 2027 10:02:45.961            61.293                Anadyr2          1915.406
       426   05 Jun 2027 10:03:04.269   05 Jun 2027 10:03:20.595            16.326                Irkutsk           510.187
       427   05 Jun 2027 10:03:21.655   05 Jun 2027 10:05:35.794           134.139               Magadan2          4191.844
       428   05 Jun 2027 11:19:01.688   05 Jun 2027 11:19:46.720            45.032                Sumatra          1407.250
       429   05 Jun 2027 11:33:57.497   05 Jun 2027 11:36:41.716           164.219               Magadan1          5131.844
       430   05 Jun 2027 11:37:00.157   05 Jun 2027 11:39:59.635           179.478               Magadan2          5608.687
       431   05 Jun 2027 11:40:13.454   05 Jun 2027 11:40:54.880            41.426              Murmansk2          1294.562
       432   05 Jun 2027 11:40:56.960   05 Jun 2027 11:41:31.231            34.271              Murmansk2          1070.969
       433   05 Jun 2027 12:16:24.416   05 Jun 2027 12:16:40.559            16.143            RioGallegos           504.469
       434   05 Jun 2027 12:17:57.857   05 Jun 2027 12:19:19.665            81.808            RioGallegos          2556.500
       435   05 Jun 2027 12:51:01.693   05 Jun 2027 12:53:16.485           134.792                Sumatra          4212.250
       436   05 Jun 2027 13:05:22.965   05 Jun 2027 13:06:24.176            61.211                Irkutsk          1912.844
       437   05 Jun 2027 13:07:19.975   05 Jun 2027 13:08:03.429            43.454                Novosib          1357.937
       438   05 Jun 2027 13:09:38.470   05 Jun 2027 13:10:25.985            47.515                Norilsk          1484.844
       439   05 Jun 2027 13:10:51.151   05 Jun 2027 13:11:15.824            24.673                Norilsk           771.031
       440   05 Jun 2027 13:20:27.253   05 Jun 2027 13:20:51.531            24.278                Norilsk           758.688
       441   05 Jun 2027 13:56:54.460   05 Jun 2027 13:59:59.001           184.541            RioGallegos          5766.906
       442   05 Jun 2027 14:43:16.643   05 Jun 2027 14:44:00.117            43.474                Novosib          1358.562
       443   05 Jun 2027 14:44:52.202   05 Jun 2027 14:48:26.880           214.678                Novosib          6708.687
       444   05 Jun 2027 14:56:21.865   05 Jun 2027 14:56:57.691            35.826                Norilsk          1119.563
       445   05 Jun 2027 16:19:37.475   05 Jun 2027 16:22:05.788           148.313                 Moscow          4634.781
       446   05 Jun 2027 16:23:05.050   05 Jun 2027 16:24:38.148            93.098              Murmansk2          2909.313
       447   05 Jun 2027 16:27:18.584   05 Jun 2027 16:33:07.982           349.398                Norilsk         10918.687
       448   05 Jun 2027 17:57:08.844   05 Jun 2027 17:57:49.731            40.887                 Moscow          1277.719
       449   05 Jun 2027 18:00:13.916   05 Jun 2027 18:01:09.408            55.492              Murmansk1          1734.125
       450   05 Jun 2027 18:01:48.890   05 Jun 2027 18:02:20.252            31.362                 Moscow           980.063
       451   05 Jun 2027 18:04:01.087   05 Jun 2027 18:04:29.351            28.264              Murmansk1           883.250
       452   05 Jun 2027 18:04:44.467   05 Jun 2027 18:04:48.810             4.343              Murmansk2           135.719
       453   05 Jun 2027 18:08:08.594   05 Jun 2027 18:08:41.204            32.610              Murmansk2          1019.063
       454   05 Jun 2027 18:09:24.126   05 Jun 2027 18:09:39.087            14.961              Murmansk2           467.531
       455   05 Jun 2027 18:14:04.582   05 Jun 2027 18:14:42.983            38.401                Anadyr1          1200.031
       456   05 Jun 2027 18:18:58.504   05 Jun 2027 18:19:12.096            13.592                Anadyr2           424.750
       457   05 Jun 2027 18:20:01.169   05 Jun 2027 18:20:12.077            10.908                Anadyr1           340.875
       458   05 Jun 2027 19:09:09.844   05 Jun 2027 19:10:30.679            80.835               CapeTown          2526.094
       459   05 Jun 2027 19:10:59.240   05 Jun 2027 19:12:04.638            65.398               CapeTown          2043.688
       460   05 Jun 2027 19:39:40.485   05 Jun 2027 19:40:54.276            73.791              Murmansk1          2305.969
       461   05 Jun 2027 19:41:41.907   05 Jun 2027 19:44:25.404           163.497              Murmansk2          5109.281
       462   05 Jun 2027 19:44:49.774   05 Jun 2027 19:45:13.587            23.813              Murmansk1           744.156
       463   05 Jun 2027 19:52:57.508   05 Jun 2027 19:53:24.715            27.207               Magadan2           850.219
       464   05 Jun 2027 19:53:51.593   05 Jun 2027 19:54:43.443            51.850               Magadan1          1620.312
       465   05 Jun 2027 19:56:15.845   05 Jun 2027 19:56:20.773             4.928               Magadan2           154.000
       466   05 Jun 2027 19:58:22.164   05 Jun 2027 19:58:40.303            18.139               Magadan2           566.844
       467   05 Jun 2027 21:25:36.612   05 Jun 2027 21:29:24.554           227.942                Anadyr1          7123.188
       468   05 Jun 2027 21:29:37.921   05 Jun 2027 21:31:31.173           113.252               Magadan1          3539.125
       469   05 Jun 2027 21:31:31.173   05 Jun 2027 21:33:27.130           115.957               Magadan2          3623.656
       470   05 Jun 2027 21:36:21.798   05 Jun 2027 21:37:42.849            81.051               Magadan1          2532.844
       471   05 Jun 2027 22:22:39.106   05 Jun 2027 22:23:46.104            66.998            RioGallegos          2093.688
       472   05 Jun 2027 22:24:34.314   05 Jun 2027 22:24:35.152             0.838            RioGallegos            26.188
       473   05 Jun 2027 23:01:27.884   05 Jun 2027 23:03:55.657           147.773                Anadyr2          4617.906
       474   05 Jun 2027 23:04:05.877   05 Jun 2027 23:05:02.751            56.874                Norilsk          1777.313
       475   05 Jun 2027 23:05:02.796   05 Jun 2027 23:05:35.419            32.623               Magadan2          1019.469
       476   05 Jun 2027 23:06:07.080   05 Jun 2027 23:06:38.010            30.930                Norilsk           966.563
       477   05 Jun 2027 23:07:09.193   05 Jun 2027 23:07:17.995             8.802               Magadan2           275.062
       478   05 Jun 2027 23:07:17.995   05 Jun 2027 23:07:29.162            11.167               Magadan1           348.969
       479   05 Jun 2027 23:08:27.406   05 Jun 2027 23:08:55.315            27.909               Magadan1           872.156
       480   05 Jun 2027 23:09:10.605   05 Jun 2027 23:09:48.046            37.441                Irkutsk          1170.031
       481   05 Jun 2027 23:10:12.006   05 Jun 2027 23:10:42.780            30.774                Irkutsk           961.688
       482   05 Jun 2027 23:11:43.434   05 Jun 2027 23:11:49.108             5.674                Irkutsk           177.313
