uniorb/output/strategy_1/Drop/Drop_KinoSat_110605.txt

KinoSat_110605
-------------------------
    Access    *     Start Time (UTCG)     *     Stop Time (UTCG)  *   Duration (s)        *       Station  *  Data (Mbytes)
         1   01 Jun 2027 03:45:35.443   01 Jun 2027 03:45:56.590            21.147               Magadan2           660.844
         2   01 Jun 2027 03:46:06.013   01 Jun 2027 03:46:37.435            31.422                Anadyr1           981.938
         3   01 Jun 2027 03:47:02.080   01 Jun 2027 03:48:57.009           114.929               Magadan2          3591.531
         4   01 Jun 2027 03:49:20.654   01 Jun 2027 03:49:48.915            28.261                Anadyr2           883.156
         5   01 Jun 2027 03:49:48.915   01 Jun 2027 03:50:05.662            16.747                Anadyr1           523.344
         6   01 Jun 2027 05:20:55.988   01 Jun 2027 05:21:21.081            25.093                Irkutsk           784.156
         7   01 Jun 2027 05:21:50.521   01 Jun 2027 05:24:59.593           189.072               Magadan2          5908.500
         8   01 Jun 2027 05:25:03.559   01 Jun 2027 05:25:33.401            29.842               Magadan2           932.563
         9   01 Jun 2027 05:25:59.526   01 Jun 2027 05:26:22.976            23.450                Norilsk           732.813
        10   01 Jun 2027 05:26:44.663   01 Jun 2027 05:26:52.894             8.231                Novosib           257.219
        11   01 Jun 2027 05:27:29.187   01 Jun 2027 05:28:01.717            32.530              Murmansk2          1016.562
        12   01 Jun 2027 05:28:36.817   01 Jun 2027 05:29:25.874            49.057              Murmansk2          1533.031
        13   01 Jun 2027 05:31:32.411   01 Jun 2027 05:32:25.045            52.634              Murmansk2          1644.812
        14   01 Jun 2027 05:33:11.846   01 Jun 2027 05:33:21.591             9.745              Murmansk2           304.531
        15   01 Jun 2027 06:00:48.963   01 Jun 2027 06:02:59.070           130.107            RioGallegos          4065.844
        16   01 Jun 2027 06:04:04.737   01 Jun 2027 06:04:49.699            44.962            RioGallegos          1405.063
        17   01 Jun 2027 06:05:44.827   01 Jun 2027 06:06:23.693            38.866            RioGallegos          1214.563
        18   01 Jun 2027 06:36:30.859   01 Jun 2027 06:40:08.092           217.233                Sumatra          6788.531
        19   01 Jun 2027 06:41:07.818   01 Jun 2027 06:41:22.578            14.760                Sumatra           461.250
        20   01 Jun 2027 06:41:47.522   01 Jun 2027 06:43:15.133            87.611                Sumatra          2737.844
        21   01 Jun 2027 06:57:46.877   01 Jun 2027 06:58:09.054            22.177                Norilsk           693.031
        22   01 Jun 2027 06:58:28.109   01 Jun 2027 06:59:07.863            39.754                Novosib          1242.313
        23   01 Jun 2027 06:59:13.249   01 Jun 2027 07:01:54.020           160.771                Norilsk          5024.094
        24   01 Jun 2027 07:02:10.590   01 Jun 2027 07:03:13.623            63.033              Murmansk1          1969.781
        25   01 Jun 2027 07:03:13.623   01 Jun 2027 07:03:21.296             7.673              Murmansk2           239.781
        26   01 Jun 2027 07:03:45.937   01 Jun 2027 07:04:11.886            25.949              Murmansk2           810.906
        27   01 Jun 2027 07:38:12.337   01 Jun 2027 07:39:36.586            84.249            RioGallegos          2632.781
        28   01 Jun 2027 07:42:35.277   01 Jun 2027 07:42:37.889             2.612            RioGallegos            81.625
        29   01 Jun 2027 08:12:24.289   01 Jun 2027 08:12:49.645            25.356                Sumatra           792.375
        30   01 Jun 2027 08:13:56.472   01 Jun 2027 08:15:22.080            85.608                Sumatra          2675.250
        31   01 Jun 2027 08:20:08.170   01 Jun 2027 08:23:55.289           227.119                  Delhi          7097.469
        32   01 Jun 2027 08:35:03.357   01 Jun 2027 08:35:43.279            39.922                Irkutsk          1247.562
        33   01 Jun 2027 08:35:55.949   01 Jun 2027 08:40:24.481           268.532                 Moscow          8391.625
        34   01 Jun 2027 09:57:54.709   01 Jun 2027 09:59:16.410            81.701                  Delhi          2553.156
        35   01 Jun 2027 10:11:05.526   01 Jun 2027 10:12:48.051           102.525              Murmansk2          3203.906
        36   01 Jun 2027 10:13:19.678   01 Jun 2027 10:16:51.767           212.089              Murmansk2          6627.781
        37   01 Jun 2027 11:59:40.666   01 Jun 2027 12:05:25.274           344.608                Anadyr2         10769.000
        38   01 Jun 2027 15:12:55.700   01 Jun 2027 15:16:31.153           215.453               Magadan2          6732.906
        39   01 Jun 2027 15:17:51.068   01 Jun 2027 15:18:51.587            60.519               Magadan1          1891.219
        40   01 Jun 2027 15:21:24.701   01 Jun 2027 15:22:26.264            61.563               Magadan2          1923.844
        41   01 Jun 2027 17:43:23.617   01 Jun 2027 17:47:17.857           234.240            RioGallegos          7320.000
        42   01 Jun 2027 18:25:21.090   01 Jun 2027 18:27:34.178           133.088                Norilsk          4159.000
        43   01 Jun 2027 18:28:23.819   01 Jun 2027 18:29:37.553            73.734                Irkutsk          2304.188
        44   01 Jun 2027 18:30:29.591   01 Jun 2027 18:31:38.160            68.569                Irkutsk          2142.781
        45   01 Jun 2027 18:42:19.624   01 Jun 2027 18:46:07.192           227.568                Sumatra          7111.500
        46   01 Jun 2027 18:48:17.246   01 Jun 2027 18:48:52.522            35.276                Sumatra          1102.375
        47   01 Jun 2027 20:04:05.963   01 Jun 2027 20:05:27.088            81.125                Novosib          2535.156
        48   01 Jun 2027 20:05:57.642   01 Jun 2027 20:06:26.726            29.084                Novosib           908.875
        49   01 Jun 2027 20:10:53.575   01 Jun 2027 20:11:14.996            21.421                Novosib           669.406
        50   01 Jun 2027 20:12:14.462   01 Jun 2027 20:19:07.501           413.039                  Delhi         12907.469
        51   01 Jun 2027 21:38:27.131   01 Jun 2027 21:44:05.236           338.105              Murmansk1         10565.781
        52   01 Jun 2027 21:44:11.841   01 Jun 2027 21:48:14.977           243.136                 Moscow          7598.000
        53   01 Jun 2027 23:18:45.320   01 Jun 2027 23:19:46.029            60.709                 Moscow          1897.156
        54   01 Jun 2027 23:24:07.422   01 Jun 2027 23:24:53.840            46.418                 Moscow          1450.563
        55   01 Jun 2027 23:42:14.156   01 Jun 2027 23:43:33.860            79.704               CapeTown          2490.750
        56   01 Jun 2027 23:43:45.014   01 Jun 2027 23:43:54.790             9.776               CapeTown           305.500
        57   01 Jun 2027 23:45:44.073   01 Jun 2027 23:47:49.535           125.462               CapeTown          3920.688
        58   02 Jun 2027 00:50:03.685   02 Jun 2027 00:51:27.435            83.750              Murmansk1          2617.188
        59   02 Jun 2027 00:53:16.517   02 Jun 2027 00:53:24.101             7.584                 Moscow           237.000
        60   02 Jun 2027 00:54:28.676   02 Jun 2027 00:55:20.779            52.103              Murmansk1          1628.219
        61   02 Jun 2027 00:59:50.328   02 Jun 2027 01:00:03.083            12.755                 Moscow           398.594
        62   02 Jun 2027 01:02:31.036   02 Jun 2027 01:02:53.121            22.085                 Moscow           690.156
        63   02 Jun 2027 01:05:49.857   02 Jun 2027 01:05:57.295             7.438                 Moscow           232.438
        64   02 Jun 2027 01:17:33.181   02 Jun 2027 01:18:27.664            54.483               CapeTown          1702.594
        65   02 Jun 2027 01:22:27.809   02 Jun 2027 01:22:57.765            29.956               CapeTown           936.125
        66   02 Jun 2027 01:26:37.018   02 Jun 2027 01:27:24.251            47.233               CapeTown          1476.031
        67   02 Jun 2027 02:14:10.572   02 Jun 2027 02:15:29.451            78.879               Magadan1          2464.969
        68   02 Jun 2027 02:15:51.698   02 Jun 2027 02:16:15.362            23.664               Magadan2           739.500
        69   02 Jun 2027 02:16:42.107   02 Jun 2027 02:16:51.372             9.265               Magadan1           289.531
        70   02 Jun 2027 02:17:35.088   02 Jun 2027 02:17:51.115            16.027               Magadan1           500.844
        71   02 Jun 2027 02:19:16.756   02 Jun 2027 02:19:38.456            21.700               Magadan2           678.125
        72   02 Jun 2027 02:21:18.804   02 Jun 2027 02:21:45.565            26.761               Magadan2           836.281
        73   02 Jun 2027 02:22:04.754   02 Jun 2027 02:22:14.443             9.689                Norilsk           302.781
        74   02 Jun 2027 02:23:23.022   02 Jun 2027 02:23:49.361            26.339                Norilsk           823.094
        75   02 Jun 2027 02:25:46.937   02 Jun 2027 02:25:47.181             0.244                Norilsk             7.625
        76   02 Jun 2027 02:25:53.628   02 Jun 2027 02:26:08.047            14.419               Magadan2           450.594
        77   02 Jun 2027 02:26:19.096   02 Jun 2027 02:26:38.346            19.250              Murmansk2           601.563
        78   02 Jun 2027 02:27:17.878   02 Jun 2027 02:28:21.206            63.328              Murmansk1          1979.000
        79   02 Jun 2027 02:30:04.288   02 Jun 2027 02:30:09.030             4.742                 Moscow           148.187
        80   02 Jun 2027 02:31:45.443   02 Jun 2027 02:32:29.003            43.560              Murmansk1          1361.250
        81   02 Jun 2027 02:33:53.409   02 Jun 2027 02:34:17.244            23.835              Murmansk1           744.844
        82   02 Jun 2027 02:37:15.197   02 Jun 2027 02:37:29.165            13.968                 Moscow           436.500
        83   02 Jun 2027 02:38:55.966   02 Jun 2027 02:39:16.828            20.862                 Moscow           651.938
        84   02 Jun 2027 03:56:37.104   02 Jun 2027 03:58:07.040            89.936                Anadyr2          2810.500
        85   02 Jun 2027 03:58:08.497   02 Jun 2027 03:58:47.912            39.415               Magadan2          1231.719
        86   02 Jun 2027 03:59:04.207   02 Jun 2027 03:59:42.296            38.089               Magadan2          1190.281
        87   02 Jun 2027 03:59:42.296   02 Jun 2027 04:00:14.352            32.056               Magadan1          1001.750
        88   02 Jun 2027 04:00:15.435   02 Jun 2027 04:02:12.691           117.256                Anadyr2          3664.250
        89   02 Jun 2027 04:02:14.651   02 Jun 2027 04:02:24.014             9.363               Magadan2           292.594
        90   02 Jun 2027 05:33:13.265   02 Jun 2027 05:33:21.221             7.956               Magadan2           248.625
        91   02 Jun 2027 05:33:47.023   02 Jun 2027 05:37:39.659           232.636               Magadan2          7269.875
        92   02 Jun 2027 05:37:59.926   02 Jun 2027 05:39:24.103            84.177                Norilsk          2630.531
        93   02 Jun 2027 05:39:27.860   02 Jun 2027 05:40:14.242            46.382              Murmansk1          1449.437
        94   02 Jun 2027 05:40:40.015   02 Jun 2027 05:41:15.898            35.883              Murmansk1          1121.344
        95   02 Jun 2027 05:41:50.206   02 Jun 2027 05:42:10.829            20.623                Norilsk           644.469
        96   02 Jun 2027 05:42:26.240   02 Jun 2027 05:42:42.447            16.207              Murmansk2           506.469
        97   02 Jun 2027 05:42:51.836   02 Jun 2027 05:43:19.731            27.895              Murmansk1           871.719
        98   02 Jun 2027 05:44:36.415   02 Jun 2027 05:45:04.386            27.971              Murmansk2           874.094
        99   02 Jun 2027 06:12:48.345   02 Jun 2027 06:14:38.161           109.816            RioGallegos          3431.750
       100   02 Jun 2027 06:18:19.095   02 Jun 2027 06:18:57.710            38.615            RioGallegos          1206.719
       101   02 Jun 2027 06:22:21.057   02 Jun 2027 06:22:24.756             3.699            RioGallegos           115.594
       102   02 Jun 2027 06:25:00.360   02 Jun 2027 06:25:41.532            41.172            RioGallegos          1286.625
       103   02 Jun 2027 06:48:10.258   02 Jun 2027 06:49:46.079            95.821                Sumatra          2994.406
       104   02 Jun 2027 06:50:29.039   02 Jun 2027 06:52:07.675            98.636                Sumatra          3082.375
       105   02 Jun 2027 07:01:01.537   02 Jun 2027 07:02:06.702            65.165                  Delhi          2036.406
       106   02 Jun 2027 07:02:32.700   02 Jun 2027 07:02:56.636            23.936                  Delhi           748.000
       107   02 Jun 2027 07:05:13.337   02 Jun 2027 07:05:52.741            39.404                  Delhi          1231.375
       108   02 Jun 2027 07:09:37.769   02 Jun 2027 07:10:00.056            22.287                Norilsk           696.469
       109   02 Jun 2027 07:10:07.832   02 Jun 2027 07:11:12.714            64.882                Novosib          2027.563
       110   02 Jun 2027 07:11:23.813   02 Jun 2027 07:14:47.892           204.079                Norilsk          6377.469
       111   02 Jun 2027 07:14:59.936   02 Jun 2027 07:15:38.309            38.373                Novosib          1199.156
       112   02 Jun 2027 07:15:39.257   02 Jun 2027 07:16:26.399            47.142              Murmansk1          1473.188
       113   02 Jun 2027 07:53:22.052   02 Jun 2027 07:54:18.115            56.063            RioGallegos          1751.969
       114   02 Jun 2027 08:25:41.168   02 Jun 2027 08:26:09.270            28.102                Sumatra           878.188
       115   02 Jun 2027 08:31:59.677   02 Jun 2027 08:33:45.542           105.865                  Delhi          3308.281
       116   02 Jun 2027 08:34:13.345   02 Jun 2027 08:35:07.918            54.573                  Delhi          1705.406
       117   02 Jun 2027 08:47:02.437   02 Jun 2027 08:47:45.673            43.236                Irkutsk          1351.125
       118   02 Jun 2027 08:48:42.432   02 Jun 2027 08:50:53.894           131.462              Murmansk1          4108.188
       119   02 Jun 2027 10:10:21.221   02 Jun 2027 10:10:59.025            37.804                  Delhi          1181.375
       120   02 Jun 2027 10:13:25.206   02 Jun 2027 10:14:03.508            38.302                  Delhi          1196.938
       121   02 Jun 2027 10:22:57.872   02 Jun 2027 10:25:21.353           143.481                Novosib          4483.781
       122   02 Jun 2027 10:25:29.406   02 Jun 2027 10:26:47.257            77.851                 Moscow          2432.844
       123   02 Jun 2027 10:26:56.257   02 Jun 2027 10:28:04.966            68.709              Murmansk2          2147.156
       124   02 Jun 2027 11:33:11.438   02 Jun 2027 11:35:12.478           121.040               CapeTown          3782.500
       125   02 Jun 2027 11:37:01.531   02 Jun 2027 11:38:29.462            87.931               CapeTown          2747.844
       126   02 Jun 2027 12:11:22.486   02 Jun 2027 12:17:45.869           383.383                Anadyr2         11980.719
       127   02 Jun 2027 12:17:46.636   02 Jun 2027 12:18:20.525            33.889                Anadyr1          1059.031
       128   02 Jun 2027 13:52:16.314   02 Jun 2027 13:53:28.122            71.808               Magadan1          2244.000
       129   02 Jun 2027 15:24:50.865   02 Jun 2027 15:27:07.603           136.738               Magadan1          4273.062
       130   02 Jun 2027 15:36:06.565   02 Jun 2027 15:36:15.320             8.755               Magadan1           273.594
       131   02 Jun 2027 17:01:02.713   02 Jun 2027 17:04:48.989           226.276                Norilsk          7071.125
       132   02 Jun 2027 17:11:16.222   02 Jun 2027 17:11:55.578            39.356               Magadan2          1229.875
       133   02 Jun 2027 17:12:21.740   02 Jun 2027 17:12:46.331            24.591               Magadan1           768.469
       134   02 Jun 2027 17:13:07.714   02 Jun 2027 17:13:24.098            16.384               Magadan2           512.000
       135   02 Jun 2027 17:53:54.174   02 Jun 2027 17:54:30.295            36.121            RioGallegos          1128.781
       136   02 Jun 2027 17:55:59.107   02 Jun 2027 17:58:46.583           167.476            RioGallegos          5233.625
       137   02 Jun 2027 18:00:54.491   02 Jun 2027 18:02:09.243            74.752            RioGallegos          2336.000
       138   02 Jun 2027 18:41:19.711   02 Jun 2027 18:42:33.345            73.634                Irkutsk          2301.063
       139   02 Jun 2027 18:43:02.202   02 Jun 2027 18:43:21.190            18.988                Norilsk           593.375
       140   02 Jun 2027 18:43:55.191   02 Jun 2027 18:47:04.707           189.516                Novosib          5922.375
       141   02 Jun 2027 18:49:53.419   02 Jun 2027 18:50:38.747            45.328                Irkutsk          1416.500
       142   02 Jun 2027 18:56:37.562   02 Jun 2027 18:57:46.255            68.693                Sumatra          2146.656
       143   02 Jun 2027 19:01:01.182   02 Jun 2027 19:03:28.189           147.007                Sumatra          4593.969
       144   02 Jun 2027 19:06:07.501   02 Jun 2027 19:06:22.233            14.732                Sumatra           460.375
       145   02 Jun 2027 20:21:35.074   02 Jun 2027 20:22:43.005            67.931                Novosib          2122.844
       146   02 Jun 2027 20:23:52.516   02 Jun 2027 20:25:18.674            86.158                  Delhi          2692.437
       147   02 Jun 2027 20:25:38.002   02 Jun 2027 20:27:37.970           119.968                  Delhi          3749.000
       148   02 Jun 2027 20:28:51.253   02 Jun 2027 20:32:11.163           199.910                  Delhi          6247.187
       149   02 Jun 2027 21:50:23.388   02 Jun 2027 21:55:55.824           332.436              Murmansk2         10388.625
       150   02 Jun 2027 21:56:45.880   02 Jun 2027 21:59:00.929           135.049              Murmansk1          4220.281
       151   02 Jun 2027 22:00:25.625   02 Jun 2027 22:01:38.339            72.714                 Moscow          2272.313
       152   02 Jun 2027 23:30:32.516   02 Jun 2027 23:31:54.855            82.339              Murmansk2          2573.094
       153   02 Jun 2027 23:36:07.685   02 Jun 2027 23:36:36.156            28.471                 Moscow           889.719
       154   02 Jun 2027 23:37:01.142   02 Jun 2027 23:37:33.117            31.975                 Moscow           999.219
       155   02 Jun 2027 23:39:02.597   02 Jun 2027 23:39:45.274            42.677                 Moscow          1333.656
       156   02 Jun 2027 23:41:30.723   02 Jun 2027 23:41:51.316            20.593                 Moscow           643.531
       157   02 Jun 2027 23:55:41.362   02 Jun 2027 23:57:12.427            91.065               CapeTown          2845.781
       158   03 Jun 2027 00:02:30.658   03 Jun 2027 00:03:13.965            43.307               CapeTown          1353.344
       159   03 Jun 2027 00:57:16.720   03 Jun 2027 00:57:30.199            13.479               Magadan2           421.219
       160   03 Jun 2027 00:59:15.633   03 Jun 2027 00:59:23.754             8.121               Magadan2           253.781
       161   03 Jun 2027 00:59:58.439   03 Jun 2027 01:01:28.660            90.221               Magadan1          2819.406
       162   03 Jun 2027 01:05:19.157   03 Jun 2027 01:06:02.737            43.580                 Moscow          1361.875
       163   03 Jun 2027 01:07:15.615   03 Jun 2027 01:07:22.456             6.841              Murmansk1           213.781
       164   03 Jun 2027 01:08:21.290   03 Jun 2027 01:08:23.388             2.098                 Moscow            65.563
       165   03 Jun 2027 01:08:40.495   03 Jun 2027 01:09:48.524            68.029              Murmansk2          2125.906
       166   03 Jun 2027 01:12:42.118   03 Jun 2027 01:12:46.167             4.049              Murmansk1           126.531
       167   03 Jun 2027 01:13:59.332   03 Jun 2027 01:15:02.381            63.049              Murmansk2          1970.281
       168   03 Jun 2027 01:34:35.470   03 Jun 2027 01:35:01.636            26.166               CapeTown           817.687
       169   03 Jun 2027 01:36:31.739   03 Jun 2027 01:37:36.049            64.310               CapeTown          2009.687
       170   03 Jun 2027 02:26:00.394   03 Jun 2027 02:27:48.415           108.021               Magadan1          3375.656
       171   03 Jun 2027 02:28:13.280   03 Jun 2027 02:28:53.736            40.456               Magadan2          1264.250
       172   03 Jun 2027 02:31:18.979   03 Jun 2027 02:32:04.126            45.147               Magadan2          1410.844
       173   03 Jun 2027 02:34:24.386   03 Jun 2027 02:34:43.640            19.254                Norilsk           601.687
       174   03 Jun 2027 02:35:13.777   03 Jun 2027 02:35:44.614            30.837                Norilsk           963.656
       175   03 Jun 2027 02:37:57.248   03 Jun 2027 02:38:23.323            26.075              Murmansk2           814.844
       176   03 Jun 2027 02:40:21.805   03 Jun 2027 02:40:41.607            19.802              Murmansk1           618.812
       177   03 Jun 2027 02:41:43.755   03 Jun 2027 02:42:05.425            21.670                 Moscow           677.187
       178   03 Jun 2027 02:42:54.797   03 Jun 2027 02:43:01.807             7.010              Murmansk2           219.063
       179   03 Jun 2027 02:43:51.087   03 Jun 2027 02:44:11.250            20.163                 Moscow           630.094
       180   03 Jun 2027 02:44:50.175   03 Jun 2027 02:45:44.775            54.600                 Moscow          1706.250
       181   03 Jun 2027 03:19:45.150   03 Jun 2027 03:20:21.830            36.680            RioGallegos          1146.250
       182   03 Jun 2027 03:21:11.164   03 Jun 2027 03:21:47.387            36.223            RioGallegos          1131.969
       183   03 Jun 2027 03:22:27.225   03 Jun 2027 03:23:42.386            75.161            RioGallegos          2348.781
       184   03 Jun 2027 04:08:11.170   03 Jun 2027 04:08:58.473            47.303               Magadan1          1478.219
       185   03 Jun 2027 04:09:05.568   03 Jun 2027 04:12:58.691           233.123               Magadan1          7285.094
       186   03 Jun 2027 04:13:29.631   03 Jun 2027 04:14:13.519            43.888                Anadyr2          1371.500
       187   03 Jun 2027 04:51:02.916   03 Jun 2027 04:51:32.093            29.177            RioGallegos           911.781
       188   03 Jun 2027 04:52:00.623   03 Jun 2027 04:52:53.413            52.790            RioGallegos          1649.687
       189   03 Jun 2027 05:44:46.878   03 Jun 2027 05:45:10.800            23.922                Novosib           747.562
       190   03 Jun 2027 05:45:24.262   03 Jun 2027 05:45:26.404             2.142               Magadan2            66.937
       191   03 Jun 2027 05:45:31.454   03 Jun 2027 05:46:09.660            38.206                Novosib          1193.938
       192   03 Jun 2027 05:46:11.009   03 Jun 2027 05:50:08.230           237.221                Irkutsk          7413.156
       193   03 Jun 2027 05:50:15.562   03 Jun 2027 05:50:54.171            38.609                Novosib          1206.531
       194   03 Jun 2027 06:32:32.920   03 Jun 2027 06:32:49.428            16.508            RioGallegos           515.875
       195   03 Jun 2027 06:59:56.547   03 Jun 2027 07:01:25.501            88.954                Sumatra          2779.813
       196   03 Jun 2027 07:03:04.832   03 Jun 2027 07:04:11.521            66.689                Sumatra          2084.031
       197   03 Jun 2027 07:11:38.232   03 Jun 2027 07:14:56.461           198.229                  Delhi          6194.656
       198   03 Jun 2027 07:21:01.474   03 Jun 2027 07:21:51.863            50.389                Irkutsk          1574.656
       199   03 Jun 2027 07:23:05.542   03 Jun 2027 07:24:22.274            76.732                Irkutsk          2397.875
       200   03 Jun 2027 07:24:24.576   03 Jun 2027 07:24:54.589            30.013                Irkutsk           937.906
       201   03 Jun 2027 07:25:15.911   03 Jun 2027 07:25:35.241            19.330                Norilsk           604.062
       202   03 Jun 2027 07:25:35.884   03 Jun 2027 07:26:02.024            26.140                Irkutsk           816.875
       203   03 Jun 2027 07:26:04.875   03 Jun 2027 07:27:16.063            71.188              Murmansk1          2224.625
       204   03 Jun 2027 07:27:16.063   03 Jun 2027 07:28:41.441            85.378              Murmansk2          2668.063
       205   03 Jun 2027 08:04:19.007   03 Jun 2027 08:05:02.786            43.779            RioGallegos          1368.094
       206   03 Jun 2027 08:37:45.791   03 Jun 2027 08:39:07.706            81.915                Sumatra          2559.844
       207   03 Jun 2027 08:44:44.543   03 Jun 2027 08:46:11.911            87.368                  Delhi          2730.250
       208   03 Jun 2027 08:48:44.874   03 Jun 2027 08:49:32.982            48.108                  Delhi          1503.375
       209   03 Jun 2027 09:00:12.171   03 Jun 2027 09:04:10.392           238.221                 Moscow          7444.406
       210   03 Jun 2027 09:04:33.185   03 Jun 2027 09:04:49.634            16.449              Murmansk2           514.031
       211   03 Jun 2027 09:04:49.634   03 Jun 2027 09:04:50.529             0.895              Murmansk1            27.969
       212   03 Jun 2027 09:06:08.270   03 Jun 2027 09:06:26.698            18.428              Murmansk2           575.875
       213   03 Jun 2027 10:23:37.378   03 Jun 2027 10:26:13.033           155.655                  Delhi          4864.219
       214   03 Jun 2027 10:26:29.824   03 Jun 2027 10:26:37.526             7.702                  Delhi           240.688
       215   03 Jun 2027 10:32:00.354   03 Jun 2027 10:32:17.545            17.191              Murmansk2           537.219
       216   03 Jun 2027 10:32:29.258   03 Jun 2027 10:32:34.603             5.345                Novosib           167.031
       217   03 Jun 2027 10:32:38.182   03 Jun 2027 10:34:13.980            95.798              Murmansk1          2993.687
       218   03 Jun 2027 10:34:18.167   03 Jun 2027 10:35:07.709            49.542              Murmansk2          1548.187
       219   03 Jun 2027 10:35:17.647   03 Jun 2027 10:36:50.948            93.301                 Moscow          2915.656
       220   03 Jun 2027 10:37:11.050   03 Jun 2027 10:37:58.814            47.764              Murmansk2          1492.625
       221   03 Jun 2027 10:37:58.814   03 Jun 2027 10:38:47.282            48.468              Murmansk1          1514.625
       222   03 Jun 2027 11:44:07.120   03 Jun 2027 11:46:53.680           166.560               CapeTown          5205.000
       223   03 Jun 2027 11:47:53.823   03 Jun 2027 11:50:50.082           176.259               CapeTown          5508.094
       224   03 Jun 2027 12:18:10.088   03 Jun 2027 12:18:28.951            18.863              Murmansk2           589.469
       225   03 Jun 2027 12:19:30.560   03 Jun 2027 12:19:59.122            28.562              Murmansk2           892.562
       226   03 Jun 2027 12:23:10.062   03 Jun 2027 12:29:09.222           359.160                Anadyr1         11223.750
       227   03 Jun 2027 12:29:12.145   03 Jun 2027 12:31:07.539           115.394                Anadyr2          3606.062
       228   03 Jun 2027 13:58:26.638   03 Jun 2027 14:00:28.912           122.274                Anadyr2          3821.063
       229   03 Jun 2027 14:02:49.256   03 Jun 2027 14:07:33.825           284.569               Magadan2          8892.781
       230   03 Jun 2027 15:36:47.321   03 Jun 2027 15:38:45.286           117.965               Magadan1          3686.406
       231   03 Jun 2027 15:39:13.262   03 Jun 2027 15:40:22.430            69.168               Magadan1          2161.500
       232   03 Jun 2027 15:41:02.431   03 Jun 2027 15:42:18.088            75.657               Magadan1          2364.281
       233   03 Jun 2027 15:43:46.814   03 Jun 2027 15:44:55.465            68.651               Magadan2          2145.344
       234   03 Jun 2027 17:12:30.558   03 Jun 2027 17:14:18.307           107.749               Magadan2          3367.156
       235   03 Jun 2027 17:16:09.008   03 Jun 2027 17:17:38.339            89.331                Norilsk          2791.594
       236   03 Jun 2027 17:19:39.623   03 Jun 2027 17:22:15.318           155.695                Irkutsk          4865.469
       237   03 Jun 2027 18:05:39.684   03 Jun 2027 18:06:37.146            57.462            RioGallegos          1795.688
       238   03 Jun 2027 18:14:00.518   03 Jun 2027 18:15:00.320            59.802            RioGallegos          1868.812
       239   03 Jun 2027 18:48:37.295   03 Jun 2027 18:49:23.704            46.409                Norilsk          1450.281
       240   03 Jun 2027 18:52:06.046   03 Jun 2027 18:52:28.484            22.438                Norilsk           701.188
       241   03 Jun 2027 18:52:31.328   03 Jun 2027 18:52:54.818            23.490                Irkutsk           734.063
       242   03 Jun 2027 18:53:44.454   03 Jun 2027 19:00:21.295           396.841                Novosib         12401.281
       243   03 Jun 2027 19:08:06.065   03 Jun 2027 19:08:49.627            43.562                Sumatra          1361.312
       244   03 Jun 2027 19:16:09.369   03 Jun 2027 19:16:20.517            11.148                Sumatra           348.375
       245   03 Jun 2027 19:17:35.477   03 Jun 2027 19:18:27.420            51.943                Sumatra          1623.219
       246   03 Jun 2027 20:29:25.205   03 Jun 2027 20:29:47.442            22.237                Novosib           694.906
       247   03 Jun 2027 20:30:27.374   03 Jun 2027 20:30:37.201             9.827                Novosib           307.094
       248   03 Jun 2027 20:32:15.714   03 Jun 2027 20:34:34.437           138.723                Novosib          4335.094
       249   03 Jun 2027 20:35:36.719   03 Jun 2027 20:39:35.695           238.976                  Delhi          7468.000
       250   03 Jun 2027 22:02:20.951   03 Jun 2027 22:04:11.857           110.906              Murmansk1          3465.812
       251   03 Jun 2027 22:04:34.458   03 Jun 2027 22:07:49.531           195.073              Murmansk2          6096.031
       252   03 Jun 2027 22:07:53.288   03 Jun 2027 22:14:32.650           399.362                 Moscow         12480.063
       253   03 Jun 2027 23:43:27.495   03 Jun 2027 23:43:55.296            27.801                 Moscow           868.781
       254   03 Jun 2027 23:45:29.361   03 Jun 2027 23:45:46.969            17.608                 Moscow           550.250
       255   04 Jun 2027 00:05:36.641   04 Jun 2027 00:09:29.689           233.048               CapeTown          7282.750
       256   04 Jun 2027 01:14:06.693   04 Jun 2027 01:16:26.629           139.936              Murmansk2          4373.000
       257   04 Jun 2027 01:26:43.872   04 Jun 2027 01:26:51.074             7.202                 Moscow           225.062
       258   04 Jun 2027 01:29:24.275   04 Jun 2027 01:29:37.883            13.608                 Moscow           425.250
       259   04 Jun 2027 01:42:23.485   04 Jun 2027 01:43:40.705            77.220               CapeTown          2413.125
       260   04 Jun 2027 01:49:30.105   04 Jun 2027 01:49:50.088            19.983               CapeTown           624.469
       261   04 Jun 2027 02:37:52.379   04 Jun 2027 02:40:45.478           173.099               Magadan1          5409.344
       262   04 Jun 2027 02:41:56.571   04 Jun 2027 02:42:02.266             5.695               Magadan1           177.969
       263   04 Jun 2027 02:42:13.203   04 Jun 2027 02:42:24.396            11.193               Magadan1           349.781
       264   04 Jun 2027 02:44:40.739   04 Jun 2027 02:44:48.232             7.493               Magadan2           234.156
       265   04 Jun 2027 02:46:26.294   04 Jun 2027 02:47:05.128            38.834                Norilsk          1213.562
       266   04 Jun 2027 02:49:56.923   04 Jun 2027 02:51:49.623           112.700              Murmansk2          3521.875
       267   04 Jun 2027 02:53:51.581   04 Jun 2027 02:54:32.362            40.781                 Moscow          1274.406
       268   04 Jun 2027 03:30:39.695   04 Jun 2027 03:32:33.375           113.680            RioGallegos          3552.500
       269   04 Jun 2027 03:33:30.218   04 Jun 2027 03:33:44.567            14.349            RioGallegos           448.406
       270   04 Jun 2027 03:34:00.884   04 Jun 2027 03:35:21.961            81.077            RioGallegos          2533.656
       271   04 Jun 2027 04:18:57.014   04 Jun 2027 04:22:43.622           226.608               Magadan1          7081.500
       272   04 Jun 2027 04:23:02.267   04 Jun 2027 04:25:59.146           176.879                Novosib          5527.469
       273   04 Jun 2027 04:26:18.462   04 Jun 2027 04:26:39.799            21.337              Murmansk1           666.781
       274   04 Jun 2027 04:26:59.019   04 Jun 2027 04:27:41.358            42.339              Murmansk2          1323.094
       275   04 Jun 2027 05:01:54.365   04 Jun 2027 05:03:58.332           123.967            RioGallegos          3873.969
       276   04 Jun 2027 05:04:18.338   04 Jun 2027 05:05:14.959            56.621            RioGallegos          1769.406
       277   04 Jun 2027 05:56:40.146   04 Jun 2027 05:57:17.634            37.488               Magadan2          1171.500
       278   04 Jun 2027 05:57:17.634   04 Jun 2027 05:57:27.414             9.780               Magadan1           305.625
       279   04 Jun 2027 05:57:35.835   04 Jun 2027 05:57:49.251            13.416               Magadan1           419.250
       280   04 Jun 2027 05:57:49.251   04 Jun 2027 05:59:16.593            87.342               Magadan2          2729.437
       281   04 Jun 2027 05:59:17.731   04 Jun 2027 05:59:20.912             3.181               Magadan2            99.406
       282   04 Jun 2027 05:59:27.949   04 Jun 2027 06:00:08.662            40.713                Novosib          1272.281
       283   04 Jun 2027 06:00:20.400   04 Jun 2027 06:02:12.158           111.758                Irkutsk          3492.437
       284   04 Jun 2027 06:02:31.737   04 Jun 2027 06:02:41.681             9.944              Murmansk1           310.750
       285   04 Jun 2027 06:03:05.599   04 Jun 2027 06:03:25.686            20.087                Novosib           627.719
       286   04 Jun 2027 06:36:57.153   04 Jun 2027 06:38:16.231            79.078            RioGallegos          2471.188
       287   04 Jun 2027 06:41:11.512   04 Jun 2027 06:41:14.527             3.015            RioGallegos            94.219
       288   04 Jun 2027 06:42:03.157   04 Jun 2027 06:42:09.129             5.972            RioGallegos           186.625
       289   04 Jun 2027 07:11:48.905   04 Jun 2027 07:14:53.368           184.463                Sumatra          5764.469
       290   04 Jun 2027 07:22:40.614   04 Jun 2027 07:24:14.006            93.392                  Delhi          2918.500
       291   04 Jun 2027 07:25:10.514   04 Jun 2027 07:27:03.468           112.954                  Delhi          3529.813
       292   04 Jun 2027 07:33:05.747   04 Jun 2027 07:33:45.674            39.927                Novosib          1247.719
       293   04 Jun 2027 07:35:02.759   04 Jun 2027 07:36:12.118            69.359                Norilsk          2167.469
       294   04 Jun 2027 07:36:14.191   04 Jun 2027 07:36:22.670             8.479                Novosib           264.969
       295   04 Jun 2027 07:36:28.732   04 Jun 2027 07:38:57.408           148.676                Novosib          4646.125
       296   04 Jun 2027 07:39:22.063   04 Jun 2027 07:39:52.575            30.512                 Moscow           953.500
       297   04 Jun 2027 08:16:27.131   04 Jun 2027 08:16:35.237             8.106            RioGallegos           253.312
       298   04 Jun 2027 08:16:59.177   04 Jun 2027 08:17:46.517            47.340            RioGallegos          1479.375
       299   04 Jun 2027 08:51:32.445   04 Jun 2027 08:53:05.577            93.132                Sumatra          2910.375
       300   04 Jun 2027 08:55:58.608   04 Jun 2027 08:57:44.951           106.343                  Delhi          3323.219
       301   04 Jun 2027 09:10:09.311   04 Jun 2027 09:10:56.435            47.124                 Moscow          1472.625
       302   04 Jun 2027 09:11:07.330   04 Jun 2027 09:12:07.872            60.542              Murmansk1          1891.938
       303   04 Jun 2027 09:12:26.432   04 Jun 2027 09:12:46.749            20.317                 Moscow           634.906
       304   04 Jun 2027 09:12:52.771   04 Jun 2027 09:13:13.473            20.702                Norilsk           646.937
       305   04 Jun 2027 09:13:15.936   04 Jun 2027 09:13:32.132            16.196                Norilsk           506.125
       306   04 Jun 2027 09:13:34.246   04 Jun 2027 09:13:49.093            14.847              Murmansk1           463.969
       307   04 Jun 2027 09:14:14.784   04 Jun 2027 09:14:40.235            25.451              Murmansk2           795.344
       308   04 Jun 2027 09:18:22.131   04 Jun 2027 09:19:11.782            49.651              Murmansk1          1551.594
       309   04 Jun 2027 10:43:47.499   04 Jun 2027 10:43:59.753            12.254              Murmansk1           382.938
       310   04 Jun 2027 10:44:16.836   04 Jun 2027 10:44:26.852            10.016              Murmansk1           313.000
       311   04 Jun 2027 10:44:35.509   04 Jun 2027 10:44:50.000            14.491                 Moscow           452.844
       312   04 Jun 2027 10:45:01.379   04 Jun 2027 10:45:12.367            10.988              Murmansk2           343.375
       313   04 Jun 2027 10:45:17.073   04 Jun 2027 10:46:11.183            54.110              Murmansk1          1690.937
       314   04 Jun 2027 10:46:15.979   04 Jun 2027 10:46:20.875             4.896                Novosib           153.000
       315   04 Jun 2027 10:46:31.347   04 Jun 2027 10:46:59.576            28.229              Murmansk2           882.156
       316   04 Jun 2027 10:47:05.355   04 Jun 2027 10:47:36.717            31.362                Novosib           980.062
       317   04 Jun 2027 10:47:44.844   04 Jun 2027 10:48:17.816            32.972              Murmansk2          1030.375
       318   04 Jun 2027 10:48:21.485   04 Jun 2027 10:49:06.255            44.770              Murmansk2          1399.063
       319   04 Jun 2027 10:49:08.656   04 Jun 2027 10:49:57.326            48.670              Murmansk1          1520.937
       320   04 Jun 2027 10:49:58.248   04 Jun 2027 10:51:00.448            62.200                 Moscow          1943.750
       321   04 Jun 2027 11:55:26.843   04 Jun 2027 12:03:04.811           457.968               CapeTown         14311.500
       322   04 Jun 2027 12:35:01.176   04 Jun 2027 12:39:06.104           244.928                Anadyr2          7654.000
       323   04 Jun 2027 12:39:56.874   04 Jun 2027 12:40:48.352            51.478                Anadyr2          1608.687
       324   04 Jun 2027 12:41:24.742   04 Jun 2027 12:43:48.570           143.828                Anadyr1          4494.625
       325   04 Jun 2027 14:10:26.664   04 Jun 2027 14:11:23.456            56.792                Anadyr2          1774.750
       326   04 Jun 2027 14:14:14.417   04 Jun 2027 14:20:44.341           389.924               Magadan2         12185.125
       327   04 Jun 2027 15:48:44.824   04 Jun 2027 15:51:05.534           140.710               Magadan1          4397.187
       328   04 Jun 2027 15:53:35.530   04 Jun 2027 15:53:58.455            22.925               Magadan2           716.406
       329   04 Jun 2027 17:22:12.326   04 Jun 2027 17:23:18.194            65.868                Anadyr2          2058.375
       330   04 Jun 2027 17:24:32.201   04 Jun 2027 17:26:03.497            91.296               Magadan1          2853.000
       331   04 Jun 2027 17:28:08.329   04 Jun 2027 17:28:40.820            32.491                Norilsk          1015.344
       332   04 Jun 2027 17:29:41.319   04 Jun 2027 17:30:40.354            59.035                Norilsk          1844.844
       333   04 Jun 2027 17:32:04.173   04 Jun 2027 17:36:04.446           240.273                Irkutsk          7508.531
       334   04 Jun 2027 17:48:14.218   04 Jun 2027 17:49:11.170            56.952                Sumatra          1779.750
       335   04 Jun 2027 19:01:03.708   04 Jun 2027 19:01:20.623            16.915                Norilsk           528.594
       336   04 Jun 2027 19:03:33.603   04 Jun 2027 19:04:07.901            34.298                Norilsk          1071.813
       337   04 Jun 2027 19:04:30.081   04 Jun 2027 19:05:19.715            49.634                Norilsk          1551.063
       338   04 Jun 2027 19:05:24.526   04 Jun 2027 19:06:05.826            41.300                Irkutsk          1290.625
       339   04 Jun 2027 19:06:22.312   04 Jun 2027 19:13:01.273           398.961                Novosib         12467.531
       340   04 Jun 2027 19:23:28.259   04 Jun 2027 19:24:55.905            87.646                Sumatra          2738.938
       341   04 Jun 2027 20:42:23.489   04 Jun 2027 20:42:51.344            27.855                Novosib           870.469
       342   04 Jun 2027 20:44:16.378   04 Jun 2027 20:44:34.582            18.204                Novosib           568.875
       343   04 Jun 2027 20:47:25.781   04 Jun 2027 20:50:05.766           159.985                  Delhi          4999.531
       344   04 Jun 2027 20:56:33.791   04 Jun 2027 20:58:07.031            93.240                  Delhi          2913.750
       345   04 Jun 2027 22:14:19.501   04 Jun 2027 22:19:45.289           325.788              Murmansk2         10180.875
       346   04 Jun 2027 22:19:48.373   04 Jun 2027 22:24:55.786           307.413                 Moscow          9606.656
       347   04 Jun 2027 22:46:31.310   04 Jun 2027 22:51:24.835           293.525               CapeTown          9172.656
       348   05 Jun 2027 00:27:17.060   05 Jun 2027 00:28:06.614            49.554               CapeTown          1548.562
       349   05 Jun 2027 01:26:08.028   05 Jun 2027 01:26:53.318            45.290              Murmansk1          1415.312
       350   05 Jun 2027 01:28:19.914   05 Jun 2027 01:29:23.863            63.949              Murmansk1          1998.406
       351   05 Jun 2027 01:29:25.899   05 Jun 2027 01:30:26.445            60.546                 Moscow          1892.063
       352   05 Jun 2027 01:34:01.439   05 Jun 2027 01:34:18.781            17.342                 Moscow           541.938
       353   05 Jun 2027 01:37:44.521   05 Jun 2027 01:37:54.847            10.326                 Moscow           322.688
       354   05 Jun 2027 01:39:03.663   05 Jun 2027 01:39:09.422             5.759                 Moscow           179.969
       355   05 Jun 2027 01:55:01.853   05 Jun 2027 01:56:29.620            87.767               CapeTown          2742.719
       356   05 Jun 2027 02:04:00.675   05 Jun 2027 02:04:01.241             0.566               CapeTown            17.688
       357   05 Jun 2027 02:49:46.583   05 Jun 2027 02:52:16.947           150.364               Magadan1          4698.875
       358   05 Jun 2027 02:52:57.975   05 Jun 2027 02:53:23.452            25.477               Magadan2           796.156
       359   05 Jun 2027 02:54:04.183   05 Jun 2027 02:54:09.729             5.546               Magadan1           173.313
       360   05 Jun 2027 02:55:24.048   05 Jun 2027 02:55:24.385             0.337               Magadan2            10.531
       361   05 Jun 2027 02:56:09.476   05 Jun 2027 02:56:35.459            25.983               Magadan1           811.969
       362   05 Jun 2027 02:58:26.800   05 Jun 2027 02:58:34.345             7.545                Norilsk           235.781
       363   05 Jun 2027 02:58:51.401   05 Jun 2027 02:58:57.112             5.711                Norilsk           178.469
       364   05 Jun 2027 02:59:30.243   05 Jun 2027 02:59:35.850             5.607                Norilsk           175.219
       365   05 Jun 2027 04:28:32.737   05 Jun 2027 04:28:44.759            12.022                Irkutsk           375.687
       366   05 Jun 2027 04:29:29.215   05 Jun 2027 04:30:19.771            50.556                Irkutsk          1579.875
       367   05 Jun 2027 04:31:21.613   05 Jun 2027 04:34:50.531           208.918                Irkutsk          6528.687
       368   05 Jun 2027 04:35:05.549   05 Jun 2027 04:36:18.339            72.790               Magadan2          2274.687
       369   05 Jun 2027 04:36:37.583   05 Jun 2027 04:38:20.916           103.333               Magadan1          3229.156
       370   05 Jun 2027 05:13:37.844   05 Jun 2027 05:14:47.026            69.182            RioGallegos          2161.938
       371   05 Jun 2027 05:15:34.530   05 Jun 2027 05:17:26.282           111.752            RioGallegos          3492.250
       372   05 Jun 2027 05:52:22.643   05 Jun 2027 05:53:25.268            62.625                Sumatra          1957.031
       373   05 Jun 2027 05:54:51.823   05 Jun 2027 05:56:52.380           120.557                Sumatra          3767.406
       374   05 Jun 2027 06:08:38.979   05 Jun 2027 06:08:58.164            19.185               Magadan2           599.531
       375   05 Jun 2027 06:09:05.614   05 Jun 2027 06:12:04.711           179.097                Irkutsk          5596.781
       376   05 Jun 2027 06:12:25.774   05 Jun 2027 06:12:48.687            22.913               Magadan1           716.031
       377   05 Jun 2027 06:12:58.316   05 Jun 2027 06:14:30.373            92.057              Murmansk1          2876.781
       378   05 Jun 2027 06:49:06.861   05 Jun 2027 06:50:08.311            61.450            RioGallegos          1920.312
       379   05 Jun 2027 06:52:05.346   05 Jun 2027 06:53:09.176            63.830            RioGallegos          1994.687
       380   05 Jun 2027 07:23:46.931   05 Jun 2027 07:26:23.651           156.720                Sumatra          4897.500
       381   05 Jun 2027 07:33:56.830   05 Jun 2027 07:36:30.928           154.098                  Delhi          4815.562
       382   05 Jun 2027 07:45:35.000   05 Jun 2027 07:46:37.380            62.380                Norilsk          1949.375
       383   05 Jun 2027 07:46:47.150   05 Jun 2027 07:47:27.163            40.013              Murmansk1          1250.406
       384   05 Jun 2027 07:47:27.884   05 Jun 2027 07:48:01.731            33.847                Irkutsk          1057.719
       385   05 Jun 2027 07:48:15.384   05 Jun 2027 07:48:44.954            29.570              Murmansk1           924.062
       386   05 Jun 2027 07:48:55.756   05 Jun 2027 07:50:32.736            96.980                 Moscow          3030.625
       387   05 Jun 2027 07:50:45.049   05 Jun 2027 07:51:39.453            54.404                 Moscow          1700.125
       388   05 Jun 2027 08:29:20.224   05 Jun 2027 08:29:35.544            15.320            RioGallegos           478.750
       389   05 Jun 2027 08:30:10.997   05 Jun 2027 08:30:43.953            32.956            RioGallegos          1029.875
       390   05 Jun 2027 09:08:06.205   05 Jun 2027 09:09:41.016            94.811                  Delhi          2962.844
       391   05 Jun 2027 09:11:58.991   05 Jun 2027 09:13:17.893            78.902                  Delhi          2465.687
       392   05 Jun 2027 09:22:02.373   05 Jun 2027 09:22:19.943            17.570                Novosib           549.063
       393   05 Jun 2027 09:22:22.098   05 Jun 2027 09:22:47.186            25.088              Murmansk1           784.000
       394   05 Jun 2027 09:22:59.721   05 Jun 2027 09:23:18.552            18.831              Murmansk2           588.469
       395   05 Jun 2027 09:23:18.808   05 Jun 2027 09:24:26.592            67.784                 Moscow          2118.250
       396   05 Jun 2027 09:24:34.022   05 Jun 2027 09:25:27.963            53.941                 Moscow          1685.656
       397   05 Jun 2027 09:25:35.580   05 Jun 2027 09:25:50.935            15.355                Novosib           479.844
       398   05 Jun 2027 09:26:34.511   05 Jun 2027 09:27:14.193            39.682              Murmansk1          1240.062
       399   05 Jun 2027 09:28:41.177   05 Jun 2027 09:28:51.593            10.416                 Moscow           325.500
       400   05 Jun 2027 10:55:41.537   05 Jun 2027 10:56:06.302            24.765                 Moscow           773.906
       401   05 Jun 2027 10:56:16.091   05 Jun 2027 10:56:55.038            38.947              Murmansk1          1217.094
       402   05 Jun 2027 10:56:55.038   05 Jun 2027 10:57:07.491            12.453              Murmansk2           389.156
       403   05 Jun 2027 10:57:34.084   05 Jun 2027 10:57:51.717            17.633                 Moscow           551.031
       404   05 Jun 2027 10:58:08.945   05 Jun 2027 10:58:32.952            24.007              Murmansk1           750.219
       405   05 Jun 2027 10:58:37.041   05 Jun 2027 10:59:02.423            25.382                 Moscow           793.187
       406   05 Jun 2027 10:59:05.769   05 Jun 2027 10:59:10.484             4.715              Murmansk1           147.344
       407   05 Jun 2027 10:59:17.915   05 Jun 2027 11:00:18.330            60.415              Murmansk2          1887.969
       408   05 Jun 2027 11:00:25.005   05 Jun 2027 11:01:26.054            61.049              Murmansk1          1907.781
       409   05 Jun 2027 11:01:53.929   05 Jun 2027 11:01:58.254             4.325                 Moscow           135.156
       410   05 Jun 2027 11:02:03.806   05 Jun 2027 11:02:17.890            14.084                 Moscow           440.125
       411   05 Jun 2027 11:03:36.060   05 Jun 2027 11:04:00.438            24.378              Murmansk1           761.813
       412   05 Jun 2027 12:06:58.593   05 Jun 2027 12:13:44.898           406.305               CapeTown         12697.031
       413   05 Jun 2027 12:46:54.702   05 Jun 2027 12:49:36.442           161.740                Anadyr1          5054.375
       414   05 Jun 2027 12:50:00.948   05 Jun 2027 12:56:24.805           383.857                Anadyr2         11995.531
       415   05 Jun 2027 14:22:27.047   05 Jun 2027 14:23:33.270            66.223                Anadyr1          2069.469
       416   05 Jun 2027 14:25:52.286   05 Jun 2027 14:29:35.033           222.747               Magadan1          6960.844
       417   05 Jun 2027 14:30:06.083   05 Jun 2027 14:32:26.691           140.608               Magadan1          4394.000
       418   05 Jun 2027 14:33:25.777   05 Jun 2027 14:33:39.290            13.513               Magadan2           422.281
       419   05 Jun 2027 16:00:43.190   05 Jun 2027 16:02:24.960           101.770               Magadan1          3180.312
       420   05 Jun 2027 16:02:24.960   05 Jun 2027 16:03:16.990            52.030               Magadan2          1625.938
       421   05 Jun 2027 16:05:02.609   05 Jun 2027 16:05:24.984            22.375               Magadan2           699.219
       422   05 Jun 2027 16:56:23.229   05 Jun 2027 16:57:49.848            86.619            RioGallegos          2706.844
       423   05 Jun 2027 17:36:28.088   05 Jun 2027 17:37:16.620            48.532                Norilsk          1516.625
       424   05 Jun 2027 17:37:38.244   05 Jun 2027 17:37:41.206             2.962               Magadan2            92.562
       425   05 Jun 2027 17:37:46.701   05 Jun 2027 17:38:38.526            51.825               Magadan1          1619.531
       426   05 Jun 2027 17:39:48.189   05 Jun 2027 17:40:39.501            51.312                Norilsk          1603.500
       427   05 Jun 2027 17:41:45.401   05 Jun 2027 17:49:12.311           446.910                Irkutsk         13965.938
       428   05 Jun 2027 17:57:29.356   05 Jun 2027 18:03:48.689           379.333                Sumatra         11854.156
       429   05 Jun 2027 19:18:39.761   05 Jun 2027 19:23:16.649           276.888                Novosib          8652.750
       430   05 Jun 2027 20:51:29.384   05 Jun 2027 20:55:13.783           224.399              Murmansk2          7012.469
       431   05 Jun 2027 22:26:18.798   05 Jun 2027 22:27:48.249            89.451              Murmansk1          2795.344
       432   05 Jun 2027 22:28:04.470   05 Jun 2027 22:32:21.427           256.957              Murmansk2          8029.906
       433   05 Jun 2027 22:33:16.538   05 Jun 2027 22:38:16.329           299.791                 Moscow          9368.469
       434   05 Jun 2027 22:57:11.834   05 Jun 2027 23:04:20.142           428.308               CapeTown         13384.625
       435   06 Jun 2027 01:42:05.871   06 Jun 2027 01:42:19.580            13.709                 Moscow           428.406
       436   06 Jun 2027 01:43:46.592   06 Jun 2027 01:44:04.457            17.865                 Moscow           558.281
       437   06 Jun 2027 01:46:30.478   06 Jun 2027 01:46:32.954             2.476                 Moscow            77.375
       438   06 Jun 2027 01:47:22.184   06 Jun 2027 01:47:46.982            24.798                 Moscow           774.937
       439   06 Jun 2027 01:51:08.130   06 Jun 2027 01:51:15.528             7.398                 Moscow           231.188
       440   06 Jun 2027 01:51:57.456   06 Jun 2027 01:52:11.078            13.622                 Moscow           425.687
       441   06 Jun 2027 02:07:53.537   06 Jun 2027 02:09:28.801            95.264               CapeTown          2977.000
       442   06 Jun 2027 03:01:43.062   06 Jun 2027 03:01:53.191            10.129               Magadan1           316.531
       443   06 Jun 2027 03:02:40.070   06 Jun 2027 03:03:28.968            48.898               Magadan2          1528.062
       444   06 Jun 2027 03:06:01.682   06 Jun 2027 03:06:43.918            42.236                Anadyr1          1319.875
       445   06 Jun 2027 03:06:45.615   06 Jun 2027 03:06:59.224            13.609               Magadan1           425.281
       446   06 Jun 2027 03:07:07.426   06 Jun 2027 03:07:15.676             8.250               Magadan1           257.812
       447   06 Jun 2027 03:07:15.676   06 Jun 2027 03:07:26.775            11.099               Magadan2           346.844
       448   06 Jun 2027 03:07:38.130   06 Jun 2027 03:08:42.539            64.409               Magadan2          2012.781
       449   06 Jun 2027 03:08:42.539   06 Jun 2027 03:09:12.353            29.814               Magadan1           931.687
       450   06 Jun 2027 03:09:26.680   06 Jun 2027 03:10:31.332            64.652                Anadyr1          2020.375
       451   06 Jun 2027 03:11:11.673   06 Jun 2027 03:14:35.583           203.910               Magadan1          6372.187
       452   06 Jun 2027 03:56:16.770   06 Jun 2027 03:56:56.227            39.457            RioGallegos          1233.031
       453   06 Jun 2027 04:43:11.626   06 Jun 2027 04:43:32.735            21.109               Magadan1           659.656
       454   06 Jun 2027 04:43:34.317   06 Jun 2027 04:43:48.437            14.120                Norilsk           441.250
       455   06 Jun 2027 04:43:50.271   06 Jun 2027 04:45:43.486           113.215                Anadyr2          3537.969
       456   06 Jun 2027 04:45:59.229   06 Jun 2027 04:47:25.107            85.878                Norilsk          2683.687
       457   06 Jun 2027 04:47:27.945   06 Jun 2027 04:47:58.195            30.250                Novosib           945.312
       458   06 Jun 2027 04:48:05.627   06 Jun 2027 04:50:18.345           132.718               Magadan2          4147.437
       459   06 Jun 2027 05:25:24.526   06 Jun 2027 05:26:26.788            62.262            RioGallegos          1945.688
       460   06 Jun 2027 05:27:34.287   06 Jun 2027 05:29:23.375           109.088            RioGallegos          3409.000
       461   06 Jun 2027 06:02:50.403   06 Jun 2027 06:04:08.996            78.593                Sumatra          2456.031
       462   06 Jun 2027 06:06:40.531   06 Jun 2027 06:08:48.935           128.404                Sumatra          4012.625
       463   06 Jun 2027 06:20:52.342   06 Jun 2027 06:21:00.497             8.155                Norilsk           254.844
       464   06 Jun 2027 06:21:05.967   06 Jun 2027 06:21:54.118            48.151                Irkutsk          1504.719
       465   06 Jun 2027 06:22:00.500   06 Jun 2027 06:24:11.723           131.223               Magadan2          4100.719
       466   06 Jun 2027 06:24:22.772   06 Jun 2027 06:26:59.715           156.943              Murmansk1          4904.469
       467   06 Jun 2027 07:01:20.382   06 Jun 2027 07:02:03.565            43.183            RioGallegos          1349.469
       468   06 Jun 2027 07:03:26.127   06 Jun 2027 07:04:31.512            65.385            RioGallegos          2043.281
       469   06 Jun 2027 07:35:50.543   06 Jun 2027 07:37:51.946           121.403                Sumatra          3793.844
       470   06 Jun 2027 07:45:22.762   06 Jun 2027 07:46:17.732            54.970                  Delhi          1717.813
       471   06 Jun 2027 07:50:34.707   06 Jun 2027 07:51:36.290            61.583                  Delhi          1924.469
       472   06 Jun 2027 07:57:09.644   06 Jun 2027 07:57:36.834            27.190                Norilsk           849.688
       473   06 Jun 2027 07:57:39.437   06 Jun 2027 07:58:32.485            53.048                Novosib          1657.750
       474   06 Jun 2027 07:58:33.413   06 Jun 2027 07:59:41.460            68.047                 Moscow          2126.469
       475   06 Jun 2027 07:59:43.848   06 Jun 2027 08:00:03.854            20.006              Murmansk2           625.188
       476   06 Jun 2027 08:00:10.306   06 Jun 2027 08:00:22.902            12.596              Murmansk2           393.625
       477   06 Jun 2027 08:00:22.902   06 Jun 2027 08:01:25.972            63.070              Murmansk1          1970.937
       478   06 Jun 2027 08:01:32.790   06 Jun 2027 08:03:02.902            90.112              Murmansk2          2816.000
       479   06 Jun 2027 08:42:57.843   06 Jun 2027 08:44:04.488            66.645            RioGallegos          2082.656
       480   06 Jun 2027 09:20:19.665   06 Jun 2027 09:22:58.489           158.824                  Delhi          4963.250
       481   06 Jun 2027 09:33:19.246   06 Jun 2027 09:33:25.281             6.035                Novosib           188.594
       482   06 Jun 2027 09:33:25.724   06 Jun 2027 09:34:49.429            83.705                Novosib          2615.781
