uniorb/output/strategy_1/Drop/Drop_KinoSat_110707.txt

KinoSat_110707
-------------------------
    Access    *     Start Time (UTCG)     *     Stop Time (UTCG)  *   Duration (s)        *       Station  *  Data (Mbytes)
         1   01 Jun 2027 03:19:50.727   01 Jun 2027 03:20:14.012            23.285                Anadyr1           727.656
         2   01 Jun 2027 03:20:23.079   01 Jun 2027 03:21:07.416            44.337                Anadyr1          1385.531
         3   01 Jun 2027 03:21:13.713   01 Jun 2027 03:22:38.003            84.290                Anadyr1          2634.062
         4   01 Jun 2027 03:22:57.553   01 Jun 2027 03:23:12.009            14.456                Anadyr1           451.750
         5   01 Jun 2027 03:23:14.376   01 Jun 2027 03:23:21.523             7.147                Anadyr2           223.344
         6   01 Jun 2027 03:23:21.523   01 Jun 2027 03:23:24.962             3.439                Anadyr1           107.469
         7   01 Jun 2027 03:23:39.214   01 Jun 2027 03:25:45.065           125.851               Magadan2          3932.844
         8   01 Jun 2027 03:25:47.414   01 Jun 2027 03:27:10.338            82.924                Anadyr1          2591.375
         9   01 Jun 2027 04:55:29.141   01 Jun 2027 04:56:14.753            45.612               Magadan2          1425.375
        10   01 Jun 2027 04:56:17.878   01 Jun 2027 04:56:23.844             5.966               Magadan2           186.438
        11   01 Jun 2027 04:56:31.341   01 Jun 2027 04:56:57.872            26.531               Magadan2           829.094
        12   01 Jun 2027 04:56:57.964   01 Jun 2027 04:58:07.239            69.275                Irkutsk          2164.844
        13   01 Jun 2027 04:58:15.451   01 Jun 2027 04:59:45.748            90.297                Anadyr1          2821.781
        14   01 Jun 2027 04:59:58.889   01 Jun 2027 05:01:17.489            78.600               Magadan2          2456.250
        15   01 Jun 2027 05:01:29.944   01 Jun 2027 05:02:05.779            35.835               Magadan1          1119.844
        16   01 Jun 2027 05:02:20.634   01 Jun 2027 05:02:24.647             4.013                Anadyr1           125.406
        17   01 Jun 2027 05:02:59.051   01 Jun 2027 05:03:32.302            33.251                Norilsk          1039.094
        18   01 Jun 2027 05:05:16.895   01 Jun 2027 05:06:06.774            49.879                Norilsk          1558.719
        19   01 Jun 2027 05:38:12.273   01 Jun 2027 05:41:01.523           169.250            RioGallegos          5289.063
        20   01 Jun 2027 06:32:41.694   01 Jun 2027 06:33:17.781            36.087                Novosib          1127.719
        21   01 Jun 2027 06:33:49.968   01 Jun 2027 06:34:13.749            23.781                Novosib           743.156
        22   01 Jun 2027 06:34:15.166   01 Jun 2027 06:35:13.935            58.769                Irkutsk          1836.531
        23   01 Jun 2027 06:35:21.512   01 Jun 2027 06:36:18.342            56.830                Novosib          1775.938
        24   01 Jun 2027 06:36:25.716   01 Jun 2027 06:38:35.736           130.020                Irkutsk          4063.125
        25   01 Jun 2027 06:38:38.341   01 Jun 2027 06:38:54.661            16.320              Murmansk2           510.000
        26   01 Jun 2027 06:38:54.661   01 Jun 2027 06:39:50.941            56.280              Murmansk1          1758.750
        27   01 Jun 2027 07:13:22.067   01 Jun 2027 07:14:46.354            84.287            RioGallegos          2633.969
        28   01 Jun 2027 07:48:10.484   01 Jun 2027 07:49:07.572            57.088                Sumatra          1784.000
        29   01 Jun 2027 07:49:12.549   01 Jun 2027 07:50:50.322            97.773                Sumatra          3055.406
        30   01 Jun 2027 07:58:50.359   01 Jun 2027 08:00:13.707            83.348                  Delhi          2604.625
        31   01 Jun 2027 08:10:15.187   01 Jun 2027 08:11:51.449            96.262                Novosib          3008.187
        32   01 Jun 2027 08:12:14.243   01 Jun 2027 08:14:10.016           115.773              Murmansk2          3617.906
        33   01 Jun 2027 08:14:11.758   01 Jun 2027 08:15:01.402            49.644              Murmansk2          1551.375
        34   01 Jun 2027 08:15:14.290   01 Jun 2027 08:15:37.090            22.800                 Moscow           712.500
        35   01 Jun 2027 08:16:52.452   01 Jun 2027 08:17:28.546            36.094                Norilsk          1127.937
        36   01 Jun 2027 08:52:53.865   01 Jun 2027 08:54:27.298            93.433            RioGallegos          2919.781
        37   01 Jun 2027 09:28:00.799   01 Jun 2027 09:29:52.528           111.729                Sumatra          3491.531
        38   01 Jun 2027 09:32:22.771   01 Jun 2027 09:33:51.033            88.262                  Delhi          2758.187
        39   01 Jun 2027 09:47:45.778   01 Jun 2027 09:49:12.409            86.631                 Moscow          2707.219
        40   01 Jun 2027 09:49:14.786   01 Jun 2027 09:49:46.139            31.353              Murmansk2           979.781
        41   01 Jun 2027 09:50:00.511   01 Jun 2027 09:51:16.035            75.524                Norilsk          2360.125
        42   01 Jun 2027 09:51:55.303   01 Jun 2027 09:52:48.355            53.052              Murmansk1          1657.875
        43   01 Jun 2027 11:21:53.394   01 Jun 2027 11:23:51.290           117.896              Murmansk2          3684.250
        44   01 Jun 2027 11:23:57.792   01 Jun 2027 11:25:12.729            74.937                 Moscow          2341.781
        45   01 Jun 2027 11:25:17.951   01 Jun 2027 11:27:34.432           136.481              Murmansk1          4265.031
        46   01 Jun 2027 12:31:40.890   01 Jun 2027 12:32:32.113            51.223               CapeTown          1600.719
        47   01 Jun 2027 12:32:54.223   01 Jun 2027 12:36:09.894           195.671               CapeTown          6114.719
        48   01 Jun 2027 12:36:53.983   01 Jun 2027 12:38:52.549           118.566               CapeTown          3705.188
        49   01 Jun 2027 12:57:05.537   01 Jun 2027 12:58:09.515            63.978              Murmansk1          1999.312
        50   01 Jun 2027 13:11:21.800   01 Jun 2027 13:14:39.624           197.824                Anadyr2          6182.000
        51   01 Jun 2027 13:15:21.803   01 Jun 2027 13:17:10.677           108.874                Anadyr1          3402.313
        52   01 Jun 2027 13:17:24.720   01 Jun 2027 13:20:21.513           176.793                Anadyr2          5524.781
        53   01 Jun 2027 14:46:49.375   01 Jun 2027 14:49:29.710           160.335                Anadyr1          5010.469
        54   01 Jun 2027 14:50:25.656   01 Jun 2027 14:50:32.791             7.135                Anadyr1           222.969
        55   01 Jun 2027 14:50:37.507   01 Jun 2027 14:57:23.080           405.573               Magadan1         12674.156
        56   01 Jun 2027 16:25:06.940   01 Jun 2027 16:27:25.465           138.525               Magadan1          4328.906
        57   01 Jun 2027 16:27:25.465   01 Jun 2027 16:28:34.322            68.857               Magadan2          2151.781
        58   01 Jun 2027 17:58:34.996   01 Jun 2027 18:02:06.241           211.245                Anadyr2          6601.406
        59   01 Jun 2027 18:02:13.554   01 Jun 2027 18:03:30.894            77.340               Magadan1          2416.875
        60   01 Jun 2027 18:03:32.095   01 Jun 2027 18:07:02.483           210.388                Norilsk          6574.625
        61   01 Jun 2027 18:07:55.528   01 Jun 2027 18:10:47.402           171.874                Irkutsk          5371.062
        62   01 Jun 2027 18:11:07.490   01 Jun 2027 18:12:41.300            93.810                Irkutsk          2931.563
        63   01 Jun 2027 18:23:20.152   01 Jun 2027 18:26:48.405           208.253                Sumatra          6507.906
        64   01 Jun 2027 19:36:28.150   01 Jun 2027 19:37:33.148            64.998                Norilsk          2031.187
        65   01 Jun 2027 19:41:34.371   01 Jun 2027 19:45:07.275           212.904                Novosib          6653.250
        66   01 Jun 2027 19:46:04.428   01 Jun 2027 19:47:08.683            64.255                Novosib          2007.969
        67   01 Jun 2027 19:54:49.544   01 Jun 2027 19:55:50.999            61.455                Sumatra          1920.469
        68   01 Jun 2027 21:16:18.890   01 Jun 2027 21:16:53.784            34.894                Novosib          1090.438
        69   01 Jun 2027 21:18:07.779   01 Jun 2027 21:18:34.344            26.565              Murmansk2           830.156
        70   01 Jun 2027 21:23:46.204   01 Jun 2027 21:27:02.748           196.544                  Delhi          6142.000
        71   01 Jun 2027 21:34:45.488   01 Jun 2027 21:35:18.993            33.505                  Delhi          1047.031
        72   01 Jun 2027 22:47:57.089   01 Jun 2027 22:48:20.527            23.438               Magadan2           732.438
        73   01 Jun 2027 22:48:41.731   01 Jun 2027 22:49:37.204            55.473               Magadan2          1733.531
        74   01 Jun 2027 22:49:46.978   01 Jun 2027 22:49:50.897             3.919               Magadan2           122.469
        75   01 Jun 2027 22:50:03.248   01 Jun 2027 22:50:12.235             8.987               Magadan2           280.844
        76   01 Jun 2027 22:50:41.844   01 Jun 2027 22:56:17.499           335.655              Murmansk2         10489.219
        77   01 Jun 2027 22:57:00.235   01 Jun 2027 23:00:44.885           224.650                 Moscow          7020.312
        78   01 Jun 2027 23:22:29.061   01 Jun 2027 23:23:52.837            83.776               CapeTown          2618.000
        79   01 Jun 2027 23:24:35.836   01 Jun 2027 23:26:24.359           108.523               CapeTown          3391.344
        80   02 Jun 2027 00:29:48.967   02 Jun 2027 00:31:26.818            97.851                 Moscow          3057.844
        81   02 Jun 2027 00:53:46.513   02 Jun 2027 00:55:20.240            93.727               CapeTown          2928.969
        82   02 Jun 2027 01:51:14.170   02 Jun 2027 01:51:37.922            23.752                Anadyr1           742.250
        83   02 Jun 2027 01:52:03.440   02 Jun 2027 01:52:58.364            54.924               Magadan1          1716.375
        84   02 Jun 2027 01:53:16.314   02 Jun 2027 01:53:46.181            29.867               Magadan2           933.344
        85   02 Jun 2027 01:54:18.961   02 Jun 2027 01:54:29.790            10.829               Magadan2           338.406
        86   02 Jun 2027 01:55:21.202   02 Jun 2027 01:55:33.205            12.003               Magadan2           375.094
        87   02 Jun 2027 02:00:25.270   02 Jun 2027 02:00:56.674            31.404               Magadan1           981.375
        88   02 Jun 2027 02:02:31.036   02 Jun 2027 02:02:37.124             6.088              Murmansk1           190.250
        89   02 Jun 2027 02:02:37.124   02 Jun 2027 02:02:42.131             5.007              Murmansk2           156.469
        90   02 Jun 2027 02:02:53.871   02 Jun 2027 02:03:22.077            28.206              Murmansk1           881.438
        91   02 Jun 2027 02:03:34.245   02 Jun 2027 02:04:29.512            55.267              Murmansk1          1727.094
        92   02 Jun 2027 02:05:49.651   02 Jun 2027 02:06:59.964            70.313                 Moscow          2197.281
        93   02 Jun 2027 02:12:38.998   02 Jun 2027 02:14:10.482            91.484                 Moscow          2858.875
        94   02 Jun 2027 02:35:39.066   02 Jun 2027 02:35:47.189             8.123               CapeTown           253.844
        95   02 Jun 2027 02:39:20.511   02 Jun 2027 02:39:45.068            24.557               CapeTown           767.406
        96   02 Jun 2027 03:30:54.771   02 Jun 2027 03:31:55.235            60.464                Anadyr1          1889.500
        97   02 Jun 2027 03:32:13.291   02 Jun 2027 03:32:41.332            28.041                Anadyr1           876.281
        98   02 Jun 2027 03:32:48.932   02 Jun 2027 03:36:08.687           199.755               Magadan2          6242.344
        99   02 Jun 2027 03:36:08.687   02 Jun 2027 03:36:56.203            47.516               Magadan1          1484.875
       100   02 Jun 2027 03:36:56.203   02 Jun 2027 03:38:03.997            67.794               Magadan2          2118.563
       101   02 Jun 2027 03:38:11.643   02 Jun 2027 03:38:56.914            45.271                Anadyr1          1414.719
       102   02 Jun 2027 05:08:02.206   02 Jun 2027 05:08:17.158            14.952               Magadan2           467.250
       103   02 Jun 2027 05:08:21.385   02 Jun 2027 05:08:45.944            24.559                Irkutsk           767.469
       104   02 Jun 2027 05:08:46.428   02 Jun 2027 05:08:50.261             3.833                Norilsk           119.781
       105   02 Jun 2027 05:08:52.417   02 Jun 2027 05:10:31.037            98.620               Magadan1          3081.875
       106   02 Jun 2027 05:10:33.843   02 Jun 2027 05:12:40.202           126.359                Anadyr2          3948.719
       107   02 Jun 2027 05:12:40.202   02 Jun 2027 05:12:52.566            12.364                Anadyr1           386.375
       108   02 Jun 2027 05:12:55.848   02 Jun 2027 05:14:00.407            64.559               Magadan2          2017.469
       109   02 Jun 2027 05:14:00.407   02 Jun 2027 05:14:43.039            42.632               Magadan1          1332.250
       110   02 Jun 2027 05:49:56.617   02 Jun 2027 05:50:46.662            50.045            RioGallegos          1563.906
       111   02 Jun 2027 05:53:14.340   02 Jun 2027 05:53:14.501             0.161            RioGallegos             5.031
       112   02 Jun 2027 05:53:27.476   02 Jun 2027 05:53:41.802            14.326            RioGallegos           447.687
       113   02 Jun 2027 06:28:14.031   02 Jun 2027 06:29:37.936            83.905                Sumatra          2622.031
       114   02 Jun 2027 06:30:55.953   02 Jun 2027 06:33:01.932           125.979                Sumatra          3936.844
       115   02 Jun 2027 06:45:08.066   02 Jun 2027 06:46:36.809            88.743                Norilsk          2773.219
       116   02 Jun 2027 06:46:39.817   02 Jun 2027 06:46:48.296             8.479               Magadan1           264.969
       117   02 Jun 2027 06:46:48.296   02 Jun 2027 06:47:58.210            69.914               Magadan2          2184.812
       118   02 Jun 2027 06:48:05.290   02 Jun 2027 06:49:03.415            58.125               Magadan1          1816.406
       119   02 Jun 2027 06:49:18.309   02 Jun 2027 06:50:37.788            79.479              Murmansk1          2483.719
       120   02 Jun 2027 06:50:37.788   02 Jun 2027 06:51:39.930            62.142              Murmansk2          1941.937
       121   02 Jun 2027 06:51:48.141   02 Jun 2027 06:52:21.568            33.427                Norilsk          1044.594
       122   02 Jun 2027 06:53:07.936   02 Jun 2027 06:53:36.733            28.797              Murmansk2           899.906
       123   02 Jun 2027 06:54:15.278   02 Jun 2027 06:54:43.921            28.643                Norilsk           895.094
       124   02 Jun 2027 06:56:04.037   02 Jun 2027 06:56:12.969             8.932              Murmansk1           279.125
       125   02 Jun 2027 07:25:32.787   02 Jun 2027 07:26:40.242            67.455            RioGallegos          2107.969
       126   02 Jun 2027 07:28:19.097   02 Jun 2027 07:28:27.444             8.347            RioGallegos           260.844
       127   02 Jun 2027 07:30:41.515   02 Jun 2027 07:30:46.388             4.873            RioGallegos           152.281
       128   02 Jun 2027 08:00:10.023   02 Jun 2027 08:01:00.708            50.685                Sumatra          1583.906
       129   02 Jun 2027 08:03:19.142   02 Jun 2027 08:05:00.245           101.103                Sumatra          3159.469
       130   02 Jun 2027 08:10:09.465   02 Jun 2027 08:12:29.224           139.759                  Delhi          4367.469
       131   02 Jun 2027 08:20:20.492   02 Jun 2027 08:20:28.862             8.370                  Delhi           261.563
       132   02 Jun 2027 08:22:29.937   02 Jun 2027 08:23:13.898            43.961                Novosib          1373.781
       133   02 Jun 2027 08:23:37.721   02 Jun 2027 08:25:07.926            90.205                Novosib          2818.906
       134   02 Jun 2027 08:25:07.943   02 Jun 2027 08:25:57.690            49.747                 Moscow          1554.594
       135   02 Jun 2027 08:25:58.514   02 Jun 2027 08:26:57.971            59.457              Murmansk2          1858.031
       136   02 Jun 2027 08:27:05.856   02 Jun 2027 08:27:19.268            13.412                Norilsk           419.125
       137   02 Jun 2027 08:27:20.364   02 Jun 2027 08:27:49.995            29.631                 Moscow           925.969
       138   02 Jun 2027 08:28:26.530   02 Jun 2027 08:28:31.151             4.621                 Moscow           144.406
       139   02 Jun 2027 09:06:04.251   02 Jun 2027 09:06:19.427            15.176            RioGallegos           474.250
       140   02 Jun 2027 09:06:31.415   02 Jun 2027 09:07:15.710            44.295            RioGallegos          1384.219
       141   02 Jun 2027 09:08:23.556   02 Jun 2027 09:08:39.370            15.814            RioGallegos           494.188
       142   02 Jun 2027 09:09:38.737   02 Jun 2027 09:09:57.600            18.863            RioGallegos           589.469
       143   02 Jun 2027 09:44:31.906   02 Jun 2027 09:47:03.163           151.257                  Delhi          4726.781
       144   02 Jun 2027 09:59:44.592   02 Jun 2027 10:00:47.736            63.144                Novosib          1973.250
       145   02 Jun 2027 10:00:51.305   02 Jun 2027 10:01:12.407            21.102              Murmansk1           659.437
       146   02 Jun 2027 10:01:12.407   02 Jun 2027 10:01:34.988            22.581              Murmansk2           705.656
       147   02 Jun 2027 10:01:35.144   02 Jun 2027 10:01:57.818            22.674                 Moscow           708.563
       148   02 Jun 2027 10:02:14.087   02 Jun 2027 10:03:17.978            63.891                Norilsk          1996.594
       149   02 Jun 2027 10:03:43.090   02 Jun 2027 10:04:18.373            35.283                 Moscow          1102.594
       150   02 Jun 2027 10:04:32.505   02 Jun 2027 10:04:50.264            17.759                 Moscow           554.969
       151   02 Jun 2027 11:35:33.573   02 Jun 2027 11:38:50.916           197.343              Murmansk2          6166.969
       152   02 Jun 2027 11:39:00.607   02 Jun 2027 11:39:13.817            13.210              Murmansk2           412.812
       153   02 Jun 2027 11:40:09.434   02 Jun 2027 11:40:31.636            22.202                 Moscow           693.812
       154   02 Jun 2027 11:41:45.047   02 Jun 2027 11:41:51.319             6.272              Murmansk1           196.000
       155   02 Jun 2027 11:42:23.103   02 Jun 2027 11:42:31.430             8.327              Murmansk1           260.219
       156   02 Jun 2027 11:42:39.461   02 Jun 2027 11:43:08.900            29.439                Norilsk           919.969
       157   02 Jun 2027 11:43:26.682   02 Jun 2027 11:43:49.293            22.611              Murmansk2           706.594
       158   02 Jun 2027 12:43:15.030   02 Jun 2027 12:44:36.695            81.665               CapeTown          2552.031
       159   02 Jun 2027 12:46:07.380   02 Jun 2027 12:49:52.004           224.624               CapeTown          7019.500
       160   02 Jun 2027 13:09:22.647   02 Jun 2027 13:11:21.815           119.168              Murmansk1          3724.000
       161   02 Jun 2027 13:11:31.526   02 Jun 2027 13:12:13.950            42.424              Murmansk1          1325.750
       162   02 Jun 2027 13:23:15.874   02 Jun 2027 13:25:47.978           152.104                Anadyr1          4753.250
       163   02 Jun 2027 13:26:19.219   02 Jun 2027 13:29:34.069           194.850                Anadyr2          6089.062
       164   02 Jun 2027 13:30:27.344   02 Jun 2027 13:32:56.594           149.250                Anadyr2          4664.062
       165   02 Jun 2027 14:58:49.850   02 Jun 2027 15:00:55.866           126.016                Anadyr2          3938.000
       166   02 Jun 2027 15:02:10.142   02 Jun 2027 15:08:34.219           384.077               Magadan1         12002.406
       167   02 Jun 2027 15:09:21.325   02 Jun 2027 15:10:15.131            53.806               Magadan2          1681.438
       168   02 Jun 2027 16:37:05.531   02 Jun 2027 16:39:49.171           163.640               Magadan1          5113.750
       169   02 Jun 2027 16:40:37.049   02 Jun 2027 16:41:18.666            41.617               Magadan1          1300.531
       170   02 Jun 2027 17:32:00.970   02 Jun 2027 17:35:06.594           185.624            RioGallegos          5800.750
       171   02 Jun 2027 18:10:34.649   02 Jun 2027 18:11:02.324            27.675                Anadyr2           864.844
       172   02 Jun 2027 18:11:51.732   02 Jun 2027 18:11:54.585             2.853                Anadyr2            89.156
       173   02 Jun 2027 18:12:22.951   02 Jun 2027 18:12:49.143            26.192                Anadyr2           818.500
       174   02 Jun 2027 18:12:49.290   02 Jun 2027 18:20:00.609           431.319                Norilsk         13478.719
       175   02 Jun 2027 18:20:05.909   02 Jun 2027 18:23:16.688           190.779                Irkutsk          5961.844
       176   02 Jun 2027 18:24:43.440   02 Jun 2027 18:25:16.155            32.715                Irkutsk          1022.344
       177   02 Jun 2027 18:33:29.743   02 Jun 2027 18:36:51.701           201.958                Sumatra          6311.188
       178   02 Jun 2027 18:38:59.355   02 Jun 2027 18:40:31.817            92.462                Sumatra          2889.437
       179   02 Jun 2027 19:51:37.162   02 Jun 2027 19:51:59.857            22.695                Norilsk           709.219
       180   02 Jun 2027 19:55:47.022   02 Jun 2027 19:58:26.392           159.370                Novosib          4980.312
       181   02 Jun 2027 21:27:44.749   02 Jun 2027 21:31:55.380           250.631              Murmansk1          7832.219
       182   02 Jun 2027 21:37:06.559   02 Jun 2027 21:37:19.402            12.843                  Delhi           401.344
       183   02 Jun 2027 21:45:12.806   02 Jun 2027 21:45:32.812            20.006                  Delhi           625.188
       184   02 Jun 2027 22:59:35.814   02 Jun 2027 23:00:21.294            45.480               Magadan1          1421.250
       185   02 Jun 2027 23:00:24.881   02 Jun 2027 23:00:57.263            32.382                Norilsk          1011.937
       186   02 Jun 2027 23:01:25.537   02 Jun 2027 23:02:02.876            37.339               Magadan1          1166.844
       187   02 Jun 2027 23:02:02.876   02 Jun 2027 23:02:09.340             6.464               Magadan2           202.000
       188   02 Jun 2027 23:02:22.522   02 Jun 2027 23:02:58.066            35.544               Magadan1          1110.750
       189   02 Jun 2027 23:03:08.807   02 Jun 2027 23:04:19.203            70.396              Murmansk1          2199.875
       190   02 Jun 2027 23:04:28.443   02 Jun 2027 23:08:10.589           222.146              Murmansk2          6942.063
       191   02 Jun 2027 23:08:39.764   02 Jun 2027 23:09:21.497            41.733              Murmansk1          1304.156
       192   02 Jun 2027 23:09:27.530   02 Jun 2027 23:11:45.868           138.338                 Moscow          4323.063
       193   02 Jun 2027 23:12:23.948   02 Jun 2027 23:12:49.003            25.055                 Moscow           782.969
       194   02 Jun 2027 23:33:17.634   02 Jun 2027 23:35:20.879           123.245               CapeTown          3851.406
       195   02 Jun 2027 23:36:35.296   02 Jun 2027 23:38:39.972           124.676               CapeTown          3896.125
       196   02 Jun 2027 23:40:48.747   02 Jun 2027 23:40:53.662             4.915               CapeTown           153.594
       197   03 Jun 2027 00:40:15.479   03 Jun 2027 00:40:43.398            27.919              Murmansk2           872.469
       198   03 Jun 2027 00:41:35.297   03 Jun 2027 00:41:40.818             5.521              Murmansk1           172.531
       199   03 Jun 2027 00:44:26.807   03 Jun 2027 00:45:03.469            36.662                 Moscow          1145.688
       200   03 Jun 2027 00:46:28.121   03 Jun 2027 00:46:29.616             1.495              Murmansk2            46.719
       201   03 Jun 2027 00:46:29.616   03 Jun 2027 00:46:49.468            19.852              Murmansk1           620.375
       202   03 Jun 2027 00:47:18.846   03 Jun 2027 00:48:10.719            51.873              Murmansk1          1621.031
       203   03 Jun 2027 00:52:56.097   03 Jun 2027 00:53:15.995            19.898                 Moscow           621.812
       204   03 Jun 2027 00:54:40.304   03 Jun 2027 00:54:41.673             1.369                 Moscow            42.781
       205   03 Jun 2027 01:05:56.393   03 Jun 2027 01:06:15.770            19.377               CapeTown           605.531
       206   03 Jun 2027 01:09:56.542   03 Jun 2027 01:10:14.412            17.870               CapeTown           558.437
       207   03 Jun 2027 01:11:25.334   03 Jun 2027 01:13:02.050            96.716               CapeTown          3022.375
       208   03 Jun 2027 02:03:01.320   03 Jun 2027 02:03:06.694             5.374                Anadyr2           167.937
       209   03 Jun 2027 02:03:43.812   03 Jun 2027 02:04:27.499            43.687               Magadan1          1365.219
       210   03 Jun 2027 02:04:32.394   03 Jun 2027 02:05:19.021            46.627               Magadan2          1457.094
       211   03 Jun 2027 02:06:32.035   03 Jun 2027 02:07:03.954            31.919               Magadan2           997.469
       212   03 Jun 2027 02:09:40.827   03 Jun 2027 02:09:56.067            15.240               Magadan2           476.250
       213   03 Jun 2027 02:10:43.467   03 Jun 2027 02:10:59.401            15.934               Magadan1           497.938
       214   03 Jun 2027 02:11:36.528   03 Jun 2027 02:12:11.759            35.231                Norilsk          1100.969
       215   03 Jun 2027 02:14:32.185   03 Jun 2027 02:15:51.332            79.147              Murmansk2          2473.344
       216   03 Jun 2027 02:17:10.904   03 Jun 2027 02:17:50.917            40.013              Murmansk2          1250.406
       217   03 Jun 2027 02:19:40.409   03 Jun 2027 02:20:00.827            20.418                 Moscow           638.062
       218   03 Jun 2027 02:22:19.973   03 Jun 2027 02:22:31.235            11.262              Murmansk1           351.938
       219   03 Jun 2027 02:23:07.704   03 Jun 2027 02:23:18.416            10.712              Murmansk2           334.750
       220   03 Jun 2027 02:24:27.048   03 Jun 2027 02:24:39.711            12.663                 Moscow           395.719
       221   03 Jun 2027 02:24:41.471   03 Jun 2027 02:25:54.948            73.477                 Moscow          2296.156
       222   03 Jun 2027 02:48:16.396   03 Jun 2027 02:48:33.268            16.872               CapeTown           527.250
       223   03 Jun 2027 02:49:28.972   03 Jun 2027 02:50:59.679            90.707               CapeTown          2834.594
       224   03 Jun 2027 03:44:42.820   03 Jun 2027 03:46:30.014           107.194                Anadyr2          3349.813
       225   03 Jun 2027 03:46:36.962   03 Jun 2027 03:47:03.282            26.320                Anadyr2           822.500
       226   03 Jun 2027 03:47:03.282   03 Jun 2027 03:48:37.292            94.010                Anadyr1          2937.812
       227   03 Jun 2027 03:50:35.271   03 Jun 2027 03:50:58.651            23.380               Magadan2           730.625
       228   03 Jun 2027 05:20:25.404   03 Jun 2027 05:20:56.921            31.517                Anadyr1           984.906
       229   03 Jun 2027 05:21:07.729   03 Jun 2027 05:24:12.036           184.307               Magadan1          5759.594
       230   03 Jun 2027 05:24:14.844   03 Jun 2027 05:24:51.866            37.022               Magadan1          1156.937
       231   03 Jun 2027 05:25:02.370   03 Jun 2027 05:26:40.187            97.817               Magadan1          3056.781
       232   03 Jun 2027 06:01:44.161   03 Jun 2027 06:02:08.414            24.253            RioGallegos           757.906
       233   03 Jun 2027 06:03:43.528   03 Jun 2027 06:04:33.266            49.738            RioGallegos          1554.312
       234   03 Jun 2027 06:38:55.527   03 Jun 2027 06:40:08.169            72.642                Sumatra          2270.062
       235   03 Jun 2027 06:42:45.955   03 Jun 2027 06:44:58.183           132.228                Sumatra          4132.125
       236   03 Jun 2027 06:55:40.388   03 Jun 2027 06:56:01.929            21.541                Irkutsk           673.156
       237   03 Jun 2027 06:57:21.946   03 Jun 2027 06:58:24.962            63.016                Irkutsk          1969.250
       238   03 Jun 2027 06:58:26.845   03 Jun 2027 06:58:57.699            30.854               Magadan2           964.187
       239   03 Jun 2027 06:59:33.743   03 Jun 2027 06:59:44.681            10.938                Irkutsk           341.812
       240   03 Jun 2027 06:59:55.131   03 Jun 2027 07:00:08.482            13.351               Magadan1           417.219
       241   03 Jun 2027 07:00:08.482   03 Jun 2027 07:00:19.631            11.149               Magadan2           348.406
       242   03 Jun 2027 07:00:29.990   03 Jun 2027 07:03:07.565           157.575                Novosib          4924.219
       243   03 Jun 2027 07:03:10.414   03 Jun 2027 07:03:50.144            39.730              Murmansk2          1241.563
       244   03 Jun 2027 07:04:58.479   03 Jun 2027 07:05:04.804             6.325              Murmansk1           197.656
       245   03 Jun 2027 07:37:47.389   03 Jun 2027 07:38:37.330            49.941            RioGallegos          1560.656
       246   03 Jun 2027 07:41:54.139   03 Jun 2027 07:42:17.813            23.674            RioGallegos           739.812
       247   03 Jun 2027 08:12:15.183   03 Jun 2027 08:14:13.056           117.873                Sumatra          3683.531
       248   03 Jun 2027 08:16:02.310   03 Jun 2027 08:17:27.237            84.927                Sumatra          2653.969
       249   03 Jun 2027 08:21:37.625   03 Jun 2027 08:21:47.966            10.341                  Delhi           323.156
       250   03 Jun 2027 08:22:45.761   03 Jun 2027 08:24:51.627           125.866                  Delhi          3933.312
       251   03 Jun 2027 08:34:55.653   03 Jun 2027 08:35:51.209            55.556              Murmansk1          1736.125
       252   03 Jun 2027 08:35:51.209   03 Jun 2027 08:36:06.454            15.245              Murmansk2           476.406
       253   03 Jun 2027 08:36:07.698   03 Jun 2027 08:36:34.725            27.027                 Moscow           844.594
       254   03 Jun 2027 08:36:45.951   03 Jun 2027 08:39:21.631           155.680              Murmansk1          4865.000
       255   03 Jun 2027 08:39:21.631   03 Jun 2027 08:39:41.448            19.817              Murmansk2           619.281
       256   03 Jun 2027 08:39:57.328   03 Jun 2027 08:40:12.551            15.223              Murmansk1           475.719
       257   03 Jun 2027 08:40:14.007   03 Jun 2027 08:40:25.284            11.277                 Moscow           352.406
       258   03 Jun 2027 08:40:29.417   03 Jun 2027 08:40:37.209             7.792                 Moscow           243.500
       259   03 Jun 2027 08:42:58.381   03 Jun 2027 08:43:34.779            36.398              Murmansk1          1137.437
       260   03 Jun 2027 09:20:06.306   03 Jun 2027 09:20:58.723            52.417            RioGallegos          1638.031
       261   03 Jun 2027 09:56:47.071   03 Jun 2027 09:59:18.611           151.540                  Delhi          4735.625
       262   03 Jun 2027 10:10:34.341   03 Jun 2027 10:10:53.575            19.234              Murmansk1           601.062
       263   03 Jun 2027 10:10:54.590   03 Jun 2027 10:11:47.211            52.621                 Moscow          1644.406
       264   03 Jun 2027 10:12:05.284   03 Jun 2027 10:13:09.748            64.464              Murmansk1          2014.500
       265   03 Jun 2027 10:13:09.748   03 Jun 2027 10:13:23.280            13.532              Murmansk2           422.875
       266   03 Jun 2027 10:13:30.359   03 Jun 2027 10:13:56.427            26.068                Norilsk           814.625
       267   03 Jun 2027 10:14:10.655   03 Jun 2027 10:15:25.390            74.735                 Moscow          2335.469
       268   03 Jun 2027 10:16:42.665   03 Jun 2027 10:16:47.062             4.397              Murmansk2           137.406
       269   03 Jun 2027 10:19:56.125   03 Jun 2027 10:19:58.530             2.405              Murmansk1            75.156
       270   03 Jun 2027 11:44:46.947   03 Jun 2027 11:44:57.029            10.082              Murmansk2           315.062
       271   03 Jun 2027 11:45:20.974   03 Jun 2027 11:45:26.295             5.321                 Moscow           166.281
       272   03 Jun 2027 11:45:33.107   03 Jun 2027 11:46:14.690            41.583              Murmansk2          1299.469
       273   03 Jun 2027 11:46:43.586   03 Jun 2027 11:46:54.657            11.071              Murmansk1           345.969
       274   03 Jun 2027 11:46:56.083   03 Jun 2027 11:47:09.912            13.829                 Moscow           432.156
       275   03 Jun 2027 11:47:27.097   03 Jun 2027 11:47:35.154             8.057              Murmansk1           251.781
       276   03 Jun 2027 11:47:35.154   03 Jun 2027 11:48:11.709            36.555              Murmansk2          1142.344
       277   03 Jun 2027 11:48:18.136   03 Jun 2027 11:48:36.331            18.195                 Moscow           568.594
       278   03 Jun 2027 11:48:54.628   03 Jun 2027 11:48:55.788             1.160              Murmansk2            36.250
       279   03 Jun 2027 11:48:55.788   03 Jun 2027 11:49:37.718            41.930              Murmansk1          1310.313
       280   03 Jun 2027 11:52:47.243   03 Jun 2027 11:52:51.745             4.502              Murmansk1           140.687
       281   03 Jun 2027 11:54:52.276   03 Jun 2027 11:55:09.239            16.963              Murmansk2           530.094
       282   03 Jun 2027 12:54:56.187   03 Jun 2027 12:58:19.088           202.901               CapeTown          6340.656
       283   03 Jun 2027 13:00:23.388   03 Jun 2027 13:00:43.655            20.267               CapeTown           633.344
       284   03 Jun 2027 13:21:41.861   03 Jun 2027 13:24:01.210           139.349              Murmansk2          4354.656
       285   03 Jun 2027 13:25:34.717   03 Jun 2027 13:26:32.176            57.459              Murmansk1          1795.594
       286   03 Jun 2027 13:28:16.263   03 Jun 2027 13:28:30.105            13.842              Murmansk1           432.563
       287   03 Jun 2027 13:29:13.347   03 Jun 2027 13:29:56.254            42.907              Murmansk1          1340.844
       288   03 Jun 2027 13:31:26.560   03 Jun 2027 13:31:33.312             6.752              Murmansk1           211.000
       289   03 Jun 2027 13:32:17.108   03 Jun 2027 13:32:52.645            35.537              Murmansk1          1110.531
       290   03 Jun 2027 13:35:11.555   03 Jun 2027 13:37:22.890           131.335                Anadyr2          4104.219
       291   03 Jun 2027 13:38:20.520   03 Jun 2027 13:39:18.448            57.928                Anadyr1          1810.250
       292   03 Jun 2027 13:41:29.935   03 Jun 2027 13:41:44.032            14.097                Anadyr2           440.531
       293   03 Jun 2027 13:43:10.602   03 Jun 2027 13:44:43.529            92.927                Anadyr2          2903.969
       294   03 Jun 2027 15:01:32.461   03 Jun 2027 15:02:30.522            58.061              Murmansk2          1814.406
       295   03 Jun 2027 15:06:24.362   03 Jun 2027 15:06:45.383            21.021              Murmansk1           656.906
       296   03 Jun 2027 15:07:02.635   03 Jun 2027 15:07:44.618            41.983              Murmansk1          1311.969
       297   03 Jun 2027 15:10:50.595   03 Jun 2027 15:12:16.319            85.724                Anadyr2          2678.875
       298   03 Jun 2027 15:13:36.914   03 Jun 2027 15:14:28.023            51.109                Anadyr1          1597.156
       299   03 Jun 2027 15:14:40.047   03 Jun 2027 15:21:22.673           402.626               Magadan2         12582.063
       300   03 Jun 2027 16:49:04.801   03 Jun 2027 16:49:50.312            45.511               Magadan1          1422.219
       301   03 Jun 2027 16:49:50.312   03 Jun 2027 16:51:24.595            94.283               Magadan2          2946.344
       302   03 Jun 2027 17:42:51.032   03 Jun 2027 17:45:42.827           171.795            RioGallegos          5368.594
       303   03 Jun 2027 18:23:35.538   03 Jun 2027 18:24:00.363            24.825                Anadyr1           775.781
       304   03 Jun 2027 18:24:41.195   03 Jun 2027 18:25:13.485            32.290                Anadyr2          1009.063
       305   03 Jun 2027 18:25:21.511   03 Jun 2027 18:27:57.401           155.890               Magadan2          4871.563
       306   03 Jun 2027 18:29:37.298   03 Jun 2027 18:35:22.428           345.130                Irkutsk         10785.313
       307   03 Jun 2027 18:44:27.674   03 Jun 2027 18:49:18.096           290.422                Sumatra          9075.688
       308   03 Jun 2027 18:50:58.395   03 Jun 2027 18:53:23.558           145.163                Sumatra          4536.344
       309   03 Jun 2027 20:14:51.261   03 Jun 2027 20:16:55.709           124.448                  Delhi          3889.000
       310   03 Jun 2027 20:18:31.377   03 Jun 2027 20:20:27.329           115.952                  Delhi          3623.500
       311   03 Jun 2027 21:39:26.660   03 Jun 2027 21:43:16.368           229.708              Murmansk2          7178.375
       312   03 Jun 2027 21:43:43.525   03 Jun 2027 21:44:55.244            71.719              Murmansk1          2241.219
       313   03 Jun 2027 23:13:51.147   03 Jun 2027 23:14:02.797            11.650               Magadan2           364.062
       314   03 Jun 2027 23:14:41.359   03 Jun 2027 23:16:14.327            92.968              Murmansk1          2905.250
       315   03 Jun 2027 23:16:22.777   03 Jun 2027 23:18:54.301           151.524              Murmansk2          4735.125
       316   03 Jun 2027 23:19:11.019   03 Jun 2027 23:21:31.686           140.667                 Moscow          4395.844
       317   03 Jun 2027 23:44:24.905   03 Jun 2027 23:44:26.559             1.654               CapeTown            51.688
       318   03 Jun 2027 23:45:29.771   03 Jun 2027 23:46:13.089            43.318               CapeTown          1353.687
       319   03 Jun 2027 23:46:19.182   03 Jun 2027 23:46:55.703            36.521               CapeTown          1141.281
       320   03 Jun 2027 23:48:34.829   03 Jun 2027 23:50:32.643           117.814               CapeTown          3681.688
       321   03 Jun 2027 23:51:13.843   03 Jun 2027 23:52:11.502            57.659               CapeTown          1801.844
       322   04 Jun 2027 00:50:36.530   04 Jun 2027 00:51:41.022            64.492              Murmansk2          2015.375
       323   04 Jun 2027 00:53:30.244   04 Jun 2027 00:53:51.709            21.465              Murmansk2           670.781
       324   04 Jun 2027 00:57:07.771   04 Jun 2027 00:57:14.865             7.094                 Moscow           221.688
       325   04 Jun 2027 00:57:40.679   04 Jun 2027 00:58:08.450            27.771                 Moscow           867.844
       326   04 Jun 2027 01:02:05.148   04 Jun 2027 01:02:22.001            16.853                 Moscow           526.656
       327   04 Jun 2027 01:05:10.839   04 Jun 2027 01:06:43.616            92.777                 Moscow          2899.281
       328   04 Jun 2027 01:27:21.206   04 Jun 2027 01:28:12.628            51.422               CapeTown          1606.938
       329   04 Jun 2027 02:14:29.237   04 Jun 2027 02:15:07.613            38.376                Anadyr1          1199.250
       330   04 Jun 2027 02:15:18.993   04 Jun 2027 02:15:39.295            20.302                Anadyr1           634.437
       331   04 Jun 2027 02:15:45.779   04 Jun 2027 02:16:24.984            39.205               Magadan1          1225.156
       332   04 Jun 2027 02:17:15.040   04 Jun 2027 02:17:21.713             6.673               Magadan1           208.531
       333   04 Jun 2027 02:17:47.813   04 Jun 2027 02:18:34.496            46.683               Magadan1          1458.844
       334   04 Jun 2027 02:23:17.167   04 Jun 2027 02:23:21.675             4.508                Norilsk           140.875
       335   04 Jun 2027 02:24:08.672   04 Jun 2027 02:24:47.838            39.166               Magadan2          1223.937
       336   04 Jun 2027 02:26:33.154   04 Jun 2027 02:27:53.000            79.846              Murmansk2          2495.187
       337   04 Jun 2027 02:28:56.537   04 Jun 2027 02:29:48.653            52.116              Murmansk1          1628.625
       338   04 Jun 2027 02:35:16.430   04 Jun 2027 02:35:59.821            43.391                 Moscow          1355.969
       339   04 Jun 2027 02:57:58.998   04 Jun 2027 02:59:46.628           107.630               CapeTown          3363.437
       340   04 Jun 2027 03:57:26.243   04 Jun 2027 04:00:38.520           192.277                Anadyr1          6008.656
       341   04 Jun 2027 04:00:43.590   04 Jun 2027 04:01:23.142            39.552               Magadan1          1236.000
       342   04 Jun 2027 04:01:26.387   04 Jun 2027 04:01:36.851            10.464                Anadyr1           327.000
       343   04 Jun 2027 04:01:49.295   04 Jun 2027 04:02:58.267            68.972                Anadyr1          2155.375
       344   04 Jun 2027 04:02:58.267   04 Jun 2027 04:03:07.059             8.792                Anadyr2           274.750
       345   04 Jun 2027 05:32:57.261   04 Jun 2027 05:34:52.008           114.747               Magadan2          3585.844
       346   04 Jun 2027 05:34:57.864   04 Jun 2027 05:35:39.665            41.801                Anadyr1          1306.281
       347   04 Jun 2027 05:35:50.129   04 Jun 2027 05:37:17.076            86.947                Anadyr2          2717.094
       348   04 Jun 2027 05:37:17.194   04 Jun 2027 05:38:13.909            56.715               Magadan2          1772.344
       349   04 Jun 2027 05:38:30.193   04 Jun 2027 05:39:36.743            66.550                Norilsk          2079.688
       350   04 Jun 2027 05:39:38.860   04 Jun 2027 05:40:33.385            54.525              Murmansk1          1703.906
       351   04 Jun 2027 05:40:33.385   04 Jun 2027 05:42:35.679           122.294              Murmansk2          3821.688
       352   04 Jun 2027 05:46:51.533   04 Jun 2027 05:47:02.560            11.027              Murmansk2           344.594
       353   04 Jun 2027 06:13:34.867   04 Jun 2027 06:15:42.252           127.385            RioGallegos          3980.781
       354   04 Jun 2027 06:16:31.463   04 Jun 2027 06:17:34.313            62.850            RioGallegos          1964.062
       355   04 Jun 2027 06:50:04.406   04 Jun 2027 06:52:26.344           141.938                Sumatra          4435.562
       356   04 Jun 2027 06:55:26.967   04 Jun 2027 06:56:44.084            77.117                Sumatra          2409.906
       357   04 Jun 2027 07:10:03.885   04 Jun 2027 07:12:08.089           124.204                Norilsk          3881.375
       358   04 Jun 2027 07:12:16.774   04 Jun 2027 07:12:36.616            19.842                Irkutsk           620.062
       359   04 Jun 2027 07:12:42.289   04 Jun 2027 07:13:13.631            31.342                Novosib           979.437
       360   04 Jun 2027 07:13:20.244   04 Jun 2027 07:13:30.692            10.448                Irkutsk           326.500
       361   04 Jun 2027 07:13:34.897   04 Jun 2027 07:13:47.056            12.159                Norilsk           379.969
       362   04 Jun 2027 07:13:51.284   04 Jun 2027 07:15:21.805            90.521                Novosib          2828.781
       363   04 Jun 2027 07:15:42.025   04 Jun 2027 07:16:45.443            63.418              Murmansk2          1981.812
       364   04 Jun 2027 07:17:03.874   04 Jun 2027 07:17:08.217             4.343                Norilsk           135.719
       365   04 Jun 2027 07:20:57.074   04 Jun 2027 07:21:17.309            20.235              Murmansk1           632.344
       366   04 Jun 2027 07:50:06.199   04 Jun 2027 07:50:37.673            31.474            RioGallegos           983.562
       367   04 Jun 2027 07:51:28.008   04 Jun 2027 07:52:19.903            51.895            RioGallegos          1621.719
       368   04 Jun 2027 07:52:55.226   04 Jun 2027 07:53:23.354            28.128            RioGallegos           879.000
       369   04 Jun 2027 07:58:22.296   04 Jun 2027 07:58:56.184            33.888            RioGallegos          1059.000
       370   04 Jun 2027 08:24:26.275   04 Jun 2027 08:25:54.567            88.292                Sumatra          2759.125
       371   04 Jun 2027 08:27:05.612   04 Jun 2027 08:28:22.964            77.352                Sumatra          2417.250
       372   04 Jun 2027 08:33:13.126   04 Jun 2027 08:35:09.988           116.862                  Delhi          3651.938
       373   04 Jun 2027 08:45:22.657   04 Jun 2027 08:45:47.861            25.204                Novosib           787.625
       374   04 Jun 2027 08:45:57.858   04 Jun 2027 08:46:13.494            15.636              Murmansk1           488.625
       375   04 Jun 2027 08:46:55.266   04 Jun 2027 08:47:50.072            54.806              Murmansk1          1712.687
       376   04 Jun 2027 08:47:56.623   04 Jun 2027 08:48:33.158            36.535              Murmansk1          1141.719
       377   04 Jun 2027 08:48:39.176   04 Jun 2027 08:49:26.711            47.535                Norilsk          1485.469
       378   04 Jun 2027 08:49:32.292   04 Jun 2027 08:49:37.473             5.181              Murmansk2           161.906
       379   04 Jun 2027 08:49:37.473   04 Jun 2027 08:49:50.723            13.250              Murmansk1           414.063
       380   04 Jun 2027 08:49:56.307   04 Jun 2027 08:51:04.609            68.302                 Moscow          2134.438
       381   04 Jun 2027 10:09:09.067   04 Jun 2027 10:12:50.822           221.755                  Delhi          6929.844
       382   04 Jun 2027 10:21:57.715   04 Jun 2027 10:22:47.121            49.406                 Moscow          1543.937
       383   04 Jun 2027 10:22:55.321   04 Jun 2027 10:23:46.880            51.559                 Moscow          1611.219
       384   04 Jun 2027 10:23:55.571   04 Jun 2027 10:25:18.301            82.730                 Moscow          2585.312
       385   04 Jun 2027 10:25:30.365   04 Jun 2027 10:26:13.503            43.138              Murmansk1          1348.063
       386   04 Jun 2027 10:27:04.862   04 Jun 2027 10:27:10.321             5.459                 Moscow           170.594
       387   04 Jun 2027 11:57:12.556   04 Jun 2027 11:57:34.109            21.553              Murmansk1           673.531
       388   04 Jun 2027 11:59:55.525   04 Jun 2027 12:00:29.614            34.089                 Moscow          1065.281
       389   04 Jun 2027 12:00:38.836   04 Jun 2027 12:01:31.759            52.923                 Moscow          1653.844
       390   04 Jun 2027 12:02:40.175   04 Jun 2027 12:03:15.337            35.162              Murmansk1          1098.812
       391   04 Jun 2027 12:03:39.916   04 Jun 2027 12:04:37.216            57.300                Norilsk          1790.625
       392   04 Jun 2027 12:05:54.756   04 Jun 2027 12:06:43.267            48.511                Norilsk          1515.969
       393   04 Jun 2027 12:08:20.533   04 Jun 2027 12:08:27.907             7.374              Murmansk2           230.438
       394   04 Jun 2027 12:13:29.733   04 Jun 2027 12:15:41.322           131.589                Anadyr2          4112.156
       395   04 Jun 2027 13:10:34.630   04 Jun 2027 13:10:37.540             2.910               CapeTown            90.937
       396   04 Jun 2027 13:13:49.366   04 Jun 2027 13:14:00.803            11.437               CapeTown           357.406
       397   04 Jun 2027 13:15:09.024   04 Jun 2027 13:16:09.211            60.187               CapeTown          1880.844
       398   04 Jun 2027 13:17:06.615   04 Jun 2027 13:17:57.535            50.920               CapeTown          1591.250
       399   04 Jun 2027 13:34:03.287   04 Jun 2027 13:34:03.732             0.445              Murmansk2            13.906
       400   04 Jun 2027 13:34:29.541   04 Jun 2027 13:35:48.594            79.053              Murmansk1          2470.406
       401   04 Jun 2027 13:36:53.452   04 Jun 2027 13:38:33.846           100.394              Murmansk1          3137.313
       402   04 Jun 2027 13:44:18.638   04 Jun 2027 13:44:51.436            32.798              Murmansk1          1024.937
       403   04 Jun 2027 13:47:08.464   04 Jun 2027 13:50:21.736           193.272                Anadyr2          6039.750
       404   04 Jun 2027 13:53:50.441   04 Jun 2027 13:55:11.120            80.679                Anadyr2          2521.219
       405   04 Jun 2027 15:14:48.113   04 Jun 2027 15:15:14.172            26.059              Murmansk1           814.344
       406   04 Jun 2027 15:18:33.283   04 Jun 2027 15:18:44.877            11.594              Murmansk1           362.313
       407   04 Jun 2027 15:22:51.546   04 Jun 2027 15:25:12.984           141.438                Anadyr2          4419.938
       408   04 Jun 2027 15:25:45.356   04 Jun 2027 15:31:22.412           337.056               Magadan1         10533.000
       409   04 Jun 2027 15:32:10.680   04 Jun 2027 15:33:24.315            73.635               Magadan2          2301.094
       410   04 Jun 2027 17:01:04.657   04 Jun 2027 17:02:08.165            63.508               Magadan1          1984.625
       411   04 Jun 2027 17:03:20.634   04 Jun 2027 17:03:28.045             7.411               Magadan2           231.594
       412   04 Jun 2027 17:04:12.327   04 Jun 2027 17:04:17.659             5.332               Magadan1           166.625
       413   04 Jun 2027 17:04:42.366   04 Jun 2027 17:04:52.066             9.700               Magadan1           303.125
       414   04 Jun 2027 17:54:13.919   04 Jun 2027 17:57:29.842           195.923            RioGallegos          6122.594
       415   04 Jun 2027 18:00:51.092   04 Jun 2027 18:01:23.862            32.770            RioGallegos          1024.062
       416   04 Jun 2027 18:35:50.609   04 Jun 2027 18:36:30.939            40.330                Anadyr1          1260.313
       417   04 Jun 2027 18:36:43.131   04 Jun 2027 18:40:55.064           251.933                Norilsk          7872.906
       418   04 Jun 2027 18:41:20.611   04 Jun 2027 18:42:14.101            53.490                Irkutsk          1671.562
       419   04 Jun 2027 18:44:06.629   04 Jun 2027 18:45:04.587            57.958                Irkutsk          1811.188
       420   04 Jun 2027 18:47:05.690   04 Jun 2027 18:47:32.124            26.434                Irkutsk           826.063
       421   04 Jun 2027 18:55:44.715   04 Jun 2027 18:56:32.992            48.277                Sumatra          1508.656
       422   04 Jun 2027 18:58:38.383   04 Jun 2027 19:03:10.360           271.977                Sumatra          8499.281
       423   04 Jun 2027 20:16:54.624   04 Jun 2027 20:18:05.333            70.709                Novosib          2209.656
       424   04 Jun 2027 20:18:37.697   04 Jun 2027 20:20:00.878            83.181                Novosib          2599.406
       425   04 Jun 2027 20:25:51.466   04 Jun 2027 20:28:36.437           164.971                  Delhi          5155.344
       426   04 Jun 2027 20:32:27.570   04 Jun 2027 20:32:46.532            18.962                  Delhi           592.562
       427   04 Jun 2027 20:33:54.384   04 Jun 2027 20:34:07.561            13.177                  Delhi           411.781
       428   04 Jun 2027 21:51:15.516   04 Jun 2027 21:57:20.762           365.246              Murmansk2         11413.937
       429   04 Jun 2027 23:25:19.234   04 Jun 2027 23:25:41.647            22.413               Magadan1           700.406
       430   04 Jun 2027 23:25:41.647   04 Jun 2027 23:25:44.967             3.320               Magadan2           103.750
       431   04 Jun 2027 23:26:41.823   04 Jun 2027 23:28:11.104            89.281              Murmansk2          2790.031
       432   04 Jun 2027 23:28:15.990   04 Jun 2027 23:30:21.034           125.044              Murmansk1          3907.625
       433   04 Jun 2027 23:31:28.514   04 Jun 2027 23:33:01.062            92.548                 Moscow          2892.125
       434   04 Jun 2027 23:35:10.043   04 Jun 2027 23:35:55.170            45.127                 Moscow          1410.219
       435   04 Jun 2027 23:36:48.539   04 Jun 2027 23:37:01.960            13.421                 Moscow           419.406
       436   04 Jun 2027 23:38:15.306   04 Jun 2027 23:38:37.496            22.190                 Moscow           693.437
       437   04 Jun 2027 23:38:49.344   04 Jun 2027 23:39:46.432            57.088                 Moscow          1784.000
       438   04 Jun 2027 23:55:43.590   04 Jun 2027 23:57:10.868            87.278               CapeTown          2727.438
       439   04 Jun 2027 23:57:41.007   04 Jun 2027 23:58:36.465            55.458               CapeTown          1733.062
       440   05 Jun 2027 00:01:04.376   05 Jun 2027 00:02:30.252            85.876               CapeTown          2683.625
       441   05 Jun 2027 01:02:38.212   05 Jun 2027 01:03:56.424            78.212              Murmansk1          2444.125
       442   05 Jun 2027 01:14:52.291   05 Jun 2027 01:15:00.768             8.477                 Moscow           264.906
       443   05 Jun 2027 01:29:48.223   05 Jun 2027 01:30:31.789            43.566               CapeTown          1361.437
       444   05 Jun 2027 01:32:53.954   05 Jun 2027 01:34:00.997            67.043               CapeTown          2095.094
       445   05 Jun 2027 02:26:35.158   05 Jun 2027 02:26:49.831            14.673                Anadyr2           458.531
       446   05 Jun 2027 02:27:00.276   05 Jun 2027 02:27:54.032            53.756                Anadyr1          1679.875
       447   05 Jun 2027 02:28:06.543   05 Jun 2027 02:29:52.357           105.814               Magadan2          3306.687
       448   05 Jun 2027 02:33:07.504   05 Jun 2027 02:33:45.576            38.072               Magadan2          1189.750
       449   05 Jun 2027 02:38:12.094   05 Jun 2027 02:38:21.706             9.612               Magadan1           300.375
       450   05 Jun 2027 02:38:33.910   05 Jun 2027 02:40:03.576            89.666              Murmansk1          2802.062
       451   05 Jun 2027 02:40:57.373   05 Jun 2027 02:41:09.462            12.089              Murmansk2           377.781
       452   05 Jun 2027 02:41:32.195   05 Jun 2027 02:41:34.979             2.784              Murmansk2            87.000
       453   05 Jun 2027 02:42:03.843   05 Jun 2027 02:42:24.828            20.985                 Moscow           655.781
       454   05 Jun 2027 02:44:28.736   05 Jun 2027 02:44:50.266            21.530                 Moscow           672.812
       455   05 Jun 2027 02:48:30.053   05 Jun 2027 02:48:42.973            12.920                 Moscow           403.750
       456   05 Jun 2027 02:49:28.718   05 Jun 2027 02:49:34.984             6.266                 Moscow           195.813
       457   05 Jun 2027 02:51:30.340   05 Jun 2027 02:51:42.966            12.626                 Moscow           394.563
       458   05 Jun 2027 04:09:11.866   05 Jun 2027 04:09:40.256            28.390               Magadan1           887.188
       459   05 Jun 2027 04:09:45.646   05 Jun 2027 04:11:37.321           111.675               Magadan1          3489.844
       460   05 Jun 2027 04:11:37.321   05 Jun 2027 04:11:44.400             7.079               Magadan2           221.219
       461   05 Jun 2027 04:11:57.146   05 Jun 2027 04:12:12.187            15.041               Magadan2           470.031
       462   05 Jun 2027 04:12:26.711   05 Jun 2027 04:13:39.437            72.726               Magadan1          2272.687
       463   05 Jun 2027 04:13:55.371   05 Jun 2027 04:15:00.808            65.437               Magadan1          2044.906
       464   05 Jun 2027 05:46:10.581   05 Jun 2027 05:46:17.172             6.591                Novosib           205.969
       465   05 Jun 2027 05:46:17.979   05 Jun 2027 05:46:33.402            15.423               Magadan2           481.969
       466   05 Jun 2027 05:46:35.887   05 Jun 2027 05:49:38.655           182.768               Magadan2          5711.500
       467   05 Jun 2027 05:49:54.195   05 Jun 2027 05:50:30.872            36.677                Irkutsk          1146.156
       468   05 Jun 2027 05:50:51.311   05 Jun 2027 05:51:01.454            10.143                Novosib           316.969
       469   05 Jun 2027 05:52:15.563   05 Jun 2027 05:52:40.745            25.182                Norilsk           786.937
       470   05 Jun 2027 05:54:48.748   05 Jun 2027 05:55:39.190            50.442              Murmansk2          1576.312
       471   05 Jun 2027 05:59:00.027   05 Jun 2027 05:59:00.781             0.754              Murmansk1            23.562
       472   05 Jun 2027 06:25:28.740   05 Jun 2027 06:27:39.741           131.001            RioGallegos          4093.781
       473   05 Jun 2027 06:34:21.036   05 Jun 2027 06:34:43.164            22.128            RioGallegos           691.500
       474   05 Jun 2027 07:01:27.954   05 Jun 2027 07:02:21.321            53.367                Sumatra          1667.719
       475   05 Jun 2027 07:02:31.432   05 Jun 2027 07:02:38.975             7.543                Sumatra           235.719
       476   05 Jun 2027 07:05:47.169   05 Jun 2027 07:06:05.907            18.738                Sumatra           585.562
       477   05 Jun 2027 07:07:10.720   05 Jun 2027 07:08:33.384            82.664                Sumatra          2583.250
       478   05 Jun 2027 07:22:15.933   05 Jun 2027 07:22:56.478            40.545                Novosib          1267.031
       479   05 Jun 2027 07:23:04.293   05 Jun 2027 07:23:11.840             7.547                Norilsk           235.844
       480   05 Jun 2027 07:23:17.582   05 Jun 2027 07:24:02.496            44.914                Norilsk          1403.563
       481   05 Jun 2027 07:24:04.337   05 Jun 2027 07:24:46.729            42.392                Novosib          1324.750
       482   05 Jun 2027 07:24:52.574   05 Jun 2027 07:26:07.612            75.038                Novosib          2344.938
