uniorb/output/strategy_1/Drop/Drop_KinoSat_110210.txt

KinoSat_110210
-------------------------
    Access    *     Start Time (UTCG)     *     Stop Time (UTCG)  *   Duration (s)        *       Station  *  Data (Mbytes)
         1   01 Jun 2027 03:14:13.261   01 Jun 2027 03:14:36.605            23.344               Magadan1          2918.000
         2   01 Jun 2027 03:14:46.626   01 Jun 2027 03:15:41.686            55.060               Magadan1          6882.500
         3   01 Jun 2027 03:15:41.686   01 Jun 2027 03:16:14.608            32.922               Magadan2          4115.250
         4   01 Jun 2027 03:16:26.047   01 Jun 2027 03:16:33.932             7.885               Magadan2           985.625
         5   01 Jun 2027 03:16:35.883   01 Jun 2027 03:17:18.269            42.386               Magadan1          5298.250
         6   01 Jun 2027 03:18:00.797   01 Jun 2027 03:18:35.848            35.051                Novosib          4381.375
         7   01 Jun 2027 03:18:42.236   01 Jun 2027 03:19:08.447            26.211                Novosib          3276.375
         8   01 Jun 2027 03:19:18.146   01 Jun 2027 03:19:25.480             7.334                Norilsk           916.750
         9   01 Jun 2027 03:19:36.527   01 Jun 2027 03:19:50.757            14.230              Murmansk1          1778.750
        10   01 Jun 2027 03:19:50.787   01 Jun 2027 03:20:05.574            14.787                Novosib          1848.375
        11   01 Jun 2027 03:20:10.098   01 Jun 2027 03:20:42.606            32.508                Novosib          4063.500
        12   01 Jun 2027 03:55:14.802   01 Jun 2027 03:56:14.464            59.662            RioGallegos          7457.750
        13   01 Jun 2027 03:57:12.160   01 Jun 2027 03:58:00.309            48.149            RioGallegos          6018.625
        14   01 Jun 2027 04:30:18.740   01 Jun 2027 04:35:09.596           290.856                Sumatra         36246.875
        15   01 Jun 2027 04:52:59.761   01 Jun 2027 04:53:09.707             9.946                Norilsk          1243.250
        16   01 Jun 2027 04:53:11.514   01 Jun 2027 04:53:18.369             6.855                Novosib           856.875
        17   01 Jun 2027 04:53:21.263   01 Jun 2027 04:53:41.814            20.551                Irkutsk          2568.875
        18   01 Jun 2027 04:53:49.048   01 Jun 2027 04:54:22.449            33.401                Norilsk          4175.125
        19   01 Jun 2027 04:54:30.903   01 Jun 2027 04:54:53.477            22.574                Norilsk          2821.750
        20   01 Jun 2027 04:55:04.582   01 Jun 2027 04:55:22.892            18.310                 Moscow          2288.750
        21   01 Jun 2027 04:55:32.250   01 Jun 2027 04:55:44.599            12.349              Murmansk2          1543.625
        22   01 Jun 2027 04:55:53.432   01 Jun 2027 04:56:03.629            10.197              Murmansk1          1274.625
        23   01 Jun 2027 04:56:06.413   01 Jun 2027 04:56:51.152            44.739                Novosib          5592.375
        24   01 Jun 2027 05:33:53.655   01 Jun 2027 05:34:35.389            41.734            RioGallegos          5216.750
        25   01 Jun 2027 06:08:15.532   01 Jun 2027 06:09:16.141            60.609                Sumatra          7576.125
        26   01 Jun 2027 06:14:19.756   01 Jun 2027 06:16:18.239           118.483                  Delhi         14810.375
        27   01 Jun 2027 06:17:32.366   01 Jun 2027 06:19:37.418           125.052                  Delhi         15631.500
        28   01 Jun 2027 06:30:56.655   01 Jun 2027 06:32:41.694           105.039                Novosib         13129.875
        29   01 Jun 2027 08:03:37.593   01 Jun 2027 08:04:05.412            27.819                 Moscow          3477.375
        30   01 Jun 2027 08:04:07.276   01 Jun 2027 08:04:41.267            33.991                 Moscow          4248.875
        31   01 Jun 2027 08:05:18.938   01 Jun 2027 08:07:28.922           129.984                Novosib         16248.000
        32   01 Jun 2027 08:07:37.826   01 Jun 2027 08:08:13.618            35.792                 Moscow          4474.000
        33   01 Jun 2027 08:08:23.157   01 Jun 2027 08:09:42.106            78.949                 Moscow          9868.625
        34   01 Jun 2027 09:14:25.169   01 Jun 2027 09:17:32.358           187.189               CapeTown         23398.625
        35   01 Jun 2027 11:31:32.548   01 Jun 2027 11:33:38.028           125.480                Anadyr1         15685.000
        36   01 Jun 2027 11:38:37.519   01 Jun 2027 11:38:56.747            19.228                Anadyr1          2403.500
        37   01 Jun 2027 13:07:10.212   01 Jun 2027 13:11:51.385           281.173               Magadan2         35146.625
        38   01 Jun 2027 15:34:54.933   01 Jun 2027 15:39:03.682           248.749            RioGallegos         31093.625
        39   01 Jun 2027 16:31:12.178   01 Jun 2027 16:32:04.570            52.392                Irkutsk          6549.000
        40   01 Jun 2027 16:36:14.515   01 Jun 2027 16:39:13.830           179.315                Sumatra         22414.375
        41   01 Jun 2027 17:58:21.545   01 Jun 2027 17:59:36.009            74.464                Novosib          9308.000
        42   01 Jun 2027 18:05:58.583   01 Jun 2027 18:10:25.355           266.772                  Delhi         33346.500
        43   01 Jun 2027 21:15:51.263   01 Jun 2027 21:16:33.234            41.971              Murmansk1          5246.375
        44   01 Jun 2027 21:19:55.863   01 Jun 2027 21:21:24.373            88.510                 Moscow          1114.624
        45   02 Jun 2027 03:32:13.646   02 Jun 2027 03:32:29.828            16.182                Novosib          2022.750
        46   02 Jun 2027 03:32:38.160   02 Jun 2027 03:33:10.051            31.891              Murmansk1          3986.375
        47   02 Jun 2027 03:33:10.051   02 Jun 2027 03:33:24.953            14.902              Murmansk2          1862.750
        48   02 Jun 2027 04:07:21.307   02 Jun 2027 04:09:02.043           100.736            RioGallegos         12592.000
        49   02 Jun 2027 04:12:06.320   02 Jun 2027 04:12:38.968            32.648            RioGallegos          4081.000
        50   02 Jun 2027 04:42:11.735   02 Jun 2027 04:45:56.060           224.325                Sumatra         28040.625
        51   02 Jun 2027 05:04:46.465   02 Jun 2027 05:07:35.189           168.724                Irkutsk         21090.500
        52   02 Jun 2027 05:08:28.529   02 Jun 2027 05:10:03.648            95.119                Novosib         11889.875
        53   02 Jun 2027 05:46:44.793   02 Jun 2027 05:46:45.459             0.666            RioGallegos            83.250
        54   02 Jun 2027 05:50:59.444   02 Jun 2027 05:51:43.720            44.276            RioGallegos          5534.500
        55   02 Jun 2027 06:25:10.416   02 Jun 2027 06:26:19.647            69.231                Sumatra          8653.875
        56   02 Jun 2027 06:26:22.466   02 Jun 2027 06:28:07.000           104.534                  Delhi         13066.750
        57   02 Jun 2027 06:42:18.674   02 Jun 2027 06:42:35.365            16.691                 Moscow          2086.375
        58   02 Jun 2027 06:42:51.535   02 Jun 2027 06:43:09.762            18.227                 Moscow          2278.375
        59   02 Jun 2027 06:43:16.606   02 Jun 2027 06:43:35.190            18.584              Murmansk2          2323.000
        60   02 Jun 2027 06:43:37.009   02 Jun 2027 06:44:01.782            24.773              Murmansk2          3096.625
        61   02 Jun 2027 06:44:25.381   02 Jun 2027 06:45:45.786            80.405                Novosib         10050.625
        62   02 Jun 2027 08:16:02.177   02 Jun 2027 08:17:41.303            99.126                 Moscow         12390.750
        63   02 Jun 2027 08:17:54.673   02 Jun 2027 08:18:36.585            41.912                 Moscow          5239.000
        64   02 Jun 2027 08:19:06.001   02 Jun 2027 08:20:17.271            71.270              Murmansk1          8908.750
        65   02 Jun 2027 08:20:50.204   02 Jun 2027 08:21:07.919            17.715                Norilsk          2214.375
        66   02 Jun 2027 08:21:44.799   02 Jun 2027 08:23:38.444           113.645                 Moscow         14205.625
        67   02 Jun 2027 09:25:46.547   02 Jun 2027 09:34:58.628           552.081               CapeTown         69010.125
        68   02 Jun 2027 13:19:07.855   02 Jun 2027 13:20:12.653            64.798               Magadan2          8099.750
        69   02 Jun 2027 13:21:30.856   02 Jun 2027 13:23:51.664           140.808               Magadan1         17601.000
        70   02 Jun 2027 15:17:56.246   02 Jun 2027 15:19:16.157            79.911                Sumatra          9988.875
        71   02 Jun 2027 15:46:46.997   02 Jun 2027 15:49:42.884           175.887            RioGallegos         21985.875
        72   02 Jun 2027 16:34:29.397   02 Jun 2027 16:36:00.164            90.767                Irkutsk         11345.875
        73   02 Jun 2027 16:42:55.557   02 Jun 2027 16:43:47.280            51.723                Novosib          6465.375
        74   02 Jun 2027 16:53:34.353   02 Jun 2027 16:55:31.674           117.321                Sumatra         14665.125
        75   02 Jun 2027 18:15:06.524   02 Jun 2027 18:17:18.751           132.227                Novosib         16528.375
        76   02 Jun 2027 18:20:30.791   02 Jun 2027 18:22:19.855           109.064                  Delhi         13633.000
        77   02 Jun 2027 19:48:54.167   02 Jun 2027 19:50:14.361            80.194                 Moscow         10024.250
        78   02 Jun 2027 21:28:50.239   02 Jun 2027 21:31:06.651           136.412                 Moscow         17051.500
        79   02 Jun 2027 21:50:50.581   02 Jun 2027 21:51:09.161            18.580               CapeTown          2322.500
        80   02 Jun 2027 21:53:28.314   02 Jun 2027 21:55:14.707           106.393               CapeTown         13299.125
        81   03 Jun 2027 03:22:32.706   03 Jun 2027 03:23:54.400            81.694                Sumatra         10211.750
        82   03 Jun 2027 03:25:30.962   03 Jun 2027 03:27:34.600           123.638                Sumatra         15454.750
        83   03 Jun 2027 03:44:36.820   03 Jun 2027 03:44:38.940             2.120                Irkutsk           265.000
        84   03 Jun 2027 03:45:19.168   03 Jun 2027 03:45:32.814            13.646                Norilsk          1705.750
        85   03 Jun 2027 04:27:24.178   03 Jun 2027 04:29:14.037           109.859            RioGallegos         13732.375
        86   03 Jun 2027 04:54:10.385   03 Jun 2027 04:56:47.045           156.660                Sumatra         19582.500
        87   03 Jun 2027 05:13:23.206   03 Jun 2027 05:14:25.820            62.614                  Delhi          7826.750
        88   03 Jun 2027 05:17:30.281   03 Jun 2027 05:19:14.841           104.560                Irkutsk         13070.000
        89   03 Jun 2027 05:19:54.318   03 Jun 2027 05:20:23.905            29.587                Norilsk          3698.375
        90   03 Jun 2027 05:20:34.802   03 Jun 2027 05:21:33.126            58.324                Novosib          7290.500
        91   03 Jun 2027 06:38:30.687   03 Jun 2027 06:41:10.283           159.596                  Delhi         19949.500
        92   03 Jun 2027 06:54:55.397   03 Jun 2027 06:56:48.482           113.085                 Moscow         14135.625
        93   03 Jun 2027 08:28:21.736   03 Jun 2027 08:29:33.999            72.263              Murmansk2          9032.875
        94   03 Jun 2027 08:29:47.503   03 Jun 2027 08:30:52.075            64.572                 Moscow          8071.500
        95   03 Jun 2027 08:30:55.270   03 Jun 2027 08:31:04.714             9.444              Murmansk2          1180.500
        96   03 Jun 2027 08:31:06.940   03 Jun 2027 08:32:40.358            93.418                 Moscow         11677.250
        97   03 Jun 2027 09:37:19.297   03 Jun 2027 09:44:11.505           412.208               CapeTown         51526.000
        98   03 Jun 2027 10:21:48.410   03 Jun 2027 10:21:51.941             3.531                Anadyr1           441.375
        99   03 Jun 2027 11:57:07.155   03 Jun 2027 11:57:43.571            36.416               Magadan1          4552.000
       100   03 Jun 2027 12:00:18.009   03 Jun 2027 12:00:19.531             1.522               Magadan2           190.250
       101   03 Jun 2027 12:01:18.689   03 Jun 2027 12:03:08.101           109.412               Magadan2         13676.500
       102   03 Jun 2027 13:31:06.338   03 Jun 2027 13:31:59.481            53.143               Magadan1          6642.875
       103   03 Jun 2027 13:33:42.913   03 Jun 2027 13:35:52.389           129.476               Magadan2         16184.500
       104   03 Jun 2027 15:27:43.451   03 Jun 2027 15:31:43.376           239.925                Sumatra         29990.625
       105   03 Jun 2027 16:47:20.093   03 Jun 2027 16:49:00.835           100.742                Novosib         12592.750
       106   03 Jun 2027 16:54:19.087   03 Jun 2027 16:56:32.504           133.417                Novosib         16677.125
       107   03 Jun 2027 17:00:11.804   03 Jun 2027 17:02:21.720           129.916                Sumatra         16239.500
       108   03 Jun 2027 18:26:28.872   03 Jun 2027 18:27:18.722            49.850                Novosib          6231.250
       109   03 Jun 2027 18:29:41.733   03 Jun 2027 18:32:39.335           177.602                  Delhi         22200.250
       110   03 Jun 2027 18:36:40.878   03 Jun 2027 18:37:25.417            44.539                  Delhi          5567.375
       111   03 Jun 2027 20:00:39.920   03 Jun 2027 20:02:31.445           111.525                 Moscow         13940.625
       112   03 Jun 2027 21:43:24.683   03 Jun 2027 21:43:51.597            26.914                 Moscow          3364.250
       113   03 Jun 2027 21:47:24.443   03 Jun 2027 21:48:41.757            77.314                 Moscow          9664.250
       114   03 Jun 2027 22:02:54.845   03 Jun 2027 22:04:57.856           123.011               CapeTown         15376.375
       115   04 Jun 2027 03:33:06.512   04 Jun 2027 03:35:34.025           147.513                Sumatra         18439.125
       116   04 Jun 2027 03:56:04.245   04 Jun 2027 03:56:25.069            20.824                Irkutsk          2603.000
       117   04 Jun 2027 03:56:35.378   04 Jun 2027 03:57:33.195            57.817                Novosib          7227.125
       118   04 Jun 2027 04:00:24.515   04 Jun 2027 04:01:04.375            39.860                Norilsk          4982.500
       119   04 Jun 2027 04:31:45.390   04 Jun 2027 04:32:24.776            39.386            RioGallegos          4923.250
       120   04 Jun 2027 04:37:04.152   04 Jun 2027 04:38:10.433            66.281            RioGallegos          8285.125
       121   04 Jun 2027 05:06:14.636   04 Jun 2027 05:08:00.394           105.758                Sumatra         13219.750
       122   04 Jun 2027 05:12:22.962   04 Jun 2027 05:12:50.406            27.444                Sumatra          3430.500
       123   04 Jun 2027 05:15:42.978   04 Jun 2027 05:18:53.235           190.257                  Delhi         23782.125
       124   04 Jun 2027 05:29:31.297   04 Jun 2027 05:32:08.937           157.640                Irkutsk         19705.000
       125   04 Jun 2027 06:53:26.733   04 Jun 2027 06:55:14.138           107.405                  Delhi         13425.625
       126   04 Jun 2027 07:06:16.313   04 Jun 2027 07:07:11.465            55.152              Murmansk2          6894.000
       127   04 Jun 2027 07:07:21.784   04 Jun 2027 07:08:47.897            86.113                Novosib         10764.125
       128   04 Jun 2027 08:40:21.162   04 Jun 2027 08:41:17.934            56.772              Murmansk2          7096.500
       129   04 Jun 2027 08:41:30.895   04 Jun 2027 08:41:46.920            16.025                 Moscow          2003.125
       130   04 Jun 2027 08:42:07.212   04 Jun 2027 08:43:35.979            88.767              Murmansk2         11095.875
       131   04 Jun 2027 08:44:25.464   04 Jun 2027 08:44:59.832            34.368                 Moscow          4296.000
       132   04 Jun 2027 09:48:59.483   04 Jun 2027 09:53:11.527           252.044               CapeTown         31505.500
       133   04 Jun 2027 10:30:26.109   04 Jun 2027 10:31:16.997            50.888                Anadyr1          6361.000
       134   04 Jun 2027 12:04:51.106   04 Jun 2027 12:05:14.409            23.303                Anadyr2          2912.875
       135   04 Jun 2027 12:06:12.828   04 Jun 2027 12:07:52.938           100.110                Anadyr1         12513.750
       136   04 Jun 2027 12:08:55.569   04 Jun 2027 12:11:47.286           171.717               Magadan1         21464.625
       137   04 Jun 2027 12:11:47.286   04 Jun 2027 12:12:14.804            27.518               Magadan2          3439.750
       138   04 Jun 2027 12:13:46.487   04 Jun 2027 12:14:00.327            13.840               Magadan1          1730.000
       139   04 Jun 2027 13:43:05.525   04 Jun 2027 13:43:49.686            44.161               Magadan1          5520.125
       140   04 Jun 2027 13:46:00.971   04 Jun 2027 13:49:31.162           210.191               Magadan2         26273.875
       141   04 Jun 2027 15:23:41.073   04 Jun 2027 15:24:03.766            22.693                Irkutsk          2836.625
       142   04 Jun 2027 15:29:30.123   04 Jun 2027 15:30:39.618            69.495                Irkutsk          8686.875
       143   04 Jun 2027 15:38:36.832   04 Jun 2027 15:41:26.476           169.644                Sumatra         21205.500
       144   04 Jun 2027 15:44:02.182   04 Jun 2027 15:47:20.963           198.781                Sumatra         24847.625
       145   04 Jun 2027 17:01:17.898   04 Jun 2027 17:02:57.658            99.760                Novosib         12470.000
       146   04 Jun 2027 17:09:05.176   04 Jun 2027 17:11:16.151           130.975                  Delhi         16371.875
       147   04 Jun 2027 18:41:38.910   04 Jun 2027 18:43:46.556           127.646                  Delhi         15955.750
       148   04 Jun 2027 18:52:28.452   04 Jun 2027 18:52:51.758            23.306                  Delhi          2913.250
       149   04 Jun 2027 20:12:29.239   04 Jun 2027 20:13:06.235            36.996                 Moscow          4624.500
       150   04 Jun 2027 20:15:44.214   04 Jun 2027 20:16:53.954            69.740                 Moscow          8717.500
       151   04 Jun 2027 20:19:29.391   04 Jun 2027 20:21:57.145           147.754                 Moscow         18469.250
       152   04 Jun 2027 22:11:42.887   04 Jun 2027 22:12:25.137            42.250               CapeTown          5281.250
       153   04 Jun 2027 22:14:56.379   04 Jun 2027 22:16:52.428           116.049               CapeTown         14506.125
       154   05 Jun 2027 03:44:12.211   05 Jun 2027 03:47:20.523           188.312                Sumatra         23539.000
       155   05 Jun 2027 04:08:25.439   05 Jun 2027 04:08:39.095            13.656                Irkutsk          1707.000
       156   05 Jun 2027 04:08:56.629   05 Jun 2027 04:09:29.660            33.031                Norilsk          4128.875
       157   05 Jun 2027 04:11:06.459   05 Jun 2027 04:11:45.567            39.108                Norilsk          4888.500
       158   05 Jun 2027 04:12:12.969   05 Jun 2027 04:13:12.850            59.881                Norilsk          7485.125
       159   05 Jun 2027 04:44:03.498   05 Jun 2027 04:45:17.023            73.525            RioGallegos          9190.625
       160   05 Jun 2027 05:18:24.743   05 Jun 2027 05:19:26.851            62.108                Sumatra          7763.500
       161   05 Jun 2027 05:27:17.360   05 Jun 2027 05:29:14.472           117.112                  Delhi         14639.000
       162   05 Jun 2027 05:41:20.962   05 Jun 2027 05:41:35.568            14.606                Irkutsk          1825.750
       163   05 Jun 2027 05:41:49.065   05 Jun 2027 05:43:59.339           130.274                Irkutsk         16284.250
       164   05 Jun 2027 07:05:09.324   05 Jun 2027 07:05:38.733            29.409                  Delhi          3676.125
       165   05 Jun 2027 07:18:02.706   05 Jun 2027 07:18:05.858             3.152                Norilsk           394.000
       166   05 Jun 2027 07:18:07.065   05 Jun 2027 07:18:18.160            11.095              Murmansk2          1386.875
       167   05 Jun 2027 07:18:31.151   05 Jun 2027 07:19:29.311            58.160                Novosib          7270.000
       168   05 Jun 2027 07:19:44.126   05 Jun 2027 07:21:22.213            98.087                Novosib         12260.875
       169   05 Jun 2027 08:53:33.648   05 Jun 2027 08:53:55.782            22.134              Murmansk2          2766.750
       170   05 Jun 2027 08:54:01.913   05 Jun 2027 08:54:47.579            45.666                 Moscow          5708.250
       171   05 Jun 2027 09:07:48.515   05 Jun 2027 09:07:56.621             8.106                Anadyr1          1013.250
       172   05 Jun 2027 10:00:45.111   05 Jun 2027 10:05:10.809           265.698               CapeTown         33212.250
       173   05 Jun 2027 10:41:55.115   05 Jun 2027 10:45:05.616           190.501                Anadyr2         23812.625
       174   05 Jun 2027 12:19:47.436   05 Jun 2027 12:20:39.434            51.998               Magadan1          6499.750
       175   05 Jun 2027 12:21:44.150   05 Jun 2027 12:23:26.231           102.081               Magadan1         12760.125
       176   05 Jun 2027 13:55:05.313   05 Jun 2027 13:58:11.581           186.268               Magadan1         23283.500
       177   05 Jun 2027 14:53:10.159   05 Jun 2027 14:55:45.691           155.532            RioGallegos         19441.500
       178   05 Jun 2027 15:36:46.295   05 Jun 2027 15:39:34.522           168.227                Irkutsk         21028.375
       179   05 Jun 2027 15:49:51.441   05 Jun 2027 15:53:16.081           204.640                Sumatra         25580.000
       180   05 Jun 2027 17:14:25.953   05 Jun 2027 17:18:02.008           216.055                Novosib         27006.875
       181   05 Jun 2027 17:19:59.931   05 Jun 2027 17:23:00.554           180.623                  Delhi         22577.875
       182   05 Jun 2027 18:53:39.441   05 Jun 2027 18:55:04.268            84.827                  Delhi         10603.375
       183   05 Jun 2027 20:24:21.178   05 Jun 2027 20:27:39.900           198.722                 Moscow         24840.250
       184   05 Jun 2027 22:23:47.660   05 Jun 2027 22:25:09.954            82.294               CapeTown         10286.750
       185   05 Jun 2027 22:26:55.147   05 Jun 2027 22:28:42.416           107.269               CapeTown         13408.625
       186   06 Jun 2027 03:55:33.787   06 Jun 2027 03:59:13.090           219.303                Sumatra         27412.875
       187   06 Jun 2027 04:20:15.794   06 Jun 2027 04:20:40.502            24.708                Irkutsk          3088.500
       188   06 Jun 2027 04:56:26.173   06 Jun 2027 04:57:18.204            52.031            RioGallegos          6503.875
       189   06 Jun 2027 05:30:41.387   06 Jun 2027 05:31:02.659            21.272                Sumatra          2659.000
       190   06 Jun 2027 05:32:53.443   06 Jun 2027 05:33:03.460            10.017                Sumatra          1252.125
       191   06 Jun 2027 05:36:31.764   06 Jun 2027 05:37:36.048            64.284                Sumatra          8035.500
       192   06 Jun 2027 05:38:58.225   06 Jun 2027 05:41:28.294           150.069                  Delhi         18758.625
       193   06 Jun 2027 05:54:01.692   06 Jun 2027 05:55:28.759            87.067                Novosib         10883.375
       194   06 Jun 2027 05:56:09.691   06 Jun 2027 05:56:48.408            38.717                Novosib          4839.625
       195   06 Jun 2027 07:30:24.908   06 Jun 2027 07:31:04.089            39.181                 Moscow          4897.625
       196   06 Jun 2027 07:31:11.200   06 Jun 2027 07:31:19.209             8.009              Murmansk1          1001.125
       197   06 Jun 2027 07:31:19.209   06 Jun 2027 07:31:40.794            21.585              Murmansk2          2698.125
       198   06 Jun 2027 07:31:51.091   06 Jun 2027 07:32:02.981            11.890              Murmansk1          1486.250
       199   06 Jun 2027 07:32:02.981   06 Jun 2027 07:33:01.535            58.554              Murmansk2          7319.250
       200   06 Jun 2027 10:12:35.029   06 Jun 2027 10:15:12.293           157.264               CapeTown         19658.000
       201   06 Jun 2027 10:53:07.234   06 Jun 2027 10:54:13.765            66.531                Anadyr1          8316.375
       202   06 Jun 2027 10:54:22.630   06 Jun 2027 10:57:22.278           179.648                Anadyr2         22456.000
       203   06 Jun 2027 12:31:39.174   06 Jun 2027 12:36:08.958           269.784               Magadan2         33723.000
       204   06 Jun 2027 14:07:05.610   06 Jun 2027 14:08:53.044           107.434               Magadan1         13429.250
       205   06 Jun 2027 14:59:53.050   06 Jun 2027 14:59:54.980             1.930            RioGallegos           241.250
       206   06 Jun 2027 15:03:29.395   06 Jun 2027 15:03:48.479            19.084            RioGallegos          2385.500
       207   06 Jun 2027 15:05:38.009   06 Jun 2027 15:07:12.000            93.991            RioGallegos         11748.875
       208   06 Jun 2027 15:47:10.535   06 Jun 2027 15:50:13.779           183.244                Irkutsk         22905.500
       209   06 Jun 2027 16:04:21.330   06 Jun 2027 16:05:11.517            50.187                Sumatra          6273.375
       210   06 Jun 2027 16:08:20.102   06 Jun 2027 16:08:34.547            14.445                Sumatra          1805.625
       211   06 Jun 2027 16:10:33.855   06 Jun 2027 16:12:29.353           115.498                Sumatra         14437.250
       212   06 Jun 2027 17:22:49.012   06 Jun 2027 17:24:13.039            84.027                Novosib         10503.375
       213   06 Jun 2027 17:30:16.099   06 Jun 2027 17:32:18.862           122.763                Novosib         15345.375
       214   06 Jun 2027 17:37:30.584   06 Jun 2027 17:40:29.024           178.440                  Delhi         22305.000
       215   06 Jun 2027 19:07:46.926   06 Jun 2027 19:08:47.444            60.518                  Delhi          7564.750
       216   06 Jun 2027 20:36:15.136   06 Jun 2027 20:38:25.001           129.865                 Moscow         16233.125
       217   06 Jun 2027 21:09:20.807   06 Jun 2027 21:10:08.420            47.613               CapeTown          5951.625
       218   06 Jun 2027 22:08:40.296   06 Jun 2027 22:08:50.553            10.257              Murmansk2          1282.125
       219   06 Jun 2027 22:14:06.501   06 Jun 2027 22:15:08.783            62.282                 Moscow          7785.250
       220   06 Jun 2027 22:35:57.712   06 Jun 2027 22:36:45.642            47.930               CapeTown          5991.250
       221   06 Jun 2027 22:38:46.755   06 Jun 2027 22:40:37.389           110.634               CapeTown         13829.250
       222   07 Jun 2027 04:07:05.980   07 Jun 2027 04:08:47.435           101.455                Sumatra         12681.875
       223   07 Jun 2027 04:33:33.644   07 Jun 2027 04:33:57.000            23.356                Novosib          2919.500
       224   07 Jun 2027 05:08:54.013   07 Jun 2027 05:09:00.395             6.382            RioGallegos           797.750
       225   07 Jun 2027 05:43:05.862   07 Jun 2027 05:47:09.244           243.382                Sumatra         30422.750
       226   07 Jun 2027 05:50:44.933   07 Jun 2027 05:53:38.088           173.155                  Delhi         21644.375
       227   07 Jun 2027 06:07:13.680   07 Jun 2027 06:08:13.728            60.048                Novosib          7506.000
       228   07 Jun 2027 06:09:00.970   07 Jun 2027 06:09:36.580            35.610                Novosib          4451.250
       229   07 Jun 2027 07:28:13.292   07 Jun 2027 07:29:15.739            62.447                  Delhi          7805.875
       230   07 Jun 2027 07:42:25.921   07 Jun 2027 07:43:32.452            66.531                Norilsk          8316.375
       231   07 Jun 2027 07:43:34.129   07 Jun 2027 07:43:39.211             5.082              Murmansk2           635.250
       232   07 Jun 2027 07:43:42.664   07 Jun 2027 07:44:15.983            33.319                Norilsk          4164.875
       233   07 Jun 2027 07:44:23.215   07 Jun 2027 07:44:50.259            27.044                 Moscow          3380.500
       234   07 Jun 2027 07:47:06.052   07 Jun 2027 07:47:21.327            15.275                 Moscow          1909.375
       235   07 Jun 2027 09:32:07.622   07 Jun 2027 09:32:39.170            31.548                Anadyr2          3943.500
       236   07 Jun 2027 10:24:28.536   07 Jun 2027 10:27:16.045           167.509               CapeTown         20938.625
       237   07 Jun 2027 11:05:05.775   07 Jun 2027 11:05:59.084            53.309                Anadyr1          6663.625
       238   07 Jun 2027 11:06:46.973   07 Jun 2027 11:09:51.334           184.361                Anadyr2         23045.125
       239   07 Jun 2027 12:43:32.968   07 Jun 2027 12:48:07.413           274.445               Magadan1         34305.625
       240   07 Jun 2027 14:19:06.346   07 Jun 2027 14:21:18.687           132.341               Magadan2         16542.625
       241   07 Jun 2027 15:11:34.161   07 Jun 2027 15:15:42.522           248.361            RioGallegos         31045.125
       242   07 Jun 2027 16:00:19.353   07 Jun 2027 16:03:15.015           175.662                Irkutsk         21957.750
       243   07 Jun 2027 16:12:55.229   07 Jun 2027 16:14:59.406           124.177                Sumatra         15522.125
       244   07 Jun 2027 17:34:43.333   07 Jun 2027 17:36:38.662           115.329                Novosib         14416.125
       245   07 Jun 2027 17:43:24.839   07 Jun 2027 17:46:43.123           198.284                  Delhi         24785.500
       246   07 Jun 2027 19:17:50.432   07 Jun 2027 19:18:27.175            36.743                  Delhi          4592.875
       247   07 Jun 2027 20:45:52.517   07 Jun 2027 20:46:41.622            49.105              Murmansk1          6138.125
       248   07 Jun 2027 20:48:10.704   07 Jun 2027 20:49:48.866            98.162                 Moscow         12270.250
       249   07 Jun 2027 21:19:56.761   07 Jun 2027 21:22:06.752           129.991               CapeTown         16248.875
       250   08 Jun 2027 03:05:52.476   08 Jun 2027 03:06:22.175            29.699               Magadan1          3712.375
       251   08 Jun 2027 03:06:32.483   08 Jun 2027 03:06:45.313            12.830               Magadan1          1603.750
       252   08 Jun 2027 03:06:59.497   08 Jun 2027 03:07:26.902            27.405                Irkutsk          3425.625
       253   08 Jun 2027 03:07:46.789   08 Jun 2027 03:08:06.775            19.986                Novosib          2498.250
       254   08 Jun 2027 03:08:07.117   08 Jun 2027 03:08:20.415            13.298                Irkutsk          1662.250
       255   08 Jun 2027 03:08:51.911   08 Jun 2027 03:09:50.706            58.795                Novosib          7349.375
       256   08 Jun 2027 03:09:59.385   08 Jun 2027 03:10:05.726             6.341                Norilsk           792.625
       257   08 Jun 2027 03:12:48.646   08 Jun 2027 03:13:11.751            23.105                Norilsk          2888.125
       258   08 Jun 2027 03:43:26.584   08 Jun 2027 03:46:39.128           192.544            RioGallegos         24068.000
       259   08 Jun 2027 04:18:46.303   08 Jun 2027 04:23:15.172           268.869                Sumatra         33608.625
       260   08 Jun 2027 04:41:11.993   08 Jun 2027 04:42:16.166            64.173                Novosib          8021.625
       261   08 Jun 2027 04:42:22.617   08 Jun 2027 04:42:27.944             5.327              Murmansk1           665.875
       262   08 Jun 2027 04:42:40.964   08 Jun 2027 04:42:56.420            15.456              Murmansk2          1932.000
       263   08 Jun 2027 04:43:06.095   08 Jun 2027 04:43:28.496            22.401              Murmansk1          2800.125
       264   08 Jun 2027 04:43:50.033   08 Jun 2027 04:44:18.580            28.547              Murmansk2          3568.375
       265   08 Jun 2027 04:44:38.019   08 Jun 2027 04:45:54.210            76.191                Novosib          9523.875
       266   08 Jun 2027 05:21:27.907   08 Jun 2027 05:21:39.361            11.454            RioGallegos          1431.750
       267   08 Jun 2027 05:21:56.554   08 Jun 2027 05:22:50.898            54.344            RioGallegos          6793.000
       268   08 Jun 2027 05:55:40.680   08 Jun 2027 05:57:33.867           113.187                Sumatra         14148.375
       269   08 Jun 2027 06:02:37.103   08 Jun 2027 06:05:44.318           187.215                  Delhi         23401.875
       270   08 Jun 2027 06:18:57.430   08 Jun 2027 06:19:06.498             9.068                 Moscow          1133.500
       271   08 Jun 2027 06:19:14.374   08 Jun 2027 06:21:15.025           120.651                Novosib         15081.375
       272   08 Jun 2027 07:53:38.383   08 Jun 2027 07:54:50.274            71.891                 Moscow          8986.375
       273   08 Jun 2027 07:54:56.144   08 Jun 2027 07:55:02.073             5.929                 Moscow           741.125
       274   08 Jun 2027 07:55:02.527   08 Jun 2027 07:55:26.925            24.398              Murmansk1          3049.750
       275   08 Jun 2027 07:55:43.566   08 Jun 2027 07:56:24.238            40.672                Novosib          5084.000
       276   08 Jun 2027 07:56:36.903   08 Jun 2027 07:58:06.100            89.197                Norilsk         11149.625
       277   08 Jun 2027 07:59:37.193   08 Jun 2027 07:59:42.368             5.175                 Moscow           646.875
       278   08 Jun 2027 09:03:39.087   08 Jun 2027 09:06:01.783           142.696               CapeTown         17837.000
       279   08 Jun 2027 10:36:42.286   08 Jun 2027 10:38:27.280           104.994               CapeTown         13124.250
       280   08 Jun 2027 10:47:05.899   08 Jun 2027 10:47:34.580            28.681               CapeTown          3585.125
       281   08 Jun 2027 11:17:04.952   08 Jun 2027 11:17:48.759            43.807                Anadyr1          5475.875
       282   08 Jun 2027 11:18:40.439   08 Jun 2027 11:22:50.494           250.055                Anadyr1         31256.875
       283   08 Jun 2027 12:55:28.349   08 Jun 2027 13:00:22.308           293.959               Magadan1         36744.875
       284   08 Jun 2027 15:23:20.134   08 Jun 2027 15:26:14.871           174.737            RioGallegos         21842.125
       285   08 Jun 2027 16:10:53.363   08 Jun 2027 16:12:46.287           112.924                Irkutsk         14115.500
       286   08 Jun 2027 16:24:39.060   08 Jun 2027 16:27:17.464           158.404                Sumatra         19800.500
       287   08 Jun 2027 17:46:39.194   08 Jun 2027 17:48:59.942           140.748                Novosib         17593.500
       288   08 Jun 2027 17:54:28.302   08 Jun 2027 17:58:22.805           234.503                  Delhi         29312.875
       289   08 Jun 2027 20:56:45.432   08 Jun 2027 20:57:03.926            18.494              Murmansk2          2311.750
       290   08 Jun 2027 21:00:07.590   08 Jun 2027 21:01:25.142            77.552                 Moscow          9694.000
       291   08 Jun 2027 21:24:28.492   08 Jun 2027 21:25:38.113            69.621               CapeTown          8702.625
       292   09 Jun 2027 03:16:48.775   09 Jun 2027 03:16:52.278             3.503               Magadan1           437.875
       293   09 Jun 2027 03:16:53.169   09 Jun 2027 03:17:33.071            39.902               Magadan1          4987.750
       294   09 Jun 2027 03:18:32.385   09 Jun 2027 03:20:04.531            92.146               Magadan1         11518.250
       295   09 Jun 2027 03:27:52.359   09 Jun 2027 03:28:22.914            30.555              Murmansk1          3819.375
       296   09 Jun 2027 03:55:29.708   09 Jun 2027 03:55:37.120             7.412            RioGallegos           926.500
       297   09 Jun 2027 04:30:33.392   09 Jun 2027 04:35:24.846           291.454                Sumatra         36431.750
       298   09 Jun 2027 04:53:05.388   09 Jun 2027 04:54:15.303            69.915              Murmansk2          8739.375
       299   09 Jun 2027 04:54:29.356   09 Jun 2027 04:55:25.957            56.601              Murmansk2          7075.125
       300   09 Jun 2027 04:55:46.762   09 Jun 2027 04:57:02.603            75.841              Murmansk2          9480.125
       301   09 Jun 2027 04:59:06.661   09 Jun 2027 04:59:28.936            22.275                Norilsk          2784.375
       302   09 Jun 2027 05:34:09.247   09 Jun 2027 05:34:50.011            40.764            RioGallegos          5095.500
       303   09 Jun 2027 05:36:28.208   09 Jun 2027 05:36:39.571            11.363            RioGallegos          1420.375
       304   09 Jun 2027 06:08:31.419   09 Jun 2027 06:09:30.101            58.682                Sumatra          7335.250
       305   09 Jun 2027 06:14:34.582   09 Jun 2027 06:16:33.316           118.734                  Delhi         14841.750
       306   09 Jun 2027 06:31:00.624   09 Jun 2027 06:32:34.639            94.015                 Moscow         11751.875
       307   09 Jun 2027 06:32:56.112   09 Jun 2027 06:33:37.544            41.432                Novosib          5179.000
       308   09 Jun 2027 07:54:27.867   09 Jun 2027 07:55:51.625            83.758                  Delhi         10469.750
       309   09 Jun 2027 08:02:54.243   09 Jun 2027 08:04:38.988           104.745                Novosib         13093.125
       310   09 Jun 2027 08:04:54.101   09 Jun 2027 08:05:39.548            45.447                Novosib          5680.875
       311   09 Jun 2027 08:05:54.070   09 Jun 2027 08:06:46.968            52.898                 Moscow          6612.250
       312   09 Jun 2027 08:06:55.335   09 Jun 2027 08:07:14.338            19.003              Murmansk2          2375.375
       313   09 Jun 2027 08:07:19.376   09 Jun 2027 08:07:32.750            13.374                Norilsk          1671.750
       314   09 Jun 2027 08:07:54.145   09 Jun 2027 08:08:53.938            59.793                 Moscow          7474.125
       315   09 Jun 2027 08:09:17.051   09 Jun 2027 08:10:45.735            88.684                Norilsk         11085.500
       316   09 Jun 2027 08:10:55.425   09 Jun 2027 08:11:12.203            16.778              Murmansk1          2097.250
       317   09 Jun 2027 09:14:39.183   09 Jun 2027 09:17:47.071           187.888               CapeTown         23486.000
       318   09 Jun 2027 10:48:24.705   09 Jun 2027 10:49:54.278            89.573               CapeTown         11196.625
       319   09 Jun 2027 11:29:04.650   09 Jun 2027 11:29:41.282            36.632                Anadyr1          4579.000
       320   09 Jun 2027 11:31:27.019   09 Jun 2027 11:34:01.539           154.520                Anadyr2         19315.000
       321   09 Jun 2027 13:07:24.984   09 Jun 2027 13:08:45.251            80.267               Magadan1         10033.375
       322   09 Jun 2027 13:09:26.148   09 Jun 2027 13:12:06.362           160.214               Magadan1         20026.750
       323   09 Jun 2027 13:12:06.362   09 Jun 2027 13:12:33.294            26.932               Magadan2          3366.500
       324   09 Jun 2027 13:15:11.974   09 Jun 2027 13:19:16.782           244.808               Magadan1         30601.000
       325   09 Jun 2027 15:35:09.592   09 Jun 2027 15:36:26.830            77.238            RioGallegos          9654.750
       326   09 Jun 2027 15:39:19.194   09 Jun 2027 15:40:46.631            87.437            RioGallegos         10929.625
       327   09 Jun 2027 16:36:29.220   09 Jun 2027 16:39:28.796           179.576                Sumatra         22447.000
       328   09 Jun 2027 17:58:36.325   09 Jun 2027 17:59:50.408            74.083                Novosib          9260.375
       329   09 Jun 2027 18:06:13.192   09 Jun 2027 18:10:40.378           267.186                  Delhi         33398.250
       330   09 Jun 2027 21:12:24.412   09 Jun 2027 21:13:08.183            43.771                 Moscow          5471.375
       331   09 Jun 2027 21:16:51.989   09 Jun 2027 21:18:59.679           127.690                 Moscow         15961.250
       332   09 Jun 2027 21:36:13.188   09 Jun 2027 21:38:58.449           165.261               CapeTown         20657.625
       333   10 Jun 2027 03:30:12.820   10 Jun 2027 03:30:45.668            32.848               Magadan1          4106.000
       334   10 Jun 2027 03:31:59.115   10 Jun 2027 03:32:15.385            16.270                Norilsk          2033.750
       335   10 Jun 2027 03:32:24.876   10 Jun 2027 03:33:19.572            54.696              Murmansk2          6837.000
       336   10 Jun 2027 03:33:45.492   10 Jun 2027 03:33:59.906            14.414                Norilsk          1801.750
       337   10 Jun 2027 03:35:28.622   10 Jun 2027 03:35:56.094            27.472              Murmansk2          3434.000
       338   10 Jun 2027 03:37:12.910   10 Jun 2027 03:37:19.227             6.317              Murmansk2           789.625
       339   10 Jun 2027 04:07:36.273   10 Jun 2027 04:07:54.023            17.750            RioGallegos          2218.750
       340   10 Jun 2027 04:09:15.977   10 Jun 2027 04:10:44.815            88.838            RioGallegos         11104.750
       341   10 Jun 2027 04:16:24.078   10 Jun 2027 04:17:18.619            54.541            RioGallegos          6817.625
       342   10 Jun 2027 04:42:26.489   10 Jun 2027 04:45:32.194           185.705                Sumatra         23213.125
       343   10 Jun 2027 05:05:08.639   10 Jun 2027 05:05:42.792            34.153                Novosib          4269.125
       344   10 Jun 2027 05:05:47.019   10 Jun 2027 05:07:49.552           122.533                Irkutsk         15316.625
       345   10 Jun 2027 05:08:22.722   10 Jun 2027 05:08:50.926            28.204              Murmansk2          3525.500
       346   10 Jun 2027 05:09:30.679   10 Jun 2027 05:09:38.393             7.714              Murmansk2           964.250
       347   10 Jun 2027 05:47:00.586   10 Jun 2027 05:47:32.092            31.506            RioGallegos          3938.250
       348   10 Jun 2027 06:21:56.657   10 Jun 2027 06:23:48.990           112.333                Sumatra         14041.625
       349   10 Jun 2027 06:26:37.384   10 Jun 2027 06:27:08.170            30.786                  Delhi          3848.250
       350   10 Jun 2027 06:28:21.218   10 Jun 2027 06:29:03.158            41.940                  Delhi          5242.500
       351   10 Jun 2027 06:42:29.231   10 Jun 2027 06:43:06.594            37.363                 Moscow          4670.375
       352   10 Jun 2027 06:43:10.971   10 Jun 2027 06:44:06.615            55.644                Novosib          6955.500
       353   10 Jun 2027 06:44:39.831   10 Jun 2027 06:45:22.686            42.855                Novosib          5356.875
       354   10 Jun 2027 08:14:53.478   10 Jun 2027 08:15:04.206            10.728              Murmansk2          1341.000
       355   10 Jun 2027 08:15:15.507   10 Jun 2027 08:16:33.977            78.470                 Moscow          9808.750
       356   10 Jun 2027 08:16:50.478   10 Jun 2027 08:17:47.353            56.875              Murmansk1          7109.375
       357   10 Jun 2027 08:17:56.300   10 Jun 2027 08:18:40.185            43.885                Norilsk          5485.625
       358   10 Jun 2027 08:18:45.551   10 Jun 2027 08:19:21.108            35.557              Murmansk1          4444.625
       359   10 Jun 2027 08:19:31.276   10 Jun 2027 08:19:57.694            26.418              Murmansk1          3302.250
       360   10 Jun 2027 08:20:05.038   10 Jun 2027 08:21:59.210           114.172                 Moscow         14271.500
       361   10 Jun 2027 09:26:00.812   10 Jun 2027 09:29:36.721           215.909               CapeTown         26988.625
       362   10 Jun 2027 10:07:37.751   10 Jun 2027 10:07:56.864            19.113                Anadyr1          2389.125
       363   10 Jun 2027 10:09:51.702   10 Jun 2027 10:10:08.365            16.663                Anadyr1          2082.875
       364   10 Jun 2027 11:41:04.759   10 Jun 2027 11:43:43.077           158.318                Anadyr1         19789.750
       365   10 Jun 2027 11:44:42.161   10 Jun 2027 11:45:54.159            71.998                Anadyr1          8999.750
       366   10 Jun 2027 13:19:22.640   10 Jun 2027 13:20:27.102            64.462               Magadan1          8057.750
       367   10 Jun 2027 13:21:45.994   10 Jun 2027 13:25:30.697           224.703               Magadan2         28087.875
       368   10 Jun 2027 15:18:06.554   10 Jun 2027 15:19:31.809            85.255                Sumatra         10656.875
       369   10 Jun 2027 15:47:01.698   10 Jun 2027 15:49:56.499           174.801            RioGallegos         21850.125
       370   10 Jun 2027 15:56:31.430   10 Jun 2027 15:58:43.661           132.231            RioGallegos         16528.875
       371   10 Jun 2027 16:43:10.698   10 Jun 2027 16:44:02.962            52.264                Novosib          6533.000
       372   10 Jun 2027 16:48:34.901   10 Jun 2027 16:51:31.462           176.561                Sumatra         22070.125
       373   10 Jun 2027 18:15:21.543   10 Jun 2027 18:15:37.488            15.945                Novosib          1993.125
       374   10 Jun 2027 18:17:33.793   10 Jun 2027 18:17:39.300             5.507                Novosib           688.375
       375   10 Jun 2027 18:18:02.823   10 Jun 2027 18:20:45.881           163.058                  Delhi         20382.250
       376   10 Jun 2027 19:49:08.694   10 Jun 2027 19:50:39.595            90.901                 Moscow         11362.625
       377   10 Jun 2027 19:56:12.909   10 Jun 2027 19:58:10.157           117.248                 Moscow         14656.000
       378   10 Jun 2027 21:48:03.071   10 Jun 2027 21:49:17.842            74.771               CapeTown          9346.375
       379   10 Jun 2027 21:52:57.861   10 Jun 2027 21:53:42.688            44.827               CapeTown          5603.375
       380   10 Jun 2027 21:59:24.807   10 Jun 2027 22:00:17.411            52.604               CapeTown          6575.500
       381   11 Jun 2027 03:22:45.530   11 Jun 2027 03:24:08.874            83.344                Sumatra         10418.000
       382   11 Jun 2027 03:25:46.503   11 Jun 2027 03:27:51.292           124.789                Sumatra         15598.625
       383   11 Jun 2027 03:42:39.963   11 Jun 2027 03:42:53.389            13.426               Magadan2          1678.250
       384   11 Jun 2027 03:43:19.555   11 Jun 2027 03:43:23.690             4.135               Magadan2           516.875
       385   11 Jun 2027 03:43:54.655   11 Jun 2027 03:44:39.216            44.561                Irkutsk          5570.125
       386   11 Jun 2027 03:44:51.828   11 Jun 2027 03:44:53.806             1.978                Irkutsk           247.250
       387   11 Jun 2027 04:19:46.457   11 Jun 2027 04:22:12.585           146.128            RioGallegos         18266.000
       388   11 Jun 2027 04:26:16.765   11 Jun 2027 04:27:09.323            52.558            RioGallegos          6569.750
       389   11 Jun 2027 04:54:25.235   11 Jun 2027 04:57:00.991           155.756                Sumatra         19469.500
       390   11 Jun 2027 05:16:25.425   11 Jun 2027 05:16:29.843             4.418                Irkutsk           552.250
       391   11 Jun 2027 05:16:48.357   11 Jun 2027 05:17:44.913            56.556                Irkutsk          7069.500
       392   11 Jun 2027 05:18:00.722   11 Jun 2027 05:18:23.171            22.449                Novosib          2806.125
       393   11 Jun 2027 05:18:36.014   11 Jun 2027 05:20:30.847           114.833                Irkutsk         14354.125
       394   11 Jun 2027 06:00:07.638   11 Jun 2027 06:00:23.963            16.325            RioGallegos          2040.625
       395   11 Jun 2027 06:38:45.701   11 Jun 2027 06:41:25.159           159.458                  Delhi         19932.250
       396   11 Jun 2027 06:54:37.021   11 Jun 2027 06:55:13.552            36.531                Novosib          4566.375
       397   11 Jun 2027 06:55:44.006   11 Jun 2027 06:55:50.072             6.066              Murmansk2           758.250
       398   11 Jun 2027 06:55:51.443   11 Jun 2027 06:56:04.763            13.320                Norilsk          1665.000
       399   11 Jun 2027 06:56:21.334   11 Jun 2027 06:57:43.989            82.655              Murmansk2         10331.875
       400   11 Jun 2027 08:26:28.421   11 Jun 2027 08:26:49.402            20.981              Murmansk1          2622.625
       401   11 Jun 2027 08:26:57.971   11 Jun 2027 08:27:14.928            16.957              Murmansk1          2119.625
       402   11 Jun 2027 08:27:16.669   11 Jun 2027 08:27:39.942            23.273                 Moscow          2909.125
       403   11 Jun 2027 08:27:50.996   11 Jun 2027 08:28:36.235            45.239              Murmansk2          5654.875
       404   11 Jun 2027 08:28:42.884   11 Jun 2027 08:29:25.447            42.563              Murmansk1          5320.375
       405   11 Jun 2027 08:29:40.383   11 Jun 2027 08:30:02.535            22.152              Murmansk1          2769.000
       406   11 Jun 2027 08:30:05.998   11 Jun 2027 08:31:07.038            61.040                 Moscow          7630.000
       407   11 Jun 2027 08:31:21.897   11 Jun 2027 08:32:36.667            74.770                 Moscow          9346.250
       408   11 Jun 2027 09:37:33.720   11 Jun 2027 09:41:30.010           236.290               CapeTown         29536.250
       409   11 Jun 2027 10:22:05.811   11 Jun 2027 10:22:06.887             1.076                Anadyr2           134.500
       410   11 Jun 2027 11:18:59.718   11 Jun 2027 11:19:21.686            21.968               CapeTown          2746.000
       411   11 Jun 2027 11:53:05.218   11 Jun 2027 11:55:56.683           171.465                Anadyr1         21433.125
       412   11 Jun 2027 11:57:28.518   11 Jun 2027 11:57:55.414            26.896                Anadyr1          3362.000
       413   11 Jun 2027 12:00:33.475   11 Jun 2027 12:00:34.385             0.910               Magadan1           113.750
       414   11 Jun 2027 13:31:21.139   11 Jun 2027 13:36:22.539           301.400               Magadan1         37675.000
       415   11 Jun 2027 15:17:18.532   11 Jun 2027 15:19:57.798           159.266                Irkutsk         19908.250
       416   11 Jun 2027 15:27:56.854   11 Jun 2027 15:29:57.839           120.985                Sumatra         15123.125
       417   11 Jun 2027 16:47:34.639   11 Jun 2027 16:49:26.710           112.071                Novosib         14008.875
       418   11 Jun 2027 16:54:32.341   11 Jun 2027 16:56:48.038           135.697                Novosib         16962.125
       419   11 Jun 2027 17:00:26.703   11 Jun 2027 17:01:48.067            81.364                Sumatra         10170.500
       420   11 Jun 2027 17:10:06.513   11 Jun 2027 17:11:37.953            91.440                Sumatra         11430.000
       421   11 Jun 2027 18:26:44.237   11 Jun 2027 18:27:23.336            39.099                Novosib          4887.375
       422   11 Jun 2027 18:29:56.478   11 Jun 2027 18:32:53.143           176.665                  Delhi         22083.125
       423   11 Jun 2027 20:00:54.523   11 Jun 2027 20:02:47.404           112.881                 Moscow         14110.125
       424   11 Jun 2027 21:47:39.432   11 Jun 2027 21:48:56.648            77.216                 Moscow          9652.000
       425   11 Jun 2027 21:59:57.937   11 Jun 2027 22:01:57.017           119.080               CapeTown         14885.000
       426   12 Jun 2027 03:33:20.219   12 Jun 2027 03:35:48.656           148.437                Sumatra         18554.625
       427   12 Jun 2027 03:38:09.081   12 Jun 2027 03:41:10.030           180.949                Sumatra         22618.625
       428   12 Jun 2027 03:56:17.741   12 Jun 2027 03:56:55.817            38.076                Norilsk          4759.500
       429   12 Jun 2027 03:57:23.497   12 Jun 2027 03:57:41.519            18.022                Norilsk          2252.750
       430   12 Jun 2027 04:00:39.783   12 Jun 2027 04:01:18.867            39.084                Norilsk          4885.500
       431   12 Jun 2027 04:32:00.485   12 Jun 2027 04:32:46.034            45.549            RioGallegos          5693.625
       432   12 Jun 2027 05:06:29.584   12 Jun 2027 05:08:13.331           103.747                Sumatra         12968.375
       433   12 Jun 2027 05:15:57.308   12 Jun 2027 05:17:10.960            73.652                  Delhi          9206.500
       434   12 Jun 2027 05:19:38.656   12 Jun 2027 05:20:16.900            38.244                  Delhi          4780.500
       435   12 Jun 2027 05:29:45.969   12 Jun 2027 05:31:12.063            86.094                Irkutsk         10761.750
       436   12 Jun 2027 05:31:24.336   12 Jun 2027 05:32:23.630            59.294                Irkutsk          7411.750
       437   12 Jun 2027 05:39:32.412   12 Jun 2027 05:39:54.406            21.994              Murmansk1          2749.250
       438   12 Jun 2027 06:13:53.761   12 Jun 2027 06:14:35.653            41.892            RioGallegos          5236.500
       439   12 Jun 2027 06:50:59.960   12 Jun 2027 06:53:35.585           155.625                  Delhi         19453.125
       440   12 Jun 2027 07:05:55.892   12 Jun 2027 07:06:23.970            28.078              Murmansk1          3509.750
       441   12 Jun 2027 07:06:34.168   12 Jun 2027 07:07:26.425            52.257              Murmansk1          6532.125
       442   12 Jun 2027 07:07:36.991   12 Jun 2027 07:09:22.541           105.550                Novosib         13193.750
       443   12 Jun 2027 08:40:23.700   12 Jun 2027 08:40:55.286            31.586                 Moscow          3948.250
       444   12 Jun 2027 08:41:19.462   12 Jun 2027 08:42:23.814            64.352              Murmansk1          8044.000
       445   12 Jun 2027 08:42:35.971   12 Jun 2027 08:43:51.204            75.233              Murmansk2          9404.125
       446   12 Jun 2027 09:49:14.017   12 Jun 2027 09:53:26.464           252.447               CapeTown         31555.875
       447   12 Jun 2027 10:37:19.749   12 Jun 2027 10:38:59.337            99.588                Anadyr1         12448.500
       448   12 Jun 2027 12:05:05.942   12 Jun 2027 12:05:29.019            23.077                Anadyr2          2884.625
       449   12 Jun 2027 12:06:27.815   12 Jun 2027 12:06:59.658            31.843                Anadyr1          3980.375
       450   12 Jun 2027 12:08:07.938   12 Jun 2027 12:09:56.764           108.826                Anadyr2         13603.250
       451   12 Jun 2027 12:12:01.292   12 Jun 2027 12:12:29.691            28.399               Magadan2          3549.875
       452   12 Jun 2027 13:43:20.338   12 Jun 2027 13:44:04.219            43.881               Magadan1          5485.125
       453   12 Jun 2027 13:46:16.003   12 Jun 2027 13:48:19.193           123.190               Magadan2         15398.750
       454   12 Jun 2027 13:51:28.312   12 Jun 2027 13:52:54.652            86.340               Magadan2         10792.500
       455   12 Jun 2027 15:23:55.537   12 Jun 2027 15:24:32.672            37.135                Irkutsk          4641.875
       456   12 Jun 2027 15:28:20.733   12 Jun 2027 15:29:45.632            84.899                Irkutsk         10612.375
       457   12 Jun 2027 15:38:50.740   12 Jun 2027 15:44:17.479           326.739                Sumatra         40842.375
       458   12 Jun 2027 16:59:21.307   12 Jun 2027 17:01:33.751           132.444                Novosib         16555.500
       459   12 Jun 2027 17:09:18.508   12 Jun 2027 17:12:59.443           220.935                  Delhi         27616.875
       460   12 Jun 2027 18:41:53.715   12 Jun 2027 18:44:00.666           126.951                  Delhi         15868.875
       461   12 Jun 2027 18:52:43.756   12 Jun 2027 18:53:06.000            22.244                  Delhi          2780.500
       462   12 Jun 2027 20:12:43.896   12 Jun 2027 20:13:21.654            37.758                 Moscow          4719.750
       463   12 Jun 2027 20:15:59.813   12 Jun 2027 20:17:08.876            69.063                 Moscow          8632.875
       464   12 Jun 2027 21:48:04.734   12 Jun 2027 21:48:38.926            34.192                 Moscow          4274.000
       465   12 Jun 2027 21:51:22.847   12 Jun 2027 21:52:58.640            95.793                 Moscow         11974.125
       466   12 Jun 2027 22:11:57.751   12 Jun 2027 22:12:38.610            40.859               CapeTown          5107.375
       467   12 Jun 2027 22:21:10.026   12 Jun 2027 22:21:35.729            25.703               CapeTown          3212.875
       468   13 Jun 2027 03:44:26.267   13 Jun 2027 03:47:35.289           189.022                Sumatra         23627.750
       469   13 Jun 2027 03:50:24.190   13 Jun 2027 03:53:29.316           185.126                Sumatra         23140.750
       470   13 Jun 2027 04:09:12.105   13 Jun 2027 04:09:44.788            32.683                Norilsk          4085.375
       471   13 Jun 2027 04:12:28.242   13 Jun 2027 04:13:14.813            46.571                Norilsk          5821.375
       472   13 Jun 2027 04:44:18.668   13 Jun 2027 04:45:43.342            84.674            RioGallegos         10584.250
       473   13 Jun 2027 05:18:39.797   13 Jun 2027 05:19:41.135            61.338                Sumatra          7667.250
       474   13 Jun 2027 05:27:31.808   13 Jun 2027 05:29:29.565           117.757                  Delhi         14719.625
       475   13 Jun 2027 05:42:02.448   13 Jun 2027 05:42:57.956            55.508                Irkutsk          6938.500
       476   13 Jun 2027 05:43:10.756   13 Jun 2027 05:44:56.298           105.542                Novosib         13192.750
       477   13 Jun 2027 07:03:20.907   13 Jun 2027 07:05:23.917           123.010                  Delhi         15376.250
       478   13 Jun 2027 07:18:30.123   13 Jun 2027 07:18:55.197            25.074                 Moscow          3134.250
       479   13 Jun 2027 07:19:03.331   13 Jun 2027 07:20:14.815            71.484                 Moscow          8935.500
       480   13 Jun 2027 08:53:52.099   13 Jun 2027 08:54:03.665            11.566              Murmansk2          1445.750
       481   13 Jun 2027 08:54:03.665   13 Jun 2027 08:54:12.067             8.402              Murmansk1          1050.250
       482   13 Jun 2027 08:54:20.535   13 Jun 2027 08:55:02.500            41.965                 Moscow          5245.625
