uniorb/output/strategy_1/Drop/Drop_KinoSat_110501.txt

KinoSat_110501
-------------------------
    Access    *     Start Time (UTCG)     *     Stop Time (UTCG)  *   Duration (s)        *       Station  *  Data (Mbytes)
         1   01 Jun 2027 04:26:34.203   01 Jun 2027 04:27:21.644            47.441               Magadan1          5930.125
         2   01 Jun 2027 04:28:02.762   01 Jun 2027 04:29:35.410            92.648               Magadan1         11581.000
         3   01 Jun 2027 04:29:46.529   01 Jun 2027 04:30:02.398            15.869                Anadyr1          1983.625
         4   01 Jun 2027 04:30:02.398   01 Jun 2027 04:30:13.762            11.364                Anadyr2          1420.500
         5   01 Jun 2027 04:30:14.773   01 Jun 2027 04:30:43.718            28.945                Anadyr2          3618.125
         6   01 Jun 2027 04:30:44.770   01 Jun 2027 04:30:53.167             8.397                Novosib          1049.625
         7   01 Jun 2027 04:30:57.673   01 Jun 2027 04:31:16.190            18.517               Magadan1          2314.625
         8   01 Jun 2027 04:31:38.672   01 Jun 2027 04:32:19.562            40.890               Magadan2          5111.250
         9   01 Jun 2027 04:32:34.500   01 Jun 2027 04:32:41.139             6.639                Irkutsk           829.875
        10   01 Jun 2027 04:32:43.507   01 Jun 2027 04:33:23.479            39.972                Norilsk          4996.500
        11   01 Jun 2027 04:33:41.088   01 Jun 2027 04:33:41.856             0.768                Novosib            96.000
        12   01 Jun 2027 04:34:16.554   01 Jun 2027 04:34:17.115             0.561                Norilsk            70.125
        13   01 Jun 2027 04:34:23.372   01 Jun 2027 04:34:25.771             2.399                Norilsk           299.875
        14   01 Jun 2027 04:34:47.298   01 Jun 2027 04:35:00.999            13.701              Murmansk2          1712.625
        15   01 Jun 2027 05:07:49.101   01 Jun 2027 05:08:58.421            69.320            RioGallegos          8665.000
        16   01 Jun 2027 05:44:11.722   01 Jun 2027 05:47:17.456           185.734                Sumatra         23216.750
        17   01 Jun 2027 06:05:11.626   01 Jun 2027 06:08:03.823           172.197                Novosib         21524.625
        18   01 Jun 2027 06:08:43.061   01 Jun 2027 06:09:31.489            48.428                Norilsk          6053.500
        19   01 Jun 2027 06:09:45.724   01 Jun 2027 06:10:05.663            19.939                Novosib          2492.375
        20   01 Jun 2027 06:44:26.385   01 Jun 2027 06:44:27.298             0.913            RioGallegos           114.125
        21   01 Jun 2027 06:45:40.426   01 Jun 2027 06:46:04.886            24.460            RioGallegos          3057.500
        22   01 Jun 2027 07:18:45.080   01 Jun 2027 07:19:51.505            66.425                Sumatra          8303.125
        23   01 Jun 2027 07:29:35.198   01 Jun 2027 07:31:16.709           101.511                  Delhi         12688.875
        24   01 Jun 2027 07:42:15.012   01 Jun 2027 07:42:43.000            27.988                 Moscow          3498.500
        25   01 Jun 2027 07:42:47.130   01 Jun 2027 07:44:23.634            96.504                 Moscow         12063.000
        26   01 Jun 2027 09:03:30.279   01 Jun 2027 09:03:39.516             9.237                  Delhi          1154.625
        27   01 Jun 2027 09:05:18.825   01 Jun 2027 09:05:38.427            19.602                  Delhi          2450.250
        28   01 Jun 2027 09:17:57.514   01 Jun 2027 09:18:46.354            48.840              Murmansk1          6105.000
        29   01 Jun 2027 09:18:57.702   01 Jun 2027 09:19:11.640            13.938                Norilsk          1742.250
        30   01 Jun 2027 09:19:20.172   01 Jun 2027 09:20:16.885            56.713              Murmansk2          7089.125
        31   01 Jun 2027 09:20:24.799   01 Jun 2027 09:20:33.449             8.650                Novosib          1081.250
        32   01 Jun 2027 09:20:38.829   01 Jun 2027 09:20:42.290             3.461                Norilsk           432.625
        33   01 Jun 2027 09:21:05.953   01 Jun 2027 09:21:27.267            21.314                Norilsk          2664.250
        34   01 Jun 2027 09:23:11.383   01 Jun 2027 09:23:37.121            25.738                 Moscow          3217.250
        35   01 Jun 2027 11:07:29.776   01 Jun 2027 11:10:21.514           171.738                Anadyr1         21467.250
        36   01 Jun 2027 12:41:23.769   01 Jun 2027 12:43:03.332            99.563                Anadyr1         12445.375
        37   01 Jun 2027 12:46:14.132   01 Jun 2027 12:46:47.409            33.277                Anadyr2          4159.625
        38   01 Jun 2027 14:19:59.371   01 Jun 2027 14:29:27.764           568.393               Magadan2         71049.125
        39   01 Jun 2027 16:48:23.928   01 Jun 2027 16:56:04.352           460.424            RioGallegos         57553.000
        40   01 Jun 2027 17:38:37.616   01 Jun 2027 17:39:30.991            53.375                Irkutsk          6671.875
        41   01 Jun 2027 17:52:30.075   01 Jun 2027 17:57:22.595           292.520                Sumatra         36565.000
        42   01 Jun 2027 19:19:58.066   01 Jun 2027 19:22:57.801           179.735                  Delhi         22466.875
        43   01 Jun 2027 19:27:09.288   01 Jun 2027 19:28:09.475            60.187                  Delhi          7523.375
        44   01 Jun 2027 20:46:52.914   01 Jun 2027 20:49:20.350           147.436              Murmansk2         18429.500
        45   01 Jun 2027 22:53:56.419   01 Jun 2027 22:55:15.882            79.463               CapeTown          7965.626
        46   02 Jun 2027 04:41:34.052   02 Jun 2027 04:43:04.181            90.129               Magadan1         11266.125
        47   02 Jun 2027 04:43:33.346   02 Jun 2027 04:44:20.822            47.476              Murmansk1          5934.500
        48   02 Jun 2027 04:44:41.888   02 Jun 2027 04:45:45.269            63.381              Murmansk1          7922.625
        49   02 Jun 2027 05:19:43.614   02 Jun 2027 05:19:52.322             8.708            RioGallegos          1088.500
        50   02 Jun 2027 05:20:25.326   02 Jun 2027 05:21:55.980            90.654            RioGallegos         11331.750
        51   02 Jun 2027 06:16:34.006   02 Jun 2027 06:17:22.802            48.796                Irkutsk          6099.500
        52   02 Jun 2027 06:17:36.088   02 Jun 2027 06:18:17.246            41.158                Norilsk          5144.750
        53   02 Jun 2027 06:18:34.464   02 Jun 2027 06:18:59.717            25.253              Murmansk1          3156.625
        54   02 Jun 2027 06:19:02.863   02 Jun 2027 06:20:58.654           115.791                Irkutsk         14473.875
        55   02 Jun 2027 07:41:10.142   02 Jun 2027 07:43:18.454           128.312                  Delhi         16039.000
        56   02 Jun 2027 07:54:41.628   02 Jun 2027 07:54:50.252             8.624                 Moscow          1078.000
        57   02 Jun 2027 07:54:51.726   02 Jun 2027 07:54:57.177             5.451                Norilsk           681.375
        58   02 Jun 2027 07:55:01.003   02 Jun 2027 07:55:52.776            51.773              Murmansk1          6471.625
        59   02 Jun 2027 07:56:09.561   02 Jun 2027 07:56:44.531            34.970              Murmansk1          4371.250
        60   02 Jun 2027 07:56:44.531   02 Jun 2027 07:57:40.333            55.802              Murmansk2          6975.250
        61   02 Jun 2027 09:30:22.895   02 Jun 2027 09:30:53.547            30.652                Norilsk          3831.500
        62   02 Jun 2027 09:30:58.773   02 Jun 2027 09:31:31.869            33.096              Murmansk1          4137.000
        63   02 Jun 2027 09:31:38.381   02 Jun 2027 09:32:07.370            28.989                Norilsk          3623.625
        64   02 Jun 2027 09:32:10.051   02 Jun 2027 09:32:35.547            25.496              Murmansk1          3187.000
        65   02 Jun 2027 11:18:46.881   02 Jun 2027 11:23:45.291           298.410                Anadyr2         37301.250
        66   02 Jun 2027 14:31:51.884   02 Jun 2027 14:34:34.199           162.315               Magadan2         20289.375
        67   02 Jun 2027 14:36:06.953   02 Jun 2027 14:37:29.475            82.522               Magadan1         10315.250
        68   02 Jun 2027 14:39:02.275   02 Jun 2027 14:41:21.800           139.525               Magadan2         17440.625
        69   02 Jun 2027 17:00:50.006   02 Jun 2027 17:06:35.270           345.264            RioGallegos         43158.000
        70   02 Jun 2027 18:06:21.927   02 Jun 2027 18:08:12.438           110.511                Sumatra         13813.875
        71   02 Jun 2027 19:31:21.851   02 Jun 2027 19:38:45.127           443.276                  Delhi         55409.500
        72   02 Jun 2027 20:57:45.587   02 Jun 2027 20:58:10.373            24.786              Murmansk1          3098.250
        73   02 Jun 2027 20:58:47.306   02 Jun 2027 21:01:39.730           172.424              Murmansk2         21553.000
        74   02 Jun 2027 21:02:02.622   02 Jun 2027 21:02:08.418             5.796              Murmansk1           724.500
        75   02 Jun 2027 21:03:57.496   02 Jun 2027 21:05:54.187           116.691                 Moscow         14586.375
        76   02 Jun 2027 23:06:46.274   02 Jun 2027 23:07:46.410            60.136               CapeTown          7517.000
        77   03 Jun 2027 04:54:09.994   03 Jun 2027 04:54:36.143            26.149                Irkutsk          3268.625
        78   03 Jun 2027 04:54:52.496   03 Jun 2027 04:55:41.020            48.524               Magadan2          6065.500
        79   03 Jun 2027 04:56:01.362   03 Jun 2027 04:56:21.146            19.784              Murmansk2          2473.000
        80   03 Jun 2027 04:56:29.780   03 Jun 2027 04:56:47.552            17.772              Murmansk2          2221.500
        81   03 Jun 2027 04:56:54.810   03 Jun 2027 04:57:33.067            38.257                Novosib          4782.125
        82   03 Jun 2027 05:31:41.336   03 Jun 2027 05:32:13.229            31.893            RioGallegos          3986.625
        83   03 Jun 2027 05:34:13.914   03 Jun 2027 05:34:58.727            44.813            RioGallegos          5601.625
        84   03 Jun 2027 06:07:12.959   03 Jun 2027 06:08:55.720           102.761                Sumatra         12845.125
        85   03 Jun 2027 06:21:05.237   03 Jun 2027 06:21:19.665            14.428                  Delhi          1803.500
        86   03 Jun 2027 06:28:26.592   03 Jun 2027 06:29:07.707            41.115                Novosib          5139.375
        87   03 Jun 2027 06:29:29.299   03 Jun 2027 06:30:25.819            56.520                Irkutsk          7065.000
        88   03 Jun 2027 06:30:32.408   03 Jun 2027 06:31:00.085            27.677              Murmansk1          3459.625
        89   03 Jun 2027 06:31:05.796   03 Jun 2027 06:31:22.343            16.547              Murmansk1          2068.375
        90   03 Jun 2027 06:31:35.450   03 Jun 2027 06:33:07.186            91.736                Novosib         11467.000
        91   03 Jun 2027 07:44:36.342   03 Jun 2027 07:45:40.463            64.121                Sumatra          8015.125
        92   03 Jun 2027 07:52:55.498   03 Jun 2027 07:53:01.972             6.474                  Delhi           809.250
        93   03 Jun 2027 07:53:55.797   03 Jun 2027 07:54:26.085            30.288                  Delhi          3786.000
        94   03 Jun 2027 08:06:31.395   03 Jun 2027 08:06:48.395            17.000                Norilsk          2125.000
        95   03 Jun 2027 08:07:01.166   03 Jun 2027 08:07:44.834            43.668              Murmansk2          5458.500
        96   03 Jun 2027 08:07:44.834   03 Jun 2027 08:08:02.680            17.846              Murmansk1          2230.750
        97   03 Jun 2027 08:08:17.373   03 Jun 2027 08:08:54.667            37.294                Norilsk          4661.750
        98   03 Jun 2027 08:09:16.022   03 Jun 2027 08:10:29.544            73.522                 Moscow          9190.250
        99   03 Jun 2027 09:41:56.705   03 Jun 2027 09:42:23.175            26.470                Norilsk          3308.750
       100   03 Jun 2027 09:42:29.182   03 Jun 2027 09:42:50.553            21.371                Norilsk          2671.375
       101   03 Jun 2027 09:42:58.016   03 Jun 2027 09:43:08.493            10.477              Murmansk2          1309.625
       102   03 Jun 2027 09:43:12.473   03 Jun 2027 09:44:05.216            52.743                Norilsk          6592.875
       103   03 Jun 2027 09:44:32.377   03 Jun 2027 09:45:07.504            35.127              Murmansk2          4390.875
       104   03 Jun 2027 10:53:03.719   03 Jun 2027 10:54:20.413            76.694               CapeTown          9586.750
       105   03 Jun 2027 11:30:23.980   03 Jun 2027 11:36:46.539           382.559                Anadyr1         47819.875
       106   03 Jun 2027 14:43:46.258   03 Jun 2027 14:45:57.679           131.421               Magadan1         16427.625
       107   03 Jun 2027 14:48:51.084   03 Jun 2027 14:50:41.553           110.469               Magadan1         13808.625
       108   03 Jun 2027 14:52:15.711   03 Jun 2027 14:53:17.364            61.653               Magadan1          7706.625
       109   03 Jun 2027 17:14:37.913   03 Jun 2027 17:17:52.693           194.780            RioGallegos         24347.500
       110   03 Jun 2027 18:02:00.024   03 Jun 2027 18:05:00.431           180.407                Novosib         22550.875
       111   03 Jun 2027 18:19:19.948   03 Jun 2027 18:19:25.224             5.276                Sumatra           659.500
       112   03 Jun 2027 19:46:43.798   03 Jun 2027 19:49:35.283           171.485                  Delhi         21435.625
       113   03 Jun 2027 21:10:38.588   03 Jun 2027 21:11:42.578            63.990              Murmansk1          7998.750
       114   03 Jun 2027 21:11:46.384   03 Jun 2027 21:14:48.256           181.872              Murmansk2         22734.000
       115   03 Jun 2027 21:15:11.860   03 Jun 2027 21:19:40.039           268.179                 Moscow         33522.375
       116   03 Jun 2027 22:49:51.637   03 Jun 2027 22:50:11.687            20.050              Murmansk2          2506.250
       117   04 Jun 2027 03:30:34.693   04 Jun 2027 03:31:51.967            77.274                Anadyr2          9659.250
       118   04 Jun 2027 05:04:01.323   04 Jun 2027 05:04:18.724            17.401                Irkutsk          2175.125
       119   04 Jun 2027 05:04:19.831   04 Jun 2027 05:05:25.314            65.483               Magadan2          8185.375
       120   04 Jun 2027 05:05:35.075   04 Jun 2027 05:06:39.684            64.609               Magadan2          8076.125
       121   04 Jun 2027 05:06:55.322   04 Jun 2027 05:07:24.757            29.435               Magadan2          3679.375
       122   04 Jun 2027 05:07:55.449   04 Jun 2027 05:08:27.346            31.897              Murmansk1          3987.125
       123   04 Jun 2027 05:08:39.581   04 Jun 2027 05:08:57.681            18.100                Irkutsk          2262.500
       124   04 Jun 2027 05:09:00.237   04 Jun 2027 05:10:08.640            68.403                Novosib          8550.375
       125   04 Jun 2027 05:43:42.316   04 Jun 2027 05:44:39.053            56.737            RioGallegos          7092.125
       126   04 Jun 2027 06:18:55.853   04 Jun 2027 06:20:36.533           100.680                Sumatra         12585.000
       127   04 Jun 2027 06:31:09.182   04 Jun 2027 06:31:16.066             6.884                  Delhi           860.500
       128   04 Jun 2027 06:34:21.925   04 Jun 2027 06:36:11.448           109.523                  Delhi         13690.375
       129   04 Jun 2027 06:41:04.053   04 Jun 2027 06:41:31.128            27.075                Novosib          3384.375
       130   04 Jun 2027 06:41:34.919   04 Jun 2027 06:42:45.358            70.439                Irkutsk          8804.875
       131   04 Jun 2027 06:43:12.370   04 Jun 2027 06:43:39.865            27.495              Murmansk1          3436.875
       132   04 Jun 2027 06:43:51.818   04 Jun 2027 06:44:56.401            64.583                Irkutsk          8072.875
       133   04 Jun 2027 08:02:50.548   04 Jun 2027 08:03:53.455            62.907                  Delhi          7863.375
       134   04 Jun 2027 08:17:51.044   04 Jun 2027 08:18:13.224            22.180              Murmansk1          2772.500
       135   04 Jun 2027 08:18:25.140   04 Jun 2027 08:19:09.584            44.444                Irkutsk          5555.500
       136   04 Jun 2027 08:19:17.091   04 Jun 2027 08:19:40.053            22.962                Norilsk          2870.250
       137   04 Jun 2027 08:19:48.592   04 Jun 2027 08:20:06.068            17.476                Novosib          2184.500
       138   04 Jun 2027 08:20:13.291   04 Jun 2027 08:22:29.334           136.043                 Moscow         17005.375
       139   04 Jun 2027 09:52:14.403   04 Jun 2027 09:52:42.349            27.946              Murmansk2          3493.250
       140   04 Jun 2027 09:52:48.316   04 Jun 2027 09:53:06.803            18.487                 Moscow          2310.875
       141   04 Jun 2027 09:53:13.543   04 Jun 2027 09:54:23.762            70.219                Norilsk          8777.375
       142   04 Jun 2027 09:54:48.790   04 Jun 2027 09:56:10.736            81.946                Norilsk         10243.250
       143   04 Jun 2027 09:56:45.898   04 Jun 2027 09:57:08.519            22.621                 Moscow          2827.625
       144   04 Jun 2027 09:57:13.824   04 Jun 2027 09:57:54.977            41.153                Norilsk          5144.125
       145   04 Jun 2027 11:03:28.600   04 Jun 2027 11:05:59.434           150.834               CapeTown         18854.250
       146   04 Jun 2027 11:09:57.273   04 Jun 2027 11:10:06.854             9.581               CapeTown          1197.625
       147   04 Jun 2027 11:42:08.991   04 Jun 2027 11:48:17.475           368.484                Anadyr2         46060.500
       148   04 Jun 2027 13:22:11.645   04 Jun 2027 13:23:58.113           106.468               Magadan2         13308.500
       149   04 Jun 2027 14:55:42.087   04 Jun 2027 14:57:26.608           104.521               Magadan1         13065.125
       150   04 Jun 2027 17:27:45.368   04 Jun 2027 17:29:25.128            99.760            RioGallegos         12470.000
       151   04 Jun 2027 18:08:28.000   04 Jun 2027 18:08:58.900            30.900                Norilsk          3862.500
       152   04 Jun 2027 18:12:56.677   04 Jun 2027 18:18:38.607           341.930                Novosib         42741.250
       153   04 Jun 2027 19:59:58.521   04 Jun 2027 20:00:51.931            53.410                  Delhi          6676.250
       154   04 Jun 2027 21:22:24.550   04 Jun 2027 21:23:12.015            47.465              Murmansk2          5933.125
       155   04 Jun 2027 21:23:37.821   04 Jun 2027 21:26:39.995           182.174              Murmansk1         22771.750
       156   04 Jun 2027 21:26:43.857   04 Jun 2027 21:28:12.113            88.256              Murmansk2         11032.000
       157   04 Jun 2027 21:28:40.468   04 Jun 2027 21:31:49.817           189.349                 Moscow         23668.625
       158   05 Jun 2027 03:40:56.190   05 Jun 2027 03:41:37.439            41.249               Magadan2          5156.125
       159   05 Jun 2027 03:41:51.868   05 Jun 2027 03:42:19.640            27.772                Anadyr1          3471.500
       160   05 Jun 2027 03:42:30.263   05 Jun 2027 03:42:36.697             6.434                Anadyr2           804.250
       161   05 Jun 2027 03:42:36.697   05 Jun 2027 03:43:53.342            76.645                Anadyr1          9580.625
       162   05 Jun 2027 03:44:16.253   05 Jun 2027 03:44:35.502            19.249               Magadan1          2406.125
       163   05 Jun 2027 05:16:03.635   05 Jun 2027 05:18:10.188           126.553                Irkutsk         15819.125
       164   05 Jun 2027 05:18:26.586   05 Jun 2027 05:19:41.325            74.739                Irkutsk          9342.375
       165   05 Jun 2027 05:20:23.881   05 Jun 2027 05:21:03.321            39.440                Irkutsk          4930.000
       166   05 Jun 2027 05:24:41.313   05 Jun 2027 05:25:12.340            31.027                Norilsk          3878.375
       167   05 Jun 2027 05:57:05.128   05 Jun 2027 05:57:10.551             5.423            RioGallegos           677.875
       168   05 Jun 2027 05:57:50.099   05 Jun 2027 05:57:56.842             6.743            RioGallegos           842.875
       169   05 Jun 2027 06:00:37.596   05 Jun 2027 06:00:56.271            18.675            RioGallegos          2334.375
       170   05 Jun 2027 06:30:45.173   05 Jun 2027 06:31:22.219            37.046                Sumatra          4630.750
       171   05 Jun 2027 06:33:42.595   05 Jun 2027 06:34:38.361            55.766                Sumatra          6970.750
       172   05 Jun 2027 06:49:58.219   05 Jun 2027 06:50:05.000             6.781                  Delhi           847.625
       173   05 Jun 2027 06:52:58.974   05 Jun 2027 06:54:04.797            65.823                Novosib          8227.875
       174   05 Jun 2027 06:54:24.390   05 Jun 2027 06:55:10.320            45.930              Murmansk2          5741.250
       175   05 Jun 2027 06:55:10.320   05 Jun 2027 06:55:26.990            16.670              Murmansk1          2083.750
       176   05 Jun 2027 06:55:34.892   05 Jun 2027 06:56:29.039            54.147              Murmansk1          6768.375
       177   05 Jun 2027 06:56:42.304   05 Jun 2027 06:57:26.347            44.043                 Moscow          5505.375
       178   05 Jun 2027 08:09:11.295   05 Jun 2027 08:09:38.899            27.604                Sumatra          3450.500
       179   05 Jun 2027 08:14:49.932   05 Jun 2027 08:15:16.415            26.483                  Delhi          3310.375
       180   05 Jun 2027 08:29:30.567   05 Jun 2027 08:30:25.421            54.854                Irkutsk          6856.750
       181   05 Jun 2027 08:30:27.810   05 Jun 2027 08:30:27.886             0.076                Irkutsk             9.500
       182   05 Jun 2027 08:30:29.362   05 Jun 2027 08:31:05.972            36.610              Murmansk1          4576.250
       183   05 Jun 2027 08:31:07.229   05 Jun 2027 08:31:38.767            31.538                 Moscow          3942.250
       184   05 Jun 2027 08:32:00.807   05 Jun 2027 08:33:57.296           116.489                Novosib         14561.125
       185   05 Jun 2027 10:02:00.666   05 Jun 2027 10:02:11.718            11.052                 Moscow          1381.500
       186   05 Jun 2027 10:02:31.664   05 Jun 2027 10:03:47.868            76.204                 Moscow          9525.500
       187   05 Jun 2027 10:03:57.237   05 Jun 2027 10:04:38.796            41.559              Murmansk1          5194.875
       188   05 Jun 2027 10:04:44.226   05 Jun 2027 10:05:06.106            21.880                 Moscow          2735.000
       189   05 Jun 2027 10:05:14.689   05 Jun 2027 10:06:07.355            52.666                Novosib          6583.250
       190   05 Jun 2027 10:06:14.545   05 Jun 2027 10:06:54.865            40.320              Murmansk2          5040.000
       191   05 Jun 2027 10:07:05.196   05 Jun 2027 10:08:12.587            67.391                Norilsk          8423.875
       192   05 Jun 2027 10:08:45.073   05 Jun 2027 10:09:10.379            25.306              Murmansk2          3163.250
       193   05 Jun 2027 10:09:22.514   05 Jun 2027 10:10:00.407            37.893                 Moscow          4736.625
       194   05 Jun 2027 10:10:23.535   05 Jun 2027 10:10:29.053             5.518              Murmansk1           689.750
       195   05 Jun 2027 11:14:38.630   05 Jun 2027 11:17:44.164           185.534               CapeTown         23191.750
       196   05 Jun 2027 11:21:55.145   05 Jun 2027 11:23:12.211            77.066               CapeTown          9633.250
       197   05 Jun 2027 11:53:58.474   05 Jun 2027 11:55:04.907            66.433                Anadyr2          8304.125
       198   05 Jun 2027 11:55:04.907   05 Jun 2027 11:56:14.224            69.317                Anadyr1          8664.625
       199   05 Jun 2027 11:57:41.609   05 Jun 2027 11:58:46.566            64.957                Anadyr2          8119.625
       200   05 Jun 2027 13:33:23.068   05 Jun 2027 13:38:44.234           321.166               Magadan2         40145.750
       201   05 Jun 2027 16:49:46.370   05 Jun 2027 16:54:11.228           264.858                Irkutsk         33107.250
       202   05 Jun 2027 18:24:23.104   05 Jun 2027 18:31:43.910           440.806                Novosib         55100.750
       203   05 Jun 2027 21:33:58.711   05 Jun 2027 21:34:49.115            50.404              Murmansk1          6300.500
       204   05 Jun 2027 21:36:23.211   05 Jun 2027 21:38:34.431           131.220              Murmansk2         16402.500
       205   05 Jun 2027 21:39:09.811   05 Jun 2027 21:43:56.429           286.618                 Moscow         35827.250
       206   05 Jun 2027 22:06:27.534   05 Jun 2027 22:06:54.010            26.476               CapeTown          3309.500
       207   05 Jun 2027 22:07:46.757   05 Jun 2027 22:09:28.380           101.623               CapeTown         12702.875
       208   06 Jun 2027 03:52:56.713   06 Jun 2027 03:53:12.471            15.758               Magadan1          1969.750
       209   06 Jun 2027 03:53:21.577   06 Jun 2027 03:53:57.911            36.334               Magadan1          4541.750
       210   06 Jun 2027 03:54:19.759   06 Jun 2027 03:54:34.366            14.607                Anadyr1          1825.875
       211   06 Jun 2027 03:54:34.366   06 Jun 2027 03:55:54.614            80.248                Anadyr2         10031.000
       212   06 Jun 2027 03:56:41.008   06 Jun 2027 03:57:14.992            33.984               Magadan2          4248.000
       213   06 Jun 2027 05:13:17.238   06 Jun 2027 05:13:54.407            37.169                Sumatra          4646.125
       214   06 Jun 2027 05:28:19.631   06 Jun 2027 05:28:55.340            35.709               Magadan1          4463.625
       215   06 Jun 2027 05:28:59.917   06 Jun 2027 05:31:21.361           141.444                Irkutsk         17680.500
       216   06 Jun 2027 05:32:13.786   06 Jun 2027 05:32:58.684            44.898              Murmansk1          5612.250
       217   06 Jun 2027 05:33:08.098   06 Jun 2027 05:34:02.583            54.485              Murmansk2          6810.625
       218   06 Jun 2027 05:34:14.547   06 Jun 2027 05:34:21.710             7.163                Novosib           895.375
       219   06 Jun 2027 06:07:54.507   06 Jun 2027 06:08:02.647             8.140            RioGallegos          1017.500
       220   06 Jun 2027 06:11:45.603   06 Jun 2027 06:11:52.184             6.581            RioGallegos           822.625
       221   06 Jun 2027 06:12:47.369   06 Jun 2027 06:12:55.674             8.305            RioGallegos          1038.125
       222   06 Jun 2027 06:17:37.944   06 Jun 2027 06:18:06.230            28.286            RioGallegos          3535.750
       223   06 Jun 2027 06:42:40.321   06 Jun 2027 06:43:31.773            51.452                Sumatra          6431.500
       224   06 Jun 2027 06:58:22.977   06 Jun 2027 07:00:05.601           102.624                  Delhi         12828.000
       225   06 Jun 2027 07:04:52.124   06 Jun 2027 07:06:08.501            76.377                Novosib          9547.125
       226   06 Jun 2027 07:06:24.595   06 Jun 2027 07:07:02.849            38.254                 Moscow          4781.750
       227   06 Jun 2027 07:07:20.565   06 Jun 2027 07:07:54.325            33.760                Novosib          4220.000
       228   06 Jun 2027 07:08:04.508   06 Jun 2027 07:08:42.329            37.821                Irkutsk          4727.625
       229   06 Jun 2027 07:08:47.598   06 Jun 2027 07:09:41.833            54.235              Murmansk2          6779.375
       230   06 Jun 2027 08:23:10.793   06 Jun 2027 08:23:32.267            21.474                Sumatra          2684.250
       231   06 Jun 2027 08:27:26.825   06 Jun 2027 08:28:38.429            71.604                  Delhi          8950.500
       232   06 Jun 2027 08:41:17.595   06 Jun 2027 08:42:35.247            77.652                Norilsk          9706.500
       233   06 Jun 2027 08:42:57.527   06 Jun 2027 08:44:35.350            97.823                 Moscow         12227.875
       234   06 Jun 2027 10:14:33.748   06 Jun 2027 10:15:54.611            80.863                 Moscow         10107.875
       235   06 Jun 2027 10:16:12.287   06 Jun 2027 10:17:07.432            55.145                 Moscow          6893.125
       236   06 Jun 2027 10:17:29.547   06 Jun 2027 10:19:03.496            93.949                 Moscow         11743.625
       237   06 Jun 2027 10:19:20.738   06 Jun 2027 10:20:32.516            71.778                 Moscow          8972.250
       238   06 Jun 2027 10:20:38.409   06 Jun 2027 10:20:58.161            19.752              Murmansk2          2469.000
       239   06 Jun 2027 10:21:04.793   06 Jun 2027 10:21:19.971            15.178                Norilsk          1897.250
       240   06 Jun 2027 10:21:24.286   06 Jun 2027 10:22:24.689            60.403              Murmansk1          7550.375
       241   06 Jun 2027 11:26:04.995   06 Jun 2027 11:29:33.351           208.356               CapeTown         26044.500
       242   06 Jun 2027 11:31:49.017   06 Jun 2027 11:33:18.218            89.201               CapeTown         11150.125
       243   06 Jun 2027 12:07:16.314   06 Jun 2027 12:08:10.388            54.074                Anadyr2          6759.250
       244   06 Jun 2027 12:08:10.388   06 Jun 2027 12:11:14.659           184.271                Anadyr1         23033.875
       245   06 Jun 2027 13:44:55.665   06 Jun 2027 13:47:56.337           180.672               Magadan1         22584.000
       246   06 Jun 2027 17:00:55.752   06 Jun 2027 17:07:33.232           397.480                Irkutsk         49685.000
       247   06 Jun 2027 17:17:17.342   06 Jun 2027 17:19:24.254           126.912                Sumatra         15864.000
       248   06 Jun 2027 18:36:00.642   06 Jun 2027 18:41:04.673           304.031                Novosib         38003.875
       249   06 Jun 2027 21:45:12.163   06 Jun 2027 21:46:35.788            83.625              Murmansk2         10453.125
       250   06 Jun 2027 21:49:04.052   06 Jun 2027 21:51:13.719           129.667              Murmansk1         16208.375
       251   06 Jun 2027 21:52:41.232   06 Jun 2027 21:53:12.936            31.704                 Moscow          3963.000
       252   06 Jun 2027 21:54:56.806   06 Jun 2027 21:57:35.524           158.718                 Moscow         19839.750
       253   06 Jun 2027 22:16:41.469   06 Jun 2027 22:18:18.511            97.042               CapeTown         12130.250
       254   07 Jun 2027 04:04:15.760   07 Jun 2027 04:04:47.615            31.855                Anadyr2          3981.875
       255   07 Jun 2027 04:04:51.515   07 Jun 2027 04:05:25.151            33.636                Anadyr2          4204.500
       256   07 Jun 2027 04:05:31.467   07 Jun 2027 04:05:59.466            27.999                Anadyr2          3499.875
       257   07 Jun 2027 04:06:26.693   07 Jun 2027 04:07:55.754            89.061                Anadyr2         11132.625
       258   07 Jun 2027 04:08:34.643   07 Jun 2027 04:09:06.270            31.627               Magadan1          3953.375
       259   07 Jun 2027 04:50:21.342   07 Jun 2027 04:51:10.284            48.942            RioGallegos          6117.750
       260   07 Jun 2027 05:22:23.534   07 Jun 2027 05:23:21.581            58.047                Sumatra          7255.875
       261   07 Jun 2027 05:40:05.823   07 Jun 2027 05:41:11.701            65.878                Irkutsk          8234.750
       262   07 Jun 2027 05:41:16.333   07 Jun 2027 05:42:53.042            96.709                Irkutsk         12088.625
       263   07 Jun 2027 05:43:38.706   07 Jun 2027 05:44:06.052            27.346                Novosib          3418.250
       264   07 Jun 2027 05:44:21.738   07 Jun 2027 05:44:54.101            32.363                Norilsk          4045.375
       265   07 Jun 2027 05:45:03.313   07 Jun 2027 05:45:25.120            21.807                Norilsk          2725.875
       266   07 Jun 2027 06:20:06.032   07 Jun 2027 06:20:34.213            28.181            RioGallegos          3522.625
       267   07 Jun 2027 06:23:55.647   07 Jun 2027 06:24:55.751            60.104            RioGallegos          7513.000
       268   07 Jun 2027 07:04:32.224   07 Jun 2027 07:05:10.999            38.775                  Delhi          4846.875
       269   07 Jun 2027 07:09:54.259   07 Jun 2027 07:10:33.395            39.136                  Delhi          4892.000
       270   07 Jun 2027 07:16:55.950   07 Jun 2027 07:17:48.017            52.067              Murmansk2          6508.375
       271   07 Jun 2027 07:18:09.113   07 Jun 2027 07:18:19.041             9.928                Norilsk          1241.000
       272   07 Jun 2027 07:18:34.147   07 Jun 2027 07:19:33.475            59.328                 Moscow          7416.000
       273   07 Jun 2027 07:19:54.113   07 Jun 2027 07:21:37.815           103.702                Novosib         12962.750
       274   07 Jun 2027 07:21:58.156   07 Jun 2027 07:22:39.050            40.894                Novosib          5111.750
       275   07 Jun 2027 08:39:05.068   07 Jun 2027 08:40:17.851            72.783                  Delhi          9097.875
       276   07 Jun 2027 08:53:02.230   07 Jun 2027 08:54:36.848            94.618                Norilsk         11827.250
       277   07 Jun 2027 08:54:57.831   07 Jun 2027 08:55:41.910            44.079                 Moscow          5509.875
       278   07 Jun 2027 08:55:52.022   07 Jun 2027 08:56:13.749            21.727                Norilsk          2715.875
       279   07 Jun 2027 08:56:16.894   07 Jun 2027 08:56:41.578            24.684                Novosib          3085.500
       280   07 Jun 2027 10:26:44.651   07 Jun 2027 10:27:13.326            28.675              Murmansk2          3584.375
       281   07 Jun 2027 10:27:20.680   07 Jun 2027 10:28:04.514            43.834                 Moscow          5479.250
       282   07 Jun 2027 10:28:33.451   07 Jun 2027 10:29:31.049            57.598              Murmansk2          7199.750
       283   07 Jun 2027 10:29:35.783   07 Jun 2027 10:29:54.773            18.990              Murmansk1          2373.750
       284   07 Jun 2027 10:30:04.297   07 Jun 2027 10:30:44.193            39.896              Murmansk2          4987.000
       285   07 Jun 2027 10:30:58.408   07 Jun 2027 10:31:45.790            47.382              Murmansk1          5922.750
       286   07 Jun 2027 10:31:52.853   07 Jun 2027 10:32:16.521            23.668                Norilsk          2958.500
       287   07 Jun 2027 10:32:20.726   07 Jun 2027 10:32:24.443             3.717              Murmansk1           464.625
       288   07 Jun 2027 10:33:16.438   07 Jun 2027 10:33:25.766             9.328              Murmansk1          1166.000
       289   07 Jun 2027 11:37:40.860   07 Jun 2027 11:38:32.236            51.376               CapeTown          6422.000
       290   07 Jun 2027 11:39:33.995   07 Jun 2027 11:44:14.138           280.143               CapeTown         35017.875
       291   07 Jun 2027 12:17:45.295   07 Jun 2027 12:20:08.677           143.382                Anadyr1         17922.750
       292   07 Jun 2027 12:21:03.641   07 Jun 2027 12:21:43.449            39.808                Anadyr2          4976.000
       293   07 Jun 2027 13:56:37.162   07 Jun 2027 14:03:06.036           388.874               Magadan2         48609.250
       294   07 Jun 2027 16:26:10.239   07 Jun 2027 16:28:34.020           143.781            RioGallegos         17972.625
       295   07 Jun 2027 17:12:25.061   07 Jun 2027 17:15:16.482           171.421                Irkutsk         21427.625
       296   07 Jun 2027 17:17:10.650   07 Jun 2027 17:18:33.725            83.075                Irkutsk         10384.375
       297   07 Jun 2027 17:27:44.332   07 Jun 2027 17:29:55.594           131.262                Sumatra         16407.750
       298   07 Jun 2027 17:31:46.136   07 Jun 2027 17:33:55.599           129.463                Sumatra         16182.875
       299   07 Jun 2027 18:49:55.929   07 Jun 2027 18:51:10.701            74.772                Novosib          9346.500
       300   07 Jun 2027 18:58:51.251   07 Jun 2027 18:59:50.718            59.467                  Delhi          7433.375
       301   07 Jun 2027 20:23:16.316   07 Jun 2027 20:24:19.538            63.222              Murmansk2          7902.750
       302   07 Jun 2027 22:01:05.396   07 Jun 2027 22:02:56.706           111.310                 Moscow         13913.750
       303   07 Jun 2027 22:04:24.919   07 Jun 2027 22:07:19.675           174.756                 Moscow         21844.500
       304   07 Jun 2027 22:27:35.295   07 Jun 2027 22:28:42.021            66.726               CapeTown          8340.750
       305   08 Jun 2027 04:17:29.609   08 Jun 2027 04:17:55.893            26.284               Magadan2          3285.500
       306   08 Jun 2027 04:18:01.002   08 Jun 2027 04:18:27.688            26.686                Anadyr1          3335.750
       307   08 Jun 2027 04:18:31.697   08 Jun 2027 04:19:56.711            85.014                Anadyr1         10626.750
       308   08 Jun 2027 04:20:50.989   08 Jun 2027 04:20:59.832             8.843                Novosib          1105.375
       309   08 Jun 2027 04:21:03.421   08 Jun 2027 04:21:09.761             6.340               Magadan2           792.500
       310   08 Jun 2027 04:21:48.273   08 Jun 2027 04:22:34.054            45.781                Norilsk          5722.625
       311   08 Jun 2027 04:56:12.244   08 Jun 2027 04:57:35.803            83.559            RioGallegos         10444.875
       312   08 Jun 2027 05:33:13.178   08 Jun 2027 05:35:41.181           148.003                Sumatra         18500.375
       313   08 Jun 2027 05:52:38.983   08 Jun 2027 05:53:27.036            48.053                Novosib          6006.625
       314   08 Jun 2027 05:53:39.597   08 Jun 2027 05:53:44.470             4.873               Magadan1           609.125
       315   08 Jun 2027 05:53:50.723   08 Jun 2027 05:54:10.098            19.375               Magadan2          2421.875
       316   08 Jun 2027 05:54:25.915   08 Jun 2027 05:54:39.907            13.992                Norilsk          1749.000
       317   08 Jun 2027 05:54:51.324   08 Jun 2027 05:56:02.604            71.280              Murmansk1          8910.000
       318   08 Jun 2027 05:56:10.310   08 Jun 2027 05:56:43.523            33.213                Norilsk          4151.625
       319   08 Jun 2027 05:56:56.026   08 Jun 2027 05:57:04.726             8.700                Norilsk          1087.500
       320   08 Jun 2027 05:57:10.722   08 Jun 2027 05:57:28.206            17.484                Novosib          2185.500
       321   08 Jun 2027 05:57:37.627   08 Jun 2027 05:57:48.208            10.581              Murmansk1          1322.625
       322   08 Jun 2027 05:57:48.208   08 Jun 2027 05:58:31.498            43.290              Murmansk2          5411.250
       323   08 Jun 2027 07:09:44.048   08 Jun 2027 07:09:56.803            12.755                Sumatra          1594.375
       324   08 Jun 2027 07:16:02.093   08 Jun 2027 07:17:33.337            91.244                  Delhi         11405.500
       325   08 Jun 2027 07:29:26.917   08 Jun 2027 07:29:49.349            22.432              Murmansk2          2804.000
       326   08 Jun 2027 07:29:57.516   08 Jun 2027 07:30:22.105            24.589                 Moscow          3073.625
       327   08 Jun 2027 07:30:26.153   08 Jun 2027 07:30:36.186            10.033              Murmansk2          1254.125
       328   08 Jun 2027 07:30:36.186   08 Jun 2027 07:30:49.556            13.370              Murmansk1          1671.250
       329   08 Jun 2027 07:30:58.411   08 Jun 2027 07:32:38.204            99.793                 Moscow         12474.125
       330   08 Jun 2027 07:34:17.362   08 Jun 2027 07:34:31.531            14.169                 Moscow          1771.125
       331   08 Jun 2027 08:51:21.617   08 Jun 2027 08:52:03.229            41.612                  Delhi          5201.500
       332   08 Jun 2027 08:54:51.861   08 Jun 2027 08:55:51.624            59.763                  Delhi          7470.375
       333   08 Jun 2027 09:04:29.491   08 Jun 2027 09:05:00.557            31.066                Norilsk          3883.250
       334   08 Jun 2027 09:05:18.367   08 Jun 2027 09:06:11.718            53.351              Murmansk1          6668.875
       335   08 Jun 2027 09:06:21.655   08 Jun 2027 09:07:18.484            56.829                Novosib          7103.625
       336   08 Jun 2027 09:07:25.275   08 Jun 2027 09:07:29.472             4.197              Murmansk2           524.625
       337   08 Jun 2027 09:07:43.174   08 Jun 2027 09:08:52.977            69.803                Norilsk          8725.375
       338   08 Jun 2027 10:39:24.551   08 Jun 2027 10:39:39.166            14.615                 Moscow          1826.875
       339   08 Jun 2027 10:39:43.271   08 Jun 2027 10:40:31.582            48.311              Murmansk2          6038.875
       340   08 Jun 2027 10:41:18.722   08 Jun 2027 10:42:34.852            76.130              Murmansk2          9516.250
       341   08 Jun 2027 10:42:34.852   08 Jun 2027 10:42:39.904             5.052              Murmansk1           631.500
       342   08 Jun 2027 10:42:59.186   08 Jun 2027 10:44:24.335            85.149              Murmansk2         10643.625
       343   08 Jun 2027 11:49:23.249   08 Jun 2027 11:50:37.593            74.344               CapeTown          9293.000
       344   08 Jun 2027 11:53:22.300   08 Jun 2027 11:53:48.714            26.414               CapeTown          3301.750
       345   08 Jun 2027 11:54:35.988   08 Jun 2027 11:55:33.959            57.971               CapeTown          7246.375
       346   08 Jun 2027 12:29:41.243   08 Jun 2027 12:31:47.796           126.553                Anadyr2         15819.125
       347   08 Jun 2027 12:33:49.281   08 Jun 2027 12:36:01.402           132.121                Anadyr2         16515.125
       348   08 Jun 2027 12:37:12.258   08 Jun 2027 12:40:04.353           172.095                Anadyr1         21511.875
       349   08 Jun 2027 14:08:23.812   08 Jun 2027 14:13:54.773           330.961               Magadan1         41370.125
       350   08 Jun 2027 16:37:11.957   08 Jun 2027 16:40:19.209           187.252            RioGallegos         23406.500
       351   08 Jun 2027 17:25:18.743   08 Jun 2027 17:27:51.326           152.583                Irkutsk         19072.875
       352   08 Jun 2027 17:29:38.509   08 Jun 2027 17:32:11.517           153.008                Irkutsk         19126.000
       353   08 Jun 2027 17:38:47.478   08 Jun 2027 17:41:38.187           170.709                Sumatra         21338.625
       354   08 Jun 2027 19:03:07.107   08 Jun 2027 19:05:24.701           137.594                Novosib         17199.250
       355   08 Jun 2027 19:09:05.969   08 Jun 2027 19:10:36.694            90.725                  Delhi         11340.625
       356   08 Jun 2027 20:35:14.070   08 Jun 2027 20:35:26.869            12.799              Murmansk1          1599.875
       357   08 Jun 2027 20:36:29.111   08 Jun 2027 20:36:59.023            29.912              Murmansk1          3739.000
       358   08 Jun 2027 22:11:44.708   08 Jun 2027 22:14:20.918           156.210              Murmansk2         19526.250
       359   08 Jun 2027 22:19:56.544   08 Jun 2027 22:21:34.838            98.294                 Moscow         12286.750
       360   08 Jun 2027 22:38:45.445   08 Jun 2027 22:39:17.027            31.582               CapeTown          3947.750
       361   08 Jun 2027 22:40:06.101   08 Jun 2027 22:40:54.324            48.223               CapeTown          6027.875
       362   09 Jun 2027 04:31:28.787   09 Jun 2027 04:32:36.426            67.639                Irkutsk          8454.875
       363   09 Jun 2027 04:32:42.142   09 Jun 2027 04:33:56.613            74.471                Novosib          9308.875
       364   09 Jun 2027 05:44:25.861   09 Jun 2027 05:47:31.954           186.093                Sumatra         23261.625
       365   09 Jun 2027 06:05:02.247   09 Jun 2027 06:05:26.437            24.190                Novosib          3023.750
       366   09 Jun 2027 06:05:30.306   09 Jun 2027 06:08:22.429           172.123                Irkutsk         21515.375
       367   09 Jun 2027 06:09:13.150   09 Jun 2027 06:09:46.811            33.661                Norilsk          4207.625
       368   09 Jun 2027 06:44:41.268   09 Jun 2027 06:44:42.026             0.758            RioGallegos            94.750
       369   09 Jun 2027 07:18:59.881   09 Jun 2027 07:20:05.968            66.087                Sumatra          8260.875
       370   09 Jun 2027 07:29:34.719   09 Jun 2027 07:31:31.339           116.620                  Delhi         14577.500
       371   09 Jun 2027 07:41:35.747   09 Jun 2027 07:41:50.819            15.072              Murmansk2          1884.000
       372   09 Jun 2027 07:41:50.881   09 Jun 2027 07:42:20.566            29.685                Norilsk          3710.625
       373   09 Jun 2027 07:42:29.951   09 Jun 2027 07:42:49.782            19.831                 Moscow          2478.875
       374   09 Jun 2027 07:42:57.514   09 Jun 2027 07:43:17.054            19.540              Murmansk1          2442.500
       375   09 Jun 2027 07:43:17.054   09 Jun 2027 07:43:18.601             1.547              Murmansk2           193.375
       376   09 Jun 2027 07:43:27.933   09 Jun 2027 07:44:22.870            54.937                Novosib          6867.125
       377   09 Jun 2027 07:45:04.993   09 Jun 2027 07:45:30.797            25.804                 Moscow          3225.500
       378   09 Jun 2027 09:03:45.227   09 Jun 2027 09:03:54.141             8.914                  Delhi          1114.250
       379   09 Jun 2027 09:05:33.255   09 Jun 2027 09:05:51.085            17.830                  Delhi          2228.750
       380   09 Jun 2027 09:16:20.258   09 Jun 2027 09:16:45.471            25.213              Murmansk1          3151.625
       381   09 Jun 2027 09:17:00.174   09 Jun 2027 09:18:39.229            99.055                Norilsk         12381.875
       382   09 Jun 2027 09:18:56.108   09 Jun 2027 09:19:12.038            15.930                 Moscow          1991.250
       383   09 Jun 2027 09:19:14.645   09 Jun 2027 09:19:16.908             2.263              Murmansk2           282.875
       384   09 Jun 2027 09:19:19.187   09 Jun 2027 09:20:06.795            47.608                Novosib          5951.000
       385   09 Jun 2027 09:20:21.395   09 Jun 2027 09:20:55.601            34.206                Norilsk          4275.750
       386   09 Jun 2027 09:21:37.750   09 Jun 2027 09:21:42.932             5.182                 Moscow           647.750
       387   09 Jun 2027 10:54:24.796   09 Jun 2027 10:55:10.129            45.333                 Moscow          5666.625
       388   09 Jun 2027 10:57:41.317   09 Jun 2027 10:57:59.424            18.107                 Moscow          2263.375
       389   09 Jun 2027 11:07:43.610   09 Jun 2027 11:10:37.415           173.805                Anadyr1         21725.625
       390   09 Jun 2027 12:41:38.358   09 Jun 2027 12:43:17.855            99.497                Anadyr1         12437.125
       391   09 Jun 2027 12:46:29.242   09 Jun 2027 12:47:01.994            32.752                Anadyr2          4094.000
       392   09 Jun 2027 14:20:13.893   09 Jun 2027 14:28:50.439           516.546               Magadan1         64568.250
       393   09 Jun 2027 16:48:38.222   09 Jun 2027 16:52:08.075           209.853            RioGallegos         26231.625
       394   09 Jun 2027 16:56:19.426   09 Jun 2027 16:56:28.909             9.483            RioGallegos          1185.375
       395   09 Jun 2027 17:38:53.185   09 Jun 2027 17:41:52.540           179.355                Irkutsk         22419.375
       396   09 Jun 2027 17:52:47.229   09 Jun 2027 17:56:23.917           216.688                Sumatra         27086.000
       397   09 Jun 2027 19:20:12.170   09 Jun 2027 19:23:12.270           180.100                  Delhi         22512.500
       398   09 Jun 2027 19:27:24.001   09 Jun 2027 19:28:50.063            86.062                  Delhi         10757.750
       399   09 Jun 2027 20:47:10.340   09 Jun 2027 20:47:40.300            29.960              Murmansk1          3745.000
       400   09 Jun 2027 20:49:06.399   09 Jun 2027 20:49:35.614            29.215              Murmansk1          3651.875
       401   09 Jun 2027 22:54:11.892   09 Jun 2027 22:57:18.739           186.847               CapeTown         23355.875
       402   10 Jun 2027 04:39:59.264   10 Jun 2027 04:40:07.954             8.690                Irkutsk          1086.250
       403   10 Jun 2027 04:40:22.298   10 Jun 2027 04:40:36.901            14.603               Magadan1          1825.375
       404   10 Jun 2027 04:40:53.263   10 Jun 2027 04:41:35.508            42.245               Magadan1          5280.625
       405   10 Jun 2027 04:41:35.508   10 Jun 2027 04:42:09.911            34.403               Magadan2          4300.375
       406   10 Jun 2027 04:42:39.304   10 Jun 2027 04:43:00.348            21.044                Norilsk          2630.500
       407   10 Jun 2027 04:43:08.109   10 Jun 2027 04:43:52.299            44.190                Irkutsk          5523.750
       408   10 Jun 2027 04:44:06.706   10 Jun 2027 04:44:59.717            53.011               Magadan2          6626.375
       409   10 Jun 2027 04:45:02.284   10 Jun 2027 04:45:24.074            21.790              Murmansk2          2723.750
       410   10 Jun 2027 04:45:53.700   10 Jun 2027 04:45:54.191             0.491                Norilsk            61.375
       411   10 Jun 2027 04:46:06.538   10 Jun 2027 04:46:21.656            15.118                Norilsk          1889.750
       412   10 Jun 2027 05:19:58.185   10 Jun 2027 05:20:39.488            41.303            RioGallegos          5162.875
       413   10 Jun 2027 05:55:51.865   10 Jun 2027 05:56:59.001            67.136                Sumatra          8392.000
       414   10 Jun 2027 06:16:27.556   10 Jun 2027 06:16:39.643            12.087                Novosib          1510.875
       415   10 Jun 2027 06:16:53.946   10 Jun 2027 06:17:32.915            38.969                Norilsk          4871.125
       416   10 Jun 2027 06:17:50.793   10 Jun 2027 06:18:31.852            41.059                Norilsk          5132.375
       417   10 Jun 2027 06:18:51.252   10 Jun 2027 06:19:16.341            25.089              Murmansk1          3136.125
       418   10 Jun 2027 06:19:47.085   10 Jun 2027 06:21:23.016            95.931              Murmansk2         11991.375
       419   10 Jun 2027 06:21:51.372   10 Jun 2027 06:22:16.102            24.730              Murmansk2          3091.250
       420   10 Jun 2027 06:58:02.845   10 Jun 2027 06:58:14.016            11.171            RioGallegos          1396.375
       421   10 Jun 2027 07:01:14.367   10 Jun 2027 07:01:27.802            13.435            RioGallegos          1679.375
       422   10 Jun 2027 07:31:19.245   10 Jun 2027 07:31:51.544            32.299                Sumatra          4037.375
       423   10 Jun 2027 07:34:36.781   10 Jun 2027 07:35:26.728            49.947                Sumatra          6243.375
       424   10 Jun 2027 07:41:24.681   10 Jun 2027 07:42:02.148            37.467                  Delhi          4683.375
       425   10 Jun 2027 07:54:00.782   10 Jun 2027 07:54:24.001            23.219              Murmansk1          2902.375
       426   10 Jun 2027 07:54:26.601   10 Jun 2027 07:55:15.823            49.222              Murmansk1          6152.750
       427   10 Jun 2027 07:55:36.431   10 Jun 2027 07:56:27.798            51.367                Novosib          6420.875
       428   10 Jun 2027 07:56:30.136   10 Jun 2027 07:57:21.472            51.336                Novosib          6417.000
       429   10 Jun 2027 09:16:17.441   10 Jun 2027 09:16:34.890            17.449                  Delhi          2181.125
       430   10 Jun 2027 09:17:14.377   10 Jun 2027 09:18:31.572            77.195                  Delhi          9649.375
       431   10 Jun 2027 09:29:01.136   10 Jun 2027 09:30:39.184            98.048                Norilsk         12256.000
       432   10 Jun 2027 09:31:04.628   10 Jun 2027 09:31:46.908            42.280              Murmansk2          5285.000
       433   10 Jun 2027 09:31:53.834   10 Jun 2027 09:32:22.856            29.022                Norilsk          3627.750
       434   10 Jun 2027 09:32:24.613   10 Jun 2027 09:32:50.487            25.874              Murmansk1          3234.250
       435   10 Jun 2027 11:19:01.162   10 Jun 2027 11:22:36.395           215.233                Anadyr1         26904.125
       436   10 Jun 2027 11:22:36.395   10 Jun 2027 11:24:00.719            84.324                Anadyr2         10540.500
       437   10 Jun 2027 14:32:06.428   10 Jun 2027 14:34:48.239           161.811               Magadan2         20226.375
       438   10 Jun 2027 14:36:22.193   10 Jun 2027 14:37:43.964            81.771               Magadan1         10221.375
       439   10 Jun 2027 14:39:18.222   10 Jun 2027 14:41:36.359           138.137               Magadan2         17267.125
       440   10 Jun 2027 17:01:06.702   10 Jun 2027 17:06:49.241           342.539            RioGallegos         42817.375
       441   10 Jun 2027 18:06:37.498   10 Jun 2027 18:08:26.376           108.878                Sumatra         13609.750
       442   10 Jun 2027 19:31:36.109   10 Jun 2027 19:37:06.579           330.470                  Delhi         41308.750
       443   10 Jun 2027 20:58:01.051   10 Jun 2027 20:58:34.523            33.472              Murmansk1          4184.000
       444   10 Jun 2027 20:59:04.482   10 Jun 2027 21:01:36.964           152.482              Murmansk2         19060.250
       445   10 Jun 2027 21:04:10.164   10 Jun 2027 21:04:57.621            47.457                 Moscow          5932.125
       446   10 Jun 2027 23:07:01.428   10 Jun 2027 23:08:22.139            80.711               CapeTown         10088.875
       447   11 Jun 2027 03:18:33.298   11 Jun 2027 03:18:54.578            21.280                Anadyr2          2660.000
       448   11 Jun 2027 03:18:57.505   11 Jun 2027 03:20:05.782            68.277                Anadyr2          8534.625
       449   11 Jun 2027 04:52:31.164   11 Jun 2027 04:53:02.966            31.802               Magadan1          3975.250
       450   11 Jun 2027 04:53:25.217   11 Jun 2027 04:53:34.943             9.726                Novosib          1215.750
       451   11 Jun 2027 04:53:38.489   11 Jun 2027 04:55:37.212           118.723               Magadan1         14840.375
       452   11 Jun 2027 04:55:58.292   11 Jun 2027 04:56:22.609            24.317               Magadan1          3039.625
       453   11 Jun 2027 04:56:54.166   11 Jun 2027 04:57:08.597            14.431                Irkutsk          1803.875
       454   11 Jun 2027 04:57:14.260   11 Jun 2027 04:57:42.175            27.915                Norilsk          3489.375
       455   11 Jun 2027 04:58:12.167   11 Jun 2027 04:58:29.930            17.763                Norilsk          2220.375
       456   11 Jun 2027 05:31:55.945   11 Jun 2027 05:32:28.268            32.323            RioGallegos          4040.375
       457   11 Jun 2027 05:36:27.627   11 Jun 2027 05:36:41.018            13.391            RioGallegos          1673.875
       458   11 Jun 2027 06:07:27.330   11 Jun 2027 06:09:10.206           102.876                Sumatra         12859.500
       459   11 Jun 2027 06:09:26.354   11 Jun 2027 06:11:21.697           115.343                Sumatra         14417.875
       460   11 Jun 2027 06:29:22.486   11 Jun 2027 06:29:44.051            21.565                Novosib          2695.625
       461   11 Jun 2027 06:29:44.253   11 Jun 2027 06:29:50.087             5.834                Irkutsk           729.250
       462   11 Jun 2027 06:29:55.768   11 Jun 2027 06:30:13.651            17.883              Murmansk2          2235.375
       463   11 Jun 2027 06:30:29.593   11 Jun 2027 06:31:07.093            37.500                Norilsk          4687.500
       464   11 Jun 2027 06:31:10.911   11 Jun 2027 06:31:49.693            38.782                Novosib          4847.750
       465   11 Jun 2027 06:32:04.773   11 Jun 2027 06:33:09.703            64.930                Norilsk          8116.250
       466   11 Jun 2027 06:33:24.682   11 Jun 2027 06:33:38.584            13.902              Murmansk2          1737.750
       467   11 Jun 2027 07:44:50.605   11 Jun 2027 07:45:53.445            62.840                Sumatra          7855.000
       468   11 Jun 2027 07:51:10.957   11 Jun 2027 07:51:33.847            22.890                  Delhi          2861.250
       469   11 Jun 2027 08:05:43.731   11 Jun 2027 08:06:10.093            26.362                 Moscow          3295.250
       470   11 Jun 2027 08:06:15.977   11 Jun 2027 08:06:29.177            13.200              Murmansk2          1650.000
       471   11 Jun 2027 08:06:46.417   11 Jun 2027 08:07:29.265            42.848                Norilsk          5356.000
       472   11 Jun 2027 08:07:32.469   11 Jun 2027 08:07:53.509            21.040                Norilsk          2630.000
       473   11 Jun 2027 08:07:56.280   11 Jun 2027 08:08:46.177            49.897                 Moscow          6237.125
       474   11 Jun 2027 08:08:59.722   11 Jun 2027 08:09:15.443            15.721                 Moscow          1965.125
       475   11 Jun 2027 09:29:01.101   11 Jun 2027 09:30:04.462            63.361                  Delhi          7920.125
       476   11 Jun 2027 09:40:51.581   11 Jun 2027 09:41:14.299            22.718                Norilsk          2839.750
       477   11 Jun 2027 09:41:26.731   11 Jun 2027 09:42:12.993            46.262                Norilsk          5782.750
       478   11 Jun 2027 09:42:13.704   11 Jun 2027 09:42:38.225            24.521              Murmansk1          3065.125
       479   11 Jun 2027 09:42:44.217   11 Jun 2027 09:43:06.424            22.207                Norilsk          2775.875
       480   11 Jun 2027 09:43:12.731   11 Jun 2027 09:43:23.925            11.194              Murmansk2          1399.250
       481   11 Jun 2027 09:43:23.925   11 Jun 2027 09:43:24.494             0.569              Murmansk1            71.125
       482   11 Jun 2027 09:43:29.810   11 Jun 2027 09:44:20.323            50.513                Norilsk          6314.125
