uniorb/output/strategy_1/Drop/Drop_KinoSat_111304.txt

KinoSat_111304
-------------------------
    Access    *     Start Time (UTCG)     *     Stop Time (UTCG)  *   Duration (s)        *       Station  *  Data (Mbytes)
         1   01 Jun 2027 03:39:36.291   01 Jun 2027 03:39:58.252            21.961                Norilsk           686.281
         2   01 Jun 2027 03:40:01.272   01 Jun 2027 03:40:32.438            31.166                Norilsk           973.938
         3   01 Jun 2027 03:40:34.239   01 Jun 2027 03:40:58.388            24.149              Murmansk2           754.656
         4   01 Jun 2027 03:41:00.033   01 Jun 2027 03:41:21.888            21.855              Murmansk2           682.969
         5   01 Jun 2027 03:41:23.210   01 Jun 2027 03:42:12.838            49.628              Murmansk2          1550.875
         6   01 Jun 2027 03:42:56.816   01 Jun 2027 03:43:02.225             5.409              Murmansk1           169.031
         7   01 Jun 2027 03:43:26.955   01 Jun 2027 03:44:00.331            33.376              Murmansk2          1043.000
         8   01 Jun 2027 05:02:05.779   01 Jun 2027 05:03:54.219           108.440               Magadan1          3388.750
         9   01 Jun 2027 05:04:18.701   01 Jun 2027 05:04:52.072            33.371                Anadyr2          1042.844
        10   01 Jun 2027 05:05:24.301   01 Jun 2027 05:06:09.064            44.763                Anadyr1          1398.844
        11   01 Jun 2027 06:39:18.686   01 Jun 2027 06:42:25.476           186.790                Anadyr2          5837.187
        12   01 Jun 2027 06:42:47.786   01 Jun 2027 06:42:50.744             2.958               Magadan2            92.437
        13   01 Jun 2027 07:21:56.469   01 Jun 2027 07:23:04.852            68.383            RioGallegos          2136.969
        14   01 Jun 2027 08:13:17.708   01 Jun 2027 08:19:26.705           368.997               Magadan2         11531.156
        15   01 Jun 2027 08:19:35.007   01 Jun 2027 08:19:57.644            22.637              Murmansk1           707.406
        16   01 Jun 2027 08:21:45.354   01 Jun 2027 08:21:54.856             9.502              Murmansk2           296.938
        17   01 Jun 2027 08:22:35.530   01 Jun 2027 08:22:49.429            13.899              Murmansk1           434.344
        18   01 Jun 2027 08:23:40.006   01 Jun 2027 08:24:33.005            52.999              Murmansk2          1656.219
        19   01 Jun 2027 08:54:27.298   01 Jun 2027 08:55:00.272            32.974            RioGallegos          1030.438
        20   01 Jun 2027 09:34:09.194   01 Jun 2027 09:35:18.025            68.831                Sumatra          2150.969
        21   01 Jun 2027 09:50:01.406   01 Jun 2027 09:52:38.746           157.340               Magadan1          4916.875
        22   01 Jun 2027 09:52:52.373   01 Jun 2027 09:52:57.906             5.533              Murmansk1           172.906
        23   01 Jun 2027 09:53:07.610   01 Jun 2027 09:53:26.620            19.010              Murmansk1           594.063
        24   01 Jun 2027 09:53:26.620   01 Jun 2027 09:54:20.872            54.252              Murmansk2          1695.375
        25   01 Jun 2027 09:54:33.634   01 Jun 2027 09:55:27.985            54.351                Norilsk          1698.469
        26   01 Jun 2027 09:55:39.814   01 Jun 2027 09:55:49.012             9.198                Novosib           287.438
        27   01 Jun 2027 09:55:54.414   01 Jun 2027 09:57:32.702            98.288              Murmansk1          3071.500
        28   01 Jun 2027 09:58:47.340   01 Jun 2027 09:59:11.580            24.240              Murmansk2           757.500
        29   01 Jun 2027 10:30:41.882   01 Jun 2027 10:33:10.513           148.631            RioGallegos          4644.719
        30   01 Jun 2027 11:05:06.538   01 Jun 2027 11:07:19.203           132.665                Sumatra          4145.781
        31   01 Jun 2027 11:14:30.245   01 Jun 2027 11:15:10.345            40.100                  Delhi          1253.125
        32   01 Jun 2027 11:27:28.737   01 Jun 2027 11:30:51.051           202.314                Irkutsk          6322.313
        33   01 Jun 2027 11:31:15.536   01 Jun 2027 11:32:10.224            54.688              Murmansk2          1709.000
        34   01 Jun 2027 11:32:30.652   01 Jun 2027 11:33:04.289            33.637              Murmansk2          1051.156
        35   01 Jun 2027 12:49:42.770   01 Jun 2027 12:50:40.380            57.610                  Delhi          1800.312
        36   01 Jun 2027 12:51:50.690   01 Jun 2027 12:54:15.422           144.732                  Delhi          4522.875
        37   01 Jun 2027 12:57:52.543   01 Jun 2027 12:58:33.321            40.778                Novosib          1274.313
        38   01 Jun 2027 13:01:16.517   01 Jun 2027 13:02:02.875            46.358                Novosib          1448.688
        39   01 Jun 2027 13:02:19.614   01 Jun 2027 13:03:47.293            87.679              Murmansk1          2739.969
        40   01 Jun 2027 13:04:29.106   01 Jun 2027 13:04:52.608            23.502                Norilsk           734.437
        41   01 Jun 2027 13:06:55.138   01 Jun 2027 13:08:00.819            65.681                Norilsk          2052.531
        42   01 Jun 2027 14:33:36.516   01 Jun 2027 14:36:53.413           196.897                 Moscow          6153.031
        43   01 Jun 2027 14:37:07.356   01 Jun 2027 14:40:14.618           187.262              Murmansk2          5851.937
        44   01 Jun 2027 14:42:54.788   01 Jun 2027 14:44:21.188            86.400                Norilsk          2700.000
        45   01 Jun 2027 14:46:38.992   01 Jun 2027 14:47:00.726            21.734                Norilsk           679.187
        46   01 Jun 2027 15:47:36.624   01 Jun 2027 15:50:59.332           202.708               CapeTown          6334.625
        47   01 Jun 2027 16:11:50.668   01 Jun 2027 16:12:17.290            26.622                 Moscow           831.938
        48   01 Jun 2027 16:14:37.463   01 Jun 2027 16:15:35.479            58.016              Murmansk1          1813.000
        49   01 Jun 2027 16:18:26.557   01 Jun 2027 16:19:19.704            53.147              Murmansk2          1660.844
        50   01 Jun 2027 16:27:56.396   01 Jun 2027 16:29:39.975           103.579                Anadyr2          3236.844
        51   01 Jun 2027 16:33:30.141   01 Jun 2027 16:33:47.091            16.950                Anadyr2           529.687
        52   01 Jun 2027 17:23:17.982   01 Jun 2027 17:25:07.007           109.025               CapeTown          3407.031
        53   01 Jun 2027 17:27:39.656   01 Jun 2027 17:27:41.277             1.621               CapeTown            50.656
        54   01 Jun 2027 17:54:37.008   01 Jun 2027 17:59:22.963           285.955              Murmansk2          8936.094
        55   01 Jun 2027 18:03:48.590   01 Jun 2027 18:04:02.195            13.605                Anadyr2           425.156
        56   01 Jun 2027 18:06:37.053   01 Jun 2027 18:08:00.486            83.433               Magadan1          2607.281
        57   01 Jun 2027 18:08:00.486   01 Jun 2027 18:09:20.427            79.941               Magadan2          2498.156
        58   01 Jun 2027 19:39:33.884   01 Jun 2027 19:42:37.454           183.570                Anadyr1          5736.562
        59   01 Jun 2027 19:42:48.851   01 Jun 2027 19:45:37.226           168.375               Magadan2          5261.719
        60   01 Jun 2027 19:46:39.940   01 Jun 2027 19:46:46.730             6.790               Magadan1           212.188
        61   01 Jun 2027 19:46:53.974   01 Jun 2027 19:47:29.312            35.338               Magadan1          1104.312
        62   01 Jun 2027 19:48:55.596   01 Jun 2027 19:49:28.836            33.240               Magadan1          1038.750
        63   01 Jun 2027 20:35:18.439   01 Jun 2027 20:38:04.403           165.964            RioGallegos          5186.375
        64   01 Jun 2027 20:40:52.585   01 Jun 2027 20:41:23.373            30.788            RioGallegos           962.125
        65   01 Jun 2027 20:41:49.309   01 Jun 2027 20:42:07.679            18.370            RioGallegos           574.063
        66   01 Jun 2027 21:15:21.569   01 Jun 2027 21:17:40.247           138.678                Anadyr1          4333.688
        67   01 Jun 2027 21:17:48.142   01 Jun 2027 21:19:09.124            80.982               Magadan1          2530.688
        68   01 Jun 2027 21:20:05.305   01 Jun 2027 21:21:11.131            65.826                Norilsk          2057.063
        69   01 Jun 2027 21:22:15.690   01 Jun 2027 21:22:31.784            16.094                Irkutsk           502.938
        70   01 Jun 2027 21:24:52.997   01 Jun 2027 21:25:25.516            32.519                Irkutsk          1016.219
        71   01 Jun 2027 21:30:29.465   01 Jun 2027 21:31:06.014            36.549                Irkutsk          1142.156
        72   01 Jun 2027 21:36:54.689   01 Jun 2027 21:37:14.397            19.708                Sumatra           615.875
        73   01 Jun 2027 21:40:02.954   01 Jun 2027 21:41:30.132            87.178                Sumatra          2724.312
        74   01 Jun 2027 21:42:44.729   01 Jun 2027 21:43:29.616            44.887                Sumatra          1402.719
        75   01 Jun 2027 22:50:33.874   01 Jun 2027 22:50:59.603            25.729                Anadyr1           804.031
        76   01 Jun 2027 22:51:08.347   01 Jun 2027 22:51:33.734            25.387                Anadyr2           793.344
        77   01 Jun 2027 22:51:47.581   01 Jun 2027 22:52:21.019            33.438                Anadyr1          1044.938
        78   01 Jun 2027 22:53:07.367   01 Jun 2027 22:53:08.029             0.662                Anadyr1            20.687
        79   01 Jun 2027 22:53:18.158   01 Jun 2027 22:55:19.129           120.971                Norilsk          3780.344
        80   01 Jun 2027 22:55:24.421   01 Jun 2027 22:55:53.736            29.315               Magadan2           916.094
        81   01 Jun 2027 22:56:10.323   01 Jun 2027 22:56:49.487            39.164               Magadan1          1223.875
        82   01 Jun 2027 22:57:11.894   01 Jun 2027 22:58:48.537            96.643                Irkutsk          3020.094
        83   01 Jun 2027 23:00:45.087   01 Jun 2027 23:01:13.878            28.791                Novosib           899.719
        84   01 Jun 2027 23:07:08.130   01 Jun 2027 23:09:19.958           131.828                  Delhi          4119.625
        85   01 Jun 2027 23:55:59.081   01 Jun 2027 23:56:24.782            25.701            RioGallegos           803.156
        86   02 Jun 2027 00:24:35.414   02 Jun 2027 00:25:52.270            76.856                Anadyr1          2401.750
        87   02 Jun 2027 00:26:04.361   02 Jun 2027 00:26:30.663            26.302                Anadyr2           821.938
        88   02 Jun 2027 00:27:06.714   02 Jun 2027 00:27:18.114            11.400                Anadyr2           356.250
        89   02 Jun 2027 00:29:18.598   02 Jun 2027 00:29:34.867            16.269                Norilsk           508.406
        90   02 Jun 2027 00:29:51.585   02 Jun 2027 00:31:43.936           112.351               Magadan1          3510.969
        91   02 Jun 2027 00:32:05.973   02 Jun 2027 00:33:31.125            85.152              Murmansk1          2661.000
        92   02 Jun 2027 00:33:31.918   02 Jun 2027 00:35:17.470           105.552              Murmansk2          3298.500
        93   02 Jun 2027 00:37:51.273   02 Jun 2027 00:38:07.508            16.235              Murmansk1           507.344
        94   02 Jun 2027 00:44:18.663   02 Jun 2027 00:45:02.017            43.354                  Delhi          1354.813
        95   02 Jun 2027 00:49:20.444   02 Jun 2027 00:49:22.500             2.056                  Delhi            64.250
        96   02 Jun 2027 00:50:06.177   02 Jun 2027 00:50:08.291             2.114                  Delhi            66.063
        97   02 Jun 2027 00:52:19.902   02 Jun 2027 00:53:11.719            51.817                  Delhi          1619.281
        98   02 Jun 2027 01:22:32.305   02 Jun 2027 01:23:19.904            47.599            RioGallegos          1487.469
        99   02 Jun 2027 01:24:27.163   02 Jun 2027 01:24:37.862            10.699            RioGallegos           334.344
       100   02 Jun 2027 01:26:30.612   02 Jun 2027 01:26:54.035            23.423            RioGallegos           731.969
       101   02 Jun 2027 01:27:49.165   02 Jun 2027 01:27:56.573             7.408            RioGallegos           231.500
       102   02 Jun 2027 01:57:52.428   02 Jun 2027 01:58:44.202            51.774                Anadyr2          1617.938
       103   02 Jun 2027 01:58:55.292   02 Jun 2027 01:59:08.658            13.366                Anadyr1           417.687
       104   02 Jun 2027 01:59:08.658   02 Jun 2027 01:59:45.541            36.883                Anadyr2          1152.594
       105   02 Jun 2027 02:00:41.011   02 Jun 2027 02:00:56.119            15.108                Anadyr1           472.125
       106   02 Jun 2027 02:03:37.325   02 Jun 2027 02:03:56.531            19.206                Anadyr2           600.187
       107   02 Jun 2027 02:03:58.429   02 Jun 2027 02:04:45.406            46.977               Magadan1          1468.031
       108   02 Jun 2027 02:05:13.106   02 Jun 2027 02:05:35.162            22.056                Norilsk           689.250
       109   02 Jun 2027 02:06:19.074   02 Jun 2027 02:06:39.824            20.750               Magadan1           648.437
       110   02 Jun 2027 02:07:27.991   02 Jun 2027 02:08:35.249            67.258              Murmansk2          2101.812
       111   02 Jun 2027 02:08:49.050   02 Jun 2027 02:09:36.496            47.446              Murmansk2          1482.688
       112   02 Jun 2027 02:10:57.693   02 Jun 2027 02:11:13.529            15.836                Irkutsk           494.875
       113   02 Jun 2027 02:12:34.352   02 Jun 2027 02:12:38.998             4.646                 Moscow           145.187
       114   02 Jun 2027 02:13:03.521   02 Jun 2027 02:13:11.589             8.068                Novosib           252.125
       115   02 Jun 2027 02:14:10.482   02 Jun 2027 02:14:15.869             5.387                 Moscow           168.344
       116   02 Jun 2027 02:14:31.828   02 Jun 2027 02:14:53.209            21.381                Irkutsk           668.156
       117   02 Jun 2027 02:17:42.704   02 Jun 2027 02:18:02.040            19.336                 Moscow           604.250
       118   02 Jun 2027 02:18:45.793   02 Jun 2027 02:18:54.244             8.451                  Delhi           264.094
       119   02 Jun 2027 02:22:56.260   02 Jun 2027 02:23:22.576            26.316                  Delhi           822.375
       120   02 Jun 2027 02:36:53.963   02 Jun 2027 02:37:44.573            50.610               CapeTown          1581.563
       121   02 Jun 2027 02:45:20.257   02 Jun 2027 02:45:44.795            24.538               CapeTown           766.813
       122   02 Jun 2027 03:51:03.851   02 Jun 2027 03:51:18.780            14.929              Murmansk2           466.531
       123   02 Jun 2027 03:51:37.841   02 Jun 2027 03:52:09.001            31.160                 Moscow           973.750
       124   02 Jun 2027 03:52:25.034   02 Jun 2027 03:56:12.861           227.827                 Moscow          7119.594
       125   02 Jun 2027 03:56:38.761   02 Jun 2027 03:57:01.933            23.172                 Moscow           724.125
       126   02 Jun 2027 03:57:05.425   02 Jun 2027 03:58:21.677            76.252                 Moscow          2382.875
       127   02 Jun 2027 04:17:14.862   02 Jun 2027 04:19:21.910           127.048               CapeTown          3970.250
       128   02 Jun 2027 05:14:00.407   02 Jun 2027 05:16:03.212           122.805               Magadan2          3837.656
       129   02 Jun 2027 05:16:16.170   02 Jun 2027 05:16:43.582            27.412                Anadyr1           856.625
       130   02 Jun 2027 05:16:43.582   02 Jun 2027 05:17:47.365            63.783                Anadyr2          1993.219
       131   02 Jun 2027 05:17:53.396   02 Jun 2027 05:17:57.314             3.918               Magadan2           122.438
       132   02 Jun 2027 05:20:02.980   02 Jun 2027 05:20:10.389             7.409                Anadyr2           231.531
       133   02 Jun 2027 06:51:21.856   02 Jun 2027 06:54:44.169           202.313               Magadan1          6322.281
       134   02 Jun 2027 06:55:39.963   02 Jun 2027 06:56:04.037            24.074              Murmansk1           752.313
       135   02 Jun 2027 06:59:47.119   02 Jun 2027 07:00:36.811            49.692                 Moscow          1552.875
       136   02 Jun 2027 08:25:21.443   02 Jun 2027 08:26:18.803            57.360               Magadan2          1792.500
       137   02 Jun 2027 08:26:18.803   02 Jun 2027 08:27:28.820            70.017               Magadan1          2188.031
       138   02 Jun 2027 08:27:48.707   02 Jun 2027 08:28:12.481            23.774               Magadan2           742.937
       139   02 Jun 2027 08:28:12.481   02 Jun 2027 08:28:38.308            25.827               Magadan1           807.094
       140   02 Jun 2027 08:28:47.030   02 Jun 2027 08:29:44.785            57.755                Anadyr2          1804.844
       141   02 Jun 2027 08:29:54.980   02 Jun 2027 08:31:13.632            78.652                Irkutsk          2457.875
       142   02 Jun 2027 08:31:22.411   02 Jun 2027 08:34:37.684           195.273              Murmansk1          6102.281
       143   02 Jun 2027 08:37:34.313   02 Jun 2027 08:37:47.421            13.108              Murmansk1           409.625
       144   02 Jun 2027 09:06:19.427   02 Jun 2027 09:06:31.415            11.988            RioGallegos           374.625
       145   02 Jun 2027 09:07:15.710   02 Jun 2027 09:08:23.556            67.846            RioGallegos          2120.187
       146   02 Jun 2027 09:13:15.005   02 Jun 2027 09:13:38.015            23.010            RioGallegos           719.063
       147   02 Jun 2027 09:42:34.537   02 Jun 2027 09:43:06.361            31.824                Sumatra           994.500
       148   02 Jun 2027 09:47:01.560   02 Jun 2027 09:47:40.194            38.634                Sumatra          1207.313
       149   02 Jun 2027 10:02:36.393   02 Jun 2027 10:06:32.530           236.137                Novosib          7379.281
       150   02 Jun 2027 10:06:35.215   02 Jun 2027 10:07:30.246            55.031                Irkutsk          1719.719
       151   02 Jun 2027 10:07:41.972   02 Jun 2027 10:08:35.233            53.261                Novosib          1664.406
       152   02 Jun 2027 10:43:02.772   02 Jun 2027 10:44:16.354            73.582            RioGallegos          2299.438
       153   02 Jun 2027 11:17:20.640   02 Jun 2027 11:18:06.666            46.026                Sumatra          1438.313
       154   02 Jun 2027 11:21:02.594   02 Jun 2027 11:22:11.880            69.286                Sumatra          2165.188
       155   02 Jun 2027 11:26:24.475   02 Jun 2027 11:27:39.334            74.859                  Delhi          2339.344
       156   02 Jun 2027 11:38:39.472   02 Jun 2027 11:39:50.432            70.960                Irkutsk          2217.500
       157   02 Jun 2027 11:40:34.888   02 Jun 2027 11:42:27.656           112.768                Irkutsk          3524.000
       158   02 Jun 2027 13:02:08.269   02 Jun 2027 13:05:01.283           173.014                  Delhi          5406.688
       159   02 Jun 2027 13:10:27.925   02 Jun 2027 13:12:13.975           106.050                Novosib          3314.062
       160   02 Jun 2027 13:13:39.387   02 Jun 2027 13:14:30.609            51.222              Murmansk2          1600.688
       161   02 Jun 2027 13:15:35.726   02 Jun 2027 13:16:09.676            33.950                Novosib          1060.938
       162   02 Jun 2027 13:16:54.601   02 Jun 2027 13:17:32.691            38.090                Norilsk          1190.313
       163   02 Jun 2027 14:45:42.681   02 Jun 2027 14:48:53.815           191.134                 Moscow          5972.938
       164   02 Jun 2027 14:49:14.218   02 Jun 2027 14:52:25.239           191.021              Murmansk1          5969.406
       165   02 Jun 2027 14:55:21.496   02 Jun 2027 14:56:16.554            55.058                Norilsk          1720.563
       166   02 Jun 2027 14:56:52.204   02 Jun 2027 14:58:28.369            96.165                Norilsk          3005.156
       167   02 Jun 2027 15:07:44.720   02 Jun 2027 15:08:28.128            43.408                Anadyr2          1356.500
       168   02 Jun 2027 15:59:25.108   02 Jun 2027 16:00:21.622            56.514               CapeTown          1766.063
       169   02 Jun 2027 16:08:53.133   02 Jun 2027 16:09:52.570            59.437               CapeTown          1857.406
       170   02 Jun 2027 16:24:31.340   02 Jun 2027 16:24:37.666             6.326                 Moscow           197.687
       171   02 Jun 2027 16:27:00.020   02 Jun 2027 16:28:22.318            82.298              Murmansk1          2571.812
       172   02 Jun 2027 16:31:05.027   02 Jun 2027 16:32:07.051            62.024              Murmansk1          1938.250
       173   02 Jun 2027 16:39:54.023   02 Jun 2027 16:40:08.967            14.944                Anadyr2           467.000
       174   02 Jun 2027 16:40:22.073   02 Jun 2027 16:41:02.691            40.618                Anadyr2          1269.312
       175   02 Jun 2027 16:41:02.691   02 Jun 2027 16:41:47.021            44.330                Anadyr1          1385.312
       176   02 Jun 2027 16:44:20.030   02 Jun 2027 16:44:45.235            25.205                Anadyr1           787.656
       177   02 Jun 2027 16:45:37.035   02 Jun 2027 16:45:39.682             2.647                Anadyr2            82.719
       178   02 Jun 2027 16:46:05.095   02 Jun 2027 16:46:46.819            41.724                Anadyr2          1303.875
       179   02 Jun 2027 16:48:58.832   02 Jun 2027 16:49:27.160            28.328                Anadyr2           885.250
       180   02 Jun 2027 16:50:08.240   02 Jun 2027 16:50:24.104            15.864                Anadyr2           495.750
       181   02 Jun 2027 17:35:31.407   02 Jun 2027 17:36:17.826            46.419               CapeTown          1450.594
       182   02 Jun 2027 17:40:20.644   02 Jun 2027 17:41:04.580            43.936               CapeTown          1373.000
       183   02 Jun 2027 17:43:00.463   02 Jun 2027 17:43:32.641            32.178               CapeTown          1005.562
       184   02 Jun 2027 18:07:25.957   02 Jun 2027 18:12:04.247           278.290              Murmansk2          8696.563
       185   02 Jun 2027 18:17:00.603   02 Jun 2027 18:17:27.362            26.759                Anadyr1           836.219
       186   02 Jun 2027 18:18:28.068   02 Jun 2027 18:19:48.839            80.771               Magadan2          2524.094
       187   02 Jun 2027 18:25:33.532   02 Jun 2027 18:25:39.841             6.309               Magadan2           197.156
       188   02 Jun 2027 18:26:12.464   02 Jun 2027 18:26:54.652            42.188               Magadan1          1318.375
       189   02 Jun 2027 18:27:09.765   02 Jun 2027 18:27:55.803            46.038               Magadan1          1438.687
       190   02 Jun 2027 19:51:35.207   02 Jun 2027 19:55:21.452           226.245                Anadyr1          7070.156
       191   02 Jun 2027 19:55:36.860   02 Jun 2027 19:57:22.430           105.570               Magadan1          3299.063
       192   02 Jun 2027 19:57:50.208   02 Jun 2027 19:58:14.775            24.567               Magadan1           767.719
       193   02 Jun 2027 19:58:39.401   02 Jun 2027 19:58:46.686             7.285               Magadan1           227.656
       194   02 Jun 2027 19:59:26.151   02 Jun 2027 20:00:35.475            69.324               Magadan2          2166.375
       195   02 Jun 2027 20:04:01.039   02 Jun 2027 20:04:32.957            31.918               Magadan2           997.438
       196   02 Jun 2027 20:06:25.431   02 Jun 2027 20:06:43.158            17.727               Magadan2           553.969
       197   02 Jun 2027 20:46:48.096   02 Jun 2027 20:48:26.104            98.008            RioGallegos          3062.750
       198   02 Jun 2027 20:49:44.976   02 Jun 2027 20:49:53.076             8.100            RioGallegos           253.125
       199   02 Jun 2027 20:50:03.880   02 Jun 2027 20:50:12.664             8.784            RioGallegos           274.500
       200   02 Jun 2027 20:50:24.983   02 Jun 2027 20:51:17.966            52.983            RioGallegos          1655.719
       201   02 Jun 2027 20:53:16.664   02 Jun 2027 20:53:33.982            17.318            RioGallegos           541.187
       202   02 Jun 2027 21:27:20.283   02 Jun 2027 21:27:53.938            33.655                Anadyr2          1051.719
       203   02 Jun 2027 21:29:28.453   02 Jun 2027 21:32:39.136           190.683                Norilsk          5958.844
       204   02 Jun 2027 21:33:10.762   02 Jun 2027 21:33:22.076            11.314                Norilsk           353.563
       205   02 Jun 2027 21:34:01.311   02 Jun 2027 21:36:46.783           165.472                Irkutsk          5171.000
       206   02 Jun 2027 21:43:26.915   02 Jun 2027 21:43:51.292            24.377                Irkutsk           761.781
       207   02 Jun 2027 21:51:10.050   02 Jun 2027 21:52:00.420            50.370                Sumatra          1574.063
       208   02 Jun 2027 21:54:43.453   02 Jun 2027 21:56:40.916           117.463                Sumatra          3670.719
       209   02 Jun 2027 23:02:25.343   02 Jun 2027 23:02:50.033            24.690                Anadyr1           771.562
       210   02 Jun 2027 23:03:36.505   02 Jun 2027 23:03:44.898             8.393                Anadyr2           262.281
       211   02 Jun 2027 23:04:12.344   02 Jun 2027 23:04:51.396            39.052                Anadyr1          1220.375
       212   02 Jun 2027 23:05:20.082   02 Jun 2027 23:07:01.930           101.848                Norilsk          3182.750
       213   02 Jun 2027 23:07:20.288   02 Jun 2027 23:07:41.107            20.819               Magadan2           650.594
       214   02 Jun 2027 23:08:37.328   02 Jun 2027 23:09:11.645            34.317               Magadan2          1072.406
       215   02 Jun 2027 23:09:37.926   02 Jun 2027 23:10:02.894            24.968                Novosib           780.250
       216   02 Jun 2027 23:10:25.971   02 Jun 2027 23:11:00.095            34.124                Irkutsk          1066.375
       217   02 Jun 2027 23:13:31.094   02 Jun 2027 23:13:51.714            20.620                Novosib           644.375
       218   02 Jun 2027 23:14:24.674   02 Jun 2027 23:15:08.191            43.517                Novosib          1359.906
       219   02 Jun 2027 23:15:47.304   02 Jun 2027 23:16:03.629            16.325                Novosib           510.156
       220   02 Jun 2027 23:18:13.987   02 Jun 2027 23:18:47.872            33.885                Irkutsk          1058.906
       221   02 Jun 2027 23:19:38.019   02 Jun 2027 23:20:10.973            32.954                Irkutsk          1029.813
       222   02 Jun 2027 23:20:49.141   02 Jun 2027 23:20:59.639            10.498                Irkutsk           328.062
       223   02 Jun 2027 23:22:35.404   02 Jun 2027 23:22:58.489            23.085                  Delhi           721.406
       224   02 Jun 2027 23:24:17.458   02 Jun 2027 23:25:23.909            66.451                  Delhi          2076.594
       225   02 Jun 2027 23:34:42.527   02 Jun 2027 23:34:55.856            13.329                Sumatra           416.531
       226   03 Jun 2027 00:05:26.130   03 Jun 2027 00:05:42.225            16.095            RioGallegos           502.969
       227   03 Jun 2027 00:06:04.530   03 Jun 2027 00:07:05.899            61.369            RioGallegos          1917.781
       228   03 Jun 2027 00:37:40.428   03 Jun 2027 00:38:32.001            51.573                Anadyr1          1611.656
       229   03 Jun 2027 00:40:31.940   03 Jun 2027 00:40:51.378            19.438                Anadyr2           607.437
       230   03 Jun 2027 00:41:02.816   03 Jun 2027 00:41:19.620            16.804                Anadyr2           525.125
       231   03 Jun 2027 00:41:20.509   03 Jun 2027 00:43:11.398           110.889                Norilsk          3465.281
       232   03 Jun 2027 00:43:57.290   03 Jun 2027 00:45:09.689            72.399              Murmansk1          2262.469
       233   03 Jun 2027 00:45:29.571   03 Jun 2027 00:46:09.549            39.978              Murmansk1          1249.312
       234   03 Jun 2027 00:46:49.468   03 Jun 2027 00:47:18.846            29.378              Murmansk2           918.063
       235   03 Jun 2027 00:50:40.234   03 Jun 2027 00:50:55.497            15.263              Murmansk2           476.969
       236   03 Jun 2027 00:52:19.369   03 Jun 2027 00:52:36.092            16.723                Novosib           522.594
       237   03 Jun 2027 00:53:45.770   03 Jun 2027 00:54:00.761            14.991                Irkutsk           468.469
       238   03 Jun 2027 00:54:12.951   03 Jun 2027 00:54:42.595            29.644                Novosib           926.375
       239   03 Jun 2027 00:55:45.185   03 Jun 2027 00:55:56.829            11.644                Novosib           363.875
       240   03 Jun 2027 00:57:19.666   03 Jun 2027 00:58:00.089            40.423                Novosib          1263.219
       241   03 Jun 2027 01:00:25.615   03 Jun 2027 01:01:00.698            35.083                  Delhi          1096.344
       242   03 Jun 2027 01:03:17.952   03 Jun 2027 01:04:16.300            58.348                  Delhi          1823.375
       243   03 Jun 2027 01:39:42.095   03 Jun 2027 01:39:56.914            14.819            RioGallegos           463.094
       244   03 Jun 2027 02:09:35.130   03 Jun 2027 02:10:53.756            78.626                Anadyr2          2457.062
       245   03 Jun 2027 02:12:01.470   03 Jun 2027 02:12:02.821             1.351                Anadyr1            42.219
       246   03 Jun 2027 02:12:26.332   03 Jun 2027 02:12:40.988            14.656                Anadyr1           458.000
       247   03 Jun 2027 02:13:14.425   03 Jun 2027 02:13:19.053             4.628                Anadyr2           144.625
       248   03 Jun 2027 02:14:13.901   03 Jun 2027 02:14:24.398            10.497                Anadyr1           328.031
       249   03 Jun 2027 02:14:24.398   03 Jun 2027 02:14:36.267            11.869                Anadyr2           370.906
       250   03 Jun 2027 02:15:20.553   03 Jun 2027 02:15:47.854            27.301                Anadyr1           853.156
       251   03 Jun 2027 02:15:57.631   03 Jun 2027 02:16:27.857            30.226               Magadan2           944.562
       252   03 Jun 2027 02:17:13.343   03 Jun 2027 02:17:37.516            24.173                Norilsk           755.406
       253   03 Jun 2027 02:18:16.606   03 Jun 2027 02:18:41.045            24.439               Magadan1           763.719
       254   03 Jun 2027 02:19:28.877   03 Jun 2027 02:19:56.870            27.993              Murmansk1           874.781
       255   03 Jun 2027 02:20:59.289   03 Jun 2027 02:21:27.949            28.660              Murmansk1           895.625
       256   03 Jun 2027 02:22:10.261   03 Jun 2027 02:22:37.374            27.113                Novosib           847.281
       257   03 Jun 2027 02:24:00.695   03 Jun 2027 02:24:56.107            55.412                Irkutsk          1731.625
       258   03 Jun 2027 02:28:49.524   03 Jun 2027 02:29:01.219            11.695                Novosib           365.469
       259   03 Jun 2027 02:29:32.479   03 Jun 2027 02:29:41.045             8.566              Murmansk1           267.687
       260   03 Jun 2027 02:29:55.540   03 Jun 2027 02:30:51.158            55.618              Murmansk1          1738.062
       261   03 Jun 2027 02:53:19.144   03 Jun 2027 02:53:59.945            40.801               CapeTown          1275.031
       262   03 Jun 2027 02:55:11.451   03 Jun 2027 02:55:29.288            17.837               CapeTown           557.406
       263   03 Jun 2027 02:58:12.292   03 Jun 2027 02:58:22.146             9.854               CapeTown           307.938
       264   03 Jun 2027 04:03:43.358   03 Jun 2027 04:04:10.109            26.751                Norilsk           835.969
       265   03 Jun 2027 04:04:28.910   03 Jun 2027 04:05:29.426            60.516                 Moscow          1891.125
       266   03 Jun 2027 04:05:39.117   03 Jun 2027 04:07:37.864           118.747              Murmansk2          3710.844
       267   03 Jun 2027 04:09:23.284   03 Jun 2027 04:09:55.898            32.614                 Moscow          1019.187
       268   03 Jun 2027 04:10:19.772   03 Jun 2027 04:10:28.454             8.682                 Moscow           271.313
       269   03 Jun 2027 04:10:58.307   03 Jun 2027 04:11:28.927            30.620                 Moscow           956.875
       270   03 Jun 2027 04:33:35.614   03 Jun 2027 04:34:07.357            31.743               CapeTown           991.969
       271   03 Jun 2027 04:35:09.191   03 Jun 2027 04:35:10.163             0.972               CapeTown            30.375
       272   03 Jun 2027 05:26:22.457   03 Jun 2027 05:29:48.056           205.599                Anadyr1          6424.969
       273   03 Jun 2027 05:29:48.056   03 Jun 2027 05:30:09.735            21.679                Anadyr2           677.469
       274   03 Jun 2027 05:31:53.987   03 Jun 2027 05:32:11.594            17.607                Anadyr1           550.219
       275   03 Jun 2027 07:03:41.895   03 Jun 2027 07:04:38.477            56.582                Anadyr1          1768.188
       276   03 Jun 2027 07:04:59.866   03 Jun 2027 07:05:48.315            48.449                Irkutsk          1514.031
       277   03 Jun 2027 07:06:07.733   03 Jun 2027 07:07:48.850           101.117               Magadan2          3159.906
       278   03 Jun 2027 07:13:09.610   03 Jun 2027 07:13:17.624             8.014                 Moscow           250.438
       279   03 Jun 2027 07:15:52.225   03 Jun 2027 07:16:01.644             9.419                 Moscow           294.344
       280   03 Jun 2027 07:44:37.990   03 Jun 2027 07:45:56.732            78.742            RioGallegos          2460.688
       281   03 Jun 2027 08:38:20.253   03 Jun 2027 08:39:46.102            85.849               Magadan2          2682.781
       282   03 Jun 2027 08:39:54.111   03 Jun 2027 08:40:42.764            48.653                Irkutsk          1520.406
       283   03 Jun 2027 08:40:48.148   03 Jun 2027 08:42:47.716           119.568               Magadan1          3736.500
       284   03 Jun 2027 08:43:01.606   03 Jun 2027 08:43:16.620            15.014               Magadan1           469.188
       285   03 Jun 2027 08:43:34.779   03 Jun 2027 08:43:59.831            25.052              Murmansk1           782.875
       286   03 Jun 2027 08:43:59.831   03 Jun 2027 08:44:29.850            30.019              Murmansk2           938.094
       287   03 Jun 2027 09:18:14.755   03 Jun 2027 09:19:25.179            70.424            RioGallegos          2200.750
       288   03 Jun 2027 09:54:02.874   03 Jun 2027 09:55:18.236            75.362                Sumatra          2355.063
       289   03 Jun 2027 10:14:26.469   03 Jun 2027 10:14:48.444            21.975                Novosib           686.719
       290   03 Jun 2027 10:14:52.813   03 Jun 2027 10:17:05.645           132.832                Novosib          4151.000
       291   03 Jun 2027 10:17:15.524   03 Jun 2027 10:18:08.492            52.968              Murmansk2          1655.250
       292   03 Jun 2027 10:18:19.180   03 Jun 2027 10:18:52.725            33.545                Novosib          1048.281
       293   03 Jun 2027 10:18:53.256   03 Jun 2027 10:19:29.561            36.305              Murmansk1          1134.531
       294   03 Jun 2027 10:19:56.125   03 Jun 2027 10:20:19.941            23.816              Murmansk2           744.250
       295   03 Jun 2027 10:21:45.895   03 Jun 2027 10:22:12.458            26.563              Murmansk1           830.094
       296   03 Jun 2027 10:55:28.577   03 Jun 2027 10:56:25.572            56.995            RioGallegos          1781.094
       297   03 Jun 2027 11:29:42.004   03 Jun 2027 11:31:07.919            85.915                Sumatra          2684.844
       298   03 Jun 2027 11:45:01.529   03 Jun 2027 11:45:20.128            18.599                Irkutsk           581.219
       299   03 Jun 2027 11:50:47.439   03 Jun 2027 11:51:14.734            27.295              Murmansk2           852.969
       300   03 Jun 2027 11:51:14.734   03 Jun 2027 11:51:22.826             8.092              Murmansk1           252.875
       301   03 Jun 2027 11:51:27.350   03 Jun 2027 11:51:57.719            30.369                Novosib           949.031
       302   03 Jun 2027 11:51:59.671   03 Jun 2027 11:53:40.636           100.965                 Moscow          3155.156
       303   03 Jun 2027 11:53:49.264   03 Jun 2027 11:54:52.276            63.012              Murmansk1          1969.125
       304   03 Jun 2027 11:54:58.118   03 Jun 2027 11:55:47.534            49.416                 Moscow          1544.250
       305   03 Jun 2027 11:56:41.958   03 Jun 2027 11:56:46.728             4.770                Norilsk           149.063
       306   03 Jun 2027 12:00:49.780   03 Jun 2027 12:01:09.161            19.381              Murmansk2           605.656
       307   03 Jun 2027 12:01:29.753   03 Jun 2027 12:02:20.416            50.663              Murmansk2          1583.219
       308   03 Jun 2027 13:14:42.878   03 Jun 2027 13:17:40.576           177.698                  Delhi          5553.063
       309   03 Jun 2027 13:20:10.552   03 Jun 2027 13:20:29.024            18.472                  Delhi           577.250
       310   03 Jun 2027 13:23:10.172   03 Jun 2027 13:23:11.867             1.695                Novosib            52.969
       311   03 Jun 2027 13:23:43.412   03 Jun 2027 13:24:21.507            38.095                Novosib          1190.469
       312   03 Jun 2027 13:25:10.401   03 Jun 2027 13:26:12.586            62.185                Novosib          1943.281
       313   03 Jun 2027 13:26:32.176   03 Jun 2027 13:26:58.812            26.636              Murmansk1           832.375
       314   03 Jun 2027 13:27:07.626   03 Jun 2027 13:28:14.730            67.104                Norilsk          2097.000
       315   03 Jun 2027 13:29:38.827   03 Jun 2027 13:30:32.400            53.573                Norilsk          1674.156
       316   03 Jun 2027 13:32:40.879   03 Jun 2027 13:33:07.153            26.274                Norilsk           821.063
       317   03 Jun 2027 13:34:47.072   03 Jun 2027 13:35:12.232            25.160                Norilsk           786.250
       318   03 Jun 2027 13:37:07.598   03 Jun 2027 13:37:15.899             8.301              Murmansk1           259.406
       319   03 Jun 2027 14:57:52.002   03 Jun 2027 14:59:44.457           112.455                 Moscow          3514.219
       320   03 Jun 2027 15:01:05.646   03 Jun 2027 15:02:05.161            59.515                 Moscow          1859.844
       321   03 Jun 2027 15:02:30.522   03 Jun 2027 15:04:44.987           134.465              Murmansk2          4202.031
       322   03 Jun 2027 15:04:55.864   03 Jun 2027 15:05:34.104            38.240              Murmansk2          1195.000
       323   03 Jun 2027 15:08:35.338   03 Jun 2027 15:10:38.496           123.158                Norilsk          3848.687
       324   03 Jun 2027 15:17:09.308   03 Jun 2027 15:17:27.074            17.766                Anadyr2           555.188
       325   03 Jun 2027 15:18:12.599   03 Jun 2027 15:18:48.252            35.653                Anadyr2          1114.156
       326   03 Jun 2027 15:19:04.436   03 Jun 2027 15:19:26.385            21.949                Anadyr1           685.906
       327   03 Jun 2027 16:15:31.466   03 Jun 2027 16:17:23.308           111.842               CapeTown          3495.062
       328   03 Jun 2027 16:37:20.513   03 Jun 2027 16:38:00.290            39.777                 Moscow          1243.031
       329   03 Jun 2027 16:39:24.944   03 Jun 2027 16:39:31.126             6.182              Murmansk1           193.187
       330   03 Jun 2027 16:40:23.065   03 Jun 2027 16:40:44.898            21.833              Murmansk1           682.281
       331   03 Jun 2027 16:42:30.245   03 Jun 2027 16:43:07.370            37.125              Murmansk2          1160.156
       332   03 Jun 2027 16:46:28.555   03 Jun 2027 16:47:07.137            38.582              Murmansk2          1205.688
       333   03 Jun 2027 16:48:20.905   03 Jun 2027 16:48:47.488            26.583              Murmansk2           830.719
       334   03 Jun 2027 16:51:52.513   03 Jun 2027 16:53:24.913            92.400                Anadyr1          2887.500
       335   03 Jun 2027 16:56:53.728   03 Jun 2027 16:57:20.286            26.558                Anadyr1           829.938
       336   03 Jun 2027 16:58:25.852   03 Jun 2027 16:58:28.296             2.444                Anadyr2            76.375
       337   03 Jun 2027 16:58:54.980   03 Jun 2027 16:59:22.352            27.372                Anadyr2           855.375
       338   03 Jun 2027 17:03:17.344   03 Jun 2027 17:03:17.615             0.271                Anadyr1             8.469
       339   03 Jun 2027 17:48:55.420   03 Jun 2027 17:49:13.326            17.906               CapeTown           559.563
       340   03 Jun 2027 17:51:04.858   03 Jun 2027 17:51:22.401            17.543               CapeTown           548.219
       341   03 Jun 2027 17:53:16.088   03 Jun 2027 17:54:17.292            61.204               CapeTown          1912.625
       342   03 Jun 2027 18:20:22.450   03 Jun 2027 18:24:50.089           267.639              Murmansk1          8363.719
       343   03 Jun 2027 18:30:21.365   03 Jun 2027 18:30:50.875            29.510               Magadan2           922.188
       344   03 Jun 2027 18:31:10.561   03 Jun 2027 18:31:35.117            24.556               Magadan1           767.375
       345   03 Jun 2027 18:33:08.267   03 Jun 2027 18:33:14.112             5.845               Magadan2           182.656
       346   03 Jun 2027 18:33:49.665   03 Jun 2027 18:33:55.718             6.053               Magadan1           189.156
       347   03 Jun 2027 18:36:08.185   03 Jun 2027 18:36:24.888            16.703               Magadan1           521.969
       348   03 Jun 2027 18:36:24.888   03 Jun 2027 18:37:10.588            45.700               Magadan2          1428.125
       349   03 Jun 2027 20:03:36.378   03 Jun 2027 20:05:42.592           126.214                Anadyr1          3944.187
       350   03 Jun 2027 20:05:51.498   03 Jun 2027 20:07:22.013            90.515                Anadyr2          2828.594
       351   03 Jun 2027 20:07:23.281   03 Jun 2027 20:08:20.464            57.183                Norilsk          1786.969
       352   03 Jun 2027 20:08:48.281   03 Jun 2027 20:09:43.275            54.994               Magadan2          1718.562
       353   03 Jun 2027 20:09:43.275   03 Jun 2027 20:10:25.688            42.413               Magadan1          1325.406
       354   03 Jun 2027 20:12:09.031   03 Jun 2027 20:12:37.778            28.747               Magadan2           898.344
       355   03 Jun 2027 20:16:03.765   03 Jun 2027 20:16:05.943             2.178               Magadan1            68.063
       356   03 Jun 2027 20:16:05.943   03 Jun 2027 20:16:14.824             8.881               Magadan2           277.531
       357   03 Jun 2027 20:16:18.123   03 Jun 2027 20:16:24.249             6.126               Magadan2           191.437
       358   03 Jun 2027 20:16:36.090   03 Jun 2027 20:17:05.160            29.070               Magadan1           908.437
       359   03 Jun 2027 20:58:26.950   03 Jun 2027 21:00:59.151           152.201            RioGallegos          4756.281
       360   03 Jun 2027 21:04:36.661   03 Jun 2027 21:04:55.428            18.767            RioGallegos           586.469
       361   03 Jun 2027 21:07:26.539   03 Jun 2027 21:07:38.367            11.828            RioGallegos           369.625
       362   03 Jun 2027 21:07:43.805   03 Jun 2027 21:07:48.474             4.669            RioGallegos           145.906
       363   03 Jun 2027 21:39:18.395   03 Jun 2027 21:39:55.675            37.280                Anadyr2          1165.000
       364   03 Jun 2027 21:41:27.843   03 Jun 2027 21:41:52.653            24.810                Norilsk           775.313
       365   03 Jun 2027 21:41:53.528   03 Jun 2027 21:43:47.596           114.068               Magadan1          3564.625
       366   03 Jun 2027 21:43:47.596   03 Jun 2027 21:43:59.008            11.412               Magadan2           356.625
       367   03 Jun 2027 21:45:50.563   03 Jun 2027 21:46:54.304            63.741                Irkutsk          1991.906
       368   03 Jun 2027 21:48:12.904   03 Jun 2027 21:49:09.555            56.651                Irkutsk          1770.344
       369   03 Jun 2027 21:54:26.500   03 Jun 2027 21:54:54.808            28.308                Irkutsk           884.625
       370   03 Jun 2027 21:59:50.553   03 Jun 2027 22:00:18.420            27.867                Sumatra           870.844
       371   03 Jun 2027 22:01:26.661   03 Jun 2027 22:03:00.335            93.674                Sumatra          2927.312
       372   03 Jun 2027 22:11:18.504   03 Jun 2027 22:11:28.707            10.203                Sumatra           318.844
       373   03 Jun 2027 23:14:15.544   03 Jun 2027 23:15:41.275            85.731                Anadyr2          2679.094
       374   03 Jun 2027 23:16:36.519   03 Jun 2027 23:16:50.977            14.458                Anadyr2           451.813
       375   03 Jun 2027 23:18:00.454   03 Jun 2027 23:18:09.794             9.340               Magadan1           291.875
       376   03 Jun 2027 23:18:15.280   03 Jun 2027 23:19:13.129            57.849               Magadan2          1807.781
       377   03 Jun 2027 23:19:50.770   03 Jun 2027 23:20:23.154            32.384               Magadan1          1012.000
       378   03 Jun 2027 23:20:28.509   03 Jun 2027 23:21:02.817            34.308               Magadan2          1072.125
       379   03 Jun 2027 23:21:13.823   03 Jun 2027 23:21:48.544            34.721                Irkutsk          1085.031
       380   03 Jun 2027 23:22:22.328   03 Jun 2027 23:23:16.202            53.874                Novosib          1683.562
       381   03 Jun 2027 23:25:08.539   03 Jun 2027 23:25:52.243            43.704                Irkutsk          1365.750
       382   03 Jun 2027 23:27:27.661   03 Jun 2027 23:27:34.458             6.797                Novosib           212.406
       383   03 Jun 2027 23:27:48.662   03 Jun 2027 23:27:51.060             2.398                Novosib            74.937
       384   03 Jun 2027 23:28:23.597   03 Jun 2027 23:30:18.608           115.011                Novosib          3594.094
       385   03 Jun 2027 23:34:58.264   03 Jun 2027 23:35:56.835            58.571                  Delhi          1830.344
       386   04 Jun 2027 00:17:11.551   04 Jun 2027 00:17:40.605            29.054            RioGallegos           907.938
       387   04 Jun 2027 00:48:10.563   04 Jun 2027 00:48:57.549            46.986                Anadyr1          1468.312
       388   04 Jun 2027 00:49:44.368   04 Jun 2027 00:50:05.377            21.009                Anadyr2           656.531
       389   04 Jun 2027 00:50:05.377   04 Jun 2027 00:50:15.726            10.349                Anadyr1           323.406
       390   04 Jun 2027 00:50:24.897   04 Jun 2027 00:50:55.499            30.602                Anadyr1           956.313
       391   04 Jun 2027 00:53:22.297   04 Jun 2027 00:53:38.739            16.442                Norilsk           513.812
       392   04 Jun 2027 00:53:45.387   04 Jun 2027 00:55:13.692            88.305               Magadan2          2759.531
       393   04 Jun 2027 00:55:35.206   04 Jun 2027 00:55:59.886            24.680               Magadan1           771.250
       394   04 Jun 2027 00:56:14.135   04 Jun 2027 00:57:25.920            71.785              Murmansk1          2243.281
       395   04 Jun 2027 00:57:51.683   04 Jun 2027 00:58:08.446            16.763                Novosib           523.844
       396   04 Jun 2027 00:58:27.186   04 Jun 2027 00:58:48.870            21.684              Murmansk1           677.625
       397   04 Jun 2027 00:59:20.077   04 Jun 2027 01:00:14.161            54.084              Murmansk2          1690.125
       398   04 Jun 2027 01:06:40.795   04 Jun 2027 01:07:29.517            48.722                  Delhi          1522.562
       399   04 Jun 2027 01:13:30.602   04 Jun 2027 01:13:43.494            12.892                  Delhi           402.875
       400   04 Jun 2027 01:15:06.410   04 Jun 2027 01:16:12.078            65.668                  Delhi          2052.125
       401   04 Jun 2027 01:47:42.419   04 Jun 2027 01:48:11.172            28.753            RioGallegos           898.531
       402   04 Jun 2027 01:49:29.159   04 Jun 2027 01:49:41.464            12.305            RioGallegos           384.531
       403   04 Jun 2027 02:21:18.643   04 Jun 2027 02:22:03.415            44.772                Anadyr2          1399.125
       404   04 Jun 2027 02:22:52.781   04 Jun 2027 02:24:08.325            75.544                Anadyr1          2360.750
       405   04 Jun 2027 02:26:49.858   04 Jun 2027 02:27:53.565            63.707               Magadan2          1990.844
       406   04 Jun 2027 02:29:28.029   04 Jun 2027 02:29:39.806            11.777                Norilsk           368.031
       407   04 Jun 2027 02:30:48.135   04 Jun 2027 02:30:56.992             8.857                Norilsk           276.781
       408   04 Jun 2027 02:31:30.069   04 Jun 2027 02:33:18.669           108.600              Murmansk1          3393.750
       409   04 Jun 2027 02:34:48.929   04 Jun 2027 02:36:04.169            75.240                Novosib          2351.250
       410   04 Jun 2027 02:59:46.628   04 Jun 2027 02:59:52.458             5.830               CapeTown           182.188
       411   04 Jun 2027 03:00:56.550   04 Jun 2027 03:01:07.530            10.980               CapeTown           343.125
       412   04 Jun 2027 03:02:55.449   04 Jun 2027 03:03:44.006            48.557               CapeTown          1517.406
       413   04 Jun 2027 04:15:06.452   04 Jun 2027 04:17:04.007           117.555              Murmansk2          3673.594
       414   04 Jun 2027 04:17:19.913   04 Jun 2027 04:18:27.821            67.908              Murmansk2          2122.125
       415   04 Jun 2027 04:18:27.821   04 Jun 2027 04:18:37.937            10.116              Murmansk1           316.125
       416   04 Jun 2027 04:18:59.360   04 Jun 2027 04:19:07.993             8.633              Murmansk2           269.781
       417   04 Jun 2027 04:21:37.477   04 Jun 2027 04:22:15.224            37.747                 Moscow          1179.594
       418   04 Jun 2027 04:22:26.959   04 Jun 2027 04:22:34.331             7.372                 Moscow           230.375
       419   04 Jun 2027 05:39:15.074   04 Jun 2027 05:44:12.590           297.516                Anadyr1          9297.375
       420   04 Jun 2027 05:48:04.572   04 Jun 2027 05:48:16.895            12.323                Norilsk           385.094
       421   04 Jun 2027 05:52:20.410   04 Jun 2027 05:53:15.786            55.376              Murmansk2          1730.500
       422   04 Jun 2027 05:55:05.825   04 Jun 2027 05:55:30.304            24.479              Murmansk2           764.969
       423   04 Jun 2027 07:15:40.542   04 Jun 2027 07:16:05.532            24.990               Magadan1           780.937
       424   04 Jun 2027 07:16:05.532   04 Jun 2027 07:17:54.710           109.178               Magadan2          3411.812
       425   04 Jun 2027 07:18:28.355   04 Jun 2027 07:19:47.796            79.441                Anadyr1          2482.531
       426   04 Jun 2027 08:49:24.461   04 Jun 2027 08:50:27.018            62.557                Novosib          1954.906
       427   04 Jun 2027 08:50:46.653   04 Jun 2027 08:51:16.699            30.046               Magadan2           938.937
       428   04 Jun 2027 08:51:25.288   04 Jun 2027 08:51:41.510            16.222                Norilsk           506.938
       429   04 Jun 2027 08:51:42.359   04 Jun 2027 08:51:44.658             2.299               Magadan1            71.844
       430   04 Jun 2027 08:51:52.755   04 Jun 2027 08:52:14.951            22.196                Irkutsk           693.625
       431   04 Jun 2027 08:52:17.615   04 Jun 2027 08:52:50.337            32.722               Magadan1          1022.562
       432   04 Jun 2027 08:52:52.989   04 Jun 2027 08:52:59.294             6.305                Irkutsk           197.031
       433   04 Jun 2027 08:53:04.876   04 Jun 2027 08:53:10.186             5.310                Irkutsk           165.937
       434   04 Jun 2027 08:53:17.646   04 Jun 2027 08:53:20.123             2.477                Norilsk            77.406
       435   04 Jun 2027 08:53:25.338   04 Jun 2027 08:53:35.446            10.108                Norilsk           315.875
       436   04 Jun 2027 08:53:39.306   04 Jun 2027 08:53:47.468             8.162                Irkutsk           255.062
       437   04 Jun 2027 08:53:51.785   04 Jun 2027 08:54:12.564            20.779                Norilsk           649.344
       438   04 Jun 2027 08:54:14.472   04 Jun 2027 08:54:18.538             4.066                Irkutsk           127.062
       439   04 Jun 2027 08:54:36.337   04 Jun 2027 08:54:46.719            10.382                Norilsk           324.438
       440   04 Jun 2027 08:54:48.350   04 Jun 2027 08:55:19.646            31.296                Norilsk           978.000
       441   04 Jun 2027 08:55:23.106   04 Jun 2027 08:55:41.930            18.824              Murmansk2           588.250
       442   04 Jun 2027 08:55:41.930   04 Jun 2027 08:56:01.159            19.229              Murmansk1           600.906
       443   04 Jun 2027 08:56:29.733   04 Jun 2027 08:57:24.640            54.907              Murmansk1          1715.844
       444   04 Jun 2027 09:30:13.334   04 Jun 2027 09:30:46.559            33.225            RioGallegos          1038.281
       445   04 Jun 2027 09:32:43.939   04 Jun 2027 09:32:48.405             4.466            RioGallegos           139.562
       446   04 Jun 2027 10:05:40.226   04 Jun 2027 10:06:17.145            36.919                Sumatra          1153.719
       447   04 Jun 2027 10:06:46.273   04 Jun 2027 10:07:36.943            50.670                Sumatra          1583.438
       448   04 Jun 2027 10:19:02.556   04 Jun 2027 10:19:06.942             4.386                  Delhi           137.063
       449   04 Jun 2027 10:26:12.274   04 Jun 2027 10:26:57.284            45.010                Irkutsk          1406.563
       450   04 Jun 2027 10:27:04.966   04 Jun 2027 10:27:24.926            19.960                Norilsk           623.750
       451   04 Jun 2027 10:27:26.264   04 Jun 2027 10:27:27.451             1.187                Norilsk            37.094
       452   04 Jun 2027 10:27:30.425   04 Jun 2027 10:27:49.522            19.097                Novosib           596.781
       453   04 Jun 2027 10:27:55.758   04 Jun 2027 10:29:10.611            74.853                Novosib          2339.156
       454   04 Jun 2027 10:29:18.130   04 Jun 2027 10:30:08.506            50.376                Novosib          1574.250
       455   04 Jun 2027 10:30:23.661   04 Jun 2027 10:31:30.117            66.456                Irkutsk          2076.750
       456   04 Jun 2027 11:08:00.042   04 Jun 2027 11:08:38.585            38.543            RioGallegos          1204.469
       457   04 Jun 2027 11:09:37.294   04 Jun 2027 11:09:46.803             9.509            RioGallegos           297.156
       458   04 Jun 2027 11:42:12.544   04 Jun 2027 11:42:29.026            16.482                Sumatra           515.062
       459   04 Jun 2027 11:42:58.043   04 Jun 2027 11:43:04.092             6.049                Sumatra           189.031
       460   04 Jun 2027 11:46:16.465   04 Jun 2027 11:46:40.950            24.485                Sumatra           765.156
       461   04 Jun 2027 11:47:58.546   04 Jun 2027 11:48:28.795            30.249                Sumatra           945.281
       462   04 Jun 2027 12:05:36.549   04 Jun 2027 12:06:08.452            31.903                Novosib           996.969
       463   04 Jun 2027 12:07:35.831   04 Jun 2027 12:07:48.821            12.990                Novosib           405.938
       464   04 Jun 2027 12:08:58.061   04 Jun 2027 12:09:27.863            29.802                Norilsk           931.313
       465   04 Jun 2027 12:11:45.495   04 Jun 2027 12:12:04.866            19.371              Murmansk1           605.344
       466   04 Jun 2027 12:13:31.339   04 Jun 2027 12:14:19.295            47.956              Murmansk2          1498.625
       467   04 Jun 2027 13:27:29.908   04 Jun 2027 13:28:26.119            56.211                  Delhi          1756.594
       468   04 Jun 2027 13:29:31.811   04 Jun 2027 13:30:21.889            50.078                  Delhi          1564.937
       469   04 Jun 2027 13:30:52.657   04 Jun 2027 13:32:14.945            82.288                  Delhi          2571.500
       470   04 Jun 2027 13:35:38.699   04 Jun 2027 13:36:04.141            25.442                  Delhi           795.062
       471   04 Jun 2027 13:37:05.196   04 Jun 2027 13:37:30.888            25.692                Novosib           802.875
       472   04 Jun 2027 13:38:11.004   04 Jun 2027 13:39:29.136            78.132                Novosib          2441.625
       473   04 Jun 2027 13:40:38.171   04 Jun 2027 13:40:53.440            15.269                Novosib           477.156
       474   04 Jun 2027 13:41:40.220   04 Jun 2027 13:42:30.652            50.432                Norilsk          1576.000
       475   04 Jun 2027 13:48:09.689   04 Jun 2027 13:48:31.019            21.330              Murmansk1           666.563
       476   04 Jun 2027 14:51:01.846   04 Jun 2027 14:52:31.312            89.466               CapeTown          2795.812
       477   04 Jun 2027 14:53:10.006   04 Jun 2027 14:53:59.816            49.810               CapeTown          1556.563
       478   04 Jun 2027 15:10:04.649   04 Jun 2027 15:11:18.068            73.419                 Moscow          2294.344
       479   04 Jun 2027 15:13:33.207   04 Jun 2027 15:14:19.067            45.860              Murmansk1          1433.125
       480   04 Jun 2027 15:16:50.637   04 Jun 2027 15:17:19.921            29.284              Murmansk2           915.125
       481   04 Jun 2027 15:22:18.650   04 Jun 2027 15:22:22.405             3.755              Murmansk2           117.344
       482   04 Jun 2027 15:22:32.760   04 Jun 2027 15:23:17.191            44.431              Murmansk1          1388.469
