uniorb/output/strategy_1/Drop/Drop_KinoSat_111906.txt

KinoSat_111906
-------------------------
    Access    *     Start Time (UTCG)     *     Stop Time (UTCG)  *   Duration (s)        *       Station  *  Data (Mbytes)
         1   01 Jun 2027 04:31:39.969   01 Jun 2027 04:32:07.166            27.197                 Moscow           849.906
         2   01 Jun 2027 04:32:11.206   01 Jun 2027 04:32:43.507            32.301                Norilsk          1009.406
         3   01 Jun 2027 04:32:45.339   01 Jun 2027 04:34:08.098            82.759              Murmansk1          2586.219
         4   01 Jun 2027 04:34:08.098   01 Jun 2027 04:34:47.298            39.200              Murmansk2          1225.000
         5   01 Jun 2027 04:35:00.999   01 Jun 2027 04:35:06.428             5.429              Murmansk2           169.656
         6   01 Jun 2027 04:35:26.008   01 Jun 2027 04:35:53.877            27.869                Norilsk           870.906
         7   01 Jun 2027 04:36:00.988   01 Jun 2027 04:40:49.094           288.106                  Delhi          9003.312
         8   01 Jun 2027 06:10:05.663   01 Jun 2027 06:10:41.058            35.395                Novosib          1106.094
         9   01 Jun 2027 06:10:41.527   01 Jun 2027 06:11:18.486            36.959              Murmansk1          1154.969
        10   01 Jun 2027 06:11:30.213   01 Jun 2027 06:16:11.793           281.580                 Moscow          8799.375
        11   01 Jun 2027 06:28:29.021   01 Jun 2027 06:29:21.495            52.474               CapeTown          1639.812
        12   01 Jun 2027 06:32:18.737   01 Jun 2027 06:32:34.169            15.432               CapeTown           482.250
        13   01 Jun 2027 07:33:06.069   01 Jun 2027 07:33:42.946            36.877               Magadan1          1152.406
        14   01 Jun 2027 07:33:59.792   01 Jun 2027 07:34:13.553            13.761                Anadyr2           430.031
        15   01 Jun 2027 07:34:13.553   01 Jun 2027 07:34:34.810            21.257                Anadyr1           664.281
        16   01 Jun 2027 07:36:11.801   01 Jun 2027 07:37:28.246            76.445                Anadyr2          2388.906
        17   01 Jun 2027 07:37:34.909   01 Jun 2027 07:38:09.367            34.458                Anadyr2          1076.812
        18   01 Jun 2027 08:07:55.483   01 Jun 2027 08:11:52.391           236.908               CapeTown          7403.375
        19   01 Jun 2027 09:08:14.060   01 Jun 2027 09:08:32.210            18.150                Anadyr1           567.188
        20   01 Jun 2027 09:09:07.707   01 Jun 2027 09:12:34.158           206.451                Anadyr1          6451.594
        21   01 Jun 2027 09:12:34.158   01 Jun 2027 09:12:46.410            12.252                Anadyr2           382.875
        22   01 Jun 2027 09:12:46.709   01 Jun 2027 09:13:46.674            59.965               Magadan1          1873.906
        23   01 Jun 2027 10:42:34.793   01 Jun 2027 10:46:55.714           260.921               Magadan1          8153.781
        24   01 Jun 2027 10:46:55.714   01 Jun 2027 10:48:11.727            76.013               Magadan2          2375.406
        25   01 Jun 2027 11:24:26.939   01 Jun 2027 11:25:25.378            58.439            RioGallegos          1826.219
        26   01 Jun 2027 12:04:02.674   01 Jun 2027 12:04:56.511            53.837                Sumatra          1682.406
        27   01 Jun 2027 12:12:37.528   01 Jun 2027 12:15:13.893           156.365                Irkutsk          4886.406
        28   01 Jun 2027 12:17:33.001   01 Jun 2027 12:18:18.865            45.864                Norilsk          1433.250
        29   01 Jun 2027 12:19:44.182   01 Jun 2027 12:20:38.207            54.025                Irkutsk          1688.281
        30   01 Jun 2027 12:21:36.266   01 Jun 2027 12:22:40.473            64.207               Magadan1          2006.469
        31   01 Jun 2027 13:00:42.917   01 Jun 2027 13:03:10.987           148.070            RioGallegos          4627.188
        32   01 Jun 2027 13:05:32.336   01 Jun 2027 13:05:58.750            26.414            RioGallegos           825.438
        33   01 Jun 2027 13:06:42.492   01 Jun 2027 13:06:42.861             0.369            RioGallegos            11.531
        34   01 Jun 2027 13:09:54.159   01 Jun 2027 13:10:33.731            39.572            RioGallegos          1236.625
        35   01 Jun 2027 13:37:58.921   01 Jun 2027 13:41:02.887           183.966                Sumatra          5748.938
        36   01 Jun 2027 13:43:07.429   01 Jun 2027 13:44:53.065           105.636                Sumatra          3301.125
        37   01 Jun 2027 13:49:54.435   01 Jun 2027 13:50:52.087            57.652                Irkutsk          1801.625
        38   01 Jun 2027 13:54:44.019   01 Jun 2027 13:57:17.092           153.073                Irkutsk          4783.531
        39   01 Jun 2027 15:19:44.323   01 Jun 2027 15:20:48.729            64.406                  Delhi          2012.687
        40   01 Jun 2027 15:22:01.504   01 Jun 2027 15:24:54.474           172.970                  Delhi          5405.313
        41   01 Jun 2027 15:27:54.106   01 Jun 2027 15:29:15.340            81.234                Novosib          2538.562
        42   01 Jun 2027 15:33:23.564   01 Jun 2027 15:34:41.835            78.271                Novosib          2445.969
        43   01 Jun 2027 15:37:06.919   01 Jun 2027 15:37:56.311            49.392                Novosib          1543.500
        44   01 Jun 2027 17:12:35.565   01 Jun 2027 17:17:50.632           315.067                Norilsk          9845.844
        45   01 Jun 2027 18:41:52.451   01 Jun 2027 18:44:02.680           130.229                 Moscow          4069.656
        46   01 Jun 2027 19:53:19.543   01 Jun 2027 19:55:40.268           140.725               CapeTown          4397.656
        47   01 Jun 2027 20:24:37.734   01 Jun 2027 20:29:05.611           267.877              Murmansk1          8371.156
        48   01 Jun 2027 20:30:10.030   01 Jun 2027 20:30:41.797            31.767              Murmansk2           992.719
        49   01 Jun 2027 20:40:01.639   01 Jun 2027 20:40:05.207             3.568               Magadan1           111.500
        50   01 Jun 2027 22:09:34.518   01 Jun 2027 22:13:05.835           211.317                Anadyr1          6603.656
        51   01 Jun 2027 22:13:05.835   01 Jun 2027 22:13:19.409            13.574                Anadyr2           424.187
        52   01 Jun 2027 22:13:25.261   01 Jun 2027 22:15:28.018           122.757               Magadan1          3836.156
        53   01 Jun 2027 22:15:55.804   01 Jun 2027 22:16:47.897            52.093               Magadan1          1627.906
        54   01 Jun 2027 22:16:52.312   01 Jun 2027 22:17:00.249             7.937               Magadan2           248.031
        55   01 Jun 2027 22:20:15.508   01 Jun 2027 22:20:48.476            32.968               Magadan2          1030.250
        56   01 Jun 2027 22:22:46.223   01 Jun 2027 22:23:11.890            25.667               Magadan1           802.094
        57   01 Jun 2027 23:05:13.190   01 Jun 2027 23:07:47.365           154.175            RioGallegos          4817.969
        58   01 Jun 2027 23:45:22.807   01 Jun 2027 23:46:41.372            78.565                Anadyr2          2455.156
        59   01 Jun 2027 23:46:45.067   01 Jun 2027 23:47:08.008            22.941                Anadyr1           716.906
        60   01 Jun 2027 23:47:27.595   01 Jun 2027 23:48:59.122            91.527                Norilsk          2860.219
        61   01 Jun 2027 23:49:19.406   01 Jun 2027 23:49:48.431            29.025               Magadan2           907.031
        62   01 Jun 2027 23:50:13.175   01 Jun 2027 23:50:34.853            21.678                Norilsk           677.437
        63   01 Jun 2027 23:50:38.062   01 Jun 2027 23:51:30.021            51.959               Magadan1          1623.719
        64   01 Jun 2027 23:52:12.960   01 Jun 2027 23:53:09.092            56.132                Irkutsk          1754.125
        65   01 Jun 2027 23:54:15.564   01 Jun 2027 23:54:39.887            24.323                Irkutsk           760.094
        66   02 Jun 2027 00:06:51.326   02 Jun 2027 00:08:40.158           108.832                Sumatra          3401.000
        67   02 Jun 2027 00:11:37.031   02 Jun 2027 00:12:45.977            68.946                Sumatra          2154.563
        68   02 Jun 2027 00:42:33.070   02 Jun 2027 00:43:07.442            34.372            RioGallegos          1074.125
        69   02 Jun 2027 01:20:35.323   02 Jun 2027 01:21:42.861            67.538                Anadyr1          2110.563
        70   02 Jun 2027 01:22:22.066   02 Jun 2027 01:22:47.075            25.009                Anadyr1           781.531
        71   02 Jun 2027 01:23:17.514   02 Jun 2027 01:25:11.964           114.450                Norilsk          3576.563
        72   02 Jun 2027 01:25:13.025   02 Jun 2027 01:25:42.313            29.288               Magadan2           915.250
        73   02 Jun 2027 01:27:11.868   02 Jun 2027 01:29:25.514           133.646                Irkutsk          4176.438
        74   02 Jun 2027 01:35:52.827   02 Jun 2027 01:36:21.377            28.550                Irkutsk           892.187
        75   02 Jun 2027 01:37:02.229   02 Jun 2027 01:38:37.680            95.451                  Delhi          2982.844
        76   02 Jun 2027 01:41:14.186   02 Jun 2027 01:41:35.628            21.442                Sumatra           670.062
        77   02 Jun 2027 01:43:53.575   02 Jun 2027 01:46:02.769           129.194                Sumatra          4037.313
        78   02 Jun 2027 02:54:54.357   02 Jun 2027 02:54:57.625             3.268                Anadyr1           102.125
        79   02 Jun 2027 02:56:18.851   02 Jun 2027 02:57:19.235            60.384                Anadyr2          1887.000
        80   02 Jun 2027 02:59:18.721   02 Jun 2027 03:00:23.434            64.713                Norilsk          2022.281
        81   02 Jun 2027 03:03:22.369   02 Jun 2027 03:03:33.309            10.940               Magadan2           341.875
        82   02 Jun 2027 03:03:39.478   02 Jun 2027 03:03:51.792            12.314               Magadan1           384.812
        83   02 Jun 2027 03:04:03.427   02 Jun 2027 03:04:12.926             9.499                Novosib           296.844
        84   02 Jun 2027 03:04:31.450   02 Jun 2027 03:07:12.403           160.953                Irkutsk          5029.781
        85   02 Jun 2027 03:07:51.752   02 Jun 2027 03:08:07.468            15.716                Norilsk           491.125
        86   02 Jun 2027 03:08:07.615   02 Jun 2027 03:12:37.989           270.374                Irkutsk          8449.187
        87   02 Jun 2027 03:52:37.200   02 Jun 2027 03:53:27.530            50.330            RioGallegos          1572.813
        88   02 Jun 2027 03:56:01.749   02 Jun 2027 03:56:48.968            47.219            RioGallegos          1475.594
        89   02 Jun 2027 04:42:43.620   02 Jun 2027 04:44:08.866            85.246                Norilsk          2663.938
        90   02 Jun 2027 04:44:15.390   02 Jun 2027 04:45:11.657            56.267                Irkutsk          1758.344
        91   02 Jun 2027 04:45:38.010   02 Jun 2027 04:45:51.918            13.908                Norilsk           434.625
        92   02 Jun 2027 04:45:52.096   02 Jun 2027 04:48:54.374           182.278                Novosib          5696.188
        93   02 Jun 2027 04:49:56.350   02 Jun 2027 04:50:27.763            31.413                Novosib           981.656
        94   02 Jun 2027 04:51:56.083   02 Jun 2027 04:53:16.415            80.332                  Delhi          2510.375
        95   02 Jun 2027 06:20:58.424   02 Jun 2027 06:21:28.916            30.492                Novosib           952.875
        96   02 Jun 2027 06:21:32.755   02 Jun 2027 06:22:20.047            47.292                Norilsk          1477.875
        97   02 Jun 2027 06:22:32.211   02 Jun 2027 06:26:26.272           234.061                 Moscow          7314.406
        98   02 Jun 2027 06:27:02.233   02 Jun 2027 06:27:11.110             8.877                 Moscow           277.406
        99   02 Jun 2027 06:40:32.396   02 Jun 2027 06:44:40.516           248.120               CapeTown          7753.750
       100   02 Jun 2027 07:44:26.299   02 Jun 2027 07:45:05.852            39.553                Anadyr1          1236.031
       101   02 Jun 2027 07:45:17.712   02 Jun 2027 07:45:58.040            40.328                Anadyr1          1260.250
       102   02 Jun 2027 07:46:15.486   02 Jun 2027 07:46:36.319            20.833                Anadyr1           651.031
       103   02 Jun 2027 07:48:03.261   02 Jun 2027 07:49:33.982            90.721               Magadan2          2835.031
       104   02 Jun 2027 07:49:33.982   02 Jun 2027 07:49:46.017            12.035               Magadan1           376.094
       105   02 Jun 2027 08:21:56.304   02 Jun 2027 08:24:44.184           167.880               CapeTown          5246.250
       106   02 Jun 2027 09:20:59.638   02 Jun 2027 09:22:07.325            67.687                Anadyr2          2115.219
       107   02 Jun 2027 09:22:07.325   02 Jun 2027 09:25:01.501           174.176                Anadyr1          5443.000
       108   02 Jun 2027 10:55:23.427   02 Jun 2027 10:57:34.219           130.792               Magadan1          4087.250
       109   02 Jun 2027 10:57:37.265   02 Jun 2027 10:59:48.614           131.349                Anadyr1          4104.656
       110   02 Jun 2027 11:00:17.734   02 Jun 2027 11:01:23.581            65.847               Magadan2          2057.719
       111   02 Jun 2027 12:24:37.035   02 Jun 2027 12:27:37.445           180.410                Irkutsk          5637.813
       112   02 Jun 2027 12:29:31.978   02 Jun 2027 12:30:38.574            66.596                Norilsk          2081.125
       113   02 Jun 2027 13:13:04.374   02 Jun 2027 13:13:31.308            26.934            RioGallegos           841.688
       114   02 Jun 2027 13:14:38.533   02 Jun 2027 13:15:06.226            27.693            RioGallegos           865.406
       115   02 Jun 2027 13:47:22.528   02 Jun 2027 13:52:23.227           300.699                Sumatra          9396.844
       116   02 Jun 2027 14:02:26.103   02 Jun 2027 14:04:15.155           109.052                Irkutsk          3407.875
       117   02 Jun 2027 15:32:10.724   02 Jun 2027 15:35:37.528           206.804                  Delhi          6462.625
       118   02 Jun 2027 15:36:23.554   02 Jun 2027 15:37:51.410            87.856                  Delhi          2745.500
       119   02 Jun 2027 15:40:30.125   02 Jun 2027 15:43:02.300           152.175                Novosib          4755.469
       120   02 Jun 2027 15:44:15.582   02 Jun 2027 15:44:32.684            17.102                Norilsk           534.438
       121   02 Jun 2027 15:44:50.617   02 Jun 2027 15:45:29.114            38.497                Norilsk          1203.031
       122   02 Jun 2027 15:45:34.832   02 Jun 2027 15:50:03.672           268.840                Novosib          8401.250
       123   02 Jun 2027 17:25:21.313   02 Jun 2027 17:28:03.081           161.768                Norilsk          5055.250
       124   02 Jun 2027 17:28:23.488   02 Jun 2027 17:29:15.355            51.867                Norilsk          1620.844
       125   02 Jun 2027 18:54:33.812   02 Jun 2027 18:59:08.252           274.440                 Moscow          8576.250
       126   02 Jun 2027 20:05:33.752   02 Jun 2027 20:05:39.032             5.280               CapeTown           165.000
       127   02 Jun 2027 20:08:58.125   02 Jun 2027 20:10:17.674            79.549               CapeTown          2485.906
       128   02 Jun 2027 20:37:26.921   02 Jun 2027 20:41:46.340           259.419              Murmansk2          8106.844
       129   02 Jun 2027 20:42:11.034   02 Jun 2027 20:43:20.874            69.840              Murmansk1          2182.500
       130   02 Jun 2027 22:21:36.150   02 Jun 2027 22:23:19.073           102.923                Anadyr1          3216.344
       131   02 Jun 2027 22:23:48.786   02 Jun 2027 22:24:30.757            41.971                Anadyr2          1311.594
       132   02 Jun 2027 22:24:33.513   02 Jun 2027 22:27:04.570           151.057               Magadan1          4720.531
       133   02 Jun 2027 23:16:44.437   02 Jun 2027 23:19:51.540           187.103            RioGallegos          5846.969
       134   02 Jun 2027 23:57:21.782   02 Jun 2027 23:58:34.690            72.908                Anadyr1          2278.375
       135   02 Jun 2027 23:58:41.817   02 Jun 2027 23:58:59.778            17.961                Anadyr2           561.281
       136   02 Jun 2027 23:59:26.652   03 Jun 2027 00:01:00.826            94.174                Norilsk          2942.938
       137   03 Jun 2027 00:01:10.331   03 Jun 2027 00:01:23.127            12.796               Magadan2           399.875
       138   03 Jun 2027 00:02:15.097   03 Jun 2027 00:03:07.972            52.875               Magadan2          1652.344
       139   03 Jun 2027 00:03:59.330   03 Jun 2027 00:05:08.370            69.040                Irkutsk          2157.500
       140   03 Jun 2027 00:06:12.418   03 Jun 2027 00:08:19.117           126.699                Irkutsk          3959.344
       141   03 Jun 2027 00:18:36.831   03 Jun 2027 00:19:02.441            25.610                Sumatra           800.312
       142   03 Jun 2027 00:21:55.357   03 Jun 2027 00:23:20.570            85.213                Sumatra          2662.906
       143   03 Jun 2027 00:51:19.995   03 Jun 2027 00:51:29.379             9.384            RioGallegos           293.250
       144   03 Jun 2027 00:54:27.039   03 Jun 2027 00:55:06.525            39.486            RioGallegos          1233.937
       145   03 Jun 2027 01:33:40.338   03 Jun 2027 01:34:14.956            34.618                Anadyr2          1081.813
       146   03 Jun 2027 01:34:51.157   03 Jun 2027 01:35:14.629            23.472                Anadyr2           733.500
       147   03 Jun 2027 01:35:19.788   03 Jun 2027 01:37:14.170           114.382                Norilsk          3574.437
       148   03 Jun 2027 01:37:43.678   03 Jun 2027 01:38:18.212            34.534               Magadan2          1079.187
       149   03 Jun 2027 01:39:12.819   03 Jun 2027 01:41:59.637           166.818                Irkutsk          5213.063
       150   03 Jun 2027 01:48:15.524   03 Jun 2027 01:48:21.869             6.345                  Delhi           198.281
       151   03 Jun 2027 01:53:32.720   03 Jun 2027 01:55:24.740           112.020                Sumatra          3500.625
       152   03 Jun 2027 01:58:10.378   03 Jun 2027 01:58:47.828            37.450                Sumatra          1170.312
       153   03 Jun 2027 02:27:27.808   03 Jun 2027 02:28:12.906            45.098            RioGallegos          1409.313
       154   03 Jun 2027 02:29:38.108   03 Jun 2027 02:29:52.690            14.582            RioGallegos           455.688
       155   03 Jun 2027 03:15:46.616   03 Jun 2027 03:15:55.244             8.628                Irkutsk           269.625
       156   03 Jun 2027 03:15:55.593   03 Jun 2027 03:16:28.647            33.054               Magadan1          1032.937
       157   03 Jun 2027 03:17:26.968   03 Jun 2027 03:21:02.350           215.382                Irkutsk          6730.688
       158   03 Jun 2027 03:21:22.021   03 Jun 2027 03:21:50.322            28.301                Norilsk           884.406
       159   03 Jun 2027 03:21:56.838   03 Jun 2027 03:25:24.538           207.700                Irkutsk          6490.625
       160   03 Jun 2027 03:25:36.579   03 Jun 2027 03:26:19.297            42.718                  Delhi          1334.937
       161   03 Jun 2027 03:31:35.317   03 Jun 2027 03:33:18.991           103.674                  Delhi          3239.813
       162   03 Jun 2027 04:05:06.029   03 Jun 2027 04:09:48.534           282.505            RioGallegos          8828.281
       163   03 Jun 2027 04:54:55.932   03 Jun 2027 04:56:54.810           118.878                Novosib          3714.938
       164   03 Jun 2027 04:57:08.797   03 Jun 2027 04:57:36.534            27.737              Murmansk2           866.781
       165   03 Jun 2027 04:57:49.963   03 Jun 2027 04:59:42.262           112.299                Norilsk          3509.344
       166   03 Jun 2027 04:59:44.924   03 Jun 2027 05:01:33.005           108.081                Novosib          3377.531
       167   03 Jun 2027 05:02:52.867   03 Jun 2027 05:04:19.236            86.369                  Delhi          2699.031
       168   03 Jun 2027 06:34:03.643   03 Jun 2027 06:36:10.132           126.489              Murmansk2          3952.781
       169   03 Jun 2027 06:36:20.647   03 Jun 2027 06:37:55.999            95.352                 Moscow          2979.750
       170   03 Jun 2027 06:38:15.836   03 Jun 2027 06:38:37.283            21.447                 Moscow           670.219
       171   03 Jun 2027 06:52:41.038   03 Jun 2027 06:57:15.087           274.049               CapeTown          8564.031
       172   03 Jun 2027 07:56:42.466   03 Jun 2027 07:57:49.763            67.297               Magadan2          2103.031
       173   03 Jun 2027 07:57:55.342   03 Jun 2027 07:59:08.258            72.916                Anadyr1          2278.625
       174   03 Jun 2027 07:59:08.258   03 Jun 2027 08:00:12.564            64.306                Anadyr2          2009.562
       175   03 Jun 2027 09:32:29.080   03 Jun 2027 09:34:06.992            97.912                Anadyr2          3059.750
       176   03 Jun 2027 09:35:22.140   03 Jun 2027 09:37:53.483           151.343                Anadyr1          4729.469
       177   03 Jun 2027 11:02:49.834   03 Jun 2027 11:03:23.934            34.100               Magadan2          1065.625
       178   03 Jun 2027 11:07:16.458   03 Jun 2027 11:09:38.345           141.887               Magadan1          4433.969
       179   03 Jun 2027 11:09:38.345   03 Jun 2027 11:13:18.030           219.685               Magadan2          6865.156
       180   03 Jun 2027 13:25:30.813   03 Jun 2027 13:26:33.751            62.938            RioGallegos          1966.812
       181   03 Jun 2027 13:59:44.972   03 Jun 2027 14:03:46.058           241.086                Sumatra          7533.937
       182   03 Jun 2027 14:15:04.382   03 Jun 2027 14:15:19.744            15.362                Irkutsk           480.062
       183   03 Jun 2027 14:17:59.909   03 Jun 2027 14:19:44.321           104.412                Irkutsk          3262.875
       184   03 Jun 2027 15:44:46.477   03 Jun 2027 15:49:32.875           286.398                  Delhi          8949.937
       185   03 Jun 2027 15:53:13.113   03 Jun 2027 15:55:17.585           124.472                Novosib          3889.750
       186   03 Jun 2027 15:58:29.472   03 Jun 2027 15:59:39.301            69.829                Novosib          2182.156
       187   03 Jun 2027 17:31:46.350   03 Jun 2027 17:32:33.551            47.201              Murmansk2          1475.031
       188   03 Jun 2027 17:34:28.277   03 Jun 2027 17:34:49.210            20.933              Murmansk1           654.156
       189   03 Jun 2027 17:38:33.811   03 Jun 2027 17:41:10.220           156.409                Norilsk          4887.781
       190   03 Jun 2027 18:41:17.144   03 Jun 2027 18:42:17.958            60.814               CapeTown          1900.438
       191   03 Jun 2027 18:47:15.312   03 Jun 2027 18:47:47.716            32.404               CapeTown          1012.625
       192   03 Jun 2027 19:07:23.821   03 Jun 2027 19:11:44.398           260.577                 Moscow          8143.031
       193   03 Jun 2027 19:14:34.410   03 Jun 2027 19:15:01.843            27.433                 Moscow           857.281
       194   03 Jun 2027 19:19:35.711   03 Jun 2027 19:19:59.814            24.103              Murmansk1           753.219
       195   03 Jun 2027 20:17:52.326   03 Jun 2027 20:19:45.101           112.775               CapeTown          3524.219
       196   03 Jun 2027 20:20:36.222   03 Jun 2027 20:22:56.514           140.292               CapeTown          4384.125
       197   03 Jun 2027 20:50:23.509   03 Jun 2027 20:55:06.826           283.317              Murmansk1          8853.656
       198   03 Jun 2027 22:33:37.624   03 Jun 2027 22:37:27.239           229.615                Anadyr1          7175.469
       199   03 Jun 2027 22:37:29.425   03 Jun 2027 22:38:50.033            80.608                Norilsk          2519.000
       200   03 Jun 2027 22:39:04.139   03 Jun 2027 22:39:47.920            43.781               Magadan1          1368.156
       201   03 Jun 2027 22:39:50.548   03 Jun 2027 22:40:05.791            15.243               Magadan2           476.344
       202   03 Jun 2027 22:40:18.851   03 Jun 2027 22:40:31.853            13.002               Magadan2           406.313
       203   03 Jun 2027 22:41:14.566   03 Jun 2027 22:41:34.466            19.900               Magadan2           621.875
       204   03 Jun 2027 23:28:24.357   03 Jun 2027 23:31:42.069           197.712            RioGallegos          6178.500
       205   04 Jun 2027 00:09:20.147   04 Jun 2027 00:10:37.655            77.508                Anadyr2          2422.125
       206   04 Jun 2027 00:11:26.560   04 Jun 2027 00:13:02.397            95.837                Norilsk          2994.906
       207   04 Jun 2027 00:13:03.451   04 Jun 2027 00:13:54.177            50.726               Magadan2          1585.188
       208   04 Jun 2027 00:14:12.578   04 Jun 2027 00:15:20.572            67.994               Magadan1          2124.813
       209   04 Jun 2027 00:15:49.234   04 Jun 2027 00:16:58.219            68.985                Irkutsk          2155.781
       210   04 Jun 2027 00:18:06.160   04 Jun 2027 00:18:16.561            10.401                Irkutsk           325.031
       211   04 Jun 2027 00:20:15.755   04 Jun 2027 00:20:25.319             9.564                Irkutsk           298.875
       212   04 Jun 2027 00:26:06.450   04 Jun 2027 00:26:43.884            37.434                Irkutsk          1169.812
       213   04 Jun 2027 00:29:49.009   04 Jun 2027 00:31:18.669            89.660                Sumatra          2801.875
       214   04 Jun 2027 00:33:42.977   04 Jun 2027 00:36:05.513           142.536                Sumatra          4454.250
       215   04 Jun 2027 01:14:21.748   04 Jun 2027 01:15:00.011            38.263            RioGallegos          1195.719
       216   04 Jun 2027 01:44:17.226   04 Jun 2027 01:44:40.342            23.116                Anadyr2           722.375
       217   04 Jun 2027 01:45:11.551   04 Jun 2027 01:45:39.620            28.069                Anadyr1           877.156
       218   04 Jun 2027 01:46:04.930   04 Jun 2027 01:46:22.354            17.424                Anadyr2           544.500
       219   04 Jun 2027 01:46:36.574   04 Jun 2027 01:46:42.493             5.919                Anadyr1           184.969
       220   04 Jun 2027 01:47:22.156   04 Jun 2027 01:48:38.085            75.929                Norilsk          2372.781
       221   04 Jun 2027 01:48:51.305   04 Jun 2027 01:48:58.882             7.577                Norilsk           236.781
       222   04 Jun 2027 01:49:45.491   04 Jun 2027 01:50:44.423            58.932               Magadan2          1841.625
       223   04 Jun 2027 01:51:14.646   04 Jun 2027 01:53:16.691           122.045                Irkutsk          3813.906
       224   04 Jun 2027 01:56:21.689   04 Jun 2027 01:57:12.059            50.370                Novosib          1574.063
       225   04 Jun 2027 02:03:47.039   04 Jun 2027 02:04:02.420            15.381                  Delhi           480.656
       226   04 Jun 2027 02:05:59.572   04 Jun 2027 02:09:16.693           197.121                Sumatra          6160.031
       227   04 Jun 2027 02:46:22.256   04 Jun 2027 02:47:33.361            71.105            RioGallegos          2222.031
       228   04 Jun 2027 03:27:49.477   04 Jun 2027 03:27:58.073             8.596               Magadan2           268.625
       229   04 Jun 2027 03:28:50.841   04 Jun 2027 03:29:44.449            53.608                Norilsk          1675.250
       230   04 Jun 2027 03:30:09.865   04 Jun 2027 03:34:44.675           274.810                Norilsk          8587.812
       231   04 Jun 2027 03:34:55.956   04 Jun 2027 03:36:34.548            98.592                Irkutsk          3081.000
       232   04 Jun 2027 03:36:45.918   04 Jun 2027 03:37:08.506            22.588                Novosib           705.875
       233   04 Jun 2027 03:37:29.274   04 Jun 2027 03:40:33.662           184.388                  Delhi          5762.125
       234   04 Jun 2027 04:17:56.663   04 Jun 2027 04:20:25.238           148.575            RioGallegos          4642.969
       235   04 Jun 2027 05:07:27.604   04 Jun 2027 05:07:33.464             5.860                Novosib           183.125
       236   04 Jun 2027 05:07:37.169   04 Jun 2027 05:09:00.237            83.068                Novosib          2595.875
       237   04 Jun 2027 05:09:23.692   04 Jun 2027 05:11:55.831           152.139              Murmansk1          4754.344
       238   04 Jun 2027 05:12:10.726   04 Jun 2027 05:12:35.781            25.055              Murmansk2           782.969
       239   04 Jun 2027 05:14:10.812   04 Jun 2027 05:16:26.037           135.225                 Moscow          4225.781
       240   04 Jun 2027 05:29:45.375   04 Jun 2027 05:32:46.921           181.546               CapeTown          5673.313
       241   04 Jun 2027 06:45:57.428   04 Jun 2027 06:47:14.301            76.873              Murmansk1          2402.281
       242   04 Jun 2027 06:47:22.554   04 Jun 2027 06:48:33.137            70.583                 Moscow          2205.719
       243   04 Jun 2027 06:49:22.738   04 Jun 2027 06:50:18.907            56.169                 Moscow          1755.281
       244   04 Jun 2027 06:50:32.892   04 Jun 2027 06:50:49.985            17.093                 Moscow           534.156
       245   04 Jun 2027 07:04:55.338   04 Jun 2027 07:07:34.820           159.482               CapeTown          4983.812
       246   04 Jun 2027 08:08:09.835   04 Jun 2027 08:08:25.114            15.279               Magadan1           477.469
       247   04 Jun 2027 08:08:28.164   04 Jun 2027 08:10:11.179           103.015                Anadyr1          3219.219
       248   04 Jun 2027 08:10:11.179   04 Jun 2027 08:10:28.215            17.036                Anadyr2           532.375
       249   04 Jun 2027 08:11:19.569   04 Jun 2027 08:12:12.235            52.666                Anadyr1          1645.813
       250   04 Jun 2027 09:40:04.963   04 Jun 2027 09:47:06.286           421.323                Anadyr2         13166.344
       251   04 Jun 2027 11:19:03.632   04 Jun 2027 11:20:10.593            66.961               Magadan2          2092.531
       252   04 Jun 2027 11:20:57.886   04 Jun 2027 11:23:32.786           154.900               Magadan2          4840.625
       253   04 Jun 2027 11:23:32.786   04 Jun 2027 11:25:10.455            97.669               Magadan1          3052.156
       254   04 Jun 2027 11:25:32.110   04 Jun 2027 11:26:34.709            62.599              Murmansk2          1956.219
       255   04 Jun 2027 12:00:14.094   04 Jun 2027 12:01:28.046            73.952            RioGallegos          2311.000
       256   04 Jun 2027 12:35:39.088   04 Jun 2027 12:36:19.024            39.936                Sumatra          1248.000
       257   04 Jun 2027 12:39:34.298   04 Jun 2027 12:42:06.873           152.575                Sumatra          4767.969
       258   04 Jun 2027 12:49:43.689   04 Jun 2027 12:51:57.204           133.515                Irkutsk          4172.344
       259   04 Jun 2027 13:38:03.003   04 Jun 2027 13:40:03.924           120.921            RioGallegos          3778.781
       260   04 Jun 2027 14:12:16.931   04 Jun 2027 14:17:10.257           293.326                Sumatra          9166.438
       261   04 Jun 2027 14:27:51.081   04 Jun 2027 14:28:44.007            52.926                Irkutsk          1653.938
       262   04 Jun 2027 14:29:19.997   04 Jun 2027 14:31:20.934           120.937                Irkutsk          3779.281
       263   04 Jun 2027 15:57:35.107   04 Jun 2027 16:02:01.263           266.156                  Delhi          8317.375
       264   04 Jun 2027 16:06:05.382   04 Jun 2027 16:10:22.449           257.067                Novosib          8033.344
       265   04 Jun 2027 16:12:51.619   04 Jun 2027 16:13:25.908            34.289                Novosib          1071.531
       266   04 Jun 2027 17:42:53.397   04 Jun 2027 17:43:48.300            54.903                 Moscow          1715.719
       267   04 Jun 2027 17:52:01.736   04 Jun 2027 17:52:11.131             9.395              Murmansk2           293.594
       268   04 Jun 2027 17:55:39.351   04 Jun 2027 17:56:06.465            27.114              Murmansk1           847.312
       269   04 Jun 2027 17:58:45.873   04 Jun 2027 17:59:10.960            25.087                Anadyr1           783.969
       270   04 Jun 2027 17:59:19.298   04 Jun 2027 17:59:22.194             2.896                Anadyr1            90.500
       271   04 Jun 2027 18:01:10.729   04 Jun 2027 18:01:20.236             9.507                Anadyr2           297.094
       272   04 Jun 2027 18:53:13.417   04 Jun 2027 18:55:38.126           144.709               CapeTown          4522.156
       273   04 Jun 2027 19:20:26.660   04 Jun 2027 19:24:27.539           240.879                 Moscow          7527.469
       274   04 Jun 2027 19:25:48.688   04 Jun 2027 19:26:31.596            42.908                 Moscow          1340.875
       275   04 Jun 2027 19:26:37.914   04 Jun 2027 19:27:02.307            24.393              Murmansk1           762.281
       276   04 Jun 2027 20:30:16.710   04 Jun 2027 20:33:47.923           211.213               CapeTown          6600.406
       277   04 Jun 2027 20:35:20.957   04 Jun 2027 20:35:59.572            38.615               CapeTown          1206.719
       278   04 Jun 2027 21:03:33.903   04 Jun 2027 21:06:41.048           187.145              Murmansk1          5848.281
       279   04 Jun 2027 21:12:15.712   04 Jun 2027 21:12:59.949            44.237               Magadan2          1382.406
       280   04 Jun 2027 21:14:50.553   04 Jun 2027 21:14:55.609             5.056               Magadan1           158.000
       281   04 Jun 2027 21:15:28.521   04 Jun 2027 21:15:30.070             1.549               Magadan2            48.406
       282   04 Jun 2027 21:15:55.038   04 Jun 2027 21:16:05.963            10.925               Magadan1           341.406
       283   04 Jun 2027 21:18:07.776   04 Jun 2027 21:18:24.873            17.097               Magadan1           534.281
       284   04 Jun 2027 21:20:01.795   04 Jun 2027 21:20:19.016            17.221               Magadan1           538.156
       285   04 Jun 2027 22:45:38.883   04 Jun 2027 22:49:27.752           228.869                Anadyr2          7152.156
       286   04 Jun 2027 22:49:27.937   04 Jun 2027 22:53:02.734           214.797               Magadan1          6712.406
       287   04 Jun 2027 22:53:07.368   04 Jun 2027 22:53:35.631            28.263               Magadan2           883.219
       288   04 Jun 2027 22:59:41.475   04 Jun 2027 23:00:09.303            27.828               Magadan2           869.625
       289   04 Jun 2027 23:40:09.712   04 Jun 2027 23:42:15.946           126.234            RioGallegos          3944.812
       290   04 Jun 2027 23:43:01.646   04 Jun 2027 23:43:35.120            33.474            RioGallegos          1046.062
       291   04 Jun 2027 23:44:50.447   04 Jun 2027 23:44:59.328             8.881            RioGallegos           277.531
       292   04 Jun 2027 23:45:39.332   04 Jun 2027 23:45:48.784             9.452            RioGallegos           295.375
       293   05 Jun 2027 00:21:17.802   05 Jun 2027 00:22:44.599            86.797                Anadyr1          2712.406
       294   05 Jun 2027 00:23:27.103   05 Jun 2027 00:25:03.794            96.691                Norilsk          3021.594
       295   05 Jun 2027 00:25:24.137   05 Jun 2027 00:26:29.328            65.191               Magadan1          2037.219
       296   05 Jun 2027 00:26:49.249   05 Jun 2027 00:27:58.946            69.697               Magadan2          2178.031
       297   05 Jun 2027 00:28:34.148   05 Jun 2027 00:29:09.896            35.748                Irkutsk          1117.125
       298   05 Jun 2027 00:29:56.826   05 Jun 2027 00:31:03.812            66.986                Irkutsk          2093.313
       299   05 Jun 2027 00:38:14.595   05 Jun 2027 00:38:45.784            31.189                Irkutsk           974.656
       300   05 Jun 2027 00:41:30.970   05 Jun 2027 00:43:40.836           129.866                Sumatra          4058.312
       301   05 Jun 2027 01:17:48.694   05 Jun 2027 01:18:38.901            50.207            RioGallegos          1568.969
       302   05 Jun 2027 01:24:12.409   05 Jun 2027 01:24:32.638            20.229            RioGallegos           632.156
       303   05 Jun 2027 01:27:07.501   05 Jun 2027 01:27:27.320            19.819            RioGallegos           619.344
       304   05 Jun 2027 01:56:06.190   05 Jun 2027 01:56:38.042            31.852                Anadyr2           995.375
       305   05 Jun 2027 01:56:38.042   05 Jun 2027 01:57:09.999            31.957                Anadyr1           998.656
       306   05 Jun 2027 01:58:22.954   05 Jun 2027 01:58:41.299            18.345                Anadyr2           573.281
       307   05 Jun 2027 01:59:24.587   05 Jun 2027 02:00:45.743            81.156                Norilsk          2536.125
       308   05 Jun 2027 02:01:36.825   05 Jun 2027 02:01:47.634            10.809               Magadan2           337.781
       309   05 Jun 2027 02:02:55.065   05 Jun 2027 02:03:17.741            22.676                Norilsk           708.625
       310   05 Jun 2027 02:03:27.000   05 Jun 2027 02:04:33.683            66.683                Novosib          2083.844
       311   05 Jun 2027 02:06:30.132   05 Jun 2027 02:07:26.927            56.795                Irkutsk          1774.844
       312   05 Jun 2027 02:10:42.054   05 Jun 2027 02:10:53.760            11.706                Novosib           365.813
       313   05 Jun 2027 02:11:20.772   05 Jun 2027 02:11:50.306            29.534                  Delhi           922.938
       314   05 Jun 2027 02:12:28.182   05 Jun 2027 02:12:38.775            10.593                  Delhi           331.031
       315   05 Jun 2027 02:16:17.415   05 Jun 2027 02:16:34.064            16.649                  Delhi           520.281
       316   05 Jun 2027 02:18:14.392   05 Jun 2027 02:18:38.723            24.331                  Delhi           760.344
       317   05 Jun 2027 02:18:42.519   05 Jun 2027 02:25:16.658           394.139                Sumatra         12316.844
       318   05 Jun 2027 03:41:30.624   05 Jun 2027 03:41:40.051             9.427              Murmansk2           294.594
       319   05 Jun 2027 03:42:05.739   05 Jun 2027 03:46:44.595           278.856                Norilsk          8714.250
       320   05 Jun 2027 03:48:02.726   05 Jun 2027 03:48:21.167            18.441                Norilsk           576.281
       321   05 Jun 2027 03:48:42.534   05 Jun 2027 03:48:50.396             7.862                Irkutsk           245.687
       322   05 Jun 2027 03:50:28.900   05 Jun 2027 03:52:04.769            95.869                  Delhi          2995.906
       323   05 Jun 2027 03:53:59.774   05 Jun 2027 03:55:18.636            78.862                  Delhi          2464.437
       324   05 Jun 2027 05:19:54.913   05 Jun 2027 05:20:47.918            53.005                Norilsk          1656.406
       325   05 Jun 2027 05:20:48.814   05 Jun 2027 05:21:11.035            22.221              Murmansk2           694.406
       326   05 Jun 2027 05:21:11.035   05 Jun 2027 05:21:18.628             7.593              Murmansk1           237.281
       327   05 Jun 2027 05:21:39.772   05 Jun 2027 05:23:26.895           107.123                Norilsk          3347.594
       328   05 Jun 2027 05:23:41.375   05 Jun 2027 05:25:14.659            93.284                Novosib          2915.125
       329   05 Jun 2027 05:25:19.114   05 Jun 2027 05:27:33.409           134.295                 Moscow          4196.719
       330   05 Jun 2027 05:27:35.750   05 Jun 2027 05:29:15.284            99.534                 Moscow          3110.437
       331   05 Jun 2027 05:41:22.691   05 Jun 2027 05:44:35.474           192.783               CapeTown          6024.469
       332   05 Jun 2027 06:56:41.508   05 Jun 2027 06:56:58.179            16.671                Norilsk           520.969
       333   05 Jun 2027 06:56:59.348   05 Jun 2027 06:58:49.012           109.664              Murmansk1          3427.000
       334   05 Jun 2027 06:58:53.931   05 Jun 2027 07:00:38.658           104.727                 Moscow          3272.719
       335   05 Jun 2027 07:02:14.188   05 Jun 2027 07:02:22.487             8.299                 Moscow           259.344
       336   05 Jun 2027 07:17:15.931   05 Jun 2027 07:22:27.072           311.141               CapeTown          9723.156
       337   05 Jun 2027 08:20:12.355   05 Jun 2027 08:21:53.150           100.795               Magadan1          3149.844
       338   05 Jun 2027 08:22:20.808   05 Jun 2027 08:23:33.246            72.438                Anadyr2          2263.687
       339   05 Jun 2027 08:24:11.280   05 Jun 2027 08:24:57.175            45.895                Anadyr2          1434.219
       340   05 Jun 2027 08:31:38.767   05 Jun 2027 08:32:03.920            25.153                 Moscow           786.031
       341   05 Jun 2027 09:52:40.459   05 Jun 2027 09:57:23.499           283.040                Anadyr2          8845.000
       342   05 Jun 2027 09:57:58.018   05 Jun 2027 09:58:08.618            10.600               Magadan1           331.250
       343   05 Jun 2027 09:58:15.120   05 Jun 2027 09:59:41.154            86.034               Magadan2          2688.563
       344   05 Jun 2027 10:01:43.414   05 Jun 2027 10:01:44.668             1.254                Anadyr2            39.187
       345   05 Jun 2027 10:37:45.525   05 Jun 2027 10:38:10.400            24.875            RioGallegos           777.344
       346   05 Jun 2027 11:28:01.564   05 Jun 2027 11:30:45.633           164.069               Magadan2          5127.156
       347   05 Jun 2027 11:30:45.633   05 Jun 2027 11:30:46.491             0.858               Magadan1            26.812
       348   05 Jun 2027 11:31:53.027   05 Jun 2027 11:32:25.639            32.612                Irkutsk          1019.125
       349   05 Jun 2027 11:32:31.689   05 Jun 2027 11:32:45.831            14.142                Norilsk           441.937
       350   05 Jun 2027 11:33:05.156   05 Jun 2027 11:33:06.393             1.237                Novosib            38.656
       351   05 Jun 2027 11:33:30.559   05 Jun 2027 11:37:00.157           209.598               Magadan2          6549.937
       352   05 Jun 2027 11:37:20.645   05 Jun 2027 11:37:53.358            32.713                Norilsk          1022.281
       353   05 Jun 2027 11:38:32.058   05 Jun 2027 11:38:39.544             7.486              Murmansk1           233.938
       354   05 Jun 2027 11:45:35.397   05 Jun 2027 11:45:50.630            15.233              Murmansk2           476.031
       355   05 Jun 2027 12:12:16.443   05 Jun 2027 12:13:24.591            68.148            RioGallegos          2129.625
       356   05 Jun 2027 12:47:24.523   05 Jun 2027 12:49:55.269           150.746                Sumatra          4710.812
       357   05 Jun 2027 13:00:55.599   05 Jun 2027 13:01:36.991            41.392                Irkutsk          1293.500
       358   05 Jun 2027 13:02:32.651   05 Jun 2027 13:03:09.460            36.809                Novosib          1150.281
       359   05 Jun 2027 13:03:56.695   05 Jun 2027 13:05:22.834            86.139                Irkutsk          2691.844
       360   05 Jun 2027 13:09:40.194   05 Jun 2027 13:10:40.092            59.898                Irkutsk          1871.812
       361   05 Jun 2027 13:50:42.141   05 Jun 2027 13:55:20.890           278.749            RioGallegos          8710.906
       362   05 Jun 2027 14:25:02.781   05 Jun 2027 14:29:34.720           271.939                Sumatra          8498.094
       363   05 Jun 2027 14:40:49.761   05 Jun 2027 14:42:57.693           127.932                Irkutsk          3997.875
       364   05 Jun 2027 14:44:44.108   05 Jun 2027 14:44:57.464            13.356                Irkutsk           417.375
       365   05 Jun 2027 16:10:45.255   05 Jun 2027 16:14:39.617           234.362                  Delhi          7323.813
       366   05 Jun 2027 16:19:12.013   05 Jun 2027 16:24:52.520           340.507                Novosib         10640.844
       367   05 Jun 2027 18:11:12.435   05 Jun 2027 18:11:48.302            35.867                Anadyr1          1120.844
       368   05 Jun 2027 19:05:12.674   05 Jun 2027 19:07:59.023           166.349               CapeTown          5198.406
       369   05 Jun 2027 19:33:55.750   05 Jun 2027 19:37:20.008           204.258                 Moscow          6383.062
       370   05 Jun 2027 19:37:35.771   05 Jun 2027 19:40:08.645           152.874              Murmansk2          4777.312
       371   05 Jun 2027 20:42:49.745   05 Jun 2027 20:47:40.792           291.047               CapeTown          9095.219
       372   05 Jun 2027 20:49:43.929   05 Jun 2027 20:50:27.999            44.070               CapeTown          1377.188
       373   05 Jun 2027 21:25:10.194   05 Jun 2027 21:26:08.624            58.430               Magadan1          1825.938
       374   05 Jun 2027 21:26:52.086   05 Jun 2027 21:27:23.397            31.311               Magadan2           978.469
       375   05 Jun 2027 21:28:42.577   05 Jun 2027 21:28:55.475            12.898               Magadan1           403.063
       376   05 Jun 2027 21:30:40.884   05 Jun 2027 21:30:41.896             1.012               Magadan2            31.625
       377   05 Jun 2027 21:31:05.070   05 Jun 2027 21:31:31.173            26.103               Magadan2           815.719
       378   05 Jun 2027 22:57:39.897   05 Jun 2027 23:01:27.884           227.987                Anadyr2          7124.594
       379   05 Jun 2027 23:01:44.159   05 Jun 2027 23:05:02.796           198.637               Magadan2          6207.406
       380   05 Jun 2027 23:07:18.639   05 Jun 2027 23:09:10.605           111.966                Irkutsk          3498.938
       381   05 Jun 2027 23:51:58.871   05 Jun 2027 23:53:37.748            98.877            RioGallegos          3089.906
       382   05 Jun 2027 23:55:07.358   05 Jun 2027 23:55:30.200            22.842            RioGallegos           713.812
       383   05 Jun 2027 23:57:01.784   05 Jun 2027 23:57:24.837            23.053            RioGallegos           720.406
       384   05 Jun 2027 23:57:56.625   05 Jun 2027 23:58:03.653             7.028            RioGallegos           219.625
       385   06 Jun 2027 00:00:14.710   06 Jun 2027 00:00:51.509            36.799            RioGallegos          1149.969
       386   06 Jun 2027 00:33:14.668   06 Jun 2027 00:33:45.963            31.295                Anadyr2           977.969
       387   06 Jun 2027 00:34:07.235   06 Jun 2027 00:34:24.244            17.009                Anadyr1           531.531
       388   06 Jun 2027 00:34:41.934   06 Jun 2027 00:35:16.120            34.186                Anadyr1          1068.313
       389   06 Jun 2027 00:35:28.146   06 Jun 2027 00:37:19.849           111.703                Norilsk          3490.719
       390   06 Jun 2027 00:37:45.440   06 Jun 2027 00:38:00.443            15.003               Magadan2           468.844
       391   06 Jun 2027 00:38:12.872   06 Jun 2027 00:38:18.711             5.839               Magadan2           182.469
       392   06 Jun 2027 00:39:28.367   06 Jun 2027 00:39:32.349             3.982               Magadan2           124.437
       393   06 Jun 2027 00:39:36.433   06 Jun 2027 00:40:41.566            65.133                Irkutsk          2035.406
       394   06 Jun 2027 00:40:45.957   06 Jun 2027 00:41:11.964            26.007                Irkutsk           812.719
       395   06 Jun 2027 00:42:14.036   06 Jun 2027 00:43:24.983            70.947                Novosib          2217.094
       396   06 Jun 2027 00:50:19.305   06 Jun 2027 00:50:48.492            29.187                Irkutsk           912.094
       397   06 Jun 2027 00:53:19.648   06 Jun 2027 00:54:05.991            46.343                Sumatra          1448.219
       398   06 Jun 2027 00:56:12.435   06 Jun 2027 00:56:56.392            43.957                Sumatra          1373.656
       399   06 Jun 2027 00:57:03.922   06 Jun 2027 00:58:42.658            98.736                Sumatra          3085.500
       400   06 Jun 2027 01:36:19.300   06 Jun 2027 01:36:59.325            40.025            RioGallegos          1250.781
       401   06 Jun 2027 02:08:36.394   06 Jun 2027 02:09:40.011            63.617                Anadyr1          1988.031
       402   06 Jun 2027 02:11:27.046   06 Jun 2027 02:12:49.067            82.021                Norilsk          2563.156
       403   06 Jun 2027 02:12:51.790   06 Jun 2027 02:13:20.157            28.367                Norilsk           886.469
       404   06 Jun 2027 02:15:20.763   06 Jun 2027 02:18:16.374           175.611                Irkutsk          5487.844
       405   06 Jun 2027 02:23:04.517   06 Jun 2027 02:23:29.651            25.134                  Delhi           785.437
       406   06 Jun 2027 02:29:36.260   06 Jun 2027 02:29:39.004             2.744                  Delhi            85.750
       407   06 Jun 2027 02:29:52.505   06 Jun 2027 02:30:14.633            22.128                  Delhi           691.500
       408   06 Jun 2027 02:31:33.944   06 Jun 2027 02:35:50.563           256.619                Sumatra          8019.344
       409   06 Jun 2027 03:07:20.669   06 Jun 2027 03:08:03.876            43.207            RioGallegos          1350.219
       410   06 Jun 2027 03:53:40.906   06 Jun 2027 03:56:28.245           167.339                Irkutsk          5229.344
       411   06 Jun 2027 03:56:41.177   06 Jun 2027 03:59:46.330           185.153                Irkutsk          5786.031
       412   06 Jun 2027 04:00:39.315   06 Jun 2027 04:01:24.098            44.783                Novosib          1399.469
       413   06 Jun 2027 05:33:08.098   06 Jun 2027 05:34:32.539            84.441              Murmansk1          2638.781
       414   06 Jun 2027 05:34:35.296   06 Jun 2027 05:35:43.884            68.588                Novosib          2143.375
       415   06 Jun 2027 05:35:55.637   06 Jun 2027 05:36:34.155            38.518                 Moscow          1203.688
       416   06 Jun 2027 05:36:38.847   06 Jun 2027 05:36:44.603             5.756                Novosib           179.875
       417   06 Jun 2027 05:36:56.691   06 Jun 2027 05:40:44.282           227.591                 Moscow          7112.219
       418   06 Jun 2027 05:41:07.132   06 Jun 2027 05:41:28.392            21.260                 Moscow           664.375
       419   06 Jun 2027 05:53:57.255   06 Jun 2027 05:54:57.258            60.003               CapeTown          1875.094
       420   06 Jun 2027 06:04:53.404   06 Jun 2027 06:05:24.685            31.281               CapeTown           977.531
       421   06 Jun 2027 06:57:14.877   06 Jun 2027 06:58:25.885            71.008                Anadyr1          2219.000
       422   06 Jun 2027 06:59:01.717   06 Jun 2027 06:59:37.174            35.457                Anadyr2          1108.031
       423   06 Jun 2027 07:00:01.125   06 Jun 2027 07:00:56.596            55.471               Magadan1          1733.469
       424   06 Jun 2027 07:08:20.205   06 Jun 2027 07:10:05.113           104.908              Murmansk1          3278.375
       425   06 Jun 2027 07:10:31.315   06 Jun 2027 07:10:59.304            27.989              Murmansk1           874.656
       426   06 Jun 2027 07:11:51.014   06 Jun 2027 07:12:06.197            15.183                 Moscow           474.469
       427   06 Jun 2027 07:12:44.749   06 Jun 2027 07:13:52.775            68.026                 Moscow          2125.813
       428   06 Jun 2027 07:13:54.779   06 Jun 2027 07:15:04.209            69.430                 Moscow          2169.687
       429   06 Jun 2027 07:29:43.861   06 Jun 2027 07:31:11.839            87.978               CapeTown          2749.312
       430   06 Jun 2027 07:34:19.349   06 Jun 2027 07:34:42.796            23.447               CapeTown           732.719
       431   06 Jun 2027 08:30:35.184   06 Jun 2027 08:31:21.980            46.796                Anadyr2          1462.375
       432   06 Jun 2027 08:32:14.638   06 Jun 2027 08:32:44.795            30.157               Magadan1           942.406
       433   06 Jun 2027 08:33:24.331   06 Jun 2027 08:34:03.982            39.651                Norilsk          1239.094
       434   06 Jun 2027 08:34:22.281   06 Jun 2027 08:35:20.590            58.309                Anadyr2          1822.156
       435   06 Jun 2027 08:35:20.590   06 Jun 2027 08:35:39.578            18.988                Anadyr1           593.375
       436   06 Jun 2027 08:37:29.148   06 Jun 2027 08:37:57.806            28.658               Magadan1           895.562
       437   06 Jun 2027 08:44:35.350   06 Jun 2027 08:44:56.722            21.372                 Moscow           667.875
       438   06 Jun 2027 10:05:20.508   06 Jun 2027 10:06:33.510            73.002                Anadyr1          2281.313
       439   06 Jun 2027 10:06:33.510   06 Jun 2027 10:10:00.900           207.390                Anadyr2          6480.937
       440   06 Jun 2027 10:10:01.318   06 Jun 2027 10:11:14.062            72.744                Anadyr1          2273.250
       441   06 Jun 2027 10:11:36.468   06 Jun 2027 10:11:56.047            19.579                Norilsk           611.844
       442   06 Jun 2027 10:13:02.911   06 Jun 2027 10:13:05.017             2.106                Norilsk            65.813
       443   06 Jun 2027 10:13:38.505   06 Jun 2027 10:14:27.840            49.335              Murmansk2          1541.719
       444   06 Jun 2027 10:49:25.104   06 Jun 2027 10:50:10.948            45.844            RioGallegos          1432.625
       445   06 Jun 2027 10:51:37.091   06 Jun 2027 10:51:37.332             0.241            RioGallegos             7.531
       446   06 Jun 2027 10:52:34.676   06 Jun 2027 10:52:36.017             1.341            RioGallegos            41.906
       447   06 Jun 2027 10:57:59.266   06 Jun 2027 10:58:13.869            14.603            RioGallegos           456.344
       448   06 Jun 2027 11:40:46.716   06 Jun 2027 11:48:45.978           479.262               Magadan2         14976.938
       449   06 Jun 2027 11:49:22.718   06 Jun 2027 11:49:35.441            12.723              Murmansk2           397.594
       450   06 Jun 2027 11:49:43.923   06 Jun 2027 11:50:00.652            16.729                Novosib           522.781
       451   06 Jun 2027 11:50:09.916   06 Jun 2027 11:50:32.587            22.671                Norilsk           708.469
       452   06 Jun 2027 11:50:44.557   06 Jun 2027 11:50:48.788             4.231                Novosib           132.219
       453   06 Jun 2027 11:52:23.339   06 Jun 2027 11:52:42.258            18.919                Norilsk           591.219
       454   06 Jun 2027 12:24:22.254   06 Jun 2027 12:25:19.443            57.189            RioGallegos          1787.156
       455   06 Jun 2027 12:27:33.975   06 Jun 2027 12:28:17.657            43.682            RioGallegos          1365.063
       456   06 Jun 2027 12:59:16.274   06 Jun 2027 12:59:58.509            42.235                Sumatra          1319.844
       457   06 Jun 2027 13:02:18.688   06 Jun 2027 13:02:32.952            14.264                Sumatra           445.750
       458   06 Jun 2027 13:03:07.604   06 Jun 2027 13:03:58.917            51.313                Sumatra          1603.531
       459   06 Jun 2027 13:07:31.888   06 Jun 2027 13:08:48.121            76.233                Sumatra          2382.281
       460   06 Jun 2027 13:13:08.979   06 Jun 2027 13:15:55.041           166.062                Irkutsk          5189.437
       461   06 Jun 2027 13:27:20.783   06 Jun 2027 13:27:34.607            13.824                Norilsk           432.000
       462   06 Jun 2027 13:30:17.475   06 Jun 2027 13:30:35.980            18.505                Norilsk           578.281
       463   06 Jun 2027 14:03:30.256   06 Jun 2027 14:07:34.734           244.478            RioGallegos          7639.938
       464   06 Jun 2027 14:38:14.756   06 Jun 2027 14:42:09.438           234.682                Sumatra          7333.813
       465   06 Jun 2027 14:54:10.174   06 Jun 2027 14:58:48.778           278.604                Irkutsk          8706.375
       466   06 Jun 2027 16:25:07.094   06 Jun 2027 16:26:59.431           112.337                  Delhi          3510.531
       467   06 Jun 2027 16:32:52.763   06 Jun 2027 16:35:48.196           175.433                Novosib          5482.281
       468   06 Jun 2027 16:39:46.695   06 Jun 2027 16:40:06.079            19.384                Norilsk           605.750
       469   06 Jun 2027 18:04:43.710   06 Jun 2027 18:04:55.434            11.724                 Moscow           366.375
       470   06 Jun 2027 18:06:48.213   06 Jun 2027 18:09:40.961           172.748                 Moscow          5398.375
       471   06 Jun 2027 18:16:14.382   06 Jun 2027 18:17:48.983            94.601              Murmansk1          2956.281
       472   06 Jun 2027 19:17:14.762   06 Jun 2027 19:19:56.049           161.287               CapeTown          5040.219
       473   06 Jun 2027 19:46:58.406   06 Jun 2027 19:47:50.269            51.863              Murmansk1          1620.719
       474   06 Jun 2027 19:49:36.551   06 Jun 2027 19:52:22.512           165.961              Murmansk2          5186.281
       475   06 Jun 2027 19:53:32.272   06 Jun 2027 19:54:24.072            51.800              Murmansk1          1618.750
       476   06 Jun 2027 20:01:40.096   06 Jun 2027 20:02:11.680            31.584               Magadan1           987.000
       477   06 Jun 2027 20:55:38.631   06 Jun 2027 21:01:16.690           338.059               CapeTown         10564.344
       478   06 Jun 2027 21:36:10.568   06 Jun 2027 21:37:19.986            69.418               Magadan1          2169.313
       479   06 Jun 2027 21:37:50.306   06 Jun 2027 21:38:29.885            39.579               Magadan2          1236.844
       480   06 Jun 2027 21:38:46.267   06 Jun 2027 21:38:50.437             4.170               Magadan2           130.312
       481   06 Jun 2027 21:40:35.188   06 Jun 2027 21:41:11.665            36.477               Magadan2          1139.906
       482   06 Jun 2027 21:46:59.170   06 Jun 2027 21:48:00.450            61.280               Magadan1          1915.000
