uniorb/output/strategy_1/Drop/Drop_KinoSat_110309.txt

KinoSat_110309
-------------------------
    Access    *     Start Time (UTCG)     *     Stop Time (UTCG)  *   Duration (s)        *       Station  *  Data (Mbytes)
         1   01 Jun 2027 03:19:49.921   01 Jun 2027 03:21:38.156           108.235               Magadan1         13529.375
         2   01 Jun 2027 03:22:01.289   01 Jun 2027 03:22:51.670            50.381               Magadan2          6297.625
         3   01 Jun 2027 03:23:07.097   01 Jun 2027 03:24:06.441            59.344               Magadan1          7418.000
         4   01 Jun 2027 03:24:22.641   01 Jun 2027 03:25:11.966            49.325               Magadan1          6165.625
         5   01 Jun 2027 04:36:12.610   01 Jun 2027 04:39:47.203           214.593                Sumatra         26824.125
         6   01 Jun 2027 04:56:57.512   01 Jun 2027 04:56:57.964             0.452                Irkutsk            56.500
         7   01 Jun 2027 04:57:23.975   01 Jun 2027 04:57:54.390            30.415                Novosib          3801.875
         8   01 Jun 2027 04:58:07.239   01 Jun 2027 05:00:02.049           114.810                Irkutsk         14351.250
         9   01 Jun 2027 05:00:20.519   01 Jun 2027 05:00:41.838            21.319                Irkutsk          2664.875
        10   01 Jun 2027 05:00:53.947   01 Jun 2027 05:01:04.088            10.141              Murmansk2          1267.625
        11   01 Jun 2027 05:01:31.169   01 Jun 2027 05:01:52.438            21.269              Murmansk2          2658.625
        12   01 Jun 2027 05:02:05.187   01 Jun 2027 05:02:32.928            27.741                Norilsk          3467.625
        13   01 Jun 2027 05:06:06.774   01 Jun 2027 05:06:20.684            13.910                Norilsk          1738.750
        14   01 Jun 2027 05:37:06.418   01 Jun 2027 05:38:12.273            65.855            RioGallegos          8231.875
        15   01 Jun 2027 06:13:32.568   01 Jun 2027 06:14:03.508            30.940                Sumatra          3867.500
        16   01 Jun 2027 06:17:58.630   01 Jun 2027 06:18:13.015            14.385                Sumatra          1798.125
        17   01 Jun 2027 06:19:37.418   01 Jun 2027 06:19:49.393            11.975                  Delhi          1496.875
        18   01 Jun 2027 06:22:08.206   01 Jun 2027 06:23:55.999           107.793                  Delhi         13474.125
        19   01 Jun 2027 06:34:58.022   01 Jun 2027 06:35:24.553            26.531                Norilsk          3316.375
        20   01 Jun 2027 06:35:30.831   01 Jun 2027 06:35:58.493            27.662                Norilsk          3457.750
        21   01 Jun 2027 06:36:18.342   01 Jun 2027 06:38:06.601           108.259                Novosib         13532.375
        22   01 Jun 2027 07:56:14.820   01 Jun 2027 07:57:31.770            76.950                  Delhi          9618.750
        23   01 Jun 2027 07:58:02.068   01 Jun 2027 07:58:41.776            39.708                  Delhi          4963.500
        24   01 Jun 2027 08:10:57.601   01 Jun 2027 08:11:45.184            47.583              Murmansk1          5947.875
        25   01 Jun 2027 08:12:12.918   01 Jun 2027 08:13:47.763            94.845                Novosib         11855.625
        26   01 Jun 2027 09:59:22.272   01 Jun 2027 10:01:35.624           133.352                Anadyr1         16669.000
        27   01 Jun 2027 11:33:46.862   01 Jun 2027 11:38:24.402           277.540                Anadyr1         34692.500
        28   01 Jun 2027 13:12:18.693   01 Jun 2027 13:16:42.771           264.078               Magadan1         33009.750
        29   01 Jun 2027 15:40:32.239   01 Jun 2027 15:44:22.933           230.694            RioGallegos         28836.750
        30   01 Jun 2027 16:28:27.118   01 Jun 2027 16:30:26.712           119.594                Irkutsk         14949.250
        31   01 Jun 2027 16:41:57.687   01 Jun 2027 16:43:13.513            75.826                Sumatra          9478.250
        32   01 Jun 2027 16:45:31.641   01 Jun 2027 16:45:45.267            13.626                Sumatra          1703.250
        33   01 Jun 2027 16:48:53.169   01 Jun 2027 16:51:12.951           139.782                Sumatra         17472.750
        34   01 Jun 2027 18:04:53.253   01 Jun 2027 18:06:11.687            78.434                Novosib          9804.250
        35   01 Jun 2027 18:11:57.347   01 Jun 2027 18:13:37.639           100.292                  Delhi         12536.500
        36   01 Jun 2027 18:18:02.024   01 Jun 2027 18:20:02.397           120.373                  Delhi         15046.625
        37   01 Jun 2027 21:16:33.234   01 Jun 2027 21:18:07.779            94.545              Murmansk1          2388.999
        38   02 Jun 2027 03:36:08.687   02 Jun 2027 03:36:56.203            47.516               Magadan2          5939.500
        39   02 Jun 2027 04:54:33.167   02 Jun 2027 04:57:03.389           150.222                Sumatra         18777.750
        40   02 Jun 2027 05:10:10.308   02 Jun 2027 05:10:39.056            28.748              Murmansk1          3593.500
        41   02 Jun 2027 05:10:39.265   02 Jun 2027 05:11:03.549            24.284                Norilsk          3035.500
        42   02 Jun 2027 05:11:18.727   02 Jun 2027 05:11:26.867             8.140              Murmansk2          1017.500
        43   02 Jun 2027 05:11:34.950   02 Jun 2027 05:13:22.958           108.008                Irkutsk         13501.000
        44   02 Jun 2027 05:51:43.720   02 Jun 2027 05:52:28.421            44.701            RioGallegos          5587.625
        45   02 Jun 2027 06:26:19.647   02 Jun 2027 06:27:56.737            97.090                Sumatra         12136.250
        46   02 Jun 2027 06:31:24.251   02 Jun 2027 06:32:17.316            53.065                  Delhi          6633.125
        47   02 Jun 2027 06:46:48.960   02 Jun 2027 06:47:34.740            45.780                 Moscow          5722.500
        48   02 Jun 2027 06:47:53.567   02 Jun 2027 06:48:10.726            17.159                Novosib          2144.875
        49   02 Jun 2027 06:48:14.527   02 Jun 2027 06:49:56.460           101.933                Novosib         12741.625
        50   02 Jun 2027 08:14:30.665   02 Jun 2027 08:14:59.097            28.432                  Delhi          3554.000
        51   02 Jun 2027 08:23:13.898   02 Jun 2027 08:23:37.721            23.823                Novosib          2977.875
        52   02 Jun 2027 08:23:38.444   02 Jun 2027 08:24:43.459            65.015                 Moscow          8126.875
        53   02 Jun 2027 08:25:07.926   02 Jun 2027 08:25:29.216            21.290                Novosib          2661.250
        54   02 Jun 2027 08:25:36.210   02 Jun 2027 08:25:58.514            22.304              Murmansk2          2788.000
        55   02 Jun 2027 10:10:55.006   02 Jun 2027 10:16:40.879           345.873                Anadyr2         43234.125
        56   02 Jun 2027 11:47:27.041   02 Jun 2027 11:48:54.431            87.390                Anadyr2         10923.750
        57   02 Jun 2027 11:50:24.790   02 Jun 2027 11:51:11.521            46.731                Anadyr2          5841.375
        58   02 Jun 2027 13:24:12.502   02 Jun 2027 13:26:31.556           139.054               Magadan1         17381.750
        59   02 Jun 2027 13:27:04.912   02 Jun 2027 13:28:33.609            88.697               Magadan2         11087.125
        60   02 Jun 2027 15:52:13.458   02 Jun 2027 15:58:29.593           376.135            RioGallegos         47016.875
        61   02 Jun 2027 16:39:40.165   02 Jun 2027 16:40:59.585            79.420                Irkutsk          9927.500
        62   02 Jun 2027 16:42:30.218   02 Jun 2027 16:43:35.196            64.978                Irkutsk          8122.250
        63   02 Jun 2027 16:43:47.280   02 Jun 2027 16:44:12.752            25.472                Novosib          3184.000
        64   02 Jun 2027 16:55:31.674   02 Jun 2027 16:57:45.581           133.907                Sumatra         16738.375
        65   02 Jun 2027 18:17:18.751   02 Jun 2027 18:17:25.089             6.338                Novosib           792.250
        66   02 Jun 2027 18:23:28.423   02 Jun 2027 18:27:17.248           228.825                  Delhi         28603.125
        67   02 Jun 2027 18:30:15.820   02 Jun 2027 18:30:28.065            12.245                  Delhi          1530.625
        68   02 Jun 2027 18:32:08.591   02 Jun 2027 18:32:45.718            37.127                  Delhi          4640.875
        69   02 Jun 2027 19:57:54.595   02 Jun 2027 19:59:47.513           112.918                 Moscow         14114.750
        70   02 Jun 2027 21:39:34.298   02 Jun 2027 21:40:55.880            81.582                 Moscow         10197.750
        71   02 Jun 2027 21:55:37.682   02 Jun 2027 21:57:18.329           100.647               CapeTown         12580.875
        72   03 Jun 2027 03:48:42.146   03 Jun 2027 03:48:55.888            13.742               Magadan1          1717.750
        73   03 Jun 2027 04:26:03.840   03 Jun 2027 04:27:24.178            80.338            RioGallegos         10042.250
        74   03 Jun 2027 04:29:14.037   03 Jun 2027 04:29:51.836            37.799            RioGallegos          4724.875
        75   03 Jun 2027 04:59:25.503   03 Jun 2027 05:03:47.838           262.335                Sumatra         32791.875
        76   03 Jun 2027 05:14:25.820   03 Jun 2027 05:16:12.192           106.372                  Delhi         13296.500
        77   03 Jun 2027 05:22:16.463   03 Jun 2027 05:23:25.002            68.539                Novosib          8567.375
        78   03 Jun 2027 05:23:30.053   03 Jun 2027 05:23:57.066            27.013                Novosib          3376.625
        79   03 Jun 2027 05:24:17.707   03 Jun 2027 05:25:21.698            63.991                Irkutsk          7998.875
        80   03 Jun 2027 06:36:21.188   03 Jun 2027 06:36:34.437            13.249                Sumatra          1656.125
        81   03 Jun 2027 06:38:29.322   03 Jun 2027 06:38:55.527            26.205                Sumatra          3275.625
        82   03 Jun 2027 06:43:16.546   03 Jun 2027 06:44:55.107            98.561                  Delhi         12320.125
        83   03 Jun 2027 06:59:23.985   03 Jun 2027 06:59:33.743             9.758                Irkutsk          1219.750
        84   03 Jun 2027 06:59:36.583   03 Jun 2027 07:00:05.812            29.229                Novosib          3653.625
        85   03 Jun 2027 07:00:28.385   03 Jun 2027 07:01:26.846            58.461                 Moscow          7307.625
        86   03 Jun 2027 08:21:47.966   03 Jun 2027 08:22:45.761            57.795                  Delhi          7224.375
        87   03 Jun 2027 08:34:41.861   03 Jun 2027 08:35:37.451            55.590                Novosib          6948.750
        88   03 Jun 2027 08:35:43.047   03 Jun 2027 08:36:07.698            24.651                 Moscow          3081.375
        89   03 Jun 2027 08:36:25.113   03 Jun 2027 08:36:45.951            20.838              Murmansk1          2604.750
        90   03 Jun 2027 08:36:45.951   03 Jun 2027 08:37:00.927            14.976              Murmansk2          1872.000
        91   03 Jun 2027 08:37:10.783   03 Jun 2027 08:37:40.981            30.198                Norilsk          3774.750
        92   03 Jun 2027 08:37:47.634   03 Jun 2027 08:38:53.278            65.644              Murmansk2          8205.500
        93   03 Jun 2027 09:44:16.976   03 Jun 2027 09:46:37.512           140.536               CapeTown         17567.000
        94   03 Jun 2027 10:28:10.104   03 Jun 2027 10:29:45.578            95.474                Anadyr1         11934.250
        95   03 Jun 2027 11:57:44.563   03 Jun 2027 11:58:38.779            54.216                Anadyr1          6777.000
        96   03 Jun 2027 12:00:59.460   03 Jun 2027 12:02:25.459            85.999                Anadyr2         10749.875
        97   03 Jun 2027 12:03:08.101   03 Jun 2027 12:03:55.107            47.006               Magadan2          5875.750
        98   03 Jun 2027 13:36:07.888   03 Jun 2027 13:37:54.336           106.448               Magadan2         13306.000
        99   03 Jun 2027 13:39:10.384   03 Jun 2027 13:43:33.004           262.620               Magadan1         32827.500
       100   03 Jun 2027 16:03:59.502   03 Jun 2027 16:06:34.333           154.831            RioGallegos         19353.875
       101   03 Jun 2027 16:07:13.971   03 Jun 2027 16:09:53.407           159.436            RioGallegos         19929.500
       102   03 Jun 2027 16:51:32.837   03 Jun 2027 16:53:26.380           113.543                Irkutsk         14192.875
       103   03 Jun 2027 16:56:32.504   03 Jun 2027 16:56:43.609            11.105                Novosib          1388.125
       104   03 Jun 2027 17:05:18.329   03 Jun 2027 17:07:57.375           159.046                Sumatra         19880.750
       105   03 Jun 2027 17:14:44.623   03 Jun 2027 17:16:10.064            85.441                Sumatra         10680.125
       106   03 Jun 2027 18:27:18.722   03 Jun 2027 18:28:56.850            98.128                Novosib         12266.000
       107   03 Jun 2027 18:35:07.498   03 Jun 2027 18:36:40.878            93.380                  Delhi         11672.500
       108   03 Jun 2027 18:37:25.417   03 Jun 2027 18:39:13.722           108.305                  Delhi         13538.125
       109   03 Jun 2027 20:07:10.866   03 Jun 2027 20:10:05.677           174.811                 Moscow         21851.375
       110   03 Jun 2027 22:05:07.613   03 Jun 2027 22:07:28.210           140.597               CapeTown         17574.625
       111   04 Jun 2027 03:59:28.806   04 Jun 2027 04:01:16.283           107.477                Irkutsk         13434.625
       112   04 Jun 2027 05:11:12.725   04 Jun 2027 05:12:22.962            70.237                Sumatra          8779.625
       113   04 Jun 2027 05:15:56.725   04 Jun 2027 05:16:15.547            18.822                Sumatra          2352.750
       114   04 Jun 2027 05:20:20.267   04 Jun 2027 05:20:41.374            21.107                Sumatra          2638.375
       115   04 Jun 2027 05:24:03.607   04 Jun 2027 05:24:56.495            52.888                  Delhi          6611.000
       116   04 Jun 2027 05:33:48.356   04 Jun 2027 05:34:19.418            31.062                Irkutsk          3882.750
       117   04 Jun 2027 05:34:42.898   04 Jun 2027 05:37:03.357           140.459                Irkutsk         17557.375
       118   04 Jun 2027 06:49:39.087   04 Jun 2027 06:50:04.406            25.319                Sumatra          3164.875
       119   04 Jun 2027 06:55:14.138   04 Jun 2027 06:56:47.581            93.443                  Delhi         11680.375
       120   04 Jun 2027 07:11:42.947   04 Jun 2027 07:12:03.661            20.714                Novosib          2589.250
       121   04 Jun 2027 07:12:10.031   04 Jun 2027 07:13:00.492            50.461              Murmansk2          6307.625
       122   04 Jun 2027 08:35:09.988   04 Jun 2027 08:37:22.325           132.337                  Delhi         16542.125
       123   04 Jun 2027 08:43:03.817   04 Jun 2027 08:43:19.827            16.010                 Moscow          2001.250
       124   04 Jun 2027 08:43:35.979   04 Jun 2027 08:44:51.090            75.111              Murmansk2          9388.875
       125   04 Jun 2027 08:44:59.832   04 Jun 2027 08:46:06.251            66.419                 Moscow          8302.375
       126   04 Jun 2027 08:46:25.559   04 Jun 2027 08:46:55.266            29.707              Murmansk1          3713.375
       127   04 Jun 2027 08:47:05.955   04 Jun 2027 08:47:56.623            50.668              Murmansk2          6333.500
       128   04 Jun 2027 08:48:02.050   04 Jun 2027 08:49:17.384            75.334                 Moscow          9416.750
       129   04 Jun 2027 08:49:34.311   04 Jun 2027 08:49:45.055            10.744                Norilsk          1343.000
       130   04 Jun 2027 08:49:50.723   04 Jun 2027 08:50:47.395            56.672              Murmansk2          7084.000
       131   04 Jun 2027 09:55:17.782   04 Jun 2027 09:58:22.150           184.368               CapeTown         23046.000
       132   04 Jun 2027 10:35:52.647   04 Jun 2027 10:39:23.665           211.018                Anadyr2         26377.250
       133   04 Jun 2027 12:09:44.249   04 Jun 2027 12:10:32.053            47.804                Anadyr1          5975.500
       134   04 Jun 2027 12:13:16.206   04 Jun 2027 12:13:29.733            13.527                Anadyr2          1690.875
       135   04 Jun 2027 12:14:00.327   04 Jun 2027 12:17:23.923           203.596               Magadan1         25449.500
       136   04 Jun 2027 13:48:04.527   04 Jun 2027 13:50:06.152           121.625               Magadan1         15203.125
       137   04 Jun 2027 15:30:39.618   04 Jun 2027 15:33:01.214           141.596                Irkutsk         17699.500
       138   04 Jun 2027 16:15:49.003   04 Jun 2027 16:18:37.472           168.469            RioGallegos         21058.625
       139   04 Jun 2027 16:20:09.333   04 Jun 2027 16:21:28.958            79.625            RioGallegos          9953.125
       140   04 Jun 2027 17:03:27.449   04 Jun 2027 17:05:25.696           118.247                Irkutsk         14780.875
       141   04 Jun 2027 17:08:32.943   04 Jun 2027 17:11:48.299           195.356                Novosib         24419.500
       142   04 Jun 2027 18:43:53.653   04 Jun 2027 18:44:28.087            34.434                Novosib          4304.250
       143   04 Jun 2027 18:46:52.485   04 Jun 2027 18:51:13.588           261.103                  Delhi         32637.875
       144   04 Jun 2027 20:18:07.207   04 Jun 2027 20:19:29.391            82.184                 Moscow         10273.000
       145   04 Jun 2027 20:26:03.432   04 Jun 2027 20:26:03.855             0.423                 Moscow            52.875
       146   04 Jun 2027 21:49:26.496   04 Jun 2027 21:49:55.547            29.051              Murmansk1          3631.375
       147   04 Jun 2027 21:52:45.120   04 Jun 2027 21:53:32.371            47.251                 Moscow          5906.375
       148   04 Jun 2027 21:54:12.784   04 Jun 2027 21:54:23.781            10.997              Murmansk1          1374.625
       149   04 Jun 2027 22:16:52.428   04 Jun 2027 22:17:19.490            27.062               CapeTown          3382.750
       150   04 Jun 2027 22:19:19.913   04 Jun 2027 22:20:56.222            96.309               CapeTown         12038.625
       151   04 Jun 2027 22:28:42.707   04 Jun 2027 22:29:18.524            35.817               CapeTown          4477.125
       152   05 Jun 2027 04:11:37.321   05 Jun 2027 04:12:26.711            49.390               Magadan1          6173.750
       153   05 Jun 2027 04:12:48.842   05 Jun 2027 04:13:30.326            41.484                Irkutsk          5185.500
       154   05 Jun 2027 04:17:03.629   05 Jun 2027 04:17:32.220            28.591              Murmansk2          3573.875
       155   05 Jun 2027 04:18:54.887   05 Jun 2027 04:19:17.100            22.213              Murmansk1          2776.625
       156   05 Jun 2027 04:48:16.010   05 Jun 2027 04:49:48.554            92.544            RioGallegos         11568.000
       157   05 Jun 2027 04:56:23.805   05 Jun 2027 04:56:45.213            21.408            RioGallegos          2676.000
       158   05 Jun 2027 05:23:05.938   05 Jun 2027 05:24:09.291            63.353                Sumatra          7919.125
       159   05 Jun 2027 05:33:51.191   05 Jun 2027 05:36:36.116           164.925                  Delhi         20615.625
       160   05 Jun 2027 05:46:18.138   05 Jun 2027 05:46:25.747             7.609                Norilsk           951.125
       161   05 Jun 2027 05:46:32.778   05 Jun 2027 05:47:36.171            63.393                Novosib          7924.125
       162   05 Jun 2027 05:47:45.969   05 Jun 2027 05:48:29.433            43.464                Novosib          5433.000
       163   05 Jun 2027 05:49:00.279   05 Jun 2027 05:50:05.940            65.661                Norilsk          8207.625
       164   05 Jun 2027 05:50:11.541   05 Jun 2027 05:50:51.311            39.770                Novosib          4971.250
       165   05 Jun 2027 07:02:38.975   05 Jun 2027 07:04:43.701           124.726                Sumatra         15590.750
       166   05 Jun 2027 07:23:21.175   05 Jun 2027 07:23:24.862             3.687                 Moscow           460.875
       167   05 Jun 2027 07:23:39.561   05 Jun 2027 07:25:24.456           104.895                 Moscow         13111.875
       168   05 Jun 2027 08:54:57.688   05 Jun 2027 08:55:09.168            11.480                 Moscow          1435.000
       169   05 Jun 2027 08:55:30.466   05 Jun 2027 08:57:30.315           119.849                 Moscow         14981.125
       170   05 Jun 2027 08:57:46.294   05 Jun 2027 08:58:26.915            40.621              Murmansk2          5077.625
       171   05 Jun 2027 08:58:30.032   05 Jun 2027 08:58:55.214            25.182              Murmansk2          3147.750
       172   05 Jun 2027 08:59:21.018   05 Jun 2027 09:00:52.088            91.070                Norilsk         11383.750
       173   05 Jun 2027 09:01:02.803   05 Jun 2027 09:01:57.153            54.350                Norilsk          6793.750
       174   05 Jun 2027 09:02:25.348   05 Jun 2027 09:02:40.402            15.054              Murmansk1          1881.750
       175   05 Jun 2027 10:06:39.716   05 Jun 2027 10:10:11.273           211.557               CapeTown         26444.625
       176   05 Jun 2027 10:14:46.725   05 Jun 2027 10:14:58.329            11.604               CapeTown          1450.500
       177   05 Jun 2027 10:47:39.781   05 Jun 2027 10:50:42.137           182.356                Anadyr2         22794.500
       178   05 Jun 2027 12:21:44.343   05 Jun 2027 12:22:27.145            42.802                Anadyr2          5350.250
       179   05 Jun 2027 12:25:28.139   05 Jun 2027 12:29:15.175           227.036               Magadan2         28379.500
       180   05 Jun 2027 14:02:13.907   05 Jun 2027 14:04:40.031           146.124               Magadan2         18265.500
       181   05 Jun 2027 15:41:34.165   05 Jun 2027 15:44:47.394           193.229                Irkutsk         24153.625
       182   05 Jun 2027 15:58:40.436   05 Jun 2027 16:01:19.081           158.645                Sumatra         19830.625
       183   05 Jun 2027 17:15:23.658   05 Jun 2027 17:16:59.360            95.702                Irkutsk         11962.750
       184   05 Jun 2027 17:18:02.008   05 Jun 2027 17:20:24.895           142.887                Novosib         17860.875
       185   05 Jun 2027 17:21:41.808   05 Jun 2027 17:24:43.514           181.706                Novosib         22713.250
       186   05 Jun 2027 18:51:14.052   05 Jun 2027 18:52:10.274            56.222                Novosib          7027.750
       187   05 Jun 2027 18:58:42.196   05 Jun 2027 19:01:25.757           163.561                  Delhi         20445.125
       188   05 Jun 2027 20:28:48.404   05 Jun 2027 20:29:16.405            28.001              Murmansk2          3500.125
       189   05 Jun 2027 20:29:47.986   05 Jun 2027 20:31:44.216           116.230                 Moscow         14528.750
       190   05 Jun 2027 22:06:14.480   05 Jun 2027 22:06:38.493            24.013              Murmansk1          3001.625
       191   05 Jun 2027 22:09:50.328   05 Jun 2027 22:12:11.198           140.870                 Moscow         17608.750
       192   05 Jun 2027 22:31:04.727   05 Jun 2027 22:31:45.167            40.440               CapeTown          5055.000
       193   06 Jun 2027 04:03:22.465   06 Jun 2027 04:04:45.396            82.931                Sumatra         10366.375
       194   06 Jun 2027 04:24:00.147   06 Jun 2027 04:24:09.443             9.296              Murmansk1          1162.000
       195   06 Jun 2027 04:24:26.438   06 Jun 2027 04:25:19.617            53.179                Irkutsk          6647.375
       196   06 Jun 2027 04:25:22.817   06 Jun 2027 04:25:33.405            10.588                Irkutsk          1323.500
       197   06 Jun 2027 04:25:43.872   06 Jun 2027 04:26:05.274            21.402                Novosib          2675.250
       198   06 Jun 2027 04:26:55.343   06 Jun 2027 04:27:16.935            21.592                Norilsk          2699.000
       199   06 Jun 2027 05:00:26.266   06 Jun 2027 05:00:52.066            25.800            RioGallegos          3225.000
       200   06 Jun 2027 05:02:11.173   06 Jun 2027 05:03:22.738            71.565            RioGallegos          8945.625
       201   06 Jun 2027 05:35:04.790   06 Jun 2027 05:36:31.764            86.974                Sumatra         10871.750
       202   06 Jun 2027 05:45:09.000   06 Jun 2027 05:46:33.219            84.219                  Delhi         10527.375
       203   06 Jun 2027 05:51:10.928   06 Jun 2027 05:52:47.082            96.154                  Delhi         12019.250
       204   06 Jun 2027 05:58:39.586   06 Jun 2027 05:59:44.559            64.973                Novosib          8121.625
       205   06 Jun 2027 06:00:00.711   06 Jun 2027 06:00:43.127            42.416              Murmansk2          5302.000
       206   06 Jun 2027 06:01:11.345   06 Jun 2027 06:01:59.882            48.537                Norilsk          6067.125
       207   06 Jun 2027 06:02:02.870   06 Jun 2027 06:02:36.625            33.755              Murmansk2          4219.375
       208   06 Jun 2027 06:40:49.125   06 Jun 2027 06:41:48.997            59.872            RioGallegos          7484.000
       209   06 Jun 2027 07:19:25.476   06 Jun 2027 07:20:35.781            70.305                  Delhi          8788.125
       210   06 Jun 2027 07:26:35.403   06 Jun 2027 07:27:12.562            37.159                  Delhi          4644.875
       211   06 Jun 2027 07:35:18.593   06 Jun 2027 07:35:41.567            22.974              Murmansk2          2871.750
       212   06 Jun 2027 07:35:43.441   06 Jun 2027 07:35:52.427             8.986                 Moscow          1123.250
       213   06 Jun 2027 07:35:53.846   06 Jun 2027 07:36:07.928            14.082                Novosib          1760.250
       214   06 Jun 2027 07:36:12.243   06 Jun 2027 07:37:17.983            65.740                Norilsk          8217.500
       215   06 Jun 2027 07:38:05.551   06 Jun 2027 07:38:34.060            28.509                Novosib          3563.625
       216   06 Jun 2027 09:07:26.834   06 Jun 2027 09:08:32.689            65.855              Murmansk2          8231.875
       217   06 Jun 2027 09:08:41.995   06 Jun 2027 09:09:55.689            73.694                 Moscow          9211.750
       218   06 Jun 2027 09:10:28.394   06 Jun 2027 09:11:59.147            90.753              Murmansk2         11344.125
       219   06 Jun 2027 09:11:59.740   06 Jun 2027 09:12:25.853            26.113                Norilsk          3264.125
       220   06 Jun 2027 09:12:32.097   06 Jun 2027 09:12:37.299             5.202                Norilsk           650.250
       221   06 Jun 2027 09:12:45.135   06 Jun 2027 09:14:29.803           104.668                 Moscow         13083.500
       222   06 Jun 2027 10:18:12.798   06 Jun 2027 10:22:04.103           231.305               CapeTown         28913.125
       223   06 Jun 2027 10:58:11.503   06 Jun 2027 11:03:36.162           324.659                Anadyr2         40582.375
       224   06 Jun 2027 12:38:30.492   06 Jun 2027 12:41:08.598           158.106               Magadan2         19763.250
       225   06 Jun 2027 14:12:30.570   06 Jun 2027 14:13:03.146            32.576               Magadan2          4072.000
       226   06 Jun 2027 14:15:35.276   06 Jun 2027 14:16:40.684            65.408               Magadan1          8176.000
       227   06 Jun 2027 15:07:12.000   06 Jun 2027 15:08:38.319            86.319            RioGallegos         10789.875
       228   06 Jun 2027 15:52:58.670   06 Jun 2027 15:56:37.003           218.333                Irkutsk         27291.625
       229   06 Jun 2027 16:08:34.547   06 Jun 2027 16:10:33.855           119.308                Sumatra         14913.500
       230   06 Jun 2027 16:12:29.353   06 Jun 2027 16:14:46.388           137.035                Sumatra         17129.375
       231   06 Jun 2027 17:41:06.310   06 Jun 2027 17:42:58.741           112.431                Sumatra         14053.875
       232   06 Jun 2027 19:10:35.908   06 Jun 2027 19:12:23.975           108.067                  Delhi         13508.375
       233   06 Jun 2027 19:15:23.218   06 Jun 2027 19:16:04.945            41.727                  Delhi          5215.875
       234   06 Jun 2027 20:40:15.889   06 Jun 2027 20:41:57.322           101.433              Murmansk1         12679.125
       235   06 Jun 2027 20:43:48.293   06 Jun 2027 20:45:46.007           117.714                 Moscow         14714.250
       236   06 Jun 2027 22:40:37.389   06 Jun 2027 22:42:27.398           110.009               CapeTown         13751.125
       237   07 Jun 2027 04:13:58.311   07 Jun 2027 04:16:24.212           145.901                Sumatra         18237.625
       238   07 Jun 2027 04:34:52.863   07 Jun 2027 04:35:21.978            29.115               Magadan1          3639.375
       239   07 Jun 2027 04:35:29.186   07 Jun 2027 04:35:44.282            15.096                Norilsk          1887.000
       240   07 Jun 2027 04:35:50.338   07 Jun 2027 04:36:43.769            53.431                Norilsk          6678.875
       241   07 Jun 2027 04:37:01.321   07 Jun 2027 04:37:35.720            34.399                Irkutsk          4299.875
       242   07 Jun 2027 05:12:40.369   07 Jun 2027 05:13:44.849            64.480            RioGallegos          8060.000
       243   07 Jun 2027 05:15:53.251   07 Jun 2027 05:16:22.947            29.696            RioGallegos          3712.000
       244   07 Jun 2027 05:47:09.244   07 Jun 2027 05:48:49.979           100.735                Sumatra         12591.875
       245   07 Jun 2027 05:58:29.802   07 Jun 2027 06:00:12.771           102.969                  Delhi         12871.125
       246   07 Jun 2027 06:09:51.490   07 Jun 2027 06:10:15.996            24.506              Murmansk1          3063.250
       247   07 Jun 2027 06:10:27.869   07 Jun 2027 06:10:41.589            13.720                 Moscow          1715.000
       248   07 Jun 2027 06:11:01.574   07 Jun 2027 06:11:14.619            13.045                Norilsk          1630.625
       249   07 Jun 2027 06:11:16.816   07 Jun 2027 06:11:45.998            29.182                Novosib          3647.750
       250   07 Jun 2027 06:11:58.792   07 Jun 2027 06:12:35.471            36.679              Murmansk1          4584.875
       251   07 Jun 2027 06:12:37.365   07 Jun 2027 06:13:01.898            24.533                Norilsk          3066.625
       252   07 Jun 2027 06:13:04.671   07 Jun 2027 06:13:22.638            17.967                Norilsk          2245.875
       253   07 Jun 2027 06:13:30.504   07 Jun 2027 06:13:36.893             6.389                Novosib           798.625
       254   07 Jun 2027 06:56:55.359   07 Jun 2027 06:57:20.272            24.913            RioGallegos          3114.125
       255   07 Jun 2027 07:31:39.857   07 Jun 2027 07:34:14.842           154.985                  Delhi         19373.125
       256   07 Jun 2027 07:46:34.059   07 Jun 2027 07:47:15.944            41.885              Murmansk2          5235.625
       257   07 Jun 2027 07:47:23.336   07 Jun 2027 07:47:46.849            23.513                 Moscow          2939.125
       258   07 Jun 2027 07:47:53.278   07 Jun 2027 07:48:54.940            61.662                Norilsk          7707.750
       259   07 Jun 2027 07:49:13.046   07 Jun 2027 07:49:50.554            37.508              Murmansk1          4688.500
       260   07 Jun 2027 09:19:44.221   07 Jun 2027 09:20:19.944            35.723              Murmansk2          4465.375
       261   07 Jun 2027 09:20:19.944   07 Jun 2027 09:20:22.284             2.340              Murmansk1           292.500
       262   07 Jun 2027 09:20:43.383   07 Jun 2027 09:20:59.387            16.004              Murmansk2          2000.500
       263   07 Jun 2027 09:21:25.093   07 Jun 2027 09:22:55.990            90.897              Murmansk2         11362.125
       264   07 Jun 2027 09:23:17.654   07 Jun 2027 09:25:12.210           114.556              Murmansk2         14319.500
       265   07 Jun 2027 10:29:53.209   07 Jun 2027 10:34:00.142           246.933               CapeTown         30866.625
       266   07 Jun 2027 11:10:07.007   07 Jun 2027 11:12:06.134           119.127                Anadyr1         14890.875
       267   07 Jun 2027 11:12:41.747   07 Jun 2027 11:14:39.592           117.845                Anadyr2         14730.625
       268   07 Jun 2027 12:48:52.413   07 Jun 2027 12:49:34.897            42.484               Magadan1          5310.500
       269   07 Jun 2027 12:49:34.897   07 Jun 2027 12:50:49.541            74.644               Magadan2          9330.500
       270   07 Jun 2027 12:51:50.269   07 Jun 2027 12:53:03.686            73.417               Magadan2          9177.125
       271   07 Jun 2027 12:54:32.050   07 Jun 2027 12:57:48.725           196.675               Magadan1         24584.375
       272   07 Jun 2027 15:17:52.021   07 Jun 2027 15:20:57.167           185.146            RioGallegos         23143.250
       273   07 Jun 2027 16:04:34.729   07 Jun 2027 16:06:24.713           109.984                Irkutsk         13748.000
       274   07 Jun 2027 16:19:29.092   07 Jun 2027 16:22:16.305           167.213                Sumatra         20901.625
       275   07 Jun 2027 16:24:48.912   07 Jun 2027 16:26:51.922           123.010                Sumatra         15376.250
       276   07 Jun 2027 17:42:33.462   07 Jun 2027 17:44:14.437           100.975                Novosib         12621.875
       277   07 Jun 2027 17:49:56.281   07 Jun 2027 17:52:06.540           130.259                  Delhi         16282.375
       278   07 Jun 2027 19:22:33.201   07 Jun 2027 19:23:35.796            62.595                  Delhi          7824.375
       279   07 Jun 2027 20:49:59.305   07 Jun 2027 20:50:24.785            25.480              Murmansk1          3185.000
       280   07 Jun 2027 20:53:23.286   07 Jun 2027 20:54:01.844            38.558                 Moscow          4819.750
       281   07 Jun 2027 20:56:03.731   07 Jun 2027 20:57:42.641            98.910                 Moscow         12363.750
       282   07 Jun 2027 22:52:37.297   07 Jun 2027 22:52:55.901            18.604               CapeTown          2325.500
       283   08 Jun 2027 03:07:18.098   08 Jun 2027 03:07:49.465            31.367               Magadan2          3920.875
       284   08 Jun 2027 03:08:16.704   08 Jun 2027 03:08:21.094             4.390               Magadan2           548.750
       285   08 Jun 2027 03:08:23.940   08 Jun 2027 03:09:25.731            61.791                Anadyr2          7723.875
       286   08 Jun 2027 03:09:46.174   08 Jun 2027 03:10:15.561            29.387               Magadan1          3673.375
       287   08 Jun 2027 03:10:38.213   08 Jun 2027 03:12:17.813            99.600                Anadyr2         12450.000
       288   08 Jun 2027 03:12:18.940   08 Jun 2027 03:13:31.791            72.851               Magadan1          9106.375
       289   08 Jun 2027 04:25:04.808   08 Jun 2027 04:26:18.471            73.663                Sumatra          9207.875
       290   08 Jun 2027 04:44:39.947   08 Jun 2027 04:44:54.323            14.376                Irkutsk          1797.000
       291   08 Jun 2027 04:45:20.972   08 Jun 2027 04:45:56.345            35.373                Norilsk          4421.625
       292   08 Jun 2027 04:46:04.860   08 Jun 2027 04:46:06.653             1.793                Novosib           224.125
       293   08 Jun 2027 04:46:16.726   08 Jun 2027 04:47:52.407            95.681                Novosib         11960.125
       294   08 Jun 2027 04:48:16.201   08 Jun 2027 04:48:28.260            12.059              Murmansk2          1507.375
       295   08 Jun 2027 04:48:36.638   08 Jun 2027 04:49:44.077            67.439                Norilsk          8429.875
       296   08 Jun 2027 04:49:52.654   08 Jun 2027 04:49:53.907             1.253                Novosib           156.625
       297   08 Jun 2027 05:24:58.634   08 Jun 2027 05:26:45.588           106.954            RioGallegos         13369.250
       298   08 Jun 2027 06:05:02.622   08 Jun 2027 06:05:53.922            51.300                Sumatra          6412.500
       299   08 Jun 2027 06:10:09.454   08 Jun 2027 06:10:22.736            13.282                  Delhi          1660.250
       300   08 Jun 2027 06:14:00.549   08 Jun 2027 06:14:42.867            42.318                  Delhi          5289.750
       301   08 Jun 2027 06:21:47.979   08 Jun 2027 06:22:18.069            30.090              Murmansk2          3761.250
       302   08 Jun 2027 06:22:31.890   08 Jun 2027 06:23:11.656            39.766                 Moscow          4970.750
       303   08 Jun 2027 06:23:33.530   08 Jun 2027 06:23:59.678            26.148              Murmansk2          3268.500
       304   08 Jun 2027 06:24:02.315   08 Jun 2027 06:24:26.841            24.526              Murmansk2          3065.750
       305   08 Jun 2027 06:24:43.115   08 Jun 2027 06:25:46.309            63.194                Novosib          7899.250
       306   08 Jun 2027 06:26:41.293   08 Jun 2027 06:27:19.393            38.100                 Moscow          4762.500
       307   08 Jun 2027 07:44:00.944   08 Jun 2027 07:45:29.655            88.711                  Delhi         11088.875
       308   08 Jun 2027 07:46:49.504   08 Jun 2027 07:47:57.448            67.944                  Delhi          8493.000
       309   08 Jun 2027 07:58:23.381   08 Jun 2027 07:58:52.707            29.326                Norilsk          3665.750
       310   08 Jun 2027 07:59:02.514   08 Jun 2027 08:00:02.662            60.148                Novosib          7518.500
       311   08 Jun 2027 08:00:24.303   08 Jun 2027 08:01:16.210            51.907                Novosib          6488.375
       312   08 Jun 2027 08:01:26.128   08 Jun 2027 08:01:57.927            31.799                 Moscow          3974.875
       313   08 Jun 2027 09:34:56.754   08 Jun 2027 09:36:11.963            75.209              Murmansk2          9401.125
       314   08 Jun 2027 09:37:26.795   08 Jun 2027 09:37:33.568             6.773                 Moscow           846.625
       315   08 Jun 2027 09:48:38.304   08 Jun 2027 09:49:58.493            80.189                Anadyr2         10023.625
       316   08 Jun 2027 10:41:38.999   08 Jun 2027 10:44:06.284           147.285               CapeTown         18410.625
       317   08 Jun 2027 10:45:59.096   08 Jun 2027 10:47:05.899            66.803               CapeTown          8350.375
       318   08 Jun 2027 11:22:03.783   08 Jun 2027 11:24:53.239           169.456                Anadyr2         21182.000
       319   08 Jun 2027 11:26:14.283   08 Jun 2027 11:26:39.194            24.911                Anadyr2          3113.875
       320   08 Jun 2027 13:00:41.490   08 Jun 2027 13:06:24.301           342.811               Magadan2         42851.375
       321   08 Jun 2027 15:29:12.666   08 Jun 2027 15:32:46.002           213.336            RioGallegos         26667.000
       322   08 Jun 2027 16:18:35.019   08 Jun 2027 16:20:23.425           108.406                Irkutsk         13550.750
       323   08 Jun 2027 16:30:44.298   08 Jun 2027 16:34:05.245           200.947                Sumatra         25118.375
       324   08 Jun 2027 17:52:38.024   08 Jun 2027 17:54:34.275           116.251                Novosib         14531.375
       325   08 Jun 2027 18:00:52.412   08 Jun 2027 18:03:50.346           177.934                  Delhi         22241.750
       326   08 Jun 2027 21:06:33.284   08 Jun 2027 21:08:08.781            95.497                 Moscow         11937.125
       327   08 Jun 2027 21:30:43.221   08 Jun 2027 21:33:25.931           162.710               CapeTown         20338.750
       328   09 Jun 2027 03:22:56.433   09 Jun 2027 03:25:26.597           150.164               Magadan2         18770.500
       329   09 Jun 2027 04:56:57.848   09 Jun 2027 04:57:12.265            14.417                Irkutsk          1802.125
       330   09 Jun 2027 04:57:30.804   09 Jun 2027 04:58:28.507            57.703                Norilsk          7212.875
       331   09 Jun 2027 04:58:38.917   09 Jun 2027 04:59:06.661            27.744                Norilsk          3468.000
       332   09 Jun 2027 04:59:28.056   09 Jun 2027 05:00:46.994            78.938              Murmansk2          9867.250
       333   09 Jun 2027 05:01:01.382   09 Jun 2027 05:01:37.913            36.531                Irkutsk          4566.375
       334   09 Jun 2027 05:02:20.878   09 Jun 2027 05:02:47.553            26.675                Norilsk          3334.375
       335   09 Jun 2027 05:37:21.481   09 Jun 2027 05:38:26.734            65.253            RioGallegos          8156.625
       336   09 Jun 2027 06:11:36.460   09 Jun 2027 06:13:47.016           130.556                Sumatra         16319.500
       337   09 Jun 2027 06:19:51.901   09 Jun 2027 06:20:04.876            12.975                  Delhi          1621.875
       338   09 Jun 2027 06:34:45.564   09 Jun 2027 06:35:33.903            48.339                 Moscow          6042.375
       339   09 Jun 2027 06:36:01.637   09 Jun 2027 06:36:40.223            38.586                Irkutsk          4823.250
       340   09 Jun 2027 06:36:45.399   09 Jun 2027 06:37:41.576            56.177              Murmansk2          7022.125
       341   09 Jun 2027 07:56:30.005   09 Jun 2027 07:57:46.203            76.198                  Delhi          9524.750
       342   09 Jun 2027 07:58:17.364   09 Jun 2027 07:58:56.453            39.089                  Delhi          4886.125
       343   09 Jun 2027 08:10:00.366   09 Jun 2027 08:11:48.033           107.667                 Moscow         13458.375
       344   09 Jun 2027 08:12:06.354   09 Jun 2027 08:12:37.409            31.055                Novosib          3881.875
       345   09 Jun 2027 08:12:40.130   09 Jun 2027 08:12:59.402            19.272              Murmansk1          2409.000
       346   09 Jun 2027 08:13:30.950   09 Jun 2027 08:13:54.297            23.347                 Moscow          2918.375
       347   09 Jun 2027 09:59:36.442   09 Jun 2027 10:01:51.201           134.759                Anadyr1         16844.875
       348   09 Jun 2027 10:53:29.050   09 Jun 2027 10:55:49.959           140.909               CapeTown         17613.625
       349   09 Jun 2027 11:34:01.539   09 Jun 2027 11:37:02.475           180.936                Anadyr2         22617.000
       350   09 Jun 2027 13:12:33.294   09 Jun 2027 13:16:57.553           264.259               Magadan2         33032.375
       351   09 Jun 2027 15:40:46.631   09 Jun 2027 15:44:37.621           230.990            RioGallegos         28873.750
       352   09 Jun 2027 15:46:23.576   09 Jun 2027 15:47:49.314            85.738            RioGallegos         10717.250
       353   09 Jun 2027 16:30:41.802   09 Jun 2027 16:32:19.331            97.529                Irkutsk         12191.125
       354   09 Jun 2027 16:43:28.659   09 Jun 2027 16:44:03.923            35.264                Sumatra          4408.000
       355   09 Jun 2027 16:45:47.774   09 Jun 2027 16:49:08.056           200.282                Sumatra         25035.250
       356   09 Jun 2027 18:12:11.568   09 Jun 2027 18:15:39.093           207.525                  Delhi         25940.625
       357   09 Jun 2027 18:20:17.476   09 Jun 2027 18:20:53.356            35.880                  Delhi          4485.000
       358   09 Jun 2027 21:16:06.545   09 Jun 2027 21:18:22.625           136.080              Murmansk1         17010.000
       359   09 Jun 2027 21:26:27.786   09 Jun 2027 21:26:40.199            12.413                 Moscow          1551.625
       360   09 Jun 2027 21:42:09.422   09 Jun 2027 21:43:11.928            62.506               CapeTown          7813.250
       361   09 Jun 2027 21:43:56.459   09 Jun 2027 21:45:39.220           102.761               CapeTown         12845.125
       362   10 Jun 2027 03:34:58.820   10 Jun 2027 03:35:21.048            22.228               Magadan1          2778.500
       363   10 Jun 2027 03:35:41.305   10 Jun 2027 03:35:54.799            13.494               Magadan1          1686.750
       364   10 Jun 2027 03:36:24.546   10 Jun 2027 03:37:19.666            55.120               Magadan1          6890.000
       365   10 Jun 2027 04:47:59.396   10 Jun 2027 04:49:42.741           103.345                Sumatra         12918.125
       366   10 Jun 2027 04:52:35.900   10 Jun 2027 04:54:47.062           131.162                Sumatra         16395.250
       367   10 Jun 2027 05:10:19.495   10 Jun 2027 05:11:14.829            55.334                Irkutsk          6916.750
       368   10 Jun 2027 05:11:18.893   10 Jun 2027 05:12:02.870            43.977                Norilsk          5497.125
       369   10 Jun 2027 05:12:08.029   10 Jun 2027 05:12:11.507             3.478              Murmansk2           434.750
       370   10 Jun 2027 05:12:24.384   10 Jun 2027 05:12:58.650            34.266                Norilsk          4283.250
       371   10 Jun 2027 05:13:11.763   10 Jun 2027 05:14:11.899            60.136              Murmansk2          7517.000
       372   10 Jun 2027 05:15:28.858   10 Jun 2027 05:15:52.584            23.726              Murmansk2          2965.750
       373   10 Jun 2027 05:49:49.519   10 Jun 2027 05:50:11.129            21.610            RioGallegos          2701.250
       374   10 Jun 2027 06:24:01.241   10 Jun 2027 06:25:24.754            83.513                Sumatra         10439.125
       375   10 Jun 2027 06:31:38.814   10 Jun 2027 06:32:32.976            54.162                  Delhi          6770.250
       376   10 Jun 2027 06:46:43.865   10 Jun 2027 06:46:54.351            10.486              Murmansk2          1310.750
       377   10 Jun 2027 06:47:03.772   10 Jun 2027 06:47:39.869            36.097                 Moscow          4512.125
       378   10 Jun 2027 06:48:00.598   10 Jun 2027 06:48:33.123            32.525              Murmansk1          4065.625
       379   10 Jun 2027 06:48:37.217   10 Jun 2027 06:49:10.822            33.605                Norilsk          4200.625
       380   10 Jun 2027 06:49:40.075   10 Jun 2027 06:50:02.487            22.412                 Moscow          2801.500
       381   10 Jun 2027 06:50:42.639   10 Jun 2027 06:51:03.715            21.076                Novosib          2634.500
       382   10 Jun 2027 08:09:09.331   10 Jun 2027 08:10:23.660            74.329                  Delhi          9291.125
       383   10 Jun 2027 08:21:45.143   10 Jun 2027 08:23:31.505           106.362                Norilsk         13295.250
       384   10 Jun 2027 08:23:44.004   10 Jun 2027 08:24:17.019            33.015                Norilsk          4126.875
       385   10 Jun 2027 08:24:24.698   10 Jun 2027 08:24:33.672             8.974              Murmansk2          1121.750
       386   10 Jun 2027 08:24:48.120   10 Jun 2027 08:25:51.654            63.534                Norilsk          7941.750
       387   10 Jun 2027 08:27:23.062   10 Jun 2027 08:27:37.016            13.954              Murmansk1          1744.250
       388   10 Jun 2027 10:11:09.400   10 Jun 2027 10:15:41.229           271.829                Anadyr2         33978.625
       389   10 Jun 2027 11:07:27.992   10 Jun 2027 11:08:03.655            35.663               CapeTown          4457.875
       390   10 Jun 2027 11:46:00.084   10 Jun 2027 11:47:02.506            62.422                Anadyr1          7802.750
       391   10 Jun 2027 11:47:12.826   10 Jun 2027 11:47:42.077            29.251                Anadyr2          3656.375
       392   10 Jun 2027 11:49:09.542   10 Jun 2027 11:50:39.615            90.073                Anadyr2         11259.125
       393   10 Jun 2027 13:24:27.128   10 Jun 2027 13:26:45.588           138.460               Magadan1         17307.500
       394   10 Jun 2027 13:27:20.038   10 Jun 2027 13:28:48.818            88.780               Magadan2         11097.500
       395   10 Jun 2027 13:31:33.972   10 Jun 2027 13:35:27.279           233.307               Magadan2         29163.375
       396   10 Jun 2027 15:54:02.467   10 Jun 2027 15:56:31.430           148.963            RioGallegos         18620.375
       397   10 Jun 2027 16:39:54.753   10 Jun 2027 16:42:45.239           170.486                Irkutsk         21310.750
       398   10 Jun 2027 16:53:48.784   10 Jun 2027 16:55:46.221           117.437                Sumatra         14679.625
       399   10 Jun 2027 16:59:10.814   10 Jun 2027 17:00:19.925            69.111                Sumatra          8638.875
       400   10 Jun 2027 18:15:37.488   10 Jun 2027 18:17:33.793           116.305                Novosib         14538.125
       401   10 Jun 2027 18:23:42.780   10 Jun 2027 18:24:20.674            37.894                  Delhi          4736.750
       402   10 Jun 2027 18:25:49.043   10 Jun 2027 18:27:31.981           102.938                  Delhi         12867.250
       403   10 Jun 2027 18:32:23.740   10 Jun 2027 18:33:00.150            36.410                  Delhi          4551.250
       404   10 Jun 2027 19:58:10.157   10 Jun 2027 20:00:03.609           113.452                 Moscow         14181.500
       405   10 Jun 2027 21:53:42.688   10 Jun 2027 21:55:29.632           106.944               CapeTown         13368.000
       406   10 Jun 2027 21:55:52.560   10 Jun 2027 21:57:33.091           100.531               CapeTown         12566.375
       407   11 Jun 2027 03:47:01.047   11 Jun 2027 03:47:12.718            11.671               Magadan2          1458.875
       408   11 Jun 2027 03:47:17.860   11 Jun 2027 03:47:46.661            28.801               Magadan1          3600.125
       409   11 Jun 2027 03:47:53.817   11 Jun 2027 03:48:25.831            32.014               Magadan2          4001.750
       410   11 Jun 2027 03:48:53.893   11 Jun 2027 03:49:18.129            24.236                Irkutsk          3029.500
       411   11 Jun 2027 04:24:20.913   11 Jun 2027 04:25:47.567            86.654            RioGallegos         10831.750
       412   11 Jun 2027 04:27:38.905   11 Jun 2027 04:29:28.156           109.251            RioGallegos         13656.375
       413   11 Jun 2027 04:59:39.984   11 Jun 2027 05:00:04.843            24.859                Sumatra          3107.375
       414   11 Jun 2027 05:02:04.310   11 Jun 2027 05:04:02.766           118.456                Sumatra         14807.000
       415   11 Jun 2027 05:22:12.016   11 Jun 2027 05:23:01.266            49.250              Murmansk2          6156.250
       416   11 Jun 2027 05:23:04.615   11 Jun 2027 05:25:36.383           151.768                Irkutsk         18971.000
       417   11 Jun 2027 06:43:31.184   11 Jun 2027 06:45:11.006            99.822                  Delhi         12477.750
       418   11 Jun 2027 06:59:49.189   11 Jun 2027 06:59:58.997             9.808                Irkutsk          1226.000
       419   11 Jun 2027 07:00:20.291   11 Jun 2027 07:01:20.904            60.613              Murmansk2          7576.625
       420   11 Jun 2027 07:02:22.885   11 Jun 2027 07:03:01.805            38.920                Novosib          4865.000
       421   11 Jun 2027 08:22:03.590   11 Jun 2027 08:23:00.362            56.772                  Delhi          7096.500
       422   11 Jun 2027 08:33:15.948   11 Jun 2027 08:34:11.024            55.076              Murmansk2          6884.500
       423   11 Jun 2027 08:34:15.658   11 Jun 2027 08:35:55.413            99.755                 Moscow         12469.375
       424   11 Jun 2027 08:36:21.133   11 Jun 2027 08:37:01.782            40.649              Murmansk2          5081.125
       425   11 Jun 2027 08:37:13.735   11 Jun 2027 08:37:49.942            36.207                Norilsk          4525.875
       426   11 Jun 2027 08:37:55.631   11 Jun 2027 08:38:34.161            38.530                Norilsk          4816.250
       427   11 Jun 2027 09:44:30.569   11 Jun 2027 09:46:52.024           141.455               CapeTown         17681.875
       428   11 Jun 2027 10:22:52.413   11 Jun 2027 10:23:46.427            54.014                Anadyr2          6751.750
       429   11 Jun 2027 10:28:23.808   11 Jun 2027 10:30:01.001            97.193                Anadyr1         12149.125
       430   11 Jun 2027 11:57:59.260   11 Jun 2027 11:58:53.309            54.049                Anadyr1          6756.125
       431   11 Jun 2027 12:00:31.940   11 Jun 2027 12:02:40.293           128.353                Anadyr1         16044.125
       432   11 Jun 2027 12:03:20.954   11 Jun 2027 12:04:19.326            58.372               Magadan1          7296.500
       433   11 Jun 2027 13:36:22.539   11 Jun 2027 13:39:25.455           182.916               Magadan1         22864.500
       434   11 Jun 2027 13:41:30.513   11 Jun 2027 13:41:40.499             9.986               Magadan1          1248.250
       435   11 Jun 2027 13:43:48.046   11 Jun 2027 13:44:29.187            41.141               Magadan2          5142.625
       436   11 Jun 2027 16:04:14.034   11 Jun 2027 16:06:49.417           155.383            RioGallegos         19422.875
       437   11 Jun 2027 16:07:29.492   11 Jun 2027 16:10:07.681           158.189            RioGallegos         19773.625
       438   11 Jun 2027 16:51:47.452   11 Jun 2027 16:53:41.436           113.984                Irkutsk         14248.000
       439   11 Jun 2027 16:56:48.038   11 Jun 2027 16:58:51.618           123.580                Novosib         15447.500
       440   11 Jun 2027 17:05:32.856   11 Jun 2027 17:07:20.838           107.982                Sumatra         13497.750
       441   11 Jun 2027 17:14:59.219   11 Jun 2027 17:16:25.989            86.770                Sumatra         10846.250
       442   11 Jun 2027 18:27:33.379   11 Jun 2027 18:29:11.198            97.819                Novosib         12227.375
       443   11 Jun 2027 18:35:21.952   11 Jun 2027 18:36:56.020            94.068                  Delhi         11758.500
       444   11 Jun 2027 18:37:40.158   11 Jun 2027 18:39:28.516           108.358                  Delhi         13544.750
       445   11 Jun 2027 20:10:49.112   11 Jun 2027 20:13:21.531           152.419                 Moscow         19052.375
       446   11 Jun 2027 22:07:43.082   11 Jun 2027 22:09:31.909           108.827               CapeTown         13603.375
       447   12 Jun 2027 03:59:03.086   12 Jun 2027 04:00:24.310            81.224               Magadan1         10153.000
       448   12 Jun 2027 04:00:30.074   12 Jun 2027 04:00:58.107            28.033               Magadan1          3504.125
       449   12 Jun 2027 04:05:52.627   12 Jun 2027 04:06:23.624            30.997                Norilsk          3874.625
       450   12 Jun 2027 04:37:15.742   12 Jun 2027 04:37:30.709            14.967            RioGallegos          1870.875
       451   12 Jun 2027 04:39:39.463   12 Jun 2027 04:39:55.059            15.596            RioGallegos          1949.500
       452   12 Jun 2027 04:40:50.374   12 Jun 2027 04:41:24.143            33.769            RioGallegos          4221.125
       453   12 Jun 2027 04:48:22.366   12 Jun 2027 04:49:03.005            40.639            RioGallegos          5079.875
       454   12 Jun 2027 05:11:27.296   12 Jun 2027 05:12:38.792            71.496                Sumatra          8937.000
       455   12 Jun 2027 05:20:36.580   12 Jun 2027 05:20:56.011            19.431                Sumatra          2428.875
       456   12 Jun 2027 05:24:11.856   12 Jun 2027 05:25:10.921            59.065                  Delhi          7383.125
       457   12 Jun 2027 05:34:24.847   12 Jun 2027 05:34:27.849             3.002                Novosib           375.250
       458   12 Jun 2027 05:34:32.268   12 Jun 2027 05:34:39.636             7.368                Norilsk           921.000
       459   12 Jun 2027 05:34:43.473   12 Jun 2027 05:36:27.531           104.058                Novosib         13007.250
       460   12 Jun 2027 05:36:45.291   12 Jun 2027 05:37:27.968            42.677                Norilsk          5334.625
       461   12 Jun 2027 05:39:09.039   12 Jun 2027 05:39:13.922             4.883                Novosib           610.375
       462   12 Jun 2027 05:41:26.638   12 Jun 2027 05:42:02.725            36.087                Norilsk          4510.875
       463   12 Jun 2027 06:15:05.305   12 Jun 2027 06:15:56.845            51.540            RioGallegos          6442.500
       464   12 Jun 2027 06:49:27.991   12 Jun 2027 06:50:18.514            50.523                Sumatra          6315.375
       465   12 Jun 2027 06:55:28.851   12 Jun 2027 06:57:01.815            92.964                  Delhi         11620.500
       466   12 Jun 2027 07:11:40.218   12 Jun 2027 07:12:07.627            27.409              Murmansk1          3426.125
       467   12 Jun 2027 07:12:14.073   12 Jun 2027 07:13:15.103            61.030              Murmansk1          7628.750
       468   12 Jun 2027 08:35:31.325   12 Jun 2027 08:37:03.289            91.964                  Delhi         11495.500
       469   12 Jun 2027 08:43:05.301   12 Jun 2027 08:43:34.739            29.438                 Moscow          3679.750
       470   12 Jun 2027 08:43:51.204   12 Jun 2027 08:45:08.055            76.851              Murmansk1          9606.375
       471   12 Jun 2027 08:45:18.647   12 Jun 2027 08:46:24.738            66.091                 Moscow          8261.375
       472   12 Jun 2027 08:46:40.286   12 Jun 2027 08:46:43.394             3.108              Murmansk2           388.500
       473   12 Jun 2027 08:47:01.607   12 Jun 2027 08:48:26.163            84.556                Novosib         10569.500
       474   12 Jun 2027 08:48:29.491   12 Jun 2027 08:49:31.973            62.482                 Moscow          7810.250
       475   12 Jun 2027 08:49:49.517   12 Jun 2027 08:50:01.733            12.216                Norilsk          1527.000
       476   12 Jun 2027 08:50:05.614   12 Jun 2027 08:51:04.704            59.090              Murmansk1          7386.250
       477   12 Jun 2027 09:55:31.833   12 Jun 2027 09:58:36.749           184.916               CapeTown         23114.500
       478   12 Jun 2027 10:36:08.062   12 Jun 2027 10:37:19.749            71.687                Anadyr1          8960.875
       479   12 Jun 2027 10:39:39.007   12 Jun 2027 10:40:30.889            51.882                Anadyr1          6485.250
       480   12 Jun 2027 12:12:21.886   12 Jun 2027 12:14:41.201           139.315                Anadyr2         17414.375
       481   12 Jun 2027 12:17:08.410   12 Jun 2027 12:17:38.567            30.157               Magadan2          3769.625
       482   12 Jun 2027 12:18:33.680   12 Jun 2027 12:19:19.272            45.592               Magadan2          5699.000
