uniorb/output/strategy_1/Drop/Drop_KinoSat_111905.txt

KinoSat_111905
-------------------------
    Access    *     Start Time (UTCG)     *     Stop Time (UTCG)  *   Duration (s)        *       Station  *  Data (Mbytes)
         1   01 Jun 2027 03:00:55.137   01 Jun 2027 03:01:31.758            36.621               Magadan1          1144.406
         2   01 Jun 2027 03:01:31.758   01 Jun 2027 03:01:41.989            10.231               Magadan2           319.719
         3   01 Jun 2027 03:01:43.860   01 Jun 2027 03:02:26.641            42.781               Magadan1          1336.906
         4   01 Jun 2027 03:02:58.419   01 Jun 2027 03:03:26.731            28.312                Novosib           884.750
         5   01 Jun 2027 03:03:31.576   01 Jun 2027 03:03:51.308            19.732                Norilsk           616.625
         6   01 Jun 2027 03:04:06.675   01 Jun 2027 03:05:17.472            70.797                Norilsk          2212.406
         7   01 Jun 2027 03:05:39.879   01 Jun 2027 03:07:30.067           110.188                Norilsk          3443.375
         8   01 Jun 2027 03:07:33.994   01 Jun 2027 03:07:46.605            12.611                Novosib           394.094
         9   01 Jun 2027 03:07:58.939   01 Jun 2027 03:09:48.043           109.104                Norilsk          3409.500
        10   01 Jun 2027 03:10:20.492   01 Jun 2027 03:10:36.989            16.497                Irkutsk           515.531
        11   01 Jun 2027 03:11:04.337   01 Jun 2027 03:11:12.425             8.088                  Delhi           252.750
        12   01 Jun 2027 03:11:38.048   01 Jun 2027 03:12:14.092            36.044                Irkutsk          1126.375
        13   01 Jun 2027 03:50:06.595   01 Jun 2027 03:50:58.626            52.031            RioGallegos          1625.969
        14   01 Jun 2027 03:53:03.738   01 Jun 2027 03:54:30.719            86.981            RioGallegos          2718.156
        15   01 Jun 2027 04:40:37.606   01 Jun 2027 04:42:18.909           101.303              Murmansk2          3165.719
        16   01 Jun 2027 04:42:19.229   01 Jun 2027 04:42:50.717            31.488                Norilsk           984.000
        17   01 Jun 2027 04:43:14.747   01 Jun 2027 04:45:24.001           129.254                Norilsk          4039.187
        18   01 Jun 2027 04:46:14.206   01 Jun 2027 04:50:44.199           269.993                  Delhi          8437.281
        19   01 Jun 2027 06:19:00.836   01 Jun 2027 06:19:15.096            14.260                Novosib           445.625
        20   01 Jun 2027 06:19:18.240   01 Jun 2027 06:21:57.066           158.826                 Moscow          4963.312
        21   01 Jun 2027 06:22:01.105   01 Jun 2027 06:22:17.962            16.857              Murmansk1           526.781
        22   01 Jun 2027 06:22:32.041   01 Jun 2027 06:23:47.070            75.029                 Moscow          2344.656
        23   01 Jun 2027 06:24:01.810   01 Jun 2027 06:24:38.937            37.127                 Moscow          1160.219
        24   01 Jun 2027 06:38:05.492   01 Jun 2027 06:41:17.514           192.022               CapeTown          6000.687
        25   01 Jun 2027 07:42:34.299   01 Jun 2027 07:43:18.405            44.106                Anadyr1          1378.313
        26   01 Jun 2027 07:44:15.107   01 Jun 2027 07:47:44.931           209.824                Anadyr1          6557.000
        27   01 Jun 2027 08:18:54.491   01 Jun 2027 08:22:35.754           221.263               CapeTown          6914.469
        28   01 Jun 2027 09:18:55.109   01 Jun 2027 09:21:21.723           146.614               Magadan2          4581.687
        29   01 Jun 2027 09:22:25.887   01 Jun 2027 09:23:22.257            56.370               Magadan2          1761.563
        30   01 Jun 2027 10:52:53.540   01 Jun 2027 10:54:20.651            87.111               Magadan2          2722.219
        31   01 Jun 2027 10:54:20.651   01 Jun 2027 10:57:45.829           205.178               Magadan1          6411.813
        32   01 Jun 2027 10:57:45.829   01 Jun 2027 10:58:58.765            72.936               Magadan2          2279.250
        33   01 Jun 2027 13:44:53.065   01 Jun 2027 13:45:33.074            40.009                Sumatra          1250.281
        34   01 Jun 2027 13:53:22.460   01 Jun 2027 13:54:43.058            80.598                Sumatra          2518.688
        35   01 Jun 2027 13:59:53.218   01 Jun 2027 14:01:28.977            95.759                Irkutsk          2992.469
        36   01 Jun 2027 14:04:04.311   01 Jun 2027 14:05:26.495            82.184                Irkutsk          2568.250
        37   01 Jun 2027 15:29:38.748   01 Jun 2027 15:32:04.399           145.651                  Delhi          4551.594
        38   01 Jun 2027 15:34:43.128   01 Jun 2027 15:35:12.055            28.927                  Delhi           903.969
        39   01 Jun 2027 15:37:56.311   01 Jun 2027 15:40:06.935           130.624                Novosib          4082.000
        40   01 Jun 2027 15:41:43.979   01 Jun 2027 15:41:57.772            13.793                Norilsk           431.031
        41   01 Jun 2027 15:42:24.580   01 Jun 2027 15:42:50.568            25.988                Norilsk           812.125
        42   01 Jun 2027 15:43:30.943   01 Jun 2027 15:43:42.579            11.636                Novosib           363.625
        43   01 Jun 2027 15:47:39.602   01 Jun 2027 15:47:40.611             1.009                Novosib            31.531
        44   01 Jun 2027 17:13:16.057   01 Jun 2027 17:14:19.721            63.664                 Moscow          1989.500
        45   01 Jun 2027 17:16:28.582   01 Jun 2027 17:16:58.466            29.884                 Moscow           933.875
        46   01 Jun 2027 17:17:26.996   01 Jun 2027 17:19:29.162           122.166              Murmansk2          3817.688
        47   01 Jun 2027 17:22:42.729   01 Jun 2027 17:25:37.226           174.497                Norilsk          5453.031
        48   01 Jun 2027 17:25:37.914   01 Jun 2027 17:26:51.974            74.060                Norilsk          2314.375
        49   01 Jun 2027 18:51:58.776   01 Jun 2027 18:56:35.649           276.873                 Moscow          8652.281
        50   01 Jun 2027 20:03:04.691   01 Jun 2027 20:04:58.845           114.154               CapeTown          3567.313
        51   01 Jun 2027 20:34:50.365   01 Jun 2027 20:39:11.688           261.323              Murmansk1          8166.344
        52   01 Jun 2027 20:39:45.330   01 Jun 2027 20:40:57.275            71.945              Murmansk2          2248.281
        53   01 Jun 2027 22:19:10.058   01 Jun 2027 22:20:53.506           103.448                Anadyr1          3232.750
        54   01 Jun 2027 22:21:23.126   01 Jun 2027 22:22:51.262            88.136                Anadyr1          2754.250
        55   01 Jun 2027 22:23:09.947   01 Jun 2027 22:23:14.094             4.147                Anadyr1           129.594
        56   01 Jun 2027 22:23:19.487   01 Jun 2027 22:27:02.261           222.774               Magadan2          6961.687
        57   01 Jun 2027 23:14:23.790   01 Jun 2027 23:16:26.580           122.790            RioGallegos          3837.188
        58   01 Jun 2027 23:16:40.484   01 Jun 2027 23:17:28.148            47.664            RioGallegos          1489.500
        59   01 Jun 2027 23:54:56.277   01 Jun 2027 23:56:27.759            91.482                Anadyr2          2858.812
        60   01 Jun 2027 23:57:00.996   01 Jun 2027 23:58:34.949            93.953                Norilsk          2936.031
        61   01 Jun 2027 23:58:46.504   01 Jun 2027 23:59:24.786            38.282               Magadan1          1196.312
        62   01 Jun 2027 23:59:54.299   02 Jun 2027 00:00:46.802            52.503               Magadan2          1640.719
        63   02 Jun 2027 00:01:36.076   02 Jun 2027 00:02:42.743            66.667                Irkutsk          2083.344
        64   02 Jun 2027 00:15:55.881   02 Jun 2027 00:18:48.837           172.956                Sumatra          5404.875
        65   02 Jun 2027 00:21:25.794   02 Jun 2027 00:22:19.428            53.634                Sumatra          1676.062
        66   02 Jun 2027 00:52:12.188   02 Jun 2027 00:52:36.925            24.737            RioGallegos           773.031
        67   02 Jun 2027 01:30:03.024   02 Jun 2027 01:30:33.512            30.488                Anadyr2           952.750
        68   02 Jun 2027 01:31:15.232   02 Jun 2027 01:32:09.071            53.839                Anadyr1          1682.469
        69   02 Jun 2027 01:32:09.071   02 Jun 2027 01:32:28.592            19.521                Anadyr2           610.031
        70   02 Jun 2027 01:32:50.490   02 Jun 2027 01:32:52.755             2.265                Anadyr1            70.781
        71   02 Jun 2027 01:32:53.536   02 Jun 2027 01:34:48.030           114.494                Norilsk          3577.938
        72   02 Jun 2027 01:35:17.857   02 Jun 2027 01:35:58.635            40.778               Magadan2          1274.313
        73   02 Jun 2027 01:36:46.776   02 Jun 2027 01:39:39.532           172.756                Irkutsk          5398.625
        74   02 Jun 2027 01:45:57.991   02 Jun 2027 01:46:32.318            34.327                  Delhi          1072.719
        75   02 Jun 2027 01:51:02.459   02 Jun 2027 01:52:26.291            83.832                Sumatra          2619.750
        76   02 Jun 2027 01:53:16.030   02 Jun 2027 01:55:53.575           157.545                Sumatra          4923.281
        77   02 Jun 2027 03:13:31.562   02 Jun 2027 03:14:09.449            37.887               Magadan1          1183.969
        78   02 Jun 2027 03:15:01.588   02 Jun 2027 03:17:57.006           175.418                Irkutsk          5481.813
        79   02 Jun 2027 03:18:05.229   02 Jun 2027 03:18:30.619            25.390                Norilsk           793.438
        80   02 Jun 2027 03:18:35.959   02 Jun 2027 03:18:57.861            21.902                Novosib           684.438
        81   02 Jun 2027 03:19:10.404   02 Jun 2027 03:19:39.142            28.738                Novosib           898.062
        82   02 Jun 2027 03:19:39.615   02 Jun 2027 03:23:51.573           251.958                Irkutsk          7873.687
        83   02 Jun 2027 04:02:33.251   02 Jun 2027 04:04:37.360           124.109            RioGallegos          3878.406
        84   02 Jun 2027 04:05:19.873   02 Jun 2027 04:07:21.307           121.434            RioGallegos          3794.812
        85   02 Jun 2027 04:52:33.521   02 Jun 2027 04:53:36.753            63.232                Irkutsk          1976.000
        86   02 Jun 2027 04:53:55.596   02 Jun 2027 04:55:13.477            77.881              Murmansk1          2433.781
        87   02 Jun 2027 04:55:13.477   02 Jun 2027 04:55:55.949            42.472              Murmansk2          1327.250
        88   02 Jun 2027 04:56:16.654   02 Jun 2027 04:57:17.891            61.237                Norilsk          1913.656
        89   02 Jun 2027 04:57:20.420   02 Jun 2027 04:58:33.513            73.093                Novosib          2284.156
        90   02 Jun 2027 04:59:12.025   02 Jun 2027 04:59:45.132            33.107                Novosib          1034.594
        91   02 Jun 2027 05:01:58.429   02 Jun 2027 05:02:42.768            44.339                  Delhi          1385.594
        92   02 Jun 2027 06:31:19.480   02 Jun 2027 06:31:45.414            25.934                Norilsk           810.437
        93   02 Jun 2027 06:31:53.412   02 Jun 2027 06:33:07.983            74.571                 Moscow          2330.344
        94   02 Jun 2027 06:33:45.590   02 Jun 2027 06:35:52.831           127.241              Murmansk2          3976.281
        95   02 Jun 2027 06:36:09.877   02 Jun 2027 06:39:03.873           173.996                 Moscow          5437.375
        96   02 Jun 2027 06:50:13.016   02 Jun 2027 06:54:43.778           270.762               CapeTown          8461.313
        97   02 Jun 2027 06:59:41.575   02 Jun 2027 06:59:56.981            15.406               CapeTown           481.438
        98   02 Jun 2027 07:54:01.440   02 Jun 2027 07:55:30.334            88.894                Anadyr2          2777.937
        99   02 Jun 2027 07:55:48.613   02 Jun 2027 07:56:40.415            51.802                Anadyr1          1618.812
       100   02 Jun 2027 07:59:00.046   02 Jun 2027 07:59:46.488            46.442                Anadyr2          1451.313
       101   02 Jun 2027 09:30:21.443   02 Jun 2027 09:30:54.204            32.761               Magadan2          1023.781
       102   02 Jun 2027 09:30:55.565   02 Jun 2027 09:32:08.098            72.533               Magadan1          2266.656
       103   02 Jun 2027 09:32:59.008   02 Jun 2027 09:35:28.312           149.304                Anadyr2          4665.750
       104   02 Jun 2027 11:01:23.581   02 Jun 2027 11:10:17.014           533.433               Magadan2         16669.781
       105   02 Jun 2027 11:10:46.625   02 Jun 2027 11:10:53.573             6.948               Magadan1           217.125
       106   02 Jun 2027 15:56:05.370   02 Jun 2027 15:56:54.787            49.417                Novosib          1544.281
       107   02 Jun 2027 19:04:46.741   02 Jun 2027 19:09:10.512           263.771                 Moscow          8242.844
       108   02 Jun 2027 20:15:22.262   02 Jun 2027 20:16:28.208            65.946               CapeTown          2060.812
       109   02 Jun 2027 20:47:45.112   02 Jun 2027 20:51:55.759           250.647              Murmansk2          7832.719
       110   02 Jun 2027 20:52:06.327   02 Jun 2027 20:52:44.629            38.302              Murmansk1          1196.937
       111   02 Jun 2027 22:31:11.562   02 Jun 2027 22:33:24.136           132.574                Anadyr1          4142.937
       112   02 Jun 2027 22:33:27.292   02 Jun 2027 22:34:42.900            75.608               Magadan1          2362.750
       113   02 Jun 2027 22:36:44.050   02 Jun 2027 22:36:50.250             6.200               Magadan1           193.750
       114   02 Jun 2027 23:26:02.253   02 Jun 2027 23:28:19.826           137.573            RioGallegos          4299.156
       115   02 Jun 2027 23:28:30.357   02 Jun 2027 23:29:00.897            30.540            RioGallegos           954.375
       116   03 Jun 2027 00:06:54.775   03 Jun 2027 00:08:01.193            66.418                Anadyr2          2075.562
       117   03 Jun 2027 00:09:00.743   03 Jun 2027 00:10:49.312           108.569                Norilsk          3392.781
       118   03 Jun 2027 00:10:52.535   03 Jun 2027 00:13:01.486           128.951               Magadan1          4029.719
       119   03 Jun 2027 00:13:01.486   03 Jun 2027 00:13:45.348            43.862               Magadan2          1370.687
       120   03 Jun 2027 00:13:54.680   03 Jun 2027 00:14:42.842            48.162                Irkutsk          1505.063
       121   03 Jun 2027 00:27:27.955   03 Jun 2027 00:30:39.084           191.129                Sumatra          5972.781
       122   03 Jun 2027 01:00:54.098   03 Jun 2027 01:01:46.830            52.732            RioGallegos          1647.875
       123   03 Jun 2027 01:02:03.474   03 Jun 2027 01:02:53.559            50.085            RioGallegos          1565.156
       124   03 Jun 2027 01:41:53.599   03 Jun 2027 01:42:00.997             7.398                Anadyr2           231.188
       125   03 Jun 2027 01:42:43.754   03 Jun 2027 01:43:14.144            30.390                Anadyr2           949.687
       126   03 Jun 2027 01:43:45.825   03 Jun 2027 01:43:56.740            10.915                Anadyr2           341.094
       127   03 Jun 2027 01:44:13.762   03 Jun 2027 01:44:35.460            21.698                Anadyr1           678.063
       128   03 Jun 2027 01:44:55.889   03 Jun 2027 01:46:25.901            90.012                Norilsk          2812.875
       129   03 Jun 2027 01:46:35.020   03 Jun 2027 01:46:45.648            10.628                Norilsk           332.125
       130   03 Jun 2027 01:48:48.425   03 Jun 2027 01:52:06.338           197.913                Irkutsk          6184.781
       131   03 Jun 2027 01:52:37.989   03 Jun 2027 01:52:42.630             4.641                Irkutsk           145.031
       132   03 Jun 2027 01:57:23.599   03 Jun 2027 01:58:12.639            49.040                  Delhi          1532.500
       133   03 Jun 2027 02:03:27.398   03 Jun 2027 02:08:31.954           304.556                Sumatra          9517.375
       134   03 Jun 2027 03:25:24.798   03 Jun 2027 03:25:38.520            13.722               Magadan1           428.812
       135   03 Jun 2027 03:26:36.179   03 Jun 2027 03:27:45.068            68.889                Norilsk          2152.781
       136   03 Jun 2027 03:28:00.331   03 Jun 2027 03:31:08.036           187.705                Novosib          5865.781
       137   03 Jun 2027 03:31:22.886   03 Jun 2027 03:32:34.490            71.604                 Moscow          2237.625
       138   03 Jun 2027 03:32:35.078   03 Jun 2027 03:33:54.363            79.285                Norilsk          2477.656
       139   03 Jun 2027 03:33:59.579   03 Jun 2027 03:35:15.973            76.394                Novosib          2387.312
       140   03 Jun 2027 03:38:13.009   03 Jun 2027 03:40:37.745           144.736                  Delhi          4523.000
       141   03 Jun 2027 04:15:16.351   03 Jun 2027 04:18:21.025           184.674            RioGallegos          5771.063
       142   03 Jun 2027 05:04:48.288   03 Jun 2027 05:06:33.268           104.980                Novosib          3280.625
       143   03 Jun 2027 05:06:44.752   03 Jun 2027 05:08:01.114            76.362              Murmansk2          2386.313
       144   03 Jun 2027 05:08:01.114   03 Jun 2027 05:08:39.303            38.189              Murmansk1          1193.406
       145   03 Jun 2027 05:08:39.902   03 Jun 2027 05:09:10.826            30.924                Norilsk           966.375
       146   03 Jun 2027 05:09:13.529   03 Jun 2027 05:10:36.960            83.431                Novosib          2607.219
       147   03 Jun 2027 06:42:43.329   03 Jun 2027 06:43:54.943            71.614                 Moscow          2237.938
       148   03 Jun 2027 06:44:06.453   03 Jun 2027 06:44:38.345            31.892              Murmansk2           996.625
       149   03 Jun 2027 06:44:38.345   03 Jun 2027 06:45:39.942            61.597              Murmansk1          1924.906
       150   03 Jun 2027 07:02:26.089   03 Jun 2027 07:07:13.802           287.713               CapeTown          8991.031
       151   03 Jun 2027 08:06:49.128   03 Jun 2027 08:11:47.839           298.711                Anadyr2          9334.719
       152   03 Jun 2027 08:14:36.543   03 Jun 2027 08:15:17.762            41.219                 Moscow          1288.094
       153   03 Jun 2027 09:41:28.355   03 Jun 2027 09:42:53.252            84.897                Anadyr1          2653.031
       154   03 Jun 2027 09:43:30.307   03 Jun 2027 09:47:24.580           234.273               Magadan1          7321.031
       155   03 Jun 2027 11:17:39.137   03 Jun 2027 11:18:21.222            42.085               Magadan2          1315.156
       156   03 Jun 2027 11:18:50.103   03 Jun 2027 11:19:08.160            18.057                Irkutsk           564.281
       157   03 Jun 2027 11:19:10.126   03 Jun 2027 11:22:46.470           216.344               Magadan2          6760.750
       158   03 Jun 2027 11:23:06.314   03 Jun 2027 11:23:11.319             5.005              Murmansk2           156.406
       159   03 Jun 2027 11:24:09.722   03 Jun 2027 11:24:42.534            32.812              Murmansk2          1025.375
       160   03 Jun 2027 11:30:27.737   03 Jun 2027 11:31:32.025            64.288              Murmansk2          2009.000
       161   03 Jun 2027 11:57:48.262   03 Jun 2027 11:59:02.860            74.598            RioGallegos          2331.187
       162   03 Jun 2027 12:33:17.233   03 Jun 2027 12:34:58.648           101.415                Sumatra          3169.219
       163   03 Jun 2027 12:46:18.600   03 Jun 2027 12:49:31.410           192.810                Irkutsk          6025.313
       164   03 Jun 2027 13:35:29.985   03 Jun 2027 13:37:15.338           105.353            RioGallegos          3292.281
       165   03 Jun 2027 13:39:36.504   03 Jun 2027 13:40:22.257            45.753            RioGallegos          1429.781
       166   03 Jun 2027 14:09:43.542   03 Jun 2027 14:12:30.683           167.141                Sumatra          5223.156
       167   03 Jun 2027 14:25:14.732   03 Jun 2027 14:29:44.174           269.442                Irkutsk          8420.062
       168   03 Jun 2027 14:30:32.850   03 Jun 2027 14:32:00.100            87.250                Irkutsk          2726.563
       169   03 Jun 2027 15:54:57.832   03 Jun 2027 15:56:12.129            74.297                  Delhi          2321.781
       170   03 Jun 2027 15:59:28.794   03 Jun 2027 16:01:04.441            95.647                  Delhi          2988.969
       171   03 Jun 2027 16:03:27.752   03 Jun 2027 16:07:48.256           260.504                Novosib          8140.750
       172   03 Jun 2027 17:37:37.566   03 Jun 2027 17:37:51.884            14.318                 Moscow           447.437
       173   03 Jun 2027 17:40:27.905   03 Jun 2027 17:42:11.071           103.166                 Moscow          3223.937
       174   03 Jun 2027 17:44:04.269   03 Jun 2027 17:44:16.034            11.765              Murmansk1           367.656
       175   03 Jun 2027 17:49:36.129   03 Jun 2027 17:49:43.585             7.456              Murmansk1           233.000
       176   03 Jun 2027 17:52:59.015   03 Jun 2027 17:53:14.208            15.193              Murmansk1           474.781
       177   03 Jun 2027 17:56:23.242   03 Jun 2027 17:56:56.351            33.109                Anadyr1          1034.656
       178   03 Jun 2027 18:01:53.471   03 Jun 2027 18:01:58.486             5.015                Anadyr1           156.719
       179   03 Jun 2027 18:02:15.222   03 Jun 2027 18:02:41.430            26.208                Anadyr1           819.000
       180   03 Jun 2027 18:50:48.170   03 Jun 2027 18:53:01.671           133.501               CapeTown          4171.906
       181   03 Jun 2027 19:17:46.326   03 Jun 2027 19:21:52.047           245.721                 Moscow          7678.781
       182   03 Jun 2027 19:23:46.096   03 Jun 2027 19:23:53.074             6.978              Murmansk2           218.062
       183   03 Jun 2027 19:24:20.064   03 Jun 2027 19:24:29.046             8.982              Murmansk1           280.688
       184   03 Jun 2027 19:32:43.466   03 Jun 2027 19:32:50.686             7.220                Anadyr1           225.625
       185   03 Jun 2027 19:41:22.475   03 Jun 2027 19:41:45.997            23.522                Anadyr2           735.063
       186   03 Jun 2027 19:42:06.803   03 Jun 2027 19:42:40.041            33.238                Anadyr2          1038.687
       187   03 Jun 2027 20:27:45.270   03 Jun 2027 20:31:19.267           213.997               CapeTown          6687.406
       188   03 Jun 2027 21:00:51.512   03 Jun 2027 21:04:22.415           210.903              Murmansk1          6590.719
       189   03 Jun 2027 21:09:50.747   03 Jun 2027 21:10:40.772            50.025               Magadan2          1563.281
       190   03 Jun 2027 21:15:56.041   03 Jun 2027 21:16:16.815            20.774               Magadan2           649.188
       191   03 Jun 2027 21:16:31.377   03 Jun 2027 21:17:42.629            71.252               Magadan1          2226.625
       192   03 Jun 2027 22:43:12.871   03 Jun 2027 22:47:41.262           268.391                Anadyr2          8387.219
       193   03 Jun 2027 22:47:50.673   03 Jun 2027 22:48:34.254            43.581                Norilsk          1361.906
       194   03 Jun 2027 22:48:48.330   03 Jun 2027 22:49:57.380            69.050               Magadan2          2157.813
       195   03 Jun 2027 22:50:43.115   03 Jun 2027 22:51:09.621            26.506               Magadan1           828.312
       196   03 Jun 2027 22:55:31.680   03 Jun 2027 22:56:02.118            30.438               Magadan1           951.188
       197   03 Jun 2027 22:56:27.475   03 Jun 2027 22:57:22.449            54.974               Magadan1          1717.938
       198   03 Jun 2027 23:37:46.642   03 Jun 2027 23:39:54.253           127.611            RioGallegos          3987.844
       199   03 Jun 2027 23:41:10.638   03 Jun 2027 23:42:00.162            49.524            RioGallegos          1547.625
       200   04 Jun 2027 00:18:52.587   04 Jun 2027 00:19:53.990            61.403                Anadyr1          1918.844
       201   04 Jun 2027 00:19:58.828   04 Jun 2027 00:20:14.238            15.410                Anadyr2           481.562
       202   04 Jun 2027 00:20:19.706   04 Jun 2027 00:21:09.779            50.073                Anadyr2          1564.781
       203   04 Jun 2027 00:21:31.871   04 Jun 2027 00:23:04.006            92.135               Magadan1          2879.219
       204   04 Jun 2027 00:23:40.472   04 Jun 2027 00:24:07.411            26.939               Magadan2           841.844
       205   04 Jun 2027 00:24:30.034   04 Jun 2027 00:25:39.448            69.414               Magadan2          2169.188
       206   04 Jun 2027 00:27:33.365   04 Jun 2027 00:28:31.324            57.959                Irkutsk          1811.219
       207   04 Jun 2027 00:29:31.512   04 Jun 2027 00:29:46.822            15.310                Novosib           478.437
       208   04 Jun 2027 00:39:08.380   04 Jun 2027 00:41:09.878           121.498                Sumatra          3796.813
       209   04 Jun 2027 00:51:06.651   04 Jun 2027 00:51:17.535            10.884                Sumatra           340.125
       210   04 Jun 2027 01:12:54.878   04 Jun 2027 01:13:54.838            59.960            RioGallegos          1873.750
       211   04 Jun 2027 01:17:09.655   04 Jun 2027 01:17:25.399            15.744            RioGallegos           492.000
       212   04 Jun 2027 01:20:42.731   04 Jun 2027 01:21:32.546            49.815            RioGallegos          1556.719
       213   04 Jun 2027 01:53:42.841   04 Jun 2027 01:54:12.855            30.014                Anadyr1           937.937
       214   04 Jun 2027 01:54:12.855   04 Jun 2027 01:54:24.584            11.729                Anadyr2           366.531
       215   04 Jun 2027 01:54:56.296   04 Jun 2027 01:55:14.917            18.621                Anadyr2           581.906
       216   04 Jun 2027 01:55:57.287   04 Jun 2027 01:56:37.755            40.468                Anadyr2          1264.625
       217   04 Jun 2027 01:56:58.305   04 Jun 2027 01:58:10.395            72.090                Norilsk          2252.812
       218   04 Jun 2027 01:58:18.568   04 Jun 2027 01:58:25.078             6.510                Norilsk           203.438
       219   04 Jun 2027 01:59:12.459   04 Jun 2027 01:59:38.342            25.883                Norilsk           808.844
       220   04 Jun 2027 02:00:50.916   04 Jun 2027 02:04:05.039           194.123                Irkutsk          6066.344
       221   04 Jun 2027 02:14:55.508   04 Jun 2027 02:15:48.460            52.952                  Delhi          1654.750
       222   04 Jun 2027 02:16:02.786   04 Jun 2027 02:17:47.943           105.157                Sumatra          3286.156
       223   04 Jun 2027 02:22:55.061   04 Jun 2027 02:23:38.775            43.714                Sumatra          1366.062
       224   04 Jun 2027 02:25:11.031   04 Jun 2027 02:25:26.536            15.505                Sumatra           484.531
       225   04 Jun 2027 02:50:36.555   04 Jun 2027 02:52:12.049            95.494            RioGallegos          2984.188
       226   04 Jun 2027 03:38:36.028   04 Jun 2027 03:38:53.203            17.175                Novosib           536.719
       227   04 Jun 2027 03:39:00.807   04 Jun 2027 03:42:28.863           208.056              Murmansk2          6501.750
       228   04 Jun 2027 03:42:34.455   04 Jun 2027 03:43:59.918            85.463                Norilsk          2670.719
       229   04 Jun 2027 03:44:13.554   04 Jun 2027 03:46:51.599           158.045                Irkutsk          4938.906
       230   04 Jun 2027 03:49:45.682   04 Jun 2027 03:51:46.660           120.978                  Delhi          3780.563
       231   04 Jun 2027 05:17:41.278   04 Jun 2027 05:18:20.382            39.104              Murmansk1          1222.000
       232   04 Jun 2027 05:18:20.567   04 Jun 2027 05:18:24.421             3.854                Norilsk           120.437
       233   04 Jun 2027 05:18:32.869   04 Jun 2027 05:19:45.439            72.570                Novosib          2267.813
       234   04 Jun 2027 05:19:45.913   04 Jun 2027 05:21:02.888            76.975                Norilsk          2405.469
       235   04 Jun 2027 05:21:15.739   04 Jun 2027 05:22:47.775            92.036                Novosib          2876.125
       236   04 Jun 2027 05:22:48.402   04 Jun 2027 05:23:02.492            14.090              Murmansk2           440.312
       237   04 Jun 2027 05:23:48.663   04 Jun 2027 05:26:46.339           177.676                 Moscow          5552.375
       238   04 Jun 2027 05:39:01.157   04 Jun 2027 05:46:12.935           431.778               CapeTown         13493.062
       239   04 Jun 2027 05:46:28.645   04 Jun 2027 05:48:20.668           112.023               CapeTown          3500.719
       240   04 Jun 2027 06:54:28.574   04 Jun 2027 06:56:00.444            91.870                 Moscow          2870.937
       241   04 Jun 2027 06:56:07.289   04 Jun 2027 06:56:25.971            18.682              Murmansk1           583.812
       242   04 Jun 2027 06:56:37.055   04 Jun 2027 06:57:35.538            58.483              Murmansk2          1827.594
       243   04 Jun 2027 06:57:35.538   04 Jun 2027 06:57:38.376             2.838              Murmansk1            88.688
       244   04 Jun 2027 07:14:45.299   04 Jun 2027 07:19:53.598           308.299               CapeTown          9634.344
       245   04 Jun 2027 08:18:02.779   04 Jun 2027 08:19:54.681           111.902                Anadyr2          3496.938
       246   04 Jun 2027 08:28:30.811   04 Jun 2027 08:28:39.969             9.158                 Moscow           286.187
       247   04 Jun 2027 09:06:31.022   04 Jun 2027 09:07:10.112            39.090            RioGallegos          1221.562
       248   04 Jun 2027 09:53:10.986   04 Jun 2027 09:53:20.057             9.071                Irkutsk           283.469
       249   04 Jun 2027 09:53:37.190   04 Jun 2027 09:54:38.129            60.939               Magadan1          1904.344
       250   04 Jun 2027 09:54:38.129   04 Jun 2027 09:55:31.937            53.808               Magadan2          1681.500
       251   04 Jun 2027 09:55:37.554   04 Jun 2027 09:55:39.866             2.312               Magadan2            72.250
       252   04 Jun 2027 09:56:14.693   04 Jun 2027 09:59:20.144           185.451                Anadyr2          5795.344
       253   04 Jun 2027 11:25:27.247   04 Jun 2027 11:28:24.201           176.954               Magadan1          5529.812
       254   04 Jun 2027 11:29:19.519   04 Jun 2027 11:30:58.291            98.772                Irkutsk          3086.625
       255   04 Jun 2027 11:31:05.857   04 Jun 2027 11:34:36.819           210.962               Magadan1          6592.562
       256   04 Jun 2027 11:34:50.357   04 Jun 2027 11:34:55.059             4.702                Norilsk           146.937
       257   04 Jun 2027 11:35:04.382   04 Jun 2027 11:36:06.956            62.574              Murmansk2          1955.437
       258   04 Jun 2027 12:09:49.898   04 Jun 2027 12:10:59.722            69.824            RioGallegos          2182.000
       259   04 Jun 2027 12:45:01.250   04 Jun 2027 12:45:48.109            46.859                Sumatra          1464.344
       260   04 Jun 2027 12:51:02.815   04 Jun 2027 12:51:17.796            14.981                Sumatra           468.156
       261   04 Jun 2027 12:58:27.513   04 Jun 2027 13:01:31.123           183.610                Irkutsk          5737.812
       262   04 Jun 2027 13:02:29.647   04 Jun 2027 13:02:47.750            18.103                Irkutsk           565.719
       263   04 Jun 2027 13:03:10.577   04 Jun 2027 13:04:15.513            64.936                Norilsk          2029.250
       264   04 Jun 2027 13:48:07.542   04 Jun 2027 13:52:48.838           281.296            RioGallegos          8790.500
       265   04 Jun 2027 14:22:25.912   04 Jun 2027 14:27:03.067           277.155                Sumatra          8661.094
       266   04 Jun 2027 14:39:07.581   04 Jun 2027 14:40:36.284            88.703                Irkutsk          2771.969
       267   04 Jun 2027 14:42:21.228   04 Jun 2027 14:42:22.631             1.403                Irkutsk            43.844
       268   04 Jun 2027 16:08:02.178   04 Jun 2027 16:14:54.409           412.231                  Delhi         12882.219
       269   04 Jun 2027 16:16:30.659   04 Jun 2027 16:20:31.429           240.770                Novosib          7524.063
       270   04 Jun 2027 18:11:39.760   04 Jun 2027 18:12:00.895            21.135                Anadyr1           660.469
       271   04 Jun 2027 19:02:46.825   04 Jun 2027 19:05:28.537           161.712               CapeTown          5053.500
       272   04 Jun 2027 19:31:07.398   04 Jun 2027 19:34:42.278           214.880                 Moscow          6715.000
       273   04 Jun 2027 19:35:10.157   04 Jun 2027 19:37:06.492           116.335              Murmansk1          3635.469
       274   04 Jun 2027 19:49:46.798   04 Jun 2027 19:50:27.393            40.595               Magadan1          1268.594
       275   04 Jun 2027 20:40:16.129   04 Jun 2027 20:43:33.307           197.178               CapeTown          6161.813
       276   04 Jun 2027 20:45:10.399   04 Jun 2027 20:47:22.049           131.650               CapeTown          4114.063
       277   04 Jun 2027 21:21:47.388   04 Jun 2027 21:22:16.941            29.553               Magadan1           923.531
       278   04 Jun 2027 21:22:43.530   04 Jun 2027 21:22:49.439             5.909               Magadan1           184.656
       279   04 Jun 2027 21:24:01.511   04 Jun 2027 21:24:27.496            25.985               Magadan1           812.031
       280   04 Jun 2027 21:24:48.713   04 Jun 2027 21:25:04.342            15.629               Magadan2           488.406
       281   04 Jun 2027 21:26:42.743   04 Jun 2027 21:27:11.847            29.104               Magadan1           909.500
       282   04 Jun 2027 22:55:13.944   04 Jun 2027 22:59:02.152           228.208                Anadyr2          7131.500
       283   04 Jun 2027 22:59:02.201   04 Jun 2027 23:00:22.517            80.316                Anadyr1          2509.875
       284   04 Jun 2027 23:00:27.634   04 Jun 2027 23:03:08.934           161.300               Magadan1          5040.625
       285   04 Jun 2027 23:07:40.054   04 Jun 2027 23:07:55.838            15.784               Magadan1           493.250
       286   04 Jun 2027 23:07:55.838   04 Jun 2027 23:08:14.902            19.064               Magadan2           595.750
       287   04 Jun 2027 23:08:50.363   04 Jun 2027 23:09:29.568            39.205               Magadan1          1225.156
       288   04 Jun 2027 23:49:35.102   04 Jun 2027 23:51:47.954           132.852            RioGallegos          4151.625
       289   04 Jun 2027 23:53:05.327   04 Jun 2027 23:53:49.059            43.732            RioGallegos          1366.625
       290   04 Jun 2027 23:58:24.912   04 Jun 2027 23:58:52.687            27.775            RioGallegos           867.969
       291   05 Jun 2027 00:30:49.631   05 Jun 2027 00:31:24.101            34.470                Anadyr2          1077.188
       292   05 Jun 2027 00:31:43.819   05 Jun 2027 00:32:00.774            16.955                Anadyr2           529.844
       293   05 Jun 2027 00:32:16.894   05 Jun 2027 00:32:44.139            27.245                Anadyr2           851.406
       294   05 Jun 2027 00:33:02.121   05 Jun 2027 00:34:53.687           111.566                Norilsk          3486.437
       295   05 Jun 2027 00:35:24.391   05 Jun 2027 00:37:09.084           104.693               Magadan1          3271.656
       296   05 Jun 2027 00:37:11.628   05 Jun 2027 00:38:14.595            62.967                Irkutsk          1967.719
       297   05 Jun 2027 00:39:46.537   05 Jun 2027 00:40:49.442            62.905                Novosib          1965.781
       298   05 Jun 2027 00:50:55.729   05 Jun 2027 00:53:39.282           163.553                Sumatra          5111.031
       299   05 Jun 2027 01:30:37.423   05 Jun 2027 01:31:10.416            32.993            RioGallegos          1031.031
       300   05 Jun 2027 01:34:42.813   05 Jun 2027 01:35:05.552            22.739            RioGallegos           710.594
       301   05 Jun 2027 02:05:30.746   05 Jun 2027 02:06:11.081            40.335                Anadyr1          1260.469
       302   05 Jun 2027 02:06:32.079   05 Jun 2027 02:07:11.241            39.162                Anadyr1          1223.813
       303   05 Jun 2027 02:09:00.764   05 Jun 2027 02:10:17.965            77.201                Norilsk          2412.531
       304   05 Jun 2027 02:11:24.018   05 Jun 2027 02:11:26.743             2.725               Magadan2            85.156
       305   05 Jun 2027 02:12:20.410   05 Jun 2027 02:12:53.877            33.467                Norilsk          1045.844
       306   05 Jun 2027 02:12:54.209   05 Jun 2027 02:15:12.995           138.786                Irkutsk          4337.063
       307   05 Jun 2027 02:20:31.851   05 Jun 2027 02:20:54.621            22.770                Irkutsk           711.563
       308   05 Jun 2027 02:24:56.740   05 Jun 2027 02:26:22.305            85.565                  Delhi          2673.906
       309   05 Jun 2027 02:28:54.261   05 Jun 2027 02:33:17.808           263.547                Sumatra          8235.844
       310   05 Jun 2027 03:51:29.725   05 Jun 2027 03:51:36.401             6.676                Irkutsk           208.625
       311   05 Jun 2027 03:51:58.760   05 Jun 2027 03:54:36.095           157.335                Norilsk          4916.719
       312   05 Jun 2027 03:54:36.249   05 Jun 2027 03:55:51.591            75.342                Novosib          2354.438
       313   05 Jun 2027 03:55:56.221   05 Jun 2027 03:56:18.822            22.601              Murmansk1           706.281
       314   05 Jun 2027 03:56:31.620   05 Jun 2027 03:56:37.285             5.665                  Delhi           177.031
       315   05 Jun 2027 03:56:42.396   05 Jun 2027 03:56:49.812             7.416                Novosib           231.750
       316   05 Jun 2027 03:57:25.127   05 Jun 2027 03:58:22.696            57.569                Irkutsk          1799.031
       317   05 Jun 2027 03:59:57.921   05 Jun 2027 04:00:00.835             2.914                Novosib            91.062
       318   05 Jun 2027 04:00:27.109   05 Jun 2027 04:01:05.429            38.320                Novosib          1197.500
       319   05 Jun 2027 04:04:46.542   05 Jun 2027 04:07:22.016           155.474                  Delhi          4858.563
       320   05 Jun 2027 05:30:09.607   05 Jun 2027 05:32:54.165           164.558                Norilsk          5142.438
       321   05 Jun 2027 05:33:17.659   05 Jun 2027 05:34:25.352            67.693                Novosib          2115.406
       322   05 Jun 2027 05:34:26.451   05 Jun 2027 05:39:00.172           273.721                 Moscow          8553.781
       323   05 Jun 2027 05:50:43.139   05 Jun 2027 05:51:31.810            48.671               CapeTown          1520.969
       324   05 Jun 2027 05:52:31.010   05 Jun 2027 05:53:01.286            30.276               CapeTown           946.125
       325   05 Jun 2027 05:58:11.714   05 Jun 2027 05:58:33.461            21.747               CapeTown           679.594
       326   05 Jun 2027 06:55:13.025   05 Jun 2027 06:58:30.222           197.197               Magadan2          6162.406
       327   05 Jun 2027 07:05:56.453   05 Jun 2027 07:08:13.975           137.522              Murmansk2          4297.562
       328   05 Jun 2027 07:08:26.451   05 Jun 2027 07:09:24.909            58.458                 Moscow          1826.812
       329   05 Jun 2027 07:10:17.718   05 Jun 2027 07:11:11.334            53.616                 Moscow          1675.500
       330   05 Jun 2027 07:12:42.302   05 Jun 2027 07:13:39.548            57.246                 Moscow          1788.937
       331   05 Jun 2027 07:27:11.581   05 Jun 2027 07:28:49.323            97.742               CapeTown          3054.438
       332   05 Jun 2027 07:29:34.796   05 Jun 2027 07:31:38.964           124.168               CapeTown          3880.250
       333   05 Jun 2027 08:28:31.350   05 Jun 2027 08:28:42.491            11.141               Magadan2           348.156
       334   05 Jun 2027 08:28:53.897   05 Jun 2027 08:32:48.831           234.934                Anadyr2          7341.687
       335   05 Jun 2027 10:02:45.961   05 Jun 2027 10:05:07.244           141.283                Anadyr2          4415.094
       336   05 Jun 2027 10:05:35.794   05 Jun 2027 10:07:33.173           117.379               Magadan1          3668.094
       337   05 Jun 2027 10:07:35.797   05 Jun 2027 10:11:13.318           217.521                Anadyr1          6797.531
       338   05 Jun 2027 11:38:10.882   05 Jun 2027 11:38:14.214             3.332               Magadan1           104.125
       339   05 Jun 2027 11:39:59.635   05 Jun 2027 11:46:23.579           383.944               Magadan1         11998.250
       340   05 Jun 2027 11:46:54.955   05 Jun 2027 11:47:15.244            20.289                Norilsk           634.031
       341   05 Jun 2027 11:47:22.584   05 Jun 2027 11:47:36.620            14.036                Novosib           438.625
       342   05 Jun 2027 11:49:09.570   05 Jun 2027 11:49:34.732            25.162              Murmansk2           786.313
       343   05 Jun 2027 12:21:54.978   05 Jun 2027 12:22:31.336            36.358            RioGallegos          1136.187
       344   05 Jun 2027 12:30:46.309   05 Jun 2027 12:31:13.837            27.528            RioGallegos           860.250
       345   05 Jun 2027 12:56:51.735   05 Jun 2027 12:59:51.186           179.451                Sumatra          5607.844
       346   05 Jun 2027 13:10:40.092   05 Jun 2027 13:13:29.722           169.630                Irkutsk          5300.938
       347   05 Jun 2027 13:24:13.223   05 Jun 2027 13:24:39.749            26.526                Norilsk           828.937
       348   05 Jun 2027 13:26:16.115   05 Jun 2027 13:26:27.365            11.250                Norilsk           351.562
       349   05 Jun 2027 14:00:53.543   05 Jun 2027 14:05:15.584           262.041            RioGallegos          8188.781
       350   05 Jun 2027 14:35:30.389   05 Jun 2027 14:39:35.336           244.947                Sumatra          7654.594
       351   05 Jun 2027 14:51:24.689   05 Jun 2027 14:55:09.558           224.869                Irkutsk          7027.156
       352   05 Jun 2027 16:21:53.426   05 Jun 2027 16:25:18.165           204.739                  Delhi          6398.094
       353   05 Jun 2027 16:29:59.931   05 Jun 2027 16:33:41.620           221.689                Novosib          6927.781
       354   05 Jun 2027 16:37:24.963   05 Jun 2027 16:37:30.007             5.044                Norilsk           157.625
       355   05 Jun 2027 18:04:43.481   05 Jun 2027 18:07:08.065           144.584                 Moscow          4518.250
       356   05 Jun 2027 18:20:40.663   05 Jun 2027 18:20:59.314            18.651                Anadyr1           582.844
       357   05 Jun 2027 18:28:19.706   05 Jun 2027 18:28:37.169            17.463                Anadyr1           545.719
       358   05 Jun 2027 19:14:48.328   05 Jun 2027 19:17:38.948           170.620               CapeTown          5331.875
       359   05 Jun 2027 19:44:25.404   05 Jun 2027 19:49:47.664           322.260              Murmansk2         10070.625
       360   05 Jun 2027 19:51:08.934   05 Jun 2027 19:51:58.534            49.600              Murmansk1          1550.000
       361   05 Jun 2027 20:53:00.597   05 Jun 2027 20:59:08.125           367.528               CapeTown         11485.250
       362   05 Jun 2027 21:35:31.069   05 Jun 2027 21:35:59.969            28.900               Magadan1           903.125
       363   05 Jun 2027 21:36:21.798   05 Jun 2027 21:36:29.100             7.302               Magadan2           228.188
       364   05 Jun 2027 21:36:32.386   05 Jun 2027 21:37:42.849            70.463               Magadan2          2201.969
       365   05 Jun 2027 23:07:14.727   05 Jun 2027 23:11:58.885           284.158                Anadyr1          8879.938
       366   05 Jun 2027 23:12:15.195   05 Jun 2027 23:12:17.736             2.541                Anadyr1            79.406
       367   05 Jun 2027 23:12:24.475   05 Jun 2027 23:12:38.118            13.643                Norilsk           426.344
       368   05 Jun 2027 23:12:43.793   05 Jun 2027 23:13:16.242            32.449               Magadan2          1014.031
       369   05 Jun 2027 23:13:29.341   05 Jun 2027 23:13:51.691            22.350               Magadan1           698.438
       370   05 Jun 2027 23:14:12.522   05 Jun 2027 23:14:47.375            34.853                Norilsk          1089.156
       371   05 Jun 2027 23:15:12.442   05 Jun 2027 23:15:48.217            35.775               Magadan2          1117.969
       372   05 Jun 2027 23:15:54.964   05 Jun 2027 23:16:29.978            35.014                Irkutsk          1094.188
       373   05 Jun 2027 23:17:22.441   05 Jun 2027 23:18:41.829            79.388                Irkutsk          2480.875
       374   05 Jun 2027 23:21:56.225   05 Jun 2027 23:22:11.109            14.884               Magadan2           465.125
       375   06 Jun 2027 00:01:26.574   06 Jun 2027 00:02:51.811            85.237            RioGallegos          2663.656
       376   06 Jun 2027 00:03:21.900   06 Jun 2027 00:03:24.551             2.651            RioGallegos            82.844
       377   06 Jun 2027 00:03:30.112   06 Jun 2027 00:03:38.449             8.337            RioGallegos           260.531
       378   06 Jun 2027 00:05:01.747   06 Jun 2027 00:06:07.298            65.551            RioGallegos          2048.469
       379   06 Jun 2027 00:42:45.797   06 Jun 2027 00:43:23.339            37.542                Anadyr2          1173.187
       380   06 Jun 2027 00:43:32.324   06 Jun 2027 00:43:51.426            19.102                Anadyr2           596.937
       381   06 Jun 2027 00:44:14.777   06 Jun 2027 00:45:02.858            48.081                Anadyr2          1502.531
       382   06 Jun 2027 00:45:03.475   06 Jun 2027 00:45:22.878            19.403                Norilsk           606.344
       383   06 Jun 2027 00:45:38.491   06 Jun 2027 00:46:30.860            52.369               Magadan2          1636.531
       384   06 Jun 2027 00:46:30.860   06 Jun 2027 00:46:58.291            27.431               Magadan1           857.219
       385   06 Jun 2027 00:47:06.311   06 Jun 2027 00:47:29.576            23.265               Magadan1           727.031
       386   06 Jun 2027 00:48:37.775   06 Jun 2027 00:48:59.082            21.307               Magadan2           665.844
       387   06 Jun 2027 00:49:07.651   06 Jun 2027 00:50:19.305            71.654                Irkutsk          2239.188
       388   06 Jun 2027 00:50:23.060   06 Jun 2027 00:51:54.387            91.327                Novosib          2853.969
       389   06 Jun 2027 00:56:46.007   06 Jun 2027 00:57:12.533            26.526                Novosib           828.937
       390   06 Jun 2027 01:02:49.211   06 Jun 2027 01:03:27.615            38.404                Sumatra          1200.125
       391   06 Jun 2027 01:05:54.899   06 Jun 2027 01:06:21.208            26.309                Sumatra           822.156
       392   06 Jun 2027 01:11:18.009   06 Jun 2027 01:12:22.372            64.363                Sumatra          2011.344
       393   06 Jun 2027 01:41:42.629   06 Jun 2027 01:42:38.481            55.852            RioGallegos          1745.375
       394   06 Jun 2027 01:47:43.535   06 Jun 2027 01:48:58.353            74.818            RioGallegos          2338.062
       395   06 Jun 2027 02:19:36.883   06 Jun 2027 02:19:59.087            22.204                Anadyr2           693.875
       396   06 Jun 2027 02:21:03.222   06 Jun 2027 02:22:29.758            86.536                Norilsk          2704.250
       397   06 Jun 2027 02:24:57.299   06 Jun 2027 02:26:57.640           120.341                Novosib          3760.656
       398   06 Jun 2027 02:28:54.543   06 Jun 2027 02:28:58.586             4.043                Irkutsk           126.344
       399   06 Jun 2027 02:29:50.567   06 Jun 2027 02:29:54.823             4.256                Novosib           133.000
       400   06 Jun 2027 02:30:20.782   06 Jun 2027 02:30:34.918            14.136                Irkutsk           441.750
       401   06 Jun 2027 02:32:29.553   06 Jun 2027 02:33:02.410            32.857                  Delhi          1026.781
       402   06 Jun 2027 02:36:04.340   06 Jun 2027 02:36:42.178            37.838                  Delhi          1182.438
       403   06 Jun 2027 02:41:17.738   06 Jun 2027 02:41:57.334            39.596                  Delhi          1237.375
       404   06 Jun 2027 02:42:20.671   06 Jun 2027 02:45:56.290           215.619                Sumatra          6738.094
       405   06 Jun 2027 03:17:11.248   06 Jun 2027 03:17:42.528            31.280            RioGallegos           977.500
       406   06 Jun 2027 04:03:24.357   06 Jun 2027 04:03:35.266            10.909                Irkutsk           340.906
       407   06 Jun 2027 04:03:59.876   06 Jun 2027 04:04:07.664             7.788              Murmansk2           243.375
       408   06 Jun 2027 04:04:16.202   06 Jun 2027 04:04:48.293            32.091              Murmansk2          1002.844
       409   06 Jun 2027 04:04:50.892   06 Jun 2027 04:05:50.038            59.146                Novosib          1848.313
       410   06 Jun 2027 04:05:50.706   06 Jun 2027 04:07:50.804           120.098                Norilsk          3753.062
       411   06 Jun 2027 04:07:54.780   06 Jun 2027 04:08:48.490            53.710                Novosib          1678.438
       412   06 Jun 2027 04:08:49.976   06 Jun 2027 04:10:22.949            92.973                  Delhi          2905.406
       413   06 Jun 2027 04:10:30.290   06 Jun 2027 04:11:07.714            37.424                Novosib          1169.500
       414   06 Jun 2027 04:12:27.519   06 Jun 2027 04:13:54.859            87.340                  Delhi          2729.375
       415   06 Jun 2027 04:16:33.541   06 Jun 2027 04:18:43.007           129.466                  Delhi          4045.813
       416   06 Jun 2027 05:43:00.942   06 Jun 2027 05:44:26.452            85.510                Norilsk          2672.188
       417   06 Jun 2027 05:44:29.480   06 Jun 2027 05:45:21.402            51.922              Murmansk2          1622.563
       418   06 Jun 2027 05:45:22.538   06 Jun 2027 05:45:52.902            30.364                Novosib           948.875
       419   06 Jun 2027 05:45:57.015   06 Jun 2027 05:47:32.907            95.892              Murmansk2          2996.625
       420   06 Jun 2027 05:47:58.804   06 Jun 2027 05:51:10.597           191.793                 Moscow          5993.531
       421   06 Jun 2027 06:06:08.528   06 Jun 2027 06:06:52.176            43.648               CapeTown          1364.000
       422   06 Jun 2027 06:08:39.798   06 Jun 2027 06:09:22.131            42.333               CapeTown          1322.906
       423   06 Jun 2027 06:09:48.334   06 Jun 2027 06:09:59.615            11.281               CapeTown           352.531
       424   06 Jun 2027 06:10:49.186   06 Jun 2027 06:11:46.031            56.845               CapeTown          1776.406
       425   06 Jun 2027 06:14:50.873   06 Jun 2027 06:15:04.139            13.266               CapeTown           414.563
       426   06 Jun 2027 07:06:13.246   06 Jun 2027 07:06:56.361            43.115                Anadyr1          1347.344
       427   06 Jun 2027 07:07:09.245   06 Jun 2027 07:07:16.817             7.572               Magadan1           236.625
       428   06 Jun 2027 07:07:52.086   06 Jun 2027 07:10:00.961           128.875                Anadyr1          4027.344
       429   06 Jun 2027 07:17:43.260   06 Jun 2027 07:18:11.605            28.345                Norilsk           885.781
       430   06 Jun 2027 07:18:13.156   06 Jun 2027 07:18:46.215            33.059              Murmansk1          1033.094
       431   06 Jun 2027 07:18:46.215   06 Jun 2027 07:19:08.927            22.712              Murmansk2           709.750
       432   06 Jun 2027 07:19:44.263   06 Jun 2027 07:20:03.028            18.765                 Moscow           586.406
       433   06 Jun 2027 07:20:15.864   06 Jun 2027 07:20:43.863            27.999                 Moscow           874.969
       434   06 Jun 2027 07:21:05.696   06 Jun 2027 07:21:27.714            22.018                 Moscow           688.063
       435   06 Jun 2027 07:39:46.521   06 Jun 2027 07:44:33.979           287.458               CapeTown          8983.063
       436   06 Jun 2027 08:40:22.256   06 Jun 2027 08:42:02.316           100.060                Anadyr1          3126.875
       437   06 Jun 2027 08:42:23.489   06 Jun 2027 08:43:26.115            62.626               Magadan2          1957.062
       438   06 Jun 2027 08:43:32.056   06 Jun 2027 08:43:59.286            27.230                Norilsk           850.938
       439   06 Jun 2027 08:44:20.712   06 Jun 2027 08:44:21.437             0.725               Magadan1            22.656
       440   06 Jun 2027 08:44:21.437   06 Jun 2027 08:45:30.611            69.174               Magadan2          2161.687
       441   06 Jun 2027 08:45:38.251   06 Jun 2027 08:45:57.215            18.964                Anadyr1           592.625
       442   06 Jun 2027 09:27:11.534   06 Jun 2027 09:28:10.286            58.752            RioGallegos          1836.000
       443   06 Jun 2027 10:15:01.070   06 Jun 2027 10:15:43.706            42.636               Magadan2          1332.375
       444   06 Jun 2027 10:15:43.706   06 Jun 2027 10:16:28.994            45.288               Magadan1          1415.250
       445   06 Jun 2027 10:16:48.618   06 Jun 2027 10:23:03.675           375.057                Anadyr1         11720.531
       446   06 Jun 2027 11:51:02.774   06 Jun 2027 11:58:04.889           422.115               Magadan2         13191.094
       447   06 Jun 2027 11:58:56.220   06 Jun 2027 11:59:42.455            46.235                Norilsk          1444.844
       448   06 Jun 2027 12:01:00.583   06 Jun 2027 12:01:17.643            17.060              Murmansk1           533.125
       449   06 Jun 2027 12:02:10.644   06 Jun 2027 12:02:46.811            36.167                Norilsk          1130.219
       450   06 Jun 2027 12:03:44.767   06 Jun 2027 12:03:49.559             4.792              Murmansk2           149.750
       451   06 Jun 2027 12:03:49.559   06 Jun 2027 12:04:02.622            13.063              Murmansk1           408.219
       452   06 Jun 2027 12:04:29.305   06 Jun 2027 12:04:53.641            24.336              Murmansk2           760.500
       453   06 Jun 2027 12:05:47.249   06 Jun 2027 12:06:49.626            62.377              Murmansk2          1949.281
       454   06 Jun 2027 12:40:47.452   06 Jun 2027 12:42:51.033           123.581            RioGallegos          3861.906
       455   06 Jun 2027 13:11:38.801   06 Jun 2027 13:11:57.158            18.357                Sumatra           573.656
       456   06 Jun 2027 13:14:41.776   06 Jun 2027 13:15:34.310            52.534                Sumatra          1641.688
       457   06 Jun 2027 13:17:29.931   06 Jun 2027 13:18:23.531            53.600                Sumatra          1675.000
       458   06 Jun 2027 13:20:27.118   06 Jun 2027 13:21:32.043            64.925                Sumatra          2028.906
       459   06 Jun 2027 13:25:27.028   06 Jun 2027 13:25:47.928            20.900                Irkutsk           653.125
       460   06 Jun 2027 13:28:40.634   06 Jun 2027 13:29:00.123            19.489                Irkutsk           609.031
       461   06 Jun 2027 13:31:14.254   06 Jun 2027 13:32:15.114            60.860                Irkutsk          1901.875
       462   06 Jun 2027 13:39:25.280   06 Jun 2027 13:39:27.930             2.650                Norilsk            82.813
       463   06 Jun 2027 13:39:58.415   06 Jun 2027 13:40:12.075            13.660                Norilsk           426.875
       464   06 Jun 2027 13:41:45.125   06 Jun 2027 13:42:20.838            35.713              Murmansk1          1116.031
       465   06 Jun 2027 14:13:51.499   06 Jun 2027 14:20:47.102           415.603            RioGallegos         12987.594
       466   06 Jun 2027 14:50:09.570   06 Jun 2027 14:51:06.057            56.487                Sumatra          1765.219
       467   06 Jun 2027 15:05:55.778   06 Jun 2027 15:06:39.788            44.010                Irkutsk          1375.313
       468   06 Jun 2027 16:37:24.865   06 Jun 2027 16:38:42.841            77.976                 Moscow          2436.750
       469   06 Jun 2027 16:40:41.983   06 Jun 2027 16:41:17.720            35.737                 Moscow          1116.781
       470   06 Jun 2027 16:44:36.029   06 Jun 2027 16:47:32.419           176.390                Norilsk          5512.188
       471   06 Jun 2027 16:48:58.288   06 Jun 2027 16:50:22.168            83.880                Norilsk          2621.250
       472   06 Jun 2027 17:52:07.227   06 Jun 2027 17:52:43.318            36.091               CapeTown          1127.844
       473   06 Jun 2027 17:58:37.015   06 Jun 2027 17:58:55.466            18.451               CapeTown           576.594
       474   06 Jun 2027 18:00:41.881   06 Jun 2027 18:01:23.100            41.219               CapeTown          1288.094
       475   06 Jun 2027 18:14:37.241   06 Jun 2027 18:15:09.657            32.416                 Moscow          1013.000
       476   06 Jun 2027 18:16:04.419   06 Jun 2027 18:16:18.899            14.480                 Moscow           452.500
       477   06 Jun 2027 18:17:48.983   06 Jun 2027 18:18:13.119            24.136              Murmansk1           754.250
       478   06 Jun 2027 18:19:31.381   06 Jun 2027 18:20:10.626            39.245              Murmansk1          1226.406
       479   06 Jun 2027 18:21:15.109   06 Jun 2027 18:21:55.261            40.152              Murmansk1          1254.750
       480   06 Jun 2027 18:21:55.261   06 Jun 2027 18:22:04.994             9.733              Murmansk2           304.156
       481   06 Jun 2027 18:22:51.066   06 Jun 2027 18:24:33.698           102.632                 Moscow          3207.250
       482   06 Jun 2027 18:36:22.557   06 Jun 2027 18:36:54.696            32.139                Anadyr2          1004.344
