uniorb/output/strategy_1/Drop/Drop_KinoSat_111207.txt

KinoSat_111207
-------------------------
    Access    *     Start Time (UTCG)     *     Stop Time (UTCG)  *   Duration (s)        *       Station  *  Data (Mbytes)
         1   01 Jun 2027 03:13:55.010   01 Jun 2027 03:14:10.127            15.117              Murmansk1           472.406
         2   01 Jun 2027 03:14:18.940   01 Jun 2027 03:15:20.513            61.573                Norilsk          1924.156
         3   01 Jun 2027 03:15:21.896   01 Jun 2027 03:15:46.826            24.930                Novosib           779.063
         4   01 Jun 2027 03:15:56.727   01 Jun 2027 03:17:31.578            94.851              Murmansk1          2964.094
         5   01 Jun 2027 03:17:39.148   01 Jun 2027 03:18:00.200            21.052              Murmansk1           657.875
         6   01 Jun 2027 03:33:29.735   01 Jun 2027 03:34:25.529            55.794               CapeTown          1743.563
         7   01 Jun 2027 03:35:28.148   01 Jun 2027 03:36:16.379            48.231               CapeTown          1507.219
         8   01 Jun 2027 04:37:01.722   01 Jun 2027 04:37:57.811            56.089               Magadan1          1752.781
         9   01 Jun 2027 04:37:58.174   01 Jun 2027 04:38:39.359            41.185                Anadyr2          1287.031
        10   01 Jun 2027 04:39:22.195   01 Jun 2027 04:39:52.917            30.722                Anadyr2           960.063
        11   01 Jun 2027 06:14:16.271   01 Jun 2027 06:15:39.793            83.522                Anadyr1          2610.063
        12   01 Jun 2027 06:16:07.617   01 Jun 2027 06:17:23.410            75.793                Anadyr1          2368.531
        13   01 Jun 2027 06:17:48.633   01 Jun 2027 06:18:40.806            52.173               Magadan1          1630.406
        14   01 Jun 2027 06:18:45.797   01 Jun 2027 06:18:47.277             1.480               Magadan2            46.250
        15   01 Jun 2027 07:47:50.914   01 Jun 2027 07:48:16.008            25.094               Magadan2           784.187
        16   01 Jun 2027 07:48:24.004   01 Jun 2027 07:51:52.422           208.418               Magadan2          6513.063
        17   01 Jun 2027 07:51:58.036   01 Jun 2027 07:53:24.212            86.176               Magadan1          2693.000
        18   01 Jun 2027 07:53:45.997   01 Jun 2027 07:54:27.233            41.236               Magadan1          1288.625
        19   01 Jun 2027 07:54:33.379   01 Jun 2027 07:55:03.036            29.657                Novosib           926.781
        20   01 Jun 2027 08:29:27.880   01 Jun 2027 08:29:59.946            32.066            RioGallegos          1002.062
        21   01 Jun 2027 08:30:36.347   01 Jun 2027 08:30:58.762            22.415            RioGallegos           700.469
        22   01 Jun 2027 09:06:18.694   01 Jun 2027 09:08:38.591           139.897                Sumatra          4371.781
        23   01 Jun 2027 09:25:05.410   01 Jun 2027 09:25:43.766            38.356               Magadan2          1198.625
        24   01 Jun 2027 09:25:43.766   01 Jun 2027 09:27:36.622           112.856               Magadan1          3526.750
        25   01 Jun 2027 09:27:52.892   01 Jun 2027 09:28:38.941            46.049                Novosib          1439.031
        26   01 Jun 2027 09:28:52.342   01 Jun 2027 09:30:11.848            79.506                Norilsk          2484.562
        27   01 Jun 2027 09:30:31.285   01 Jun 2027 09:31:02.862            31.577                Norilsk           986.781
        28   01 Jun 2027 09:31:40.223   01 Jun 2027 09:32:06.927            26.704                Norilsk           834.500
        29   01 Jun 2027 10:06:40.084   01 Jun 2027 10:07:08.443            28.359            RioGallegos           886.219
        30   01 Jun 2027 10:40:07.399   01 Jun 2027 10:40:14.112             6.713                Sumatra           209.781
        31   01 Jun 2027 10:42:59.914   01 Jun 2027 10:44:42.973           103.059                Sumatra          3220.594
        32   01 Jun 2027 11:02:28.892   01 Jun 2027 11:03:47.594            78.702                Irkutsk          2459.437
        33   01 Jun 2027 11:04:10.368   01 Jun 2027 11:04:41.089            30.721                Novosib           960.031
        34   01 Jun 2027 11:04:42.768   01 Jun 2027 11:05:51.463            68.695                Irkutsk          2146.719
        35   01 Jun 2027 11:05:55.773   01 Jun 2027 11:08:00.318           124.545                Norilsk          3892.031
        36   01 Jun 2027 11:08:01.379   01 Jun 2027 11:08:21.973            20.594              Murmansk2           643.562
        37   01 Jun 2027 11:10:06.878   01 Jun 2027 11:10:15.756             8.878                Norilsk           277.438
        38   01 Jun 2027 12:24:43.810   01 Jun 2027 12:26:04.453            80.643                  Delhi          2520.094
        39   01 Jun 2027 12:26:51.128   01 Jun 2027 12:29:15.384           144.256                  Delhi          4508.000
        40   01 Jun 2027 12:32:53.846   01 Jun 2027 12:34:40.332           106.486                Novosib          3327.687
        41   01 Jun 2027 12:36:14.447   01 Jun 2027 12:37:27.817            73.370                Novosib          2292.813
        42   01 Jun 2027 12:37:33.242   01 Jun 2027 12:38:06.829            33.587                Norilsk          1049.594
        43   01 Jun 2027 12:38:17.426   01 Jun 2027 12:38:40.256            22.830              Murmansk1           713.438
        44   01 Jun 2027 12:38:43.316   01 Jun 2027 12:39:02.313            18.997              Murmansk1           593.656
        45   01 Jun 2027 12:40:32.948   01 Jun 2027 12:41:36.706            63.758                Norilsk          1992.438
        46   01 Jun 2027 14:08:37.328   01 Jun 2027 14:11:54.134           196.806                 Moscow          6150.188
        47   01 Jun 2027 14:12:08.200   01 Jun 2027 14:15:42.868           214.668              Murmansk2          6708.375
        48   01 Jun 2027 14:19:54.481   01 Jun 2027 14:21:36.733           102.252                Norilsk          3195.375
        49   01 Jun 2027 15:22:37.299   01 Jun 2027 15:24:22.864           105.565               CapeTown          3298.906
        50   01 Jun 2027 15:46:52.053   01 Jun 2027 15:47:14.189            22.136                 Moscow           691.750
        51   01 Jun 2027 15:48:12.915   01 Jun 2027 15:48:42.429            29.514                 Moscow           922.313
        52   01 Jun 2027 15:49:38.609   01 Jun 2027 15:51:09.427            90.818              Murmansk1          2838.063
        53   01 Jun 2027 16:02:57.329   01 Jun 2027 16:05:29.001           151.672                Anadyr2          4739.750
        54   01 Jun 2027 16:58:18.777   01 Jun 2027 16:59:42.577            83.800               CapeTown          2618.750
        55   01 Jun 2027 17:29:38.787   01 Jun 2027 17:35:06.282           327.495              Murmansk1         10234.219
        56   01 Jun 2027 17:38:38.865   01 Jun 2027 17:39:23.456            44.591                Anadyr1          1393.469
        57   01 Jun 2027 17:41:37.953   01 Jun 2027 17:43:55.732           137.779               Magadan1          4305.594
        58   01 Jun 2027 19:14:34.573   01 Jun 2027 19:16:36.952           122.379                Anadyr1          3824.344
        59   01 Jun 2027 19:16:52.530   01 Jun 2027 19:20:52.961           240.431               Magadan1          7513.469
        60   01 Jun 2027 20:10:19.156   01 Jun 2027 20:13:06.943           167.787            RioGallegos          5243.344
        61   01 Jun 2027 20:50:22.101   01 Jun 2027 20:52:31.415           129.314                Anadyr1          4041.062
        62   01 Jun 2027 20:52:48.825   01 Jun 2027 20:54:20.256            91.431               Magadan1          2857.219
        63   01 Jun 2027 20:54:32.151   01 Jun 2027 20:55:03.930            31.779                Norilsk           993.094
        64   01 Jun 2027 20:55:23.572   01 Jun 2027 20:55:45.190            21.618                Norilsk           675.562
        65   01 Jun 2027 20:57:16.489   01 Jun 2027 20:58:27.749            71.260                Irkutsk          2226.875
        66   01 Jun 2027 21:00:13.422   01 Jun 2027 21:00:33.100            19.678                Irkutsk           614.938
        67   01 Jun 2027 21:01:38.494   01 Jun 2027 21:01:56.574            18.080                Irkutsk           565.000
        68   01 Jun 2027 21:02:18.060   01 Jun 2027 21:02:29.365            11.305                Irkutsk           353.281
        69   01 Jun 2027 21:12:16.836   01 Jun 2027 21:13:09.989            53.153                Sumatra          1661.031
        70   01 Jun 2027 21:15:18.320   01 Jun 2027 21:16:35.679            77.359                Sumatra          2417.469
        71   01 Jun 2027 22:26:22.236   01 Jun 2027 22:27:41.222            78.986                Anadyr1          2468.312
        72   01 Jun 2027 22:27:59.534   01 Jun 2027 22:28:05.896             6.362                Anadyr1           198.813
        73   01 Jun 2027 22:28:55.520   01 Jun 2027 22:30:01.249            65.729               Magadan1          2054.031
        74   01 Jun 2027 22:30:01.249   01 Jun 2027 22:30:19.513            18.264               Magadan2           570.750
        75   01 Jun 2027 22:30:33.696   01 Jun 2027 22:30:57.404            23.708               Magadan2           740.875
        76   01 Jun 2027 22:32:12.660   01 Jun 2027 22:33:26.925            74.265                Irkutsk          2320.781
        77   01 Jun 2027 22:33:42.167   01 Jun 2027 22:36:04.995           142.828                Novosib          4463.375
        78   01 Jun 2027 22:42:08.378   01 Jun 2027 22:42:48.076            39.698                  Delhi          1240.562
        79   01 Jun 2027 23:59:35.622   02 Jun 2027 00:00:40.811            65.189                Anadyr1          2037.156
        80   02 Jun 2027 00:04:19.385   02 Jun 2027 00:04:57.050            37.665                Norilsk          1177.031
        81   02 Jun 2027 00:05:11.058   02 Jun 2027 00:05:12.226             1.168               Magadan1            36.500
        82   02 Jun 2027 00:05:41.480   02 Jun 2027 00:06:19.476            37.996                Norilsk          1187.375
        83   02 Jun 2027 00:06:20.672   02 Jun 2027 00:06:30.287             9.615               Magadan2           300.469
        84   02 Jun 2027 00:06:47.619   02 Jun 2027 00:06:57.121             9.502               Magadan2           296.937
        85   02 Jun 2027 00:07:07.175   02 Jun 2027 00:08:43.465            96.290              Murmansk1          3009.062
        86   02 Jun 2027 00:09:18.262   02 Jun 2027 00:09:36.992            18.730                Novosib           585.313
        87   02 Jun 2027 00:09:43.577   02 Jun 2027 00:10:12.378            28.801                Irkutsk           900.031
        88   02 Jun 2027 00:11:02.381   02 Jun 2027 00:12:46.362           103.981              Murmansk2          3249.406
        89   02 Jun 2027 00:15:26.250   02 Jun 2027 00:15:56.895            30.645                  Delhi           957.656
        90   02 Jun 2027 00:19:10.114   02 Jun 2027 00:19:25.926            15.812                  Delhi           494.125
        91   02 Jun 2027 00:19:58.390   02 Jun 2027 00:21:19.259            80.869                  Delhi          2527.156
        92   02 Jun 2027 00:57:32.827   02 Jun 2027 00:58:28.292            55.465            RioGallegos          1733.281
        93   02 Jun 2027 01:32:52.755   02 Jun 2027 01:33:24.221            31.466                Anadyr1           983.312
        94   02 Jun 2027 01:34:33.010   02 Jun 2027 01:35:31.663            58.653                Anadyr1          1832.906
        95   02 Jun 2027 01:35:45.749   02 Jun 2027 01:35:53.483             7.734                Anadyr2           241.688
        96   02 Jun 2027 01:38:49.690   02 Jun 2027 01:40:11.772            82.082               Magadan2          2565.062
        97   02 Jun 2027 01:40:54.487   02 Jun 2027 01:42:17.615            83.128               Magadan1          2597.750
        98   02 Jun 2027 01:42:28.930   02 Jun 2027 01:43:36.132            67.202              Murmansk1          2100.063
        99   02 Jun 2027 01:44:03.328   02 Jun 2027 01:44:08.416             5.088              Murmansk1           159.000
       100   02 Jun 2027 01:45:37.885   02 Jun 2027 01:45:51.313            13.428                Novosib           419.625
       101   02 Jun 2027 01:46:10.956   02 Jun 2027 01:46:48.621            37.665                 Moscow          1177.031
       102   02 Jun 2027 01:53:00.674   02 Jun 2027 01:53:30.388            29.714                 Moscow           928.562
       103   02 Jun 2027 01:54:45.535   02 Jun 2027 01:55:04.041            18.506                  Delhi           578.313
       104   02 Jun 2027 02:12:59.840   02 Jun 2027 02:14:22.111            82.271               CapeTown          2570.969
       105   02 Jun 2027 03:09:39.908   02 Jun 2027 03:09:56.325            16.417                Anadyr2           513.031
       106   02 Jun 2027 03:26:11.324   02 Jun 2027 03:27:03.812            52.488                Novosib          1640.250
       107   02 Jun 2027 03:27:06.213   02 Jun 2027 03:31:13.005           246.792              Murmansk2          7712.250
       108   02 Jun 2027 04:42:19.650   02 Jun 2027 04:43:27.490            67.840                Anadyr1          2120.000
       109   02 Jun 2027 04:48:33.218   02 Jun 2027 04:49:51.558            78.340               Magadan1          2448.125
       110   02 Jun 2027 04:50:11.043   02 Jun 2027 04:52:53.785           162.742               Magadan1          5085.687
       111   02 Jun 2027 06:26:04.779   02 Jun 2027 06:26:48.948            44.169                Norilsk          1380.281
       112   02 Jun 2027 06:26:51.509   02 Jun 2027 06:27:02.578            11.069                Irkutsk           345.906
       113   02 Jun 2027 06:27:09.802   02 Jun 2027 06:29:42.360           152.558               Magadan2          4767.437
       114   02 Jun 2027 06:30:01.350   02 Jun 2027 06:30:15.533            14.183                Anadyr1           443.219
       115   02 Jun 2027 06:30:24.085   02 Jun 2027 06:30:31.324             7.239               Magadan2           226.219
       116   02 Jun 2027 06:30:40.521   02 Jun 2027 06:30:54.933            14.412                Anadyr1           450.375
       117   02 Jun 2027 08:00:13.418   02 Jun 2027 08:03:18.593           185.175                Irkutsk          5786.719
       118   02 Jun 2027 08:03:36.399   02 Jun 2027 08:04:43.045            66.646                Anadyr1          2082.687
       119   02 Jun 2027 08:05:00.129   02 Jun 2027 08:06:22.885            82.756               Magadan2          2586.125
       120   02 Jun 2027 08:41:20.033   02 Jun 2027 08:42:13.390            53.357            RioGallegos          1667.406
       121   02 Jun 2027 08:42:36.171   02 Jun 2027 08:43:25.835            49.664            RioGallegos          1552.000
       122   02 Jun 2027 09:17:34.853   02 Jun 2027 09:18:21.336            46.483                Sumatra          1452.594
       123   02 Jun 2027 09:37:09.919   02 Jun 2027 09:37:50.856            40.937                Norilsk          1279.281
       124   02 Jun 2027 09:38:04.696   02 Jun 2027 09:38:21.841            17.145                Norilsk           535.781
       125   02 Jun 2027 09:38:31.947   02 Jun 2027 09:38:58.142            26.195                Novosib           818.594
       126   02 Jun 2027 09:39:00.837   02 Jun 2027 09:40:47.607           106.770                Norilsk          3336.562
       127   02 Jun 2027 09:41:17.091   02 Jun 2027 09:44:14.763           177.672              Murmansk2          5552.250
       128   02 Jun 2027 09:44:14.763   02 Jun 2027 09:46:02.331           107.568              Murmansk1          3361.500
       129   02 Jun 2027 10:18:03.844   02 Jun 2027 10:20:38.685           154.841            RioGallegos          4838.781
       130   02 Jun 2027 10:52:21.529   02 Jun 2027 10:54:08.919           107.390                Sumatra          3355.937
       131   02 Jun 2027 10:56:02.300   02 Jun 2027 10:57:10.216            67.916                Sumatra          2122.375
       132   02 Jun 2027 11:01:38.295   02 Jun 2027 11:02:57.445            79.150                  Delhi          2473.438
       133   02 Jun 2027 11:14:55.407   02 Jun 2027 11:17:29.011           153.604                Irkutsk          4800.125
       134   02 Jun 2027 11:18:47.286   02 Jun 2027 11:20:06.289            79.003                 Moscow          2468.844
       135   02 Jun 2027 12:37:09.361   02 Jun 2027 12:38:16.255            66.894                  Delhi          2090.438
       136   02 Jun 2027 12:38:49.054   02 Jun 2027 12:40:54.710           125.656                  Delhi          3926.750
       137   02 Jun 2027 12:45:29.276   02 Jun 2027 12:45:47.439            18.163                Novosib           567.594
       138   02 Jun 2027 12:46:42.829   02 Jun 2027 12:47:13.003            30.174                Novosib           942.938
       139   02 Jun 2027 12:48:19.278   02 Jun 2027 12:49:38.348            79.070              Murmansk2          2470.937
       140   02 Jun 2027 12:49:49.231   02 Jun 2027 12:50:09.082            19.851                Norilsk           620.344
       141   02 Jun 2027 12:51:52.271   02 Jun 2027 12:52:22.456            30.185                Norilsk           943.281
       142   02 Jun 2027 12:54:38.447   02 Jun 2027 12:55:38.050            59.603                Norilsk          1862.594
       143   02 Jun 2027 14:20:43.503   02 Jun 2027 14:22:44.769           121.266                 Moscow          3789.563
       144   02 Jun 2027 14:23:54.470   02 Jun 2027 14:24:59.636            65.166                 Moscow          2036.438
       145   02 Jun 2027 14:25:36.610   02 Jun 2027 14:26:31.191            54.581              Murmansk2          1705.656
       146   02 Jun 2027 14:26:31.191   02 Jun 2027 14:28:09.165            97.974              Murmansk1          3061.688
       147   02 Jun 2027 14:30:23.853   02 Jun 2027 14:31:56.707            92.854                Norilsk          2901.687
       148   02 Jun 2027 14:40:44.444   02 Jun 2027 14:41:15.671            31.227                Anadyr2           975.844
       149   02 Jun 2027 14:41:43.897   02 Jun 2027 14:42:03.817            19.920                Anadyr2           622.500
       150   02 Jun 2027 14:43:01.161   02 Jun 2027 14:44:21.191            80.030                Anadyr2          2500.937
       151   02 Jun 2027 15:34:25.785   02 Jun 2027 15:36:31.522           125.737               CapeTown          3929.281
       152   02 Jun 2027 15:59:32.794   02 Jun 2027 15:59:34.290             1.496                 Moscow            46.750
       153   02 Jun 2027 16:02:01.158   02 Jun 2027 16:02:08.754             7.596              Murmansk2           237.375
       154   02 Jun 2027 16:03:22.835   02 Jun 2027 16:04:06.285            43.450              Murmansk2          1357.813
       155   02 Jun 2027 16:05:11.097   02 Jun 2027 16:05:26.101            15.004              Murmansk1           468.875
       156   02 Jun 2027 16:06:09.609   02 Jun 2027 16:07:10.413            60.804              Murmansk1          1900.125
       157   02 Jun 2027 16:14:54.907   02 Jun 2027 16:17:19.145           144.238                Anadyr2          4507.438
       158   02 Jun 2027 17:10:32.164   02 Jun 2027 17:12:06.469            94.305               CapeTown          2947.031
       159   02 Jun 2027 17:14:50.999   02 Jun 2027 17:15:13.068            22.069               CapeTown           689.656
       160   02 Jun 2027 17:42:27.849   02 Jun 2027 17:45:30.381           182.532              Murmansk1          5704.125
       161   02 Jun 2027 17:47:10.496   02 Jun 2027 17:47:17.321             6.825              Murmansk1           213.281
       162   02 Jun 2027 17:50:40.078   02 Jun 2027 17:52:14.296            94.218                Anadyr1          2944.313
       163   02 Jun 2027 17:53:28.927   02 Jun 2027 17:56:37.263           188.336               Magadan2          5885.500
       164   02 Jun 2027 19:26:35.845   02 Jun 2027 19:29:31.092           175.247                Anadyr1          5476.469
       165   02 Jun 2027 19:29:56.115   02 Jun 2027 19:30:07.724            11.609                Anadyr1           362.781
       166   02 Jun 2027 19:30:13.431   02 Jun 2027 19:32:40.065           146.634               Magadan2          4582.313
       167   02 Jun 2027 19:33:19.876   02 Jun 2027 19:33:31.419            11.543               Magadan2           360.719
       168   02 Jun 2027 20:21:48.846   02 Jun 2027 20:24:53.396           184.550            RioGallegos          5767.187
       169   02 Jun 2027 20:28:10.612   02 Jun 2027 20:28:35.191            24.579            RioGallegos           768.094
       170   02 Jun 2027 21:02:20.757   02 Jun 2027 21:02:55.274            34.517                Anadyr2          1078.656
       171   02 Jun 2027 21:04:29.482   02 Jun 2027 21:08:16.153           226.671                Norilsk          7083.469
       172   02 Jun 2027 21:09:02.090   02 Jun 2027 21:12:05.468           183.378                Irkutsk          5730.562
       173   02 Jun 2027 21:23:17.797   02 Jun 2027 21:26:12.634           174.837                Sumatra          5463.656
       174   02 Jun 2027 22:40:20.937   02 Jun 2027 22:40:54.397            33.460                Norilsk          1045.625
       175   02 Jun 2027 22:40:58.246   02 Jun 2027 22:41:49.599            51.353               Magadan1          1604.781
       176   02 Jun 2027 22:42:13.155   02 Jun 2027 22:42:26.733            13.578               Magadan1           424.313
       177   02 Jun 2027 22:42:57.711   02 Jun 2027 22:43:04.474             6.763               Magadan2           211.344
       178   02 Jun 2027 22:44:13.133   02 Jun 2027 22:44:27.417            14.284                Irkutsk           446.375
       179   02 Jun 2027 22:44:38.725   02 Jun 2027 22:47:56.415           197.690                Novosib          6177.812
       180   02 Jun 2027 22:53:40.552   02 Jun 2027 22:54:23.648            43.096                  Delhi          1346.750
       181   02 Jun 2027 22:54:29.901   02 Jun 2027 22:56:01.285            91.384                  Delhi          2855.750
       182   03 Jun 2027 00:11:17.921   03 Jun 2027 00:11:20.903             2.982                Anadyr1            93.188
       183   03 Jun 2027 00:11:32.711   03 Jun 2027 00:12:03.977            31.266                Anadyr2           977.062
       184   03 Jun 2027 00:13:49.097   03 Jun 2027 00:14:02.050            12.953                Anadyr2           404.781
       185   03 Jun 2027 00:16:08.756   03 Jun 2027 00:16:27.339            18.583                Anadyr2           580.719
       186   03 Jun 2027 00:16:49.410   03 Jun 2027 00:17:03.034            13.624               Magadan2           425.750
       187   03 Jun 2027 00:17:12.491   03 Jun 2027 00:18:21.677            69.186                Norilsk          2162.063
       188   03 Jun 2027 00:18:31.986   03 Jun 2027 00:18:50.102            18.116               Magadan1           566.125
       189   03 Jun 2027 00:18:58.403   03 Jun 2027 00:21:15.163           136.760              Murmansk2          4273.750
       190   03 Jun 2027 00:21:15.163   03 Jun 2027 00:23:41.943           146.780              Murmansk1          4586.875
       191   03 Jun 2027 00:29:29.427   03 Jun 2027 00:29:46.527            17.100                  Delhi           534.375
       192   03 Jun 2027 00:30:37.177   03 Jun 2027 00:31:37.260            60.083                  Delhi          1877.594
       193   03 Jun 2027 01:09:59.260   03 Jun 2027 01:10:28.862            29.602            RioGallegos           925.063
       194   03 Jun 2027 01:11:31.177   03 Jun 2027 01:12:05.699            34.522            RioGallegos          1078.813
       195   03 Jun 2027 01:13:15.135   03 Jun 2027 01:13:46.042            30.907            RioGallegos           965.844
       196   03 Jun 2027 01:44:35.460   03 Jun 2027 01:44:59.296            23.836                Anadyr1           744.875
       197   03 Jun 2027 01:45:02.690   03 Jun 2027 01:45:02.989             0.299                Anadyr2             9.344
       198   03 Jun 2027 01:45:40.019   03 Jun 2027 01:45:54.615            14.596                Anadyr1           456.125
       199   03 Jun 2027 01:46:34.366   03 Jun 2027 01:47:19.040            44.674                Anadyr2          1396.063
       200   03 Jun 2027 01:47:27.778   03 Jun 2027 01:47:36.591             8.813                Anadyr2           275.406
       201   03 Jun 2027 01:50:20.442   03 Jun 2027 01:51:27.265            66.823               Magadan1          2088.219
       202   03 Jun 2027 01:52:13.960   03 Jun 2027 01:52:38.949            24.989                Norilsk           780.906
       203   03 Jun 2027 01:54:05.144   03 Jun 2027 01:54:13.510             8.366               Magadan2           261.437
       204   03 Jun 2027 01:54:29.761   03 Jun 2027 01:56:19.243           109.482              Murmansk2          3421.313
       205   03 Jun 2027 01:56:20.011   03 Jun 2027 01:57:11.512            51.501                Novosib          1609.406
       206   03 Jun 2027 01:57:51.702   03 Jun 2027 01:58:03.638            11.936                Novosib           373.000
       207   03 Jun 2027 01:58:04.363   03 Jun 2027 01:58:20.369            16.006                 Moscow           500.188
       208   03 Jun 2027 02:01:18.482   03 Jun 2027 02:02:58.413            99.931                 Moscow          3122.844
       209   03 Jun 2027 02:23:16.615   03 Jun 2027 02:23:46.703            30.088               CapeTown           940.250
       210   03 Jun 2027 02:28:23.838   03 Jun 2027 02:28:24.117             0.279               CapeTown             8.719
       211   03 Jun 2027 03:27:29.626   03 Jun 2027 03:27:42.805            13.179                Anadyr1           411.844
       212   03 Jun 2027 03:27:53.573   03 Jun 2027 03:28:10.234            16.661                Anadyr2           520.656
       213   03 Jun 2027 03:29:26.501   03 Jun 2027 03:30:00.360            33.859               Magadan2          1058.094
       214   03 Jun 2027 03:39:17.018   03 Jun 2027 03:42:03.846           166.828              Murmansk1          5213.375
       215   03 Jun 2027 05:00:58.762   03 Jun 2027 05:04:30.149           211.387                Anadyr2          6605.844
       216   03 Jun 2027 06:38:06.264   03 Jun 2027 06:38:43.521            37.257                Norilsk          1164.281
       217   03 Jun 2027 06:38:49.109   03 Jun 2027 06:39:02.692            13.583               Magadan2           424.469
       218   03 Jun 2027 06:39:08.371   03 Jun 2027 06:40:50.105           101.734                Irkutsk          3179.187
       219   03 Jun 2027 06:41:25.534   03 Jun 2027 06:42:12.039            46.505                Anadyr2          1453.281
       220   03 Jun 2027 06:42:15.131   03 Jun 2027 06:42:48.587            33.456              Murmansk1          1045.500
       221   03 Jun 2027 06:47:08.454   03 Jun 2027 06:47:13.929             5.475                 Moscow           171.094
       222   03 Jun 2027 06:47:52.455   03 Jun 2027 06:48:10.720            18.265                 Moscow           570.781
       223   03 Jun 2027 08:13:29.728   03 Jun 2027 08:14:19.027            49.299                Irkutsk          1540.594
       224   03 Jun 2027 08:14:44.797   03 Jun 2027 08:17:03.428           138.631               Magadan2          4332.219
       225   03 Jun 2027 08:17:03.428   03 Jun 2027 08:17:48.957            45.529               Magadan1          1422.781
       226   03 Jun 2027 08:18:08.247   03 Jun 2027 08:18:16.979             8.732               Magadan1           272.875
       227   03 Jun 2027 08:18:29.181   03 Jun 2027 08:18:46.836            17.655                Norilsk           551.719
       228   03 Jun 2027 08:18:56.249   03 Jun 2027 08:20:52.729           116.480              Murmansk2          3640.000
       229   03 Jun 2027 08:53:15.380   03 Jun 2027 08:56:01.003           165.623            RioGallegos          5175.719
       230   03 Jun 2027 09:29:03.293   03 Jun 2027 09:30:35.061            91.768                Sumatra          2867.750
       231   03 Jun 2027 09:49:45.039   03 Jun 2027 09:50:07.399            22.360                Irkutsk           698.750
       232   03 Jun 2027 09:50:12.234   03 Jun 2027 09:53:19.656           187.422                Novosib          5856.938
       233   03 Jun 2027 09:53:32.258   03 Jun 2027 09:55:26.557           114.299              Murmansk1          3571.844
       234   03 Jun 2027 09:55:42.175   03 Jun 2027 09:56:07.793            25.618                Norilsk           800.563
       235   03 Jun 2027 09:56:11.630   03 Jun 2027 09:56:23.283            11.653                Norilsk           364.156
       236   03 Jun 2027 10:30:29.674   03 Jun 2027 10:31:22.786            53.112            RioGallegos          1659.750
       237   03 Jun 2027 10:33:03.550   03 Jun 2027 10:33:19.768            16.218            RioGallegos           506.813
       238   03 Jun 2027 10:34:19.021   03 Jun 2027 10:34:25.080             6.059            RioGallegos           189.344
       239   03 Jun 2027 10:35:15.994   03 Jun 2027 10:35:41.070            25.076            RioGallegos           783.625
       240   03 Jun 2027 11:04:42.912   03 Jun 2027 11:06:05.785            82.873                Sumatra          2589.781
       241   03 Jun 2027 11:09:03.983   03 Jun 2027 11:09:15.184            11.201                Sumatra           350.031
       242   03 Jun 2027 11:12:37.118   03 Jun 2027 11:15:01.567           144.449                  Delhi          4514.031
       243   03 Jun 2027 11:26:00.540   03 Jun 2027 11:27:03.188            62.648                 Moscow          1957.750
       244   03 Jun 2027 11:27:05.646   03 Jun 2027 11:27:32.038            26.392              Murmansk2           824.750
       245   03 Jun 2027 11:27:36.104   03 Jun 2027 11:27:53.718            17.614                Norilsk           550.437
       246   03 Jun 2027 11:28:02.889   03 Jun 2027 11:28:41.617            38.728                Norilsk          1210.250
       247   03 Jun 2027 11:28:52.021   03 Jun 2027 11:29:32.130            40.109              Murmansk1          1253.406
       248   03 Jun 2027 11:29:44.276   03 Jun 2027 11:30:27.737            43.461              Murmansk1          1358.156
       249   03 Jun 2027 11:31:32.025   03 Jun 2027 11:31:43.340            11.315              Murmansk1           353.594
       250   03 Jun 2027 12:49:44.042   03 Jun 2027 12:52:40.118           176.076                  Delhi          5502.375
       251   03 Jun 2027 12:57:46.791   03 Jun 2027 12:58:04.365            17.574                 Moscow           549.187
       252   03 Jun 2027 12:58:11.593   03 Jun 2027 12:58:44.761            33.168                Novosib          1036.500
       253   03 Jun 2027 12:58:51.857   03 Jun 2027 12:58:57.543             5.686                 Moscow           177.688
       254   03 Jun 2027 12:59:20.406   03 Jun 2027 13:00:08.357            47.951                Novosib          1498.469
       255   03 Jun 2027 13:00:15.724   03 Jun 2027 13:01:39.897            84.173              Murmansk1          2630.406
       256   03 Jun 2027 13:01:44.630   03 Jun 2027 13:02:11.659            27.029                Norilsk           844.656
       257   03 Jun 2027 13:02:28.703   03 Jun 2027 13:02:57.482            28.779                Novosib           899.344
       258   03 Jun 2027 14:32:52.829   03 Jun 2027 14:34:42.344           109.515                 Moscow          3422.344
       259   03 Jun 2027 14:36:07.213   03 Jun 2027 14:37:13.277            66.064                 Moscow          2064.500
       260   03 Jun 2027 14:37:35.706   03 Jun 2027 14:39:22.153           106.447              Murmansk2          3326.469
       261   03 Jun 2027 14:39:22.153   03 Jun 2027 14:40:14.888            52.735              Murmansk1          1647.969
       262   03 Jun 2027 14:43:38.670   03 Jun 2027 14:45:36.166           117.496                Norilsk          3671.750
       263   03 Jun 2027 14:52:10.377   03 Jun 2027 14:53:09.763            59.386                Anadyr2          1855.813
       264   03 Jun 2027 14:54:06.287   03 Jun 2027 14:55:01.195            54.908                Anadyr1          1715.875
       265   03 Jun 2027 15:46:18.117   03 Jun 2027 15:47:15.330            57.213               CapeTown          1787.906
       266   03 Jun 2027 16:12:22.078   03 Jun 2027 16:12:59.102            37.024                 Moscow          1157.000
       267   03 Jun 2027 16:14:26.075   03 Jun 2027 16:15:23.518            57.443              Murmansk1          1795.094
       268   03 Jun 2027 16:15:46.219   03 Jun 2027 16:16:29.624            43.405              Murmansk1          1356.406
       269   03 Jun 2027 16:23:18.662   03 Jun 2027 16:23:55.904            37.242              Murmansk2          1163.812
       270   03 Jun 2027 16:26:53.346   03 Jun 2027 16:28:54.406           121.060                Anadyr1          3783.125
       271   03 Jun 2027 16:31:51.949   03 Jun 2027 16:32:07.915            15.966                Anadyr2           498.937
       272   03 Jun 2027 17:22:49.756   03 Jun 2027 17:23:36.023            46.267               CapeTown          1445.844
       273   03 Jun 2027 17:23:55.806   03 Jun 2027 17:24:10.767            14.961               CapeTown           467.531
       274   03 Jun 2027 17:27:49.645   03 Jun 2027 17:28:14.217            24.572               CapeTown           767.875
       275   03 Jun 2027 17:55:24.565   03 Jun 2027 17:59:19.592           235.027              Murmansk2          7344.594
       276   03 Jun 2027 18:02:41.430   03 Jun 2027 18:03:19.022            37.592                Anadyr1          1174.750
       277   03 Jun 2027 18:03:47.923   03 Jun 2027 18:04:00.767            12.844                Anadyr2           401.375
       278   03 Jun 2027 18:05:22.180   03 Jun 2027 18:05:54.156            31.976               Magadan1           999.250
       279   03 Jun 2027 18:06:11.432   03 Jun 2027 18:06:54.705            43.273               Magadan1          1352.281
       280   03 Jun 2027 18:11:02.915   03 Jun 2027 18:12:46.983           104.068               Magadan1          3252.125
       281   03 Jun 2027 19:38:36.959   03 Jun 2027 19:40:40.289           123.330                Anadyr1          3854.063
       282   03 Jun 2027 19:40:53.544   03 Jun 2027 19:44:56.674           243.130               Magadan2          7597.812
       283   03 Jun 2027 19:49:49.621   03 Jun 2027 19:49:55.816             6.195               Magadan2           193.594
       284   03 Jun 2027 19:51:24.776   03 Jun 2027 19:51:42.327            17.551               Magadan1           548.469
       285   03 Jun 2027 19:53:40.634   03 Jun 2027 19:53:48.161             7.527               Magadan1           235.219
       286   03 Jun 2027 20:33:27.694   03 Jun 2027 20:36:19.189           171.495            RioGallegos          5359.219
       287   03 Jun 2027 20:37:40.372   03 Jun 2027 20:38:36.795            56.423            RioGallegos          1763.219
       288   03 Jun 2027 20:39:55.195   03 Jun 2027 20:39:55.752             0.557            RioGallegos            17.406
       289   03 Jun 2027 21:14:18.811   03 Jun 2027 21:15:03.431            44.620                Anadyr2          1394.375
       290   03 Jun 2027 21:16:28.809   03 Jun 2027 21:17:18.641            49.832                Norilsk          1557.250
       291   03 Jun 2027 21:17:42.629   03 Jun 2027 21:19:07.782            85.153               Magadan2          2661.031
       292   03 Jun 2027 21:19:11.682   03 Jun 2027 21:19:19.090             7.408               Magadan2           231.500
       293   03 Jun 2027 21:19:56.562   03 Jun 2027 21:20:15.555            18.993               Magadan2           593.531
       294   03 Jun 2027 21:20:51.317   03 Jun 2027 21:21:29.219            37.902                Irkutsk          1184.437
       295   03 Jun 2027 21:21:55.209   03 Jun 2027 21:22:27.384            32.175                Irkutsk          1005.469
       296   03 Jun 2027 21:23:54.469   03 Jun 2027 21:24:22.113            27.644                Irkutsk           863.875
       297   03 Jun 2027 21:26:12.970   03 Jun 2027 21:26:33.796            20.826                Irkutsk           650.813
       298   03 Jun 2027 21:29:41.826   03 Jun 2027 21:30:03.181            21.355                Irkutsk           667.344
       299   03 Jun 2027 21:34:51.008   03 Jun 2027 21:36:37.629           106.621                Sumatra          3331.906
       300   03 Jun 2027 21:38:54.025   03 Jun 2027 21:40:12.285            78.260                Sumatra          2445.625
       301   03 Jun 2027 22:51:39.191   03 Jun 2027 22:52:12.687            33.496                Anadyr2          1046.750
       302   03 Jun 2027 22:53:00.817   03 Jun 2027 22:53:21.815            20.998               Magadan2           656.188
       303   03 Jun 2027 22:53:21.815   03 Jun 2027 22:54:22.202            60.387               Magadan1          1887.094
       304   03 Jun 2027 22:55:38.054   03 Jun 2027 22:55:41.846             3.792                Norilsk           118.500
       305   03 Jun 2027 22:56:02.118   03 Jun 2027 22:56:27.475            25.357               Magadan2           792.406
       306   03 Jun 2027 22:56:32.530   03 Jun 2027 22:58:01.778            89.248                Novosib          2789.000
       307   03 Jun 2027 23:02:20.590   03 Jun 2027 23:02:53.489            32.899                Novosib          1028.094
       308   03 Jun 2027 23:04:46.825   03 Jun 2027 23:07:06.789           139.964                  Delhi          4373.875
       309   03 Jun 2027 23:14:54.710   03 Jun 2027 23:15:02.874             8.164                  Delhi           255.125
       310   04 Jun 2027 00:22:59.606   04 Jun 2027 00:23:08.956             9.350                Anadyr1           292.187
       311   04 Jun 2027 00:23:50.264   04 Jun 2027 00:25:23.820            93.556                Anadyr1          2923.625
       312   04 Jun 2027 00:28:03.109   04 Jun 2027 00:28:08.405             5.296                Anadyr2           165.500
       313   04 Jun 2027 00:28:22.978   04 Jun 2027 00:28:56.328            33.350                Norilsk          1042.187
       314   04 Jun 2027 00:29:18.317   04 Jun 2027 00:30:23.846            65.529                Norilsk          2047.781
       315   04 Jun 2027 00:30:52.592   04 Jun 2027 00:33:49.781           177.189              Murmansk2          5537.156
       316   04 Jun 2027 00:36:50.796   04 Jun 2027 00:36:56.345             5.549                Irkutsk           173.406
       317   04 Jun 2027 00:37:15.821   04 Jun 2027 00:38:27.974            72.153                 Moscow          2254.781
       318   04 Jun 2027 00:38:52.616   04 Jun 2027 00:38:55.886             3.270                 Moscow           102.187
       319   04 Jun 2027 00:45:17.419   04 Jun 2027 00:45:32.014            14.595                  Delhi           456.094
       320   04 Jun 2027 00:48:53.577   04 Jun 2027 00:49:16.730            23.153                  Delhi           723.531
       321   04 Jun 2027 01:22:42.617   04 Jun 2027 01:23:19.986            37.369            RioGallegos          1167.781
       322   04 Jun 2027 01:24:30.100   04 Jun 2027 01:25:41.213            71.113            RioGallegos          2222.281
       323   04 Jun 2027 01:56:18.978   04 Jun 2027 01:56:40.405            21.427                Anadyr1           669.594
       324   04 Jun 2027 01:56:41.505   04 Jun 2027 01:56:57.474            15.969                Anadyr2           499.031
       325   04 Jun 2027 01:57:40.560   04 Jun 2027 01:58:35.718            55.158                Anadyr1          1723.687
       326   04 Jun 2027 01:59:17.303   04 Jun 2027 01:59:29.332            12.029                Anadyr1           375.906
       327   04 Jun 2027 02:01:49.505   04 Jun 2027 02:03:00.837            71.332               Magadan1          2229.125
       328   04 Jun 2027 02:04:13.819   04 Jun 2027 02:04:30.310            16.491                Norilsk           515.344
       329   04 Jun 2027 02:04:56.635   04 Jun 2027 02:05:29.006            32.371               Magadan2          1011.594
       330   04 Jun 2027 02:06:30.897   04 Jun 2027 02:07:22.465            51.568              Murmansk1          1611.500
       331   04 Jun 2027 02:08:25.858   04 Jun 2027 02:09:29.770            63.912                Novosib          1997.250
       332   04 Jun 2027 02:09:59.525   04 Jun 2027 02:10:13.497            13.972                 Moscow           436.625
       333   04 Jun 2027 02:11:45.544   04 Jun 2027 02:12:10.890            25.346                Novosib           792.063
       334   04 Jun 2027 02:16:33.290   04 Jun 2027 02:16:54.923            21.633                Novosib           676.031
       335   04 Jun 2027 02:19:10.707   04 Jun 2027 02:19:54.425            43.718                 Moscow          1366.187
       336   04 Jun 2027 02:36:15.386   04 Jun 2027 02:36:48.379            32.993               CapeTown          1031.031
       337   04 Jun 2027 02:41:23.042   04 Jun 2027 02:41:28.738             5.696               CapeTown           178.000
       338   04 Jun 2027 02:44:02.449   04 Jun 2027 02:44:36.795            34.346               CapeTown          1073.313
       339   04 Jun 2027 03:50:41.319   04 Jun 2027 03:51:24.880            43.561              Murmansk1          1361.281
       340   04 Jun 2027 03:51:24.880   04 Jun 2027 03:53:31.181           126.301              Murmansk2          3946.906
       341   04 Jun 2027 03:53:52.666   04 Jun 2027 03:54:26.566            33.900              Murmansk2          1059.375
       342   04 Jun 2027 03:55:09.029   04 Jun 2027 03:55:11.091             2.062              Murmansk1            64.437
       343   04 Jun 2027 03:56:34.651   04 Jun 2027 03:56:49.918            15.267                 Moscow           477.094
       344   04 Jun 2027 05:13:19.123   04 Jun 2027 05:14:13.076            53.953                Anadyr2          1686.031
       345   04 Jun 2027 05:14:13.076   04 Jun 2027 05:15:22.253            69.177                Anadyr1          2161.781
       346   04 Jun 2027 05:18:55.140   04 Jun 2027 05:19:13.159            18.019                Anadyr2           563.094
       347   04 Jun 2027 06:50:25.989   04 Jun 2027 06:50:54.144            28.155                Anadyr1           879.844
       348   04 Jun 2027 06:51:04.181   04 Jun 2027 06:51:48.884            44.703               Magadan2          1396.969
       349   04 Jun 2027 06:51:48.884   04 Jun 2027 06:54:49.991           181.107               Magadan1          5659.594
       350   04 Jun 2027 08:24:35.896   04 Jun 2027 08:25:28.242            52.346                Novosib          1635.813
       351   04 Jun 2027 08:25:31.878   04 Jun 2027 08:25:53.944            22.066                Norilsk           689.563
       352   04 Jun 2027 08:26:13.861   04 Jun 2027 08:26:33.292            19.431               Magadan2           607.219
       353   04 Jun 2027 08:26:41.038   04 Jun 2027 08:26:43.402             2.364               Magadan1            73.875
       354   04 Jun 2027 08:26:43.402   04 Jun 2027 08:27:51.701            68.299               Magadan2          2134.344
       355   04 Jun 2027 08:27:56.752   04 Jun 2027 08:27:59.206             2.454                Irkutsk            76.687
       356   04 Jun 2027 08:28:08.007   04 Jun 2027 08:28:18.197            10.190                Norilsk           318.438
       357   04 Jun 2027 08:28:20.752   04 Jun 2027 08:28:46.801            26.049                Novosib           814.031
       358   04 Jun 2027 08:28:47.141   04 Jun 2027 08:29:14.427            27.286                Irkutsk           852.688
       359   04 Jun 2027 08:29:22.075   04 Jun 2027 08:29:44.739            22.664              Murmansk2           708.250
       360   04 Jun 2027 08:29:44.739   04 Jun 2027 08:29:58.906            14.167              Murmansk1           442.719
       361   04 Jun 2027 08:30:00.843   04 Jun 2027 08:30:09.067             8.224               Magadan2           257.000
       362   04 Jun 2027 08:30:10.729   04 Jun 2027 08:31:34.193            83.464                Novosib          2608.250
       363   04 Jun 2027 09:05:13.972   04 Jun 2027 09:06:31.022            77.050            RioGallegos          2407.813
       364   04 Jun 2027 09:41:23.751   04 Jun 2027 09:41:36.372            12.621                Sumatra           394.406
       365   04 Jun 2027 09:42:49.258   04 Jun 2027 09:42:55.962             6.704                Sumatra           209.500
       366   04 Jun 2027 09:44:43.778   04 Jun 2027 09:45:27.270            43.492                Sumatra          1359.125
       367   04 Jun 2027 09:54:01.229   04 Jun 2027 09:54:43.661            42.432                  Delhi          1326.000
       368   04 Jun 2027 10:00:16.360   04 Jun 2027 10:00:44.579            28.219                Norilsk           881.844
       369   04 Jun 2027 10:01:27.467   04 Jun 2027 10:01:49.174            21.707                Norilsk           678.344
       370   04 Jun 2027 10:01:55.193   04 Jun 2027 10:01:57.845             2.652                Novosib            82.875
       371   04 Jun 2027 10:02:28.778   04 Jun 2027 10:02:46.629            17.851                Irkutsk           557.844
       372   04 Jun 2027 10:02:49.163   04 Jun 2027 10:03:16.958            27.795                Norilsk           868.594
       373   04 Jun 2027 10:03:32.229   04 Jun 2027 10:04:09.277            37.048                Novosib          1157.750
       374   04 Jun 2027 10:04:16.239   04 Jun 2027 10:04:47.138            30.899                Irkutsk           965.594
       375   04 Jun 2027 10:04:52.369   04 Jun 2027 10:05:49.455            57.086              Murmansk2          1783.937
       376   04 Jun 2027 10:05:58.051   04 Jun 2027 10:06:16.010            17.959                Novosib           561.219
       377   04 Jun 2027 10:06:21.733   04 Jun 2027 10:06:47.233            25.500              Murmansk2           796.875
       378   04 Jun 2027 10:43:01.172   04 Jun 2027 10:43:35.521            34.349            RioGallegos          1073.406
       379   04 Jun 2027 10:43:49.467   04 Jun 2027 10:44:41.683            52.216            RioGallegos          1631.750
       380   04 Jun 2027 11:17:13.487   04 Jun 2027 11:18:00.255            46.768                Sumatra          1461.500
       381   04 Jun 2027 11:22:57.043   04 Jun 2027 11:23:43.044            46.001                Sumatra          1437.531
       382   04 Jun 2027 11:38:00.876   04 Jun 2027 11:39:03.610            62.734                Irkutsk          1960.438
       383   04 Jun 2027 11:39:05.789   04 Jun 2027 11:39:33.614            27.825              Murmansk1           869.531
       384   04 Jun 2027 11:39:35.281   04 Jun 2027 11:39:47.065            11.784                Irkutsk           368.250
       385   04 Jun 2027 11:39:55.126   04 Jun 2027 11:39:58.162             3.036                Norilsk            94.875
       386   04 Jun 2027 11:40:03.392   04 Jun 2027 11:40:13.323             9.931                Norilsk           310.344
       387   04 Jun 2027 11:40:14.274   04 Jun 2027 11:40:18.628             4.354                Novosib           136.062
       388   04 Jun 2027 11:40:25.144   04 Jun 2027 11:40:43.447            18.303              Murmansk1           571.969
       389   04 Jun 2027 11:40:48.099   04 Jun 2027 11:40:53.061             4.962                Norilsk           155.062
       390   04 Jun 2027 11:41:05.866   04 Jun 2027 11:41:37.086            31.220                 Moscow           975.625
       391   04 Jun 2027 11:41:39.791   04 Jun 2027 11:41:40.856             1.065                Novosib            33.281
       392   04 Jun 2027 11:41:45.062   04 Jun 2027 11:42:03.836            18.774              Murmansk2           586.688
       393   04 Jun 2027 11:42:03.836   04 Jun 2027 11:42:23.462            19.626              Murmansk1           613.312
       394   04 Jun 2027 11:45:49.360   04 Jun 2027 11:46:42.120            52.760              Murmansk1          1648.750
       395   04 Jun 2027 13:02:31.188   04 Jun 2027 13:05:20.108           168.920                  Delhi          5278.750
       396   04 Jun 2027 13:10:12.258   04 Jun 2027 13:11:06.664            54.406                 Moscow          1700.187
       397   04 Jun 2027 13:11:26.908   04 Jun 2027 13:11:31.031             4.123                Novosib           128.844
       398   04 Jun 2027 13:12:03.190   04 Jun 2027 13:12:39.886            36.696                Novosib          1146.750
       399   04 Jun 2027 13:13:41.537   04 Jun 2027 13:15:23.615           102.078              Murmansk2          3189.938
       400   04 Jun 2027 13:17:33.633   04 Jun 2027 13:18:01.105            27.472                Norilsk           858.500
       401   04 Jun 2027 14:26:01.846   04 Jun 2027 14:27:32.484            90.638               CapeTown          2832.437
       402   04 Jun 2027 14:29:09.876   04 Jun 2027 14:30:24.959            75.083               CapeTown          2346.344
       403   04 Jun 2027 14:45:05.480   04 Jun 2027 14:46:15.895            70.415                 Moscow          2200.469
       404   04 Jun 2027 14:48:34.015   04 Jun 2027 14:50:26.778           112.763              Murmansk2          3523.844
       405   04 Jun 2027 14:52:03.951   04 Jun 2027 14:52:39.622            35.671              Murmansk2          1114.719
       406   04 Jun 2027 15:03:50.583   04 Jun 2027 15:05:08.020            77.437                Anadyr2          2419.906
       407   04 Jun 2027 15:06:04.262   04 Jun 2027 15:07:18.294            74.032                Anadyr1          2313.500
       408   04 Jun 2027 15:58:13.745   04 Jun 2027 15:58:24.280            10.535               CapeTown           329.219
       409   04 Jun 2027 16:01:00.838   04 Jun 2027 16:01:20.089            19.251               CapeTown           601.594
       410   04 Jun 2027 16:02:08.234   04 Jun 2027 16:02:11.292             3.058               CapeTown            95.562
       411   04 Jun 2027 16:04:12.749   04 Jun 2027 16:05:11.313            58.564               CapeTown          1830.125
       412   04 Jun 2027 16:25:28.459   04 Jun 2027 16:26:12.949            44.490                 Moscow          1390.312
       413   04 Jun 2027 16:26:53.494   04 Jun 2027 16:27:27.520            34.026              Murmansk1          1063.313
       414   04 Jun 2027 16:27:48.315   04 Jun 2027 16:28:40.419            52.104              Murmansk1          1628.250
       415   04 Jun 2027 16:35:20.522   04 Jun 2027 16:35:57.358            36.836              Murmansk1          1151.125
       416   04 Jun 2027 16:38:52.471   04 Jun 2027 16:40:30.459            97.988                Anadyr1          3062.125
       417   04 Jun 2027 16:40:48.367   04 Jun 2027 16:40:55.903             7.536                Anadyr1           235.500
       418   04 Jun 2027 16:42:46.808   04 Jun 2027 16:43:05.322            18.514                Anadyr2           578.563
       419   04 Jun 2027 16:46:01.271   04 Jun 2027 16:46:32.288            31.017                Anadyr2           969.281
       420   04 Jun 2027 16:50:19.723   04 Jun 2027 16:50:38.794            19.071                Anadyr2           595.969
       421   04 Jun 2027 17:35:12.873   04 Jun 2027 17:35:22.593             9.720               CapeTown           303.750
       422   04 Jun 2027 17:35:38.141   04 Jun 2027 17:36:17.912            39.771               CapeTown          1242.844
       423   04 Jun 2027 18:08:36.053   04 Jun 2027 18:11:34.515           178.462              Murmansk1          5576.937
       424   04 Jun 2027 18:14:42.886   04 Jun 2027 18:16:36.292           113.406                Anadyr2          3543.937
       425   04 Jun 2027 18:17:17.176   04 Jun 2027 18:19:57.271           160.095               Magadan2          5002.969
       426   04 Jun 2027 19:50:37.867   04 Jun 2027 19:52:41.869           124.002                Anadyr1          3875.062
       427   04 Jun 2027 19:52:54.680   04 Jun 2027 19:57:01.091           246.411               Magadan1          7700.344
       428   04 Jun 2027 20:02:41.505   04 Jun 2027 20:02:52.937            11.432               Magadan2           357.250
       429   04 Jun 2027 20:45:12.195   04 Jun 2027 20:48:10.501           178.306            RioGallegos          5572.063
       430   04 Jun 2027 20:54:03.050   04 Jun 2027 20:54:37.145            34.095            RioGallegos          1065.469
       431   04 Jun 2027 21:28:13.370   04 Jun 2027 21:28:31.760            18.390                Anadyr2           574.688
       432   04 Jun 2027 21:28:56.898   04 Jun 2027 21:31:14.086           137.188               Magadan2          4287.125
       433   04 Jun 2027 21:31:19.762   04 Jun 2027 21:31:30.075            10.313               Magadan2           322.281
       434   04 Jun 2027 21:32:06.218   04 Jun 2027 21:32:25.319            19.101               Magadan2           596.906
       435   04 Jun 2027 21:32:43.251   04 Jun 2027 21:34:19.886            96.635                Irkutsk          3019.844
       436   04 Jun 2027 21:35:08.150   04 Jun 2027 21:35:25.787            17.637                Novosib           551.156
       437   04 Jun 2027 21:35:37.585   04 Jun 2027 21:36:21.145            43.560                Novosib          1361.250
       438   04 Jun 2027 21:36:58.173   04 Jun 2027 21:37:23.989            25.816                Novosib           806.750
       439   04 Jun 2027 21:46:32.209   04 Jun 2027 21:48:28.757           116.548                Sumatra          3642.125
       440   04 Jun 2027 21:48:58.891   04 Jun 2027 21:49:59.922            61.031                Sumatra          1907.219
       441   04 Jun 2027 23:02:24.094   04 Jun 2027 23:03:10.283            46.189                Anadyr1          1443.406
       442   04 Jun 2027 23:04:24.957   04 Jun 2027 23:04:50.422            25.465                Norilsk           795.781
       443   04 Jun 2027 23:05:03.154   04 Jun 2027 23:06:06.715            63.561               Magadan1          1986.281
       444   04 Jun 2027 23:07:55.838   04 Jun 2027 23:08:50.363            54.525               Magadan1          1703.906
       445   04 Jun 2027 23:08:51.141   04 Jun 2027 23:09:14.016            22.875                Irkutsk           714.844
       446   04 Jun 2027 23:09:39.081   04 Jun 2027 23:10:40.085            61.004                Novosib          1906.375
       447   04 Jun 2027 23:13:40.280   04 Jun 2027 23:13:41.701             1.421                Novosib            44.406
       448   04 Jun 2027 23:13:46.474   04 Jun 2027 23:14:44.602            58.128                Novosib          1816.500
       449   04 Jun 2027 23:16:55.718   04 Jun 2027 23:17:35.723            40.005                  Delhi          1250.156
       450   04 Jun 2027 23:17:58.458   04 Jun 2027 23:19:36.844            98.386                  Delhi          3074.562
       451   05 Jun 2027 00:34:40.873   05 Jun 2027 00:35:03.708            22.835                Anadyr2           713.594
       452   05 Jun 2027 00:35:50.274   05 Jun 2027 00:36:08.201            17.927                Anadyr2           560.219
       453   05 Jun 2027 00:36:10.492   05 Jun 2027 00:36:37.760            27.268                Anadyr2           852.125
       454   05 Jun 2027 00:40:02.773   05 Jun 2027 00:40:20.910            18.137                Anadyr2           566.781
       455   05 Jun 2027 00:40:24.576   05 Jun 2027 00:40:53.896            29.320                Norilsk           916.250
       456   05 Jun 2027 00:41:06.698   05 Jun 2027 00:42:25.974            79.276                Norilsk          2477.375
       457   05 Jun 2027 00:42:34.313   05 Jun 2027 00:42:55.355            21.042               Magadan1           657.563
       458   05 Jun 2027 00:43:26.473   05 Jun 2027 00:46:24.876           178.403              Murmansk2          5575.094
       459   05 Jun 2027 00:47:56.493   05 Jun 2027 00:48:14.178            17.685                 Moscow           552.656
       460   05 Jun 2027 00:48:36.953   05 Jun 2027 00:49:38.585            61.632                 Moscow          1926.000
       461   05 Jun 2027 01:01:44.248   05 Jun 2027 01:02:21.604            37.356                  Delhi          1167.375
       462   05 Jun 2027 02:08:03.446   05 Jun 2027 02:10:37.022           153.576                Anadyr2          4799.250
       463   05 Jun 2027 02:11:08.143   05 Jun 2027 02:11:18.765            10.622                Anadyr2           331.938
       464   05 Jun 2027 02:13:17.638   05 Jun 2027 02:14:38.044            80.406               Magadan1          2512.687
       465   05 Jun 2027 02:16:13.301   05 Jun 2027 02:16:23.275             9.974                Norilsk           311.688
       466   05 Jun 2027 02:17:55.011   05 Jun 2027 02:17:57.738             2.727                Norilsk            85.219
       467   05 Jun 2027 02:18:21.955   05 Jun 2027 02:18:36.944            14.989                Norilsk           468.406
       468   05 Jun 2027 02:19:19.750   05 Jun 2027 02:20:18.017            58.267              Murmansk1          1820.844
       469   05 Jun 2027 02:20:18.017   05 Jun 2027 02:20:41.216            23.199              Murmansk2           724.969
       470   05 Jun 2027 02:21:05.137   05 Jun 2027 02:23:37.238           152.101                Novosib          4753.156
       471   05 Jun 2027 02:49:00.989   05 Jun 2027 02:49:37.304            36.315               CapeTown          1134.844
       472   05 Jun 2027 03:50:31.851   05 Jun 2027 03:51:16.271            44.420                Anadyr1          1388.125
       473   05 Jun 2027 04:02:11.348   05 Jun 2027 04:02:47.727            36.379                Norilsk          1136.844
       474   05 Jun 2027 04:02:58.538   05 Jun 2027 04:07:27.693           269.155              Murmansk1          8411.094
       475   05 Jun 2027 04:08:45.595   05 Jun 2027 04:09:18.676            33.081                 Moscow          1033.781
       476   05 Jun 2027 04:27:35.836   05 Jun 2027 04:28:37.475            61.639               CapeTown          1926.219
       477   05 Jun 2027 04:32:09.192   05 Jun 2027 04:32:40.057            30.865               CapeTown           964.531
       478   05 Jun 2027 05:25:55.750   05 Jun 2027 05:29:04.642           188.892               Magadan1          5902.875
       479   05 Jun 2027 05:29:08.340   05 Jun 2027 05:30:01.706            53.366                Anadyr1          1667.688
       480   05 Jun 2027 05:30:30.982   05 Jun 2027 05:31:13.833            42.851                Anadyr2          1339.094
       481   05 Jun 2027 07:02:07.870   05 Jun 2027 07:02:23.737            15.867               Magadan2           495.844
       482   05 Jun 2027 07:02:35.091   05 Jun 2027 07:03:37.532            62.441                Anadyr1          1951.281
