uniorb/output/strategy_1/Drop/Drop_KinoSat_110402.txt

KinoSat_110402
-------------------------
    Access    *     Start Time (UTCG)     *     Stop Time (UTCG)  *   Duration (s)        *       Station  *  Data (Mbytes)
         1   01 Jun 2027 04:22:37.746   01 Jun 2027 04:23:08.229            30.483               Magadan1          3810.375
         2   01 Jun 2027 04:23:19.896   01 Jun 2027 04:24:28.411            68.515               Magadan2          8564.375
         3   01 Jun 2027 04:24:32.409   01 Jun 2027 04:25:19.003            46.594                Irkutsk          5824.250
         4   01 Jun 2027 04:25:20.262   01 Jun 2027 04:26:20.805            60.543                Irkutsk          7567.875
         5   01 Jun 2027 04:27:21.644   01 Jun 2027 04:27:23.924             2.280               Magadan1           285.000
         6   01 Jun 2027 04:27:39.347   01 Jun 2027 04:28:26.191            46.844                Norilsk          5855.500
         7   01 Jun 2027 04:28:26.553   01 Jun 2027 04:28:57.715            31.162              Murmansk2          3895.250
         8   01 Jun 2027 04:29:11.031   01 Jun 2027 04:30:00.963            49.932              Murmansk2          6241.500
         9   01 Jun 2027 05:02:34.135   01 Jun 2027 05:03:43.500            69.365            RioGallegos          8670.625
        10   01 Jun 2027 05:06:17.719   01 Jun 2027 05:06:39.366            21.647            RioGallegos          2705.875
        11   01 Jun 2027 05:37:53.696   01 Jun 2027 05:39:43.094           109.398                Sumatra         13674.750
        12   01 Jun 2027 06:00:02.960   01 Jun 2027 06:02:38.798           155.838                Irkutsk         19479.750
        13   01 Jun 2027 06:03:24.584   01 Jun 2027 06:04:12.839            48.255              Murmansk1          6031.875
        14   01 Jun 2027 06:40:51.729   01 Jun 2027 06:41:03.804            12.075            RioGallegos          1509.375
        15   01 Jun 2027 07:14:48.586   01 Jun 2027 07:15:07.921            19.335                Sumatra          2416.875
        16   01 Jun 2027 07:16:12.878   01 Jun 2027 07:17:12.572            59.694                Sumatra          7461.750
        17   01 Jun 2027 07:21:44.584   01 Jun 2027 07:22:36.256            51.672                  Delhi          6459.000
        18   01 Jun 2027 07:24:17.068   01 Jun 2027 07:24:49.317            32.249                  Delhi          4031.125
        19   01 Jun 2027 07:38:35.326   01 Jun 2027 07:38:46.299            10.973                Novosib          1371.625
        20   01 Jun 2027 07:39:02.878   01 Jun 2027 07:40:37.021            94.143              Murmansk2         11767.875
        21   01 Jun 2027 07:45:49.858   01 Jun 2027 07:45:55.827             5.969              Murmansk2           746.125
        22   01 Jun 2027 09:00:15.108   01 Jun 2027 09:01:26.657            71.549                  Delhi          8943.625
        23   01 Jun 2027 09:06:44.069   01 Jun 2027 09:06:50.678             6.609                  Delhi           826.125
        24   01 Jun 2027 09:12:33.140   01 Jun 2027 09:13:35.991            62.851                Novosib          7856.375
        25   01 Jun 2027 09:14:11.987   01 Jun 2027 09:14:47.749            35.762              Murmansk2          4470.250
        26   01 Jun 2027 09:15:26.781   01 Jun 2027 09:16:30.901            64.120              Murmansk1          8015.000
        27   01 Jun 2027 10:22:46.090   01 Jun 2027 10:25:02.212           136.122               CapeTown         17015.250
        28   01 Jun 2027 10:27:21.994   01 Jun 2027 10:28:28.400            66.406               CapeTown          8300.750
        29   01 Jun 2027 11:01:06.190   01 Jun 2027 11:05:10.392           244.202                Anadyr2         30525.250
        30   01 Jun 2027 11:07:37.805   01 Jun 2027 11:08:12.801            34.996                Anadyr2          4374.500
        31   01 Jun 2027 12:41:38.277   01 Jun 2027 12:43:42.701           124.424               Magadan1         15553.000
        32   01 Jun 2027 14:14:35.952   01 Jun 2027 14:17:24.414           168.462               Magadan2         21057.750
        33   01 Jun 2027 14:19:55.689   01 Jun 2027 14:19:59.371             3.682               Magadan2           460.250
        34   01 Jun 2027 14:23:14.130   01 Jun 2027 14:25:45.068           150.938               Magadan1         18867.250
        35   01 Jun 2027 16:44:48.111   01 Jun 2027 16:48:23.928           215.817            RioGallegos         26977.125
        36   01 Jun 2027 17:31:54.003   01 Jun 2027 17:32:32.632            38.629                Irkutsk          4828.625
        37   01 Jun 2027 17:34:21.684   01 Jun 2027 17:37:02.331           160.647                Novosib         20080.875
        38   01 Jun 2027 17:43:46.479   01 Jun 2027 17:45:30.791           104.312                Sumatra         13039.000
        39   01 Jun 2027 17:48:11.628   01 Jun 2027 17:49:30.064            78.436                Sumatra          9804.500
        40   01 Jun 2027 19:05:46.767   01 Jun 2027 19:07:31.469           104.702                Novosib         13087.750
        41   01 Jun 2027 19:13:35.734   01 Jun 2027 19:15:08.436            92.702                  Delhi         11587.750
        42   01 Jun 2027 19:15:44.250   01 Jun 2027 19:17:35.603           111.353                  Delhi         13919.125
        43   01 Jun 2027 19:18:09.841   01 Jun 2027 19:19:58.066           108.225                  Delhi         12420.625
        44   02 Jun 2027 04:35:08.055   02 Jun 2027 04:36:12.959            64.904                Irkutsk          8113.000
        45   02 Jun 2027 04:38:24.308   02 Jun 2027 04:39:11.655            47.347               Magadan1          5918.375
        46   02 Jun 2027 04:39:25.934   02 Jun 2027 04:39:44.458            18.524                Irkutsk          2315.500
        47   02 Jun 2027 04:39:50.613   02 Jun 2027 04:40:21.397            30.784              Murmansk1          3848.000
        48   02 Jun 2027 05:14:37.276   02 Jun 2027 05:15:53.141            75.865            RioGallegos          9483.125
        49   02 Jun 2027 05:49:40.825   02 Jun 2027 05:50:26.457            45.632                Sumatra          5704.000
        50   02 Jun 2027 05:52:31.551   02 Jun 2027 05:54:16.295           104.744                Sumatra         13093.000
        51   02 Jun 2027 06:01:15.173   02 Jun 2027 06:02:39.653            84.480                  Delhi         10560.000
        52   02 Jun 2027 06:12:08.412   02 Jun 2027 06:12:55.437            47.025                Irkutsk          5878.125
        53   02 Jun 2027 06:12:58.034   02 Jun 2027 06:13:43.019            44.985                Novosib          5623.125
        54   02 Jun 2027 06:14:18.190   02 Jun 2027 06:16:08.550           110.360                Novosib         13795.000
        55   02 Jun 2027 07:33:42.098   02 Jun 2027 07:34:58.299            76.201                  Delhi          9525.125
        56   02 Jun 2027 07:49:48.289   02 Jun 2027 07:50:08.297            20.008                 Moscow          2501.000
        57   02 Jun 2027 07:50:31.776   02 Jun 2027 07:51:15.526            43.750                Norilsk          5468.750
        58   02 Jun 2027 07:51:15.962   02 Jun 2027 07:51:47.128            31.166                 Moscow          3895.750
        59   02 Jun 2027 07:52:50.644   02 Jun 2027 07:52:55.518             4.874                 Moscow           609.250
        60   02 Jun 2027 09:13:36.552   02 Jun 2027 09:14:19.556            43.004                  Delhi          5375.500
        61   02 Jun 2027 09:22:50.823   02 Jun 2027 09:22:53.321             2.498                Novosib           312.250
        62   02 Jun 2027 09:22:59.590   02 Jun 2027 09:23:06.142             6.552                Novosib           819.000
        63   02 Jun 2027 09:23:42.926   02 Jun 2027 09:26:49.304           186.378                Novosib         23297.250
        64   02 Jun 2027 09:26:53.503   02 Jun 2027 09:27:16.472            22.969                 Moscow          2871.125
        65   02 Jun 2027 09:27:28.254   02 Jun 2027 09:29:39.971           131.717                 Moscow         16464.625
        66   02 Jun 2027 10:33:46.439   02 Jun 2027 10:36:45.965           179.526               CapeTown         22440.750
        67   02 Jun 2027 11:12:54.331   02 Jun 2027 11:17:06.678           252.347                Anadyr2         31543.375
        68   02 Jun 2027 11:17:39.982   02 Jun 2027 11:19:50.262           130.280                Anadyr1         16285.000
        69   02 Jun 2027 12:52:29.038   02 Jun 2027 12:57:30.190           301.152               Magadan2         37644.000
        70   02 Jun 2027 16:09:09.272   02 Jun 2027 16:12:21.486           192.214                Irkutsk         24026.750
        71   02 Jun 2027 17:41:55.501   02 Jun 2027 17:43:57.872           122.371                Irkutsk         15296.375
        72   02 Jun 2027 17:46:21.224   02 Jun 2027 17:50:15.332           234.108                Novosib         29263.500
        73   02 Jun 2027 19:25:20.637   02 Jun 2027 19:29:34.879           254.242                  Delhi         31780.250
        74   02 Jun 2027 20:52:44.629   02 Jun 2027 20:53:42.273            57.644              Murmansk1          7205.500
        75   02 Jun 2027 20:56:35.574   02 Jun 2027 20:59:52.150           196.576                 Moscow         24572.000
        76   03 Jun 2027 03:13:32.848   03 Jun 2027 03:13:48.418            15.570               Magadan1          1946.250
        77   03 Jun 2027 03:14:00.086   03 Jun 2027 03:14:32.447            32.361               Magadan1          4045.125
        78   03 Jun 2027 03:15:11.599   03 Jun 2027 03:15:55.593            43.994               Magadan1          5499.250
        79   03 Jun 2027 04:46:14.641   03 Jun 2027 04:46:32.508            17.867               Magadan2          2233.375
        80   03 Jun 2027 04:46:41.230   03 Jun 2027 04:47:09.277            28.047               Magadan2          3505.875
        81   03 Jun 2027 04:47:14.211   03 Jun 2027 04:47:24.805            10.594                Norilsk          1324.250
        82   03 Jun 2027 04:47:46.340   03 Jun 2027 04:48:28.157            41.817               Magadan1          5227.125
        83   03 Jun 2027 04:48:31.443   03 Jun 2027 04:51:25.402           173.959                Irkutsk         21744.875
        84   03 Jun 2027 05:26:43.856   03 Jun 2027 05:27:40.442            56.586            RioGallegos          7073.250
        85   03 Jun 2027 06:01:33.950   03 Jun 2027 06:03:09.582            95.632                Sumatra         11954.000
        86   03 Jun 2027 06:12:19.774   03 Jun 2027 06:14:57.105           157.331                  Delhi         19666.375
        87   03 Jun 2027 06:23:59.770   03 Jun 2027 06:24:25.370            25.600              Murmansk2          3200.000
        88   03 Jun 2027 06:24:33.411   03 Jun 2027 06:24:59.557            26.146              Murmansk1          3268.250
        89   03 Jun 2027 06:25:10.832   03 Jun 2027 06:25:12.018             1.186                Norilsk           148.250
        90   03 Jun 2027 06:25:15.577   03 Jun 2027 06:25:26.580            11.003              Murmansk2          1375.375
        91   03 Jun 2027 06:25:37.877   03 Jun 2027 06:26:36.698            58.821              Murmansk2          7352.625
        92   03 Jun 2027 06:26:39.691   03 Jun 2027 06:26:52.910            13.219              Murmansk2          1652.375
        93   03 Jun 2027 06:26:58.650   03 Jun 2027 06:27:02.308             3.658                Norilsk           457.250
        94   03 Jun 2027 06:27:05.217   03 Jun 2027 06:27:49.116            43.899              Murmansk1          5487.375
        95   03 Jun 2027 06:27:59.237   03 Jun 2027 06:28:39.549            40.312                 Moscow          5039.000
        96   03 Jun 2027 07:45:44.920   03 Jun 2027 07:47:35.204           110.284                  Delhi         13785.500
        97   03 Jun 2027 08:01:57.106   03 Jun 2027 08:03:01.332            64.226                 Moscow          8028.250
        98   03 Jun 2027 08:03:26.721   03 Jun 2027 08:04:56.903            90.182                 Moscow         11272.750
        99   03 Jun 2027 09:35:00.360   03 Jun 2027 09:35:41.445            41.085              Murmansk2          5135.625
       100   03 Jun 2027 09:36:11.443   03 Jun 2027 09:38:23.887           132.444              Murmansk1         16555.500
       101   03 Jun 2027 09:38:41.146   03 Jun 2027 09:39:23.874            42.728              Murmansk2          5341.000
       102   03 Jun 2027 09:39:34.446   03 Jun 2027 09:40:16.278            41.832                Norilsk          5229.000
       103   03 Jun 2027 09:40:36.573   03 Jun 2027 09:41:24.223            47.650                Norilsk          5956.250
       104   03 Jun 2027 10:45:08.160   03 Jun 2027 10:53:01.404           473.244               CapeTown         59155.500
       105   03 Jun 2027 11:24:45.815   03 Jun 2027 11:30:08.746           322.931                Anadyr2         40366.375
       106   03 Jun 2027 13:03:56.570   03 Jun 2027 13:07:07.904           191.334               Magadan1         23916.750
       107   03 Jun 2027 16:20:02.876   03 Jun 2027 16:25:40.914           338.038                Irkutsk         42254.750
       108   03 Jun 2027 16:37:11.713   03 Jun 2027 16:39:10.812           119.099                Sumatra         14887.375
       109   03 Jun 2027 17:55:00.257   03 Jun 2027 17:58:21.516           201.259                Novosib         25157.375
       110   03 Jun 2027 21:04:04.987   03 Jun 2027 21:05:23.341            78.354              Murmansk2          9794.250
       111   03 Jun 2027 21:08:16.244   03 Jun 2027 21:11:52.977           216.733                 Moscow         27091.625
       112   03 Jun 2027 21:36:32.592   03 Jun 2027 21:37:24.049            51.457               CapeTown          6432.125
       113   04 Jun 2027 03:23:32.054   04 Jun 2027 03:26:11.407           159.353                Anadyr1         19919.125
       114   04 Jun 2027 03:27:00.580   04 Jun 2027 03:27:36.222            35.642                Anadyr2          4455.250
       115   04 Jun 2027 03:27:49.477   04 Jun 2027 03:28:06.288            16.811               Magadan1          2101.375
       116   04 Jun 2027 04:41:52.010   04 Jun 2027 04:42:34.957            42.947                Sumatra          5368.375
       117   04 Jun 2027 04:58:33.463   04 Jun 2027 04:59:17.654            44.191               Magadan1          5523.875
       118   04 Jun 2027 04:59:20.464   04 Jun 2027 05:01:08.242           107.778                Irkutsk         13472.250
       119   04 Jun 2027 05:01:46.378   04 Jun 2027 05:02:30.494            44.116               Magadan1          5514.500
       120   04 Jun 2027 05:02:42.641   04 Jun 2027 05:03:01.344            18.703              Murmansk2          2337.875
       121   04 Jun 2027 05:03:21.980   04 Jun 2027 05:04:37.588            75.608              Murmansk1          9451.000
       122   04 Jun 2027 05:38:54.053   04 Jun 2027 05:39:30.908            36.855            RioGallegos          4606.875
       123   04 Jun 2027 05:42:11.588   04 Jun 2027 05:42:32.439            20.851            RioGallegos          2606.375
       124   04 Jun 2027 06:13:32.714   04 Jun 2027 06:15:30.665           117.951                Sumatra         14743.875
       125   04 Jun 2027 06:26:40.925   04 Jun 2027 06:26:45.207             4.282                  Delhi           535.250
       126   04 Jun 2027 06:35:41.208   04 Jun 2027 06:35:53.676            12.468                Novosib          1558.500
       127   04 Jun 2027 06:35:59.266   04 Jun 2027 06:36:32.235            32.969                Norilsk          4121.125
       128   04 Jun 2027 06:36:45.555   04 Jun 2027 06:37:05.768            20.213                 Moscow          2526.625
       129   04 Jun 2027 06:37:07.361   04 Jun 2027 06:37:33.560            26.199              Murmansk2          3274.875
       130   04 Jun 2027 06:37:36.866   04 Jun 2027 06:38:34.724            57.858              Murmansk2          7232.250
       131   04 Jun 2027 06:38:54.858   04 Jun 2027 06:39:46.173            51.315                 Moscow          6414.375
       132   04 Jun 2027 06:39:47.924   04 Jun 2027 06:40:40.155            52.231                Novosib          6528.875
       133   04 Jun 2027 07:57:53.267   04 Jun 2027 07:59:10.188            76.921                  Delhi          9615.125
       134   04 Jun 2027 08:12:56.513   04 Jun 2027 08:13:26.526            30.013                 Moscow          3751.625
       135   04 Jun 2027 08:13:44.529   04 Jun 2027 08:14:14.789            30.260                Norilsk          3782.500
       136   04 Jun 2027 08:14:23.964   04 Jun 2027 08:15:36.115            72.151              Murmansk1          9018.875
       137   04 Jun 2027 09:45:35.921   04 Jun 2027 09:46:28.779            52.858              Murmansk1          6607.250
       138   04 Jun 2027 09:46:38.734   04 Jun 2027 09:47:31.068            52.334              Murmansk2          6541.750
       139   04 Jun 2027 09:47:58.672   04 Jun 2027 09:49:37.059            98.387              Murmansk1         12298.375
       140   04 Jun 2027 09:49:44.235   04 Jun 2027 09:49:52.161             7.926                 Moscow           990.750
       141   04 Jun 2027 09:50:02.177   04 Jun 2027 09:51:06.104            63.927                 Moscow          7990.875
       142   04 Jun 2027 09:51:11.491   04 Jun 2027 09:51:35.711            24.220              Murmansk2          3027.500
       143   04 Jun 2027 10:56:41.107   04 Jun 2027 10:58:39.752           118.645               CapeTown         14830.625
       144   04 Jun 2027 10:59:10.941   04 Jun 2027 11:02:39.331           208.390               CapeTown         26048.750
       145   04 Jun 2027 11:03:17.879   04 Jun 2027 11:03:28.600            10.721               CapeTown          1340.125
       146   04 Jun 2027 11:36:39.598   04 Jun 2027 11:38:38.388           118.790                Anadyr1         14848.750
       147   04 Jun 2027 11:38:38.388   04 Jun 2027 11:39:22.906            44.518                Anadyr2          5564.750
       148   04 Jun 2027 13:15:35.528   04 Jun 2027 13:19:07.991           212.463               Magadan2         26557.875
       149   04 Jun 2027 14:57:26.608   04 Jun 2027 14:57:47.684            21.076               Magadan1          2634.500
       150   04 Jun 2027 15:45:42.417   04 Jun 2027 15:47:36.619           114.202            RioGallegos         14275.250
       151   04 Jun 2027 16:31:27.117   04 Jun 2027 16:35:00.122           213.005                Irkutsk         26625.625
       152   04 Jun 2027 16:36:03.881   04 Jun 2027 16:37:45.723           101.842                Irkutsk         12730.250
       153   04 Jun 2027 16:47:03.650   04 Jun 2027 16:48:59.048           115.398                Sumatra         14424.750
       154   04 Jun 2027 16:53:01.237   04 Jun 2027 16:53:44.758            43.521                Sumatra          5440.125
       155   04 Jun 2027 18:07:51.213   04 Jun 2027 18:08:27.417            36.204                Novosib          4525.500
       156   04 Jun 2027 18:10:22.477   04 Jun 2027 18:12:25.621           123.144                Novosib         15393.000
       157   04 Jun 2027 21:16:04.369   04 Jun 2027 21:18:26.854           142.485              Murmansk1         17810.625
       158   04 Jun 2027 21:20:02.057   04 Jun 2027 21:22:07.753           125.696                 Moscow         15712.000
       159   04 Jun 2027 21:26:14.843   04 Jun 2027 21:27:12.248            57.405                 Moscow          7175.625
       160   04 Jun 2027 21:46:49.002   04 Jun 2027 21:47:54.706            65.704               CapeTown          8213.000
       161   04 Jun 2027 21:50:24.653   04 Jun 2027 21:50:56.052            31.399               CapeTown          3924.875
       162   05 Jun 2027 03:35:29.781   05 Jun 2027 03:36:15.490            45.709               Magadan2          5713.625
       163   05 Jun 2027 03:36:36.239   05 Jun 2027 03:38:12.141            95.902                Anadyr1         11987.750
       164   05 Jun 2027 03:38:37.936   05 Jun 2027 03:39:45.992            68.056               Magadan2          8507.000
       165   05 Jun 2027 03:39:54.396   05 Jun 2027 03:40:03.557             9.161               Magadan2          1145.125
       166   05 Jun 2027 04:52:35.993   05 Jun 2027 04:54:48.775           132.782                Sumatra         16597.750
       167   05 Jun 2027 05:11:04.965   05 Jun 2027 05:11:33.275            28.310                Irkutsk          3538.750
       168   05 Jun 2027 05:11:46.108   05 Jun 2027 05:13:28.130           102.022                Irkutsk         12752.750
       169   05 Jun 2027 05:13:46.742   05 Jun 2027 05:14:06.928            20.186                Novosib          2523.250
       170   05 Jun 2027 05:14:34.641   05 Jun 2027 05:15:43.102            68.461                Norilsk          8557.625
       171   05 Jun 2027 05:51:08.094   05 Jun 2027 05:51:24.536            16.442            RioGallegos          2055.250
       172   05 Jun 2027 05:54:35.615   05 Jun 2027 05:54:39.087             3.472            RioGallegos           434.000
       173   05 Jun 2027 05:55:22.496   05 Jun 2027 05:55:46.664            24.168            RioGallegos          3021.000
       174   05 Jun 2027 05:59:47.873   05 Jun 2027 06:00:12.719            24.846            RioGallegos          3105.750
       175   05 Jun 2027 06:25:37.075   05 Jun 2027 06:26:17.643            40.568                Sumatra          5071.000
       176   05 Jun 2027 06:35:04.486   05 Jun 2027 06:36:18.685            74.199                  Delhi          9274.875
       177   05 Jun 2027 06:47:41.281   05 Jun 2027 06:48:14.274            32.993                Novosib          4124.125
       178   05 Jun 2027 06:48:25.325   05 Jun 2027 06:48:31.166             5.841                Novosib           730.125
       179   05 Jun 2027 06:48:45.272   05 Jun 2027 06:49:29.888            44.616              Murmansk1          5577.000
       180   05 Jun 2027 06:49:40.105   05 Jun 2027 06:50:10.425            30.320                 Moscow          3790.000
       181   05 Jun 2027 06:50:25.456   05 Jun 2027 06:51:22.882            57.426                Novosib          7178.250
       182   05 Jun 2027 06:51:39.983   05 Jun 2027 06:52:25.440            45.457                Norilsk          5682.125
       183   05 Jun 2027 06:52:45.382   05 Jun 2027 06:52:54.955             9.573                 Moscow          1196.625
       184   05 Jun 2027 06:53:22.655   05 Jun 2027 06:53:45.856            23.201              Murmansk1          2900.125
       185   05 Jun 2027 08:10:07.550   05 Jun 2027 08:10:51.575            44.025                  Delhi          5503.125
       186   05 Jun 2027 08:12:42.893   05 Jun 2027 08:13:24.082            41.189                  Delhi          5148.625
       187   05 Jun 2027 08:23:38.971   05 Jun 2027 08:24:46.403            67.432                 Moscow          8429.000
       188   05 Jun 2027 08:25:03.378   05 Jun 2027 08:25:36.985            33.607                Norilsk          4200.875
       189   05 Jun 2027 08:25:49.970   05 Jun 2027 08:26:58.696            68.726                Novosib          8590.750
       190   05 Jun 2027 08:27:12.180   05 Jun 2027 08:27:57.283            45.103                Norilsk          5637.875
       191   05 Jun 2027 09:58:24.488   05 Jun 2027 09:59:45.996            81.508              Murmansk2         10188.500
       192   05 Jun 2027 10:00:05.887   05 Jun 2027 10:01:37.671            91.784              Murmansk1         11473.000
       193   05 Jun 2027 10:01:57.062   05 Jun 2027 10:02:43.436            46.374              Murmansk2          5796.750
       194   05 Jun 2027 10:02:51.586   05 Jun 2027 10:02:59.463             7.877              Murmansk2           984.625
       195   05 Jun 2027 10:05:56.372   05 Jun 2027 10:06:01.412             5.040              Murmansk1           630.000
       196   05 Jun 2027 11:08:21.418   05 Jun 2027 11:12:22.079           240.661               CapeTown         30082.625
       197   05 Jun 2027 11:48:35.065   05 Jun 2027 11:52:56.393           261.328                Anadyr2         32666.000
       198   05 Jun 2027 13:27:20.615   05 Jun 2027 13:32:48.950           328.335               Magadan2         41041.875
       199   05 Jun 2027 15:56:20.824   05 Jun 2027 15:58:35.320           134.496            RioGallegos         16812.000
       200   05 Jun 2027 16:43:03.033   05 Jun 2027 16:46:29.320           206.287                Irkutsk         25785.875
       201   05 Jun 2027 16:57:57.796   05 Jun 2027 17:00:40.285           162.489                Sumatra         20311.125
       202   05 Jun 2027 17:02:33.910   05 Jun 2027 17:03:07.579            33.669                Sumatra          4208.625
       203   05 Jun 2027 17:05:04.942   05 Jun 2027 17:06:44.486            99.544                Sumatra         12443.000
       204   05 Jun 2027 18:21:18.798   05 Jun 2027 18:22:24.034            65.236                Novosib          8154.500
       205   05 Jun 2027 18:28:25.518   05 Jun 2027 18:30:31.396           125.878                  Delhi         15734.750
       206   05 Jun 2027 18:31:44.504   05 Jun 2027 18:32:46.011            61.507                  Delhi          7688.375
       207   05 Jun 2027 21:35:39.848   05 Jun 2027 21:38:34.415           174.567                 Moscow         21820.875
       208   05 Jun 2027 21:57:54.318   05 Jun 2027 22:00:07.635           133.317               CapeTown         16664.625
       209   06 Jun 2027 03:48:09.798   06 Jun 2027 03:48:39.520            29.722                Anadyr2          3715.250
       210   06 Jun 2027 03:49:19.710   06 Jun 2027 03:50:46.092            86.382                Anadyr1         10797.750
       211   06 Jun 2027 03:50:54.558   06 Jun 2027 03:51:04.872            10.314               Magadan2          1289.250
       212   06 Jun 2027 03:51:23.735   06 Jun 2027 03:51:59.735            36.000               Magadan1          4500.000
       213   06 Jun 2027 04:34:54.458   06 Jun 2027 04:35:01.105             6.647            RioGallegos           830.875
       214   06 Jun 2027 05:03:33.389   06 Jun 2027 05:06:33.446           180.057                Sumatra         22507.125
       215   06 Jun 2027 05:23:55.828   06 Jun 2027 05:27:28.482           212.654                Irkutsk         26581.750
       216   06 Jun 2027 06:48:40.750   06 Jun 2027 06:50:30.873           110.123                  Delhi         13765.375
       217   06 Jun 2027 07:00:40.614   06 Jun 2027 07:01:05.950            25.336              Murmansk1          3167.000
       218   06 Jun 2027 07:01:11.078   06 Jun 2027 07:01:26.076            14.998                Norilsk          1874.750
       219   06 Jun 2027 07:01:26.812   06 Jun 2027 07:01:32.899             6.087              Murmansk1           760.875
       220   06 Jun 2027 07:01:32.899   06 Jun 2027 07:02:28.549            55.650              Murmansk2          6956.250
       221   06 Jun 2027 07:02:39.925   06 Jun 2027 07:02:42.643             2.718                Irkutsk           339.750
       222   06 Jun 2027 07:02:45.179   06 Jun 2027 07:03:21.166            35.987                Irkutsk          4498.375
       223   06 Jun 2027 07:03:33.975   06 Jun 2027 07:04:41.270            67.295              Murmansk2          8411.875
       224   06 Jun 2027 08:22:28.523   06 Jun 2027 08:24:31.151           122.628                  Delhi         15328.500
       225   06 Jun 2027 08:35:40.278   06 Jun 2027 08:36:37.291            57.013              Murmansk1          7126.625
       226   06 Jun 2027 08:37:04.512   06 Jun 2027 08:37:54.735            50.223              Murmansk2          6277.875
       227   06 Jun 2027 08:38:00.450   06 Jun 2027 08:38:17.354            16.904                Norilsk          2113.000
       228   06 Jun 2027 08:38:32.180   06 Jun 2027 08:39:56.522            84.342                Norilsk         10542.750
       229   06 Jun 2027 10:12:49.264   06 Jun 2027 10:13:38.505            49.241              Murmansk2          6155.125
       230   06 Jun 2027 10:13:58.146   06 Jun 2027 10:14:33.748            35.602                 Moscow          4450.250
       231   06 Jun 2027 10:14:47.894   06 Jun 2027 10:15:20.029            32.135              Murmansk1          4016.875
       232   06 Jun 2027 10:27:08.842   06 Jun 2027 10:28:42.182            93.340                Anadyr2         11667.500
       233   06 Jun 2027 11:20:07.127   06 Jun 2027 11:22:14.666           127.539               CapeTown         15942.375
       234   06 Jun 2027 11:22:25.754   06 Jun 2027 11:24:20.527           114.773               CapeTown         14346.625
       235   06 Jun 2027 12:00:31.809   06 Jun 2027 12:01:17.961            46.152                Anadyr2          5769.000
       236   06 Jun 2027 12:01:17.961   06 Jun 2027 12:02:09.035            51.074                Anadyr1          6384.250
       237   06 Jun 2027 12:03:05.200   06 Jun 2027 12:04:54.882           109.682                Anadyr2         13710.250
       238   06 Jun 2027 13:39:09.627   06 Jun 2027 13:43:09.512           239.885               Magadan2         29985.625
       239   06 Jun 2027 16:07:41.150   06 Jun 2027 16:11:09.221           208.071            RioGallegos         26008.875
       240   06 Jun 2027 16:13:53.131   06 Jun 2027 16:15:09.204            76.073            RioGallegos          9509.125
       241   06 Jun 2027 16:56:47.507   06 Jun 2027 16:58:45.781           118.274                Irkutsk         14784.250
       242   06 Jun 2027 17:09:12.784   06 Jun 2027 17:13:43.795           271.011                Sumatra         33876.375
       243   06 Jun 2027 17:17:14.464   06 Jun 2027 17:17:17.342             2.878                Sumatra           359.750
       244   06 Jun 2027 18:34:20.580   06 Jun 2027 18:34:20.862             0.282                Novosib            35.250
       245   06 Jun 2027 18:35:48.651   06 Jun 2027 18:36:00.642            11.991                Novosib          1498.875
       246   06 Jun 2027 18:39:21.118   06 Jun 2027 18:44:14.081           292.963                  Delhi         36620.375
       247   06 Jun 2027 21:42:26.354   06 Jun 2027 21:44:42.333           135.979              Murmansk2         16997.375
       248   06 Jun 2027 21:46:22.877   06 Jun 2027 21:47:58.949            96.072                 Moscow         12009.000
       249   06 Jun 2027 22:09:11.662   06 Jun 2027 22:10:12.547            60.885               CapeTown          7610.625
       250   07 Jun 2027 04:01:38.546   07 Jun 2027 04:01:54.713            16.167               Magadan1          2020.875
       251   07 Jun 2027 04:02:44.308   07 Jun 2027 04:03:54.546            70.238               Magadan1          8779.750
       252   07 Jun 2027 04:08:13.888   07 Jun 2027 04:08:30.017            16.129                Norilsk          2016.125
       253   07 Jun 2027 04:12:19.723   07 Jun 2027 04:12:48.412            28.689              Murmansk1          3586.125
       254   07 Jun 2027 04:38:52.325   07 Jun 2027 04:39:12.273            19.948            RioGallegos          2493.500
       255   07 Jun 2027 04:44:24.016   07 Jun 2027 04:44:58.119            34.103            RioGallegos          4262.875
       256   07 Jun 2027 04:46:41.021   07 Jun 2027 04:46:59.979            18.958            RioGallegos          2369.750
       257   07 Jun 2027 04:51:10.284   07 Jun 2027 04:51:39.426            29.142            RioGallegos          3642.750
       258   07 Jun 2027 05:15:39.304   07 Jun 2027 05:16:28.880            49.576                Sumatra          6197.000
       259   07 Jun 2027 05:17:29.263   07 Jun 2027 05:18:24.350            55.087                Sumatra          6885.875
       260   07 Jun 2027 05:35:01.736   07 Jun 2027 05:35:32.968            31.232                Irkutsk          3904.000
       261   07 Jun 2027 05:36:40.559   07 Jun 2027 05:36:48.340             7.781                Novosib           972.625
       262   07 Jun 2027 05:36:49.872   07 Jun 2027 05:38:22.457            92.585                Irkutsk         11573.125
       263   07 Jun 2027 05:38:54.535   07 Jun 2027 05:39:30.767            36.232                Norilsk          4529.000
       264   07 Jun 2027 05:39:51.494   07 Jun 2027 05:41:21.768            90.274                Novosib         11284.250
       265   07 Jun 2027 05:41:26.882   07 Jun 2027 05:41:32.031             5.149                Novosib           643.625
       266   07 Jun 2027 06:17:37.469   07 Jun 2027 06:18:23.702            46.233            RioGallegos          5779.125
       267   07 Jun 2027 06:50:04.070   07 Jun 2027 06:50:39.668            35.598                Sumatra          4449.750
       268   07 Jun 2027 07:00:30.897   07 Jun 2027 07:02:31.659           120.762                  Delhi         15095.250
       269   07 Jun 2027 07:13:34.791   07 Jun 2027 07:14:27.481            52.690              Murmansk1          6586.250
       270   07 Jun 2027 07:14:43.166   07 Jun 2027 07:14:57.308            14.142                Novosib          1767.750
       271   07 Jun 2027 07:15:08.251   07 Jun 2027 07:16:31.066            82.815              Murmansk2         10351.875
       272   07 Jun 2027 07:16:43.025   07 Jun 2027 07:17:32.615            49.590                Novosib          6198.750
       273   07 Jun 2027 08:47:33.872   07 Jun 2027 08:48:31.598            57.726              Murmansk1          7215.750
       274   07 Jun 2027 08:48:46.795   07 Jun 2027 08:49:06.868            20.073                Norilsk          2509.125
       275   07 Jun 2027 08:49:16.363   07 Jun 2027 08:50:05.311            48.948                 Moscow          6118.500
       276   07 Jun 2027 08:50:23.497   07 Jun 2027 08:50:27.021             3.524                 Moscow           440.500
       277   07 Jun 2027 08:50:28.235   07 Jun 2027 08:51:16.709            48.474                Norilsk          6059.250
       278   07 Jun 2027 08:51:20.739   07 Jun 2027 08:52:03.021            42.282              Murmansk2          5285.250
       279   07 Jun 2027 10:38:05.115   07 Jun 2027 10:40:05.055           119.940                Anadyr2         14992.500
       280   07 Jun 2027 10:40:54.991   07 Jun 2027 10:42:27.679            92.688                Anadyr1         11586.000
       281   07 Jun 2027 11:34:11.120   07 Jun 2027 11:35:27.504            76.384               CapeTown          9548.000
       282   07 Jun 2027 12:12:29.537   07 Jun 2027 12:15:15.124           165.587                Anadyr1         20698.375
       283   07 Jun 2027 12:16:59.087   07 Jun 2027 12:17:32.519            33.432                Anadyr1          4179.000
       284   07 Jun 2027 12:21:43.449   07 Jun 2027 12:22:02.835            19.386                Anadyr2          2423.250
       285   07 Jun 2027 13:51:01.379   07 Jun 2027 13:55:19.406           258.027               Magadan2         32253.375
       286   07 Jun 2027 13:56:42.038   07 Jun 2027 13:57:34.910            52.872               Magadan1          6609.000
       287   07 Jun 2027 16:19:14.953   07 Jun 2027 16:24:40.499           325.546            RioGallegos         40693.250
       288   07 Jun 2027 16:25:54.240   07 Jun 2027 16:26:10.239            15.999            RioGallegos          1999.875
       289   07 Jun 2027 17:10:11.866   07 Jun 2027 17:10:41.400            29.534                Irkutsk          3691.750
       290   07 Jun 2027 17:15:16.482   07 Jun 2027 17:15:59.122            42.640                Irkutsk          5330.000
       291   07 Jun 2027 17:20:40.340   07 Jun 2027 17:21:56.146            75.806                Sumatra          9475.750
       292   07 Jun 2027 17:24:21.971   07 Jun 2027 17:27:44.332           202.361                Sumatra         25295.125
       293   07 Jun 2027 18:42:11.186   07 Jun 2027 18:43:35.843            84.657                Novosib         10582.125
       294   07 Jun 2027 18:50:40.031   07 Jun 2027 18:54:11.120           211.089                  Delhi         26386.125
       295   07 Jun 2027 21:55:37.324   07 Jun 2027 22:00:00.781           263.457                 Moscow         32932.125
       296   07 Jun 2027 22:21:39.595   07 Jun 2027 22:22:12.418            32.823               CapeTown          4102.875
       297   07 Jun 2027 22:26:59.175   07 Jun 2027 22:27:35.295            36.120               CapeTown          4515.000
       298   08 Jun 2027 04:14:25.836   08 Jun 2027 04:14:48.531            22.695               Magadan2          2836.875
       299   08 Jun 2027 04:15:37.862   08 Jun 2027 04:15:47.625             9.763               Magadan2          1220.375
       300   08 Jun 2027 04:15:51.311   08 Jun 2027 04:15:59.148             7.837                Irkutsk           979.625
       301   08 Jun 2027 04:16:06.370   08 Jun 2027 04:16:51.292            44.922                Norilsk          5615.250
       302   08 Jun 2027 04:17:10.440   08 Jun 2027 04:17:35.646            25.206                Norilsk          3150.750
       303   08 Jun 2027 04:50:48.939   08 Jun 2027 04:51:33.085            44.146            RioGallegos          5518.250
       304   08 Jun 2027 04:52:42.560   08 Jun 2027 04:53:34.562            52.002            RioGallegos          6500.250
       305   08 Jun 2027 04:58:39.914   08 Jun 2027 04:59:01.036            21.122            RioGallegos          2640.250
       306   08 Jun 2027 05:26:27.662   08 Jun 2027 05:28:10.291           102.629                Sumatra         12828.625
       307   08 Jun 2027 05:48:11.467   08 Jun 2027 05:48:56.171            44.704                Irkutsk          5588.000
       308   08 Jun 2027 05:49:31.372   08 Jun 2027 05:50:12.014            40.642                Norilsk          5080.250
       309   08 Jun 2027 05:50:18.544   08 Jun 2027 05:52:05.567           107.023                Irkutsk         13377.875
       310   08 Jun 2027 07:10:06.875   08 Jun 2027 07:10:38.442            31.567                  Delhi          3945.875
       311   08 Jun 2027 07:11:20.462   08 Jun 2027 07:12:16.398            55.936                  Delhi          6992.000
       312   08 Jun 2027 07:25:36.541   08 Jun 2027 07:26:27.834            51.293              Murmansk2          6411.625
       313   08 Jun 2027 07:26:36.191   08 Jun 2027 07:26:50.474            14.283                Novosib          1785.375
       314   08 Jun 2027 07:26:55.508   08 Jun 2027 07:27:48.989            53.481                 Moscow          6685.125
       315   08 Jun 2027 08:47:36.583   08 Jun 2027 08:48:57.476            80.893                  Delhi         10111.625
       316   08 Jun 2027 08:59:54.370   08 Jun 2027 09:00:31.184            36.814                 Moscow          4601.750
       317   08 Jun 2027 09:00:43.045   08 Jun 2027 09:01:51.616            68.571                Novosib          8571.375
       318   08 Jun 2027 09:02:01.797   08 Jun 2027 09:02:15.223            13.426                 Moscow          1678.250
       319   08 Jun 2027 09:02:19.364   08 Jun 2027 09:02:43.919            24.555                Novosib          3069.375
       320   08 Jun 2027 09:02:52.550   08 Jun 2027 09:03:31.598            39.048                 Moscow          4881.000
       321   08 Jun 2027 09:03:41.517   08 Jun 2027 09:03:55.266            13.749                Novosib          1718.625
       322   08 Jun 2027 09:03:59.734   08 Jun 2027 09:04:11.756            12.022                Novosib          1502.750
       323   08 Jun 2027 09:04:12.218   08 Jun 2027 09:05:30.653            78.435                 Moscow          9804.375
       324   08 Jun 2027 10:49:37.782   08 Jun 2027 10:53:07.282           209.500                Anadyr1         26187.500
       325   08 Jun 2027 10:53:30.125   08 Jun 2027 10:55:34.230           124.105                Anadyr1         15513.125
       326   08 Jun 2027 12:24:28.056   08 Jun 2027 12:25:40.769            72.713                Anadyr1          9089.125
       327   08 Jun 2027 12:29:00.491   08 Jun 2027 12:29:41.243            40.752                Anadyr2          5094.000
       328   08 Jun 2027 14:02:55.171   08 Jun 2027 14:05:13.139           137.968               Magadan2         17246.000
       329   08 Jun 2027 14:05:33.097   08 Jun 2027 14:08:23.812           170.715               Magadan1         21339.375
       330   08 Jun 2027 16:30:56.151   08 Jun 2027 16:37:11.957           375.806            RioGallegos         46975.750
       331   08 Jun 2027 17:19:42.162   08 Jun 2027 17:20:59.842            77.680                Irkutsk          9710.000
       332   08 Jun 2027 17:22:08.047   08 Jun 2027 17:22:54.079            46.032                Novosib          5754.000
       333   08 Jun 2027 17:32:16.991   08 Jun 2027 17:36:19.068           242.077                Sumatra         30259.625
       334   08 Jun 2027 18:54:05.507   08 Jun 2027 18:56:01.334           115.827                Novosib         14478.375
       335   08 Jun 2027 19:02:47.965   08 Jun 2027 19:04:06.095            78.130                  Delhi          9766.250
       336   08 Jun 2027 19:04:45.259   08 Jun 2027 19:05:54.364            69.105                  Delhi          8638.125
       337   08 Jun 2027 20:34:02.537   08 Jun 2027 20:36:07.585           125.048                 Moscow         15631.000
       338   08 Jun 2027 20:36:24.066   08 Jun 2027 20:36:55.382            31.316                 Moscow          3914.500
       339   08 Jun 2027 22:04:13.637   08 Jun 2027 22:04:53.370            39.733              Murmansk1          4966.625
       340   08 Jun 2027 22:09:49.237   08 Jun 2027 22:10:25.971            36.734                 Moscow          4591.750
       341   08 Jun 2027 22:32:10.932   08 Jun 2027 22:33:57.345           106.413               CapeTown         13301.625
       342   09 Jun 2027 04:26:49.071   09 Jun 2027 04:27:36.312            47.241               Magadan2          5905.125
       343   09 Jun 2027 04:28:00.057   09 Jun 2027 04:28:04.525             4.468                Irkutsk           558.500
       344   09 Jun 2027 04:28:14.265   09 Jun 2027 04:28:43.159            28.894              Murmansk1          3611.750
       345   09 Jun 2027 04:28:44.496   09 Jun 2027 04:29:13.253            28.757                Novosib          3594.625
       346   09 Jun 2027 05:02:48.794   09 Jun 2027 05:03:58.800            70.006            RioGallegos          8750.750
       347   09 Jun 2027 05:38:08.135   09 Jun 2027 05:39:57.540           109.405                Sumatra         13675.625
       348   09 Jun 2027 05:59:55.813   09 Jun 2027 06:00:44.786            48.973                Novosib          6121.625
       349   09 Jun 2027 06:00:56.730   09 Jun 2027 06:01:17.247            20.517              Murmansk1          2564.625
       350   09 Jun 2027 06:01:23.604   09 Jun 2027 06:04:13.289           169.685                Novosib         21210.625
       351   09 Jun 2027 07:21:59.160   09 Jun 2027 07:22:59.296            60.136                  Delhi          7517.000
       352   09 Jun 2027 07:37:52.798   09 Jun 2027 07:38:21.777            28.979                 Moscow          3622.375
       353   09 Jun 2027 07:38:32.156   09 Jun 2027 07:38:53.047            20.891              Murmansk1          2611.375
       354   09 Jun 2027 07:39:00.720   09 Jun 2027 07:39:17.932            17.212              Murmansk1          2151.500
       355   09 Jun 2027 07:39:26.296   09 Jun 2027 07:39:44.799            18.503                 Moscow          2312.875
       356   09 Jun 2027 07:40:08.274   09 Jun 2027 07:40:14.743             6.469                Novosib           808.625
       357   09 Jun 2027 07:40:54.534   09 Jun 2027 07:41:27.875            33.341              Murmansk2          4167.625
       358   09 Jun 2027 09:00:30.552   09 Jun 2027 09:01:41.270            70.718                  Delhi          8839.750
       359   09 Jun 2027 09:11:59.449   09 Jun 2027 09:14:27.705           148.256                Novosib         18532.000
       360   09 Jun 2027 09:14:33.043   09 Jun 2027 09:14:51.593            18.550                 Moscow          2318.750
       361   09 Jun 2027 09:14:59.942   09 Jun 2027 09:15:27.183            27.241                Norilsk          3405.125
       362   09 Jun 2027 09:15:43.564   09 Jun 2027 09:16:45.471            61.907              Murmansk2          7738.375
       363   09 Jun 2027 10:22:59.744   09 Jun 2027 10:25:16.645           136.901               CapeTown         17112.625
       364   09 Jun 2027 10:27:36.843   09 Jun 2027 10:28:44.243            67.400               CapeTown          8425.000
       365   09 Jun 2027 11:01:20.654   09 Jun 2027 11:04:29.371           188.717                Anadyr2         23589.625
       366   09 Jun 2027 12:41:01.594   09 Jun 2027 12:41:38.358            36.764                Anadyr1          4595.500
       367   09 Jun 2027 12:41:51.227   09 Jun 2027 12:43:59.532           128.305               Magadan2         16038.125
       368   09 Jun 2027 14:14:50.545   09 Jun 2027 14:16:41.878           111.333               Magadan2         13916.625
       369   09 Jun 2027 14:17:39.324   09 Jun 2027 14:19:14.291            94.967               Magadan1         11870.875
       370   09 Jun 2027 14:23:57.716   09 Jun 2027 14:24:22.290            24.574               Magadan2          3071.750
       371   09 Jun 2027 16:42:42.173   09 Jun 2027 16:48:38.222           356.049            RioGallegos         44506.125
       372   09 Jun 2027 17:32:08.950   09 Jun 2027 17:33:01.043            52.093                Irkutsk          6511.625
       373   09 Jun 2027 17:34:36.640   09 Jun 2027 17:37:18.070           161.430                Novosib         20178.750
       374   09 Jun 2027 17:44:00.954   09 Jun 2027 17:46:30.805           149.851                Sumatra         18731.375
       375   09 Jun 2027 17:48:26.450   09 Jun 2027 17:49:42.106            75.656                Sumatra          9457.000
       376   09 Jun 2027 19:06:01.362   09 Jun 2027 19:07:45.864           104.502                Novosib         13062.750
       377   09 Jun 2027 19:13:50.149   09 Jun 2027 19:15:23.457            93.308                  Delhi         11663.500
       378   09 Jun 2027 20:44:36.990   09 Jun 2027 20:44:51.925            14.935              Murmansk2          1866.875
       379   09 Jun 2027 20:45:17.537   09 Jun 2027 20:48:06.980           169.443                 Moscow         21180.375
       380   09 Jun 2027 22:43:50.226   09 Jun 2027 22:46:03.365           133.139               CapeTown         16642.375
       381   10 Jun 2027 04:35:22.760   10 Jun 2027 04:36:31.728            68.968                Irkutsk          8621.000
       382   10 Jun 2027 04:37:20.967   10 Jun 2027 04:37:47.847            26.880                Irkutsk          3360.000
       383   10 Jun 2027 04:38:05.138   10 Jun 2027 04:38:39.202            34.064               Magadan2          4258.000
       384   10 Jun 2027 04:38:52.080   10 Jun 2027 04:39:26.118            34.038               Magadan2          4254.750
       385   10 Jun 2027 04:39:33.757   10 Jun 2027 04:40:56.701            82.944                Novosib         10368.000
       386   10 Jun 2027 05:14:51.977   10 Jun 2027 05:16:07.601            75.624            RioGallegos          9453.000
       387   10 Jun 2027 05:49:55.343   10 Jun 2027 05:50:41.893            46.550                Sumatra          5818.750
       388   10 Jun 2027 05:52:46.329   10 Jun 2027 05:54:30.769           104.440                Sumatra         13055.000
       389   10 Jun 2027 06:01:29.011   10 Jun 2027 06:02:54.934            85.923                  Delhi         10740.375
       390   10 Jun 2027 06:12:53.860   10 Jun 2027 06:14:17.274            83.414              Murmansk2         10426.750
       391   10 Jun 2027 06:14:32.704   10 Jun 2027 06:15:58.667            85.963                Irkutsk         10745.375
       392   10 Jun 2027 07:33:56.740   10 Jun 2027 07:35:11.525            74.785                  Delhi          9348.125
       393   10 Jun 2027 07:49:39.464   10 Jun 2027 07:50:20.430            40.966              Murmansk1          5120.750
       394   10 Jun 2027 07:50:23.306   10 Jun 2027 07:50:51.046            27.740                 Moscow          3467.500
       395   10 Jun 2027 07:51:02.915   10 Jun 2027 07:51:07.766             4.851                Novosib           606.375
       396   10 Jun 2027 07:51:14.017   10 Jun 2027 07:51:36.967            22.950                Norilsk          2868.750
       397   10 Jun 2027 07:51:52.213   10 Jun 2027 07:52:18.578            26.365                Novosib          3295.625
       398   10 Jun 2027 09:13:52.539   10 Jun 2027 09:14:34.615            42.076                  Delhi          5259.500
       399   10 Jun 2027 09:19:02.506   10 Jun 2027 09:19:08.618             6.112                  Delhi           764.000
       400   10 Jun 2027 09:21:21.219   10 Jun 2027 09:22:36.100            74.881                 Moscow          9360.125
       401   10 Jun 2027 09:22:55.438   10 Jun 2027 09:24:08.111            72.673              Murmansk2          9084.125
       402   10 Jun 2027 09:24:20.816   10 Jun 2027 09:25:16.068            55.252                 Moscow          6906.500
       403   10 Jun 2027 09:25:21.364   10 Jun 2027 09:25:31.429            10.065              Murmansk2          1258.125
       404   10 Jun 2027 09:25:39.911   10 Jun 2027 09:26:41.939            62.028                Norilsk          7753.500
       405   10 Jun 2027 09:26:53.608   10 Jun 2027 09:27:08.337            14.729                 Moscow          1841.125
       406   10 Jun 2027 09:27:11.184   10 Jun 2027 09:27:32.725            21.541              Murmansk1          2692.625
       407   10 Jun 2027 09:27:39.053   10 Jun 2027 09:27:58.073            19.020                Norilsk          2377.500
       408   10 Jun 2027 09:27:59.984   10 Jun 2027 09:28:21.336            21.352                 Moscow          2669.000
       409   10 Jun 2027 09:28:30.868   10 Jun 2027 09:29:01.136            30.268                Norilsk          3783.500
       410   10 Jun 2027 10:34:00.498   10 Jun 2027 10:37:00.471           179.973               CapeTown         22496.625
       411   10 Jun 2027 10:41:15.619   10 Jun 2027 10:41:59.701            44.082               CapeTown          5510.250
       412   10 Jun 2027 11:13:08.843   10 Jun 2027 11:17:08.241           239.398                Anadyr1         29924.750
       413   10 Jun 2027 11:17:55.131   10 Jun 2027 11:19:01.162            66.031                Anadyr1          8253.875
       414   10 Jun 2027 12:52:43.146   10 Jun 2027 12:57:45.819           302.673               Magadan2         37834.125
       415   10 Jun 2027 16:09:22.581   10 Jun 2027 16:12:37.883           195.302                Irkutsk         24412.750
       416   10 Jun 2027 16:55:49.571   10 Jun 2027 16:57:07.174            77.603            RioGallegos          9700.375
       417   10 Jun 2027 17:42:10.082   10 Jun 2027 17:44:12.178           122.096                Irkutsk         15262.000
       418   10 Jun 2027 17:46:36.202   10 Jun 2027 17:49:48.197           191.995                Novosib         23999.375
       419   10 Jun 2027 19:25:35.119   10 Jun 2027 19:29:49.602           254.483                  Delhi         31810.375
       420   10 Jun 2027 20:53:00.764   10 Jun 2027 20:53:56.642            55.878              Murmansk1          6984.750
       421   10 Jun 2027 20:56:49.927   10 Jun 2027 21:00:07.142           197.215                 Moscow         24651.875
       422   11 Jun 2027 03:11:14.518   11 Jun 2027 03:11:46.283            31.765               Magadan2          3970.625
       423   11 Jun 2027 03:12:11.570   11 Jun 2027 03:12:49.488            37.918               Magadan2          4739.750
       424   11 Jun 2027 03:12:59.244   11 Jun 2027 03:13:04.888             5.644                Anadyr2           705.500
       425   11 Jun 2027 03:13:06.945   11 Jun 2027 03:14:27.285            80.340                Anadyr2         10042.500
       426   11 Jun 2027 03:15:27.735   11 Jun 2027 03:15:54.267            26.532                Anadyr1          3316.500
       427   11 Jun 2027 04:46:34.497   11 Jun 2027 04:46:51.622            17.125                Norilsk          2140.625
       428   11 Jun 2027 04:46:54.238   11 Jun 2027 04:47:20.877            26.639                Irkutsk          3329.875
       429   11 Jun 2027 04:47:23.806   11 Jun 2027 04:47:52.519            28.713               Magadan1          3589.125
       430   11 Jun 2027 04:48:03.699   11 Jun 2027 04:49:49.633           105.934               Magadan2         13241.750
       431   11 Jun 2027 04:50:29.625   11 Jun 2027 04:51:30.719            61.094                Novosib          7636.750
       432   11 Jun 2027 04:51:31.953   11 Jun 2027 04:52:13.115            41.162                Norilsk          5145.250
       433   11 Jun 2027 05:26:58.600   11 Jun 2027 05:27:42.871            44.271            RioGallegos          5533.875
       434   11 Jun 2027 06:01:48.540   11 Jun 2027 06:02:53.279            64.739                Sumatra          8092.375
       435   11 Jun 2027 06:04:54.445   11 Jun 2027 06:05:09.540            15.095                Sumatra          1886.875
       436   11 Jun 2027 06:12:33.814   11 Jun 2027 06:15:12.525           158.711                  Delhi         19838.875
       437   11 Jun 2027 06:24:41.105   11 Jun 2027 06:25:22.329            41.224                Irkutsk          5153.000
       438   11 Jun 2027 06:25:34.180   11 Jun 2027 06:26:03.240            29.060                Irkutsk          3632.500
       439   11 Jun 2027 06:26:08.514   11 Jun 2027 06:27:51.290           102.776                Irkutsk         12847.000
       440   11 Jun 2027 07:41:21.386   11 Jun 2027 07:41:50.839            29.453                Sumatra          3681.625
       441   11 Jun 2027 07:45:59.629   11 Jun 2027 07:46:48.503            48.874                  Delhi          6109.250
       442   11 Jun 2027 08:01:09.466   11 Jun 2027 08:01:44.480            35.014                 Moscow          4376.750
       443   11 Jun 2027 08:02:00.627   11 Jun 2027 08:02:39.413            38.786                Novosib          4848.250
       444   11 Jun 2027 08:02:42.225   11 Jun 2027 08:03:17.467            35.242              Murmansk1          4405.250
       445   11 Jun 2027 08:03:28.097   11 Jun 2027 08:03:40.601            12.504                Norilsk          1563.000
       446   11 Jun 2027 08:03:44.614   11 Jun 2027 08:03:55.943            11.329                 Moscow          1416.125
       447   11 Jun 2027 08:04:27.473   11 Jun 2027 08:04:38.223            10.750                Novosib          1343.750
       448   11 Jun 2027 09:33:31.785   11 Jun 2027 09:34:45.745            73.960                 Moscow          9245.000
       449   11 Jun 2027 09:35:00.851   11 Jun 2027 09:35:43.160            42.309              Murmansk1          5288.625
       450   11 Jun 2027 09:35:49.284   11 Jun 2027 09:37:16.728            87.444                 Moscow         10930.500
       451   11 Jun 2027 09:37:41.371   11 Jun 2027 09:38:17.525            36.154                 Moscow          4519.250
       452   11 Jun 2027 09:38:27.435   11 Jun 2027 09:39:14.957            47.522                 Moscow          5940.250
       453   11 Jun 2027 09:39:21.278   11 Jun 2027 09:39:39.926            18.648              Murmansk2          2331.000
       454   11 Jun 2027 09:39:51.826   11 Jun 2027 09:40:30.887            39.061                Norilsk          4882.625
       455   11 Jun 2027 09:40:34.057   11 Jun 2027 09:40:51.581            17.524                Norilsk          2190.500
       456   11 Jun 2027 10:45:22.401   11 Jun 2027 10:48:48.937           206.536               CapeTown         25817.000
       457   11 Jun 2027 10:51:13.528   11 Jun 2027 10:53:16.262           122.734               CapeTown         15341.750
       458   11 Jun 2027 11:26:36.424   11 Jun 2027 11:30:23.844           227.420                Anadyr1         28427.500
       459   11 Jun 2027 13:04:10.890   11 Jun 2027 13:07:22.878           191.988               Magadan2         23998.500
       460   11 Jun 2027 13:07:22.878   11 Jun 2027 13:10:24.539           181.661               Magadan1         22707.625
       461   11 Jun 2027 16:20:16.951   11 Jun 2027 16:23:25.577           188.626                Irkutsk         23578.250
       462   11 Jun 2027 16:25:56.034   11 Jun 2027 16:26:16.005            19.971                Irkutsk          2496.375
       463   11 Jun 2027 16:37:23.303   11 Jun 2027 16:39:25.552           122.249                Sumatra         15281.125
       464   11 Jun 2027 17:55:14.630   11 Jun 2027 17:58:36.511           201.881                Novosib         25235.125
       465   11 Jun 2027 18:01:53.813   11 Jun 2027 18:02:13.431            19.618                Novosib          2452.250
       466   11 Jun 2027 21:04:19.614   11 Jun 2027 21:05:07.959            48.345              Murmansk1          6043.125
       467   11 Jun 2027 21:08:30.677   11 Jun 2027 21:12:07.984           217.307                 Moscow         27163.375
       468   11 Jun 2027 21:13:23.393   11 Jun 2027 21:13:38.455            15.062              Murmansk1          1882.750
       469   11 Jun 2027 21:36:34.305   11 Jun 2027 21:37:38.290            63.985               CapeTown          7998.125
       470   11 Jun 2027 21:39:13.675   11 Jun 2027 21:40:59.461           105.786               CapeTown         13223.250
       471   12 Jun 2027 03:22:46.428   12 Jun 2027 03:23:15.635            29.207                Anadyr1          3650.875
       472   12 Jun 2027 03:23:47.699   12 Jun 2027 03:24:32.627            44.928               Magadan1          5616.000
       473   12 Jun 2027 03:24:42.742   12 Jun 2027 03:24:51.551             8.809               Magadan2          1101.125
       474   12 Jun 2027 03:24:56.017   12 Jun 2027 03:26:27.731            91.714                Anadyr2         11464.250
       475   12 Jun 2027 03:27:11.549   12 Jun 2027 03:27:15.562             4.013               Magadan2           501.625
       476   12 Jun 2027 03:27:16.316   12 Jun 2027 03:27:50.671            34.355                Anadyr2          4294.375
       477   12 Jun 2027 03:28:06.154   12 Jun 2027 03:28:20.895            14.741               Magadan2          1842.625
       478   12 Jun 2027 04:42:05.211   12 Jun 2027 04:42:50.294            45.083                Sumatra          5635.375
       479   12 Jun 2027 04:58:11.905   12 Jun 2027 04:59:40.081            88.176                Novosib         11022.000
       480   12 Jun 2027 05:00:30.365   12 Jun 2027 05:01:05.102            34.737                Irkutsk          4342.125
       481   12 Jun 2027 05:01:10.487   12 Jun 2027 05:01:43.715            33.228                Novosib          4153.500
       482   12 Jun 2027 05:02:08.154   12 Jun 2027 05:02:44.756            36.602               Magadan1          4575.250
