uniorb/output/strategy_1/Drop/Drop_KinoSat_111610.txt

KinoSat_111610
-------------------------
    Access    *     Start Time (UTCG)     *     Stop Time (UTCG)  *   Duration (s)        *       Station  *  Data (Mbytes)
         1   01 Jun 2027 04:05:45.563   01 Jun 2027 04:06:12.655            27.092                Novosib           846.625
         2   01 Jun 2027 04:06:38.900   01 Jun 2027 04:07:49.107            70.207                 Moscow          2193.969
         3   01 Jun 2027 04:07:52.285   01 Jun 2027 04:08:23.080            30.795                Norilsk           962.344
         4   01 Jun 2027 04:08:24.765   01 Jun 2027 04:10:28.513           123.748              Murmansk2          3867.125
         5   01 Jun 2027 04:11:10.145   01 Jun 2027 04:14:12.029           181.884                 Moscow          5683.875
         6   01 Jun 2027 04:26:18.114   01 Jun 2027 04:34:48.216           510.102               CapeTown         15940.687
         7   01 Jun 2027 05:41:45.792   01 Jun 2027 05:42:08.944            23.152                Norilsk           723.500
         8   01 Jun 2027 05:42:10.189   01 Jun 2027 05:45:10.669           180.480              Murmansk2          5640.000
         9   01 Jun 2027 07:05:18.145   01 Jun 2027 07:06:01.618            43.473                Anadyr2          1358.531
        10   01 Jun 2027 07:06:16.657   01 Jun 2027 07:06:27.467            10.810                Norilsk           337.813
        11   01 Jun 2027 07:06:34.804   01 Jun 2027 07:08:30.301           115.497                Anadyr1          3609.281
        12   01 Jun 2027 07:09:56.324   01 Jun 2027 07:11:10.920            74.596                Anadyr1          2331.125
        13   01 Jun 2027 07:11:36.794   01 Jun 2027 07:11:55.072            18.278              Murmansk2           571.188
        14   01 Jun 2027 08:41:22.447   01 Jun 2027 08:43:02.500           100.053                Anadyr2          3126.656
        15   01 Jun 2027 08:43:31.105   01 Jun 2027 08:46:39.739           188.634                Anadyr1          5894.812
        16   01 Jun 2027 10:16:42.773   01 Jun 2027 10:17:12.184            29.411                Irkutsk           919.094
        17   01 Jun 2027 10:17:37.753   01 Jun 2027 10:21:54.994           257.241               Magadan2          8038.781
        18   01 Jun 2027 10:21:57.866   01 Jun 2027 10:22:29.395            31.529                Irkutsk           985.281
        19   01 Jun 2027 11:53:36.328   01 Jun 2027 11:57:15.617           219.289                Irkutsk          6852.781
        20   01 Jun 2027 11:57:29.808   01 Jun 2027 11:57:43.359            13.551              Murmansk1           423.469
        21   01 Jun 2027 11:57:52.107   01 Jun 2027 11:59:50.747           118.640                Novosib          3707.500
        22   01 Jun 2027 12:03:16.310   01 Jun 2027 12:03:29.957            13.647                Norilsk           426.469
        23   01 Jun 2027 12:03:58.998   01 Jun 2027 12:04:18.583            19.585              Murmansk2           612.031
        24   01 Jun 2027 12:04:18.583   01 Jun 2027 12:04:32.606            14.023              Murmansk1           438.219
        25   01 Jun 2027 12:04:55.526   01 Jun 2027 12:05:33.556            38.030              Murmansk2          1188.437
        26   01 Jun 2027 12:35:40.540   01 Jun 2027 12:38:14.979           154.439            RioGallegos          4826.219
        27   01 Jun 2027 12:41:09.467   01 Jun 2027 12:41:36.668            27.201            RioGallegos           850.031
        28   01 Jun 2027 13:10:00.883   01 Jun 2027 13:13:02.475           181.592                Sumatra          5674.750
        29   01 Jun 2027 13:15:48.156   01 Jun 2027 13:18:08.517           140.361                Sumatra          4386.281
        30   01 Jun 2027 13:25:49.541   01 Jun 2027 13:28:39.742           170.201                Irkutsk          5318.781
        31   01 Jun 2027 13:30:06.851   01 Jun 2027 13:32:24.600           137.749                Irkutsk          4304.656
        32   01 Jun 2027 13:41:08.575   01 Jun 2027 13:41:15.437             6.862              Murmansk1           214.437
        33   01 Jun 2027 14:55:45.280   01 Jun 2027 14:59:16.757           211.477                  Delhi          6608.656
        34   01 Jun 2027 15:04:12.589   01 Jun 2027 15:09:45.333           332.744                Novosib         10398.250
        35   01 Jun 2027 15:15:04.029   01 Jun 2027 15:15:18.721            14.692              Murmansk2           459.125
        36   01 Jun 2027 15:15:52.892   01 Jun 2027 15:16:35.093            42.201              Murmansk2          1318.781
        37   01 Jun 2027 16:22:02.248   01 Jun 2027 16:24:04.302           122.054               CapeTown          3814.188
        38   01 Jun 2027 16:42:25.706   01 Jun 2027 16:42:31.196             5.490                 Moscow           171.563
        39   01 Jun 2027 16:42:47.809   01 Jun 2027 16:43:17.781            29.972                 Moscow           936.625
        40   01 Jun 2027 16:43:44.582   01 Jun 2027 16:44:24.233            39.651                 Moscow          1239.094
        41   01 Jun 2027 16:45:28.468   01 Jun 2027 16:46:17.487            49.019              Murmansk1          1531.844
        42   01 Jun 2027 16:46:37.062   01 Jun 2027 16:46:59.320            22.258                 Moscow           695.563
        43   01 Jun 2027 16:47:42.792   01 Jun 2027 16:48:21.252            38.460                 Moscow          1201.875
        44   01 Jun 2027 16:48:49.449   01 Jun 2027 16:49:15.488            26.039              Murmansk1           813.719
        45   01 Jun 2027 16:50:17.616   01 Jun 2027 16:50:57.949            40.333              Murmansk2          1260.406
        46   01 Jun 2027 16:51:12.011   01 Jun 2027 16:51:52.717            40.706              Murmansk1          1272.063
        47   01 Jun 2027 16:52:29.916   01 Jun 2027 16:53:04.584            34.668              Murmansk1          1083.375
        48   01 Jun 2027 16:58:14.370   01 Jun 2027 16:58:34.678            20.308                Anadyr1           634.625
        49   01 Jun 2027 16:58:55.919   01 Jun 2027 16:59:19.192            23.273                Anadyr2           727.281
        50   01 Jun 2027 17:00:00.780   01 Jun 2027 17:00:35.299            34.519                Anadyr2          1078.719
        51   01 Jun 2027 17:01:05.222   01 Jun 2027 17:01:39.911            34.689                Anadyr2          1084.031
        52   01 Jun 2027 17:02:48.314   01 Jun 2027 17:03:04.671            16.357                Anadyr1           511.156
        53   01 Jun 2027 17:59:04.584   01 Jun 2027 17:59:28.161            23.577               CapeTown           736.781
        54   01 Jun 2027 18:02:03.989   01 Jun 2027 18:02:57.211            53.222               CapeTown          1663.187
        55   01 Jun 2027 18:18:58.917   01 Jun 2027 18:21:51.639           172.722                 Moscow          5397.562
        56   01 Jun 2027 18:24:28.709   01 Jun 2027 18:24:58.153            29.444              Murmansk1           920.125
        57   01 Jun 2027 18:26:28.277   01 Jun 2027 18:27:11.295            43.018              Murmansk1          1344.312
        58   01 Jun 2027 18:28:41.432   01 Jun 2027 18:28:55.056            13.624              Murmansk1           425.750
        59   01 Jun 2027 18:35:39.486   01 Jun 2027 18:36:05.590            26.104               Magadan1           815.750
        60   01 Jun 2027 18:37:47.906   01 Jun 2027 18:38:14.515            26.609               Magadan2           831.531
        61   01 Jun 2027 18:38:34.338   01 Jun 2027 18:38:52.935            18.597               Magadan1           581.156
        62   01 Jun 2027 18:40:45.168   01 Jun 2027 18:41:15.302            30.134                Anadyr1           941.688
        63   01 Jun 2027 18:42:00.114   01 Jun 2027 18:42:20.168            20.054                Anadyr1           626.688
        64   01 Jun 2027 18:42:32.006   01 Jun 2027 18:42:55.411            23.405                Anadyr1           731.406
        65   01 Jun 2027 19:31:42.804   01 Jun 2027 19:32:51.518            68.714               CapeTown          2147.313
        66   01 Jun 2027 20:06:41.254   01 Jun 2027 20:10:26.251           224.997                Anadyr1          7031.156
        67   01 Jun 2027 20:11:36.403   01 Jun 2027 20:12:22.687            46.284               Magadan2          1446.375
        68   01 Jun 2027 20:13:54.823   01 Jun 2027 20:14:14.655            19.832               Magadan1           619.750
        69   01 Jun 2027 20:15:10.095   01 Jun 2027 20:15:16.350             6.255               Magadan2           195.469
        70   01 Jun 2027 20:15:26.542   01 Jun 2027 20:15:30.027             3.485               Magadan2           108.906
        71   01 Jun 2027 20:15:36.368   01 Jun 2027 20:16:07.910            31.542               Magadan2           985.687
        72   01 Jun 2027 20:17:04.028   01 Jun 2027 20:17:07.272             3.244                Anadyr2           101.375
        73   01 Jun 2027 20:17:12.977   01 Jun 2027 20:17:41.372            28.395               Magadan1           887.344
        74   01 Jun 2027 20:18:54.260   01 Jun 2027 20:19:13.651            19.391               Magadan1           605.969
        75   01 Jun 2027 20:19:26.059   01 Jun 2027 20:19:37.745            11.686               Magadan2           365.188
        76   01 Jun 2027 20:20:45.778   01 Jun 2027 20:20:56.724            10.946               Magadan1           342.062
        77   01 Jun 2027 21:42:35.793   01 Jun 2027 21:44:39.071           123.278                Anadyr2          3852.438
        78   01 Jun 2027 21:44:48.552   01 Jun 2027 21:46:27.319            98.767                Anadyr2          3086.469
        79   01 Jun 2027 21:46:31.955   01 Jun 2027 21:48:54.957           143.002                Norilsk          4468.812
        80   01 Jun 2027 21:49:12.068   01 Jun 2027 21:49:48.035            35.967               Magadan1          1123.969
        81   01 Jun 2027 21:50:46.017   01 Jun 2027 21:51:08.710            22.693               Magadan2           709.156
        82   01 Jun 2027 21:52:00.856   01 Jun 2027 21:52:04.061             3.205               Magadan1           100.156
        83   01 Jun 2027 21:52:04.061   01 Jun 2027 21:52:43.044            38.983               Magadan2          1218.219
        84   01 Jun 2027 21:54:00.492   01 Jun 2027 21:54:21.001            20.509                Irkutsk           640.906
        85   01 Jun 2027 21:55:08.139   01 Jun 2027 21:55:09.336             1.197               Magadan1            37.406
        86   01 Jun 2027 21:55:26.762   01 Jun 2027 21:56:15.907            49.145               Magadan2          1535.781
        87   01 Jun 2027 22:38:49.025   01 Jun 2027 22:39:06.707            17.682            RioGallegos           552.562
        88   01 Jun 2027 22:39:17.430   01 Jun 2027 22:40:12.470            55.040            RioGallegos          1720.000
        89   01 Jun 2027 22:42:58.115   01 Jun 2027 22:43:05.662             7.547            RioGallegos           235.844
        90   01 Jun 2027 22:44:19.660   01 Jun 2027 22:44:28.670             9.010            RioGallegos           281.563
        91   01 Jun 2027 22:45:04.293   01 Jun 2027 22:45:22.750            18.457            RioGallegos           576.781
        92   01 Jun 2027 22:45:46.463   01 Jun 2027 22:46:22.979            36.516            RioGallegos          1141.125
        93   01 Jun 2027 23:18:10.029   01 Jun 2027 23:19:09.031            59.002                Anadyr1          1843.813
        94   01 Jun 2027 23:19:22.952   01 Jun 2027 23:20:25.495            62.543                Anadyr1          1954.469
        95   01 Jun 2027 23:20:57.477   01 Jun 2027 23:21:48.856            51.379               Magadan1          1605.594
        96   01 Jun 2027 23:22:42.420   01 Jun 2027 23:22:48.086             5.666               Magadan1           177.063
        97   01 Jun 2027 23:23:31.574   01 Jun 2027 23:24:08.453            36.879                Norilsk          1152.469
        98   01 Jun 2027 23:25:27.006   01 Jun 2027 23:25:42.510            15.504                Irkutsk           484.500
        99   01 Jun 2027 23:25:49.697   01 Jun 2027 23:26:51.162            61.465               Magadan2          1920.781
       100   01 Jun 2027 23:28:52.072   01 Jun 2027 23:28:57.867             5.795                Novosib           181.094
       101   01 Jun 2027 23:30:27.334   01 Jun 2027 23:30:53.667            26.333                Novosib           822.906
       102   01 Jun 2027 23:32:14.545   01 Jun 2027 23:32:26.965            12.420                Novosib           388.125
       103   01 Jun 2027 23:32:45.862   01 Jun 2027 23:32:57.369            11.507                Irkutsk           359.594
       104   01 Jun 2027 23:33:37.285   01 Jun 2027 23:34:43.471            66.186                Irkutsk          2068.313
       105   01 Jun 2027 23:44:59.898   01 Jun 2027 23:46:02.495            62.597                Sumatra          1956.156
       106   02 Jun 2027 00:17:41.953   02 Jun 2027 00:17:45.624             3.671            RioGallegos           114.719
       107   02 Jun 2027 00:17:56.137   02 Jun 2027 00:18:08.857            12.720            RioGallegos           397.500
       108   02 Jun 2027 00:18:25.494   02 Jun 2027 00:18:39.024            13.530            RioGallegos           422.812
       109   02 Jun 2027 00:20:00.785   02 Jun 2027 00:20:17.467            16.682            RioGallegos           521.313
       110   02 Jun 2027 00:21:25.698   02 Jun 2027 00:21:55.559            29.861            RioGallegos           933.156
       111   02 Jun 2027 00:23:58.802   02 Jun 2027 00:25:08.240            69.438            RioGallegos          2169.937
       112   02 Jun 2027 00:54:25.606   02 Jun 2027 00:54:49.011            23.405                Anadyr2           731.406
       113   02 Jun 2027 00:54:49.011   02 Jun 2027 00:55:03.385            14.374                Anadyr1           449.187
       114   02 Jun 2027 00:55:14.351   02 Jun 2027 00:55:17.463             3.112                Anadyr2            97.250
       115   02 Jun 2027 00:56:23.590   02 Jun 2027 00:58:06.154           102.564                Norilsk          3205.125
       116   02 Jun 2027 00:59:49.494   02 Jun 2027 01:00:09.946            20.452                Norilsk           639.125
       117   02 Jun 2027 01:00:16.954   02 Jun 2027 01:02:16.393           119.439                Irkutsk          3732.469
       118   02 Jun 2027 01:05:07.331   02 Jun 2027 01:05:36.188            28.857                Novosib           901.781
       119   02 Jun 2027 01:07:41.995   02 Jun 2027 01:08:04.229            22.234                Irkutsk           694.812
       120   02 Jun 2027 01:08:53.890   02 Jun 2027 01:09:40.377            46.487                Novosib          1452.719
       121   02 Jun 2027 01:15:24.543   02 Jun 2027 01:17:17.762           113.219                  Delhi          3538.094
       122   02 Jun 2027 01:50:26.346   02 Jun 2027 01:51:15.120            48.774            RioGallegos          1524.187
       123   02 Jun 2027 01:55:22.565   02 Jun 2027 01:55:37.770            15.205            RioGallegos           475.156
       124   02 Jun 2027 01:55:57.888   02 Jun 2027 01:56:04.788             6.900            RioGallegos           215.625
       125   02 Jun 2027 01:58:32.095   02 Jun 2027 01:58:38.574             6.479            RioGallegos           202.469
       126   02 Jun 2027 02:26:17.284   02 Jun 2027 02:26:25.840             8.556                Anadyr2           267.375
       127   02 Jun 2027 02:26:47.259   02 Jun 2027 02:27:35.741            48.482                Anadyr2          1515.062
       128   02 Jun 2027 02:31:07.415   02 Jun 2027 02:31:41.803            34.388                Anadyr1          1074.625
       129   02 Jun 2027 02:32:20.768   02 Jun 2027 02:32:39.097            18.329                Anadyr2           572.781
       130   02 Jun 2027 02:32:50.126   02 Jun 2027 02:33:56.326            66.200                Norilsk          2068.750
       131   02 Jun 2027 02:34:41.362   02 Jun 2027 02:35:31.809            50.447              Murmansk2          1576.469
       132   02 Jun 2027 02:35:57.100   02 Jun 2027 02:36:43.153            46.053              Murmansk1          1439.156
       133   02 Jun 2027 02:39:09.137   02 Jun 2027 02:39:38.449            29.312                Irkutsk           916.000
       134   02 Jun 2027 02:42:38.749   02 Jun 2027 02:43:08.603            29.854                Irkutsk           932.938
       135   02 Jun 2027 02:45:52.973   02 Jun 2027 02:47:50.509           117.536                  Delhi          3673.000
       136   02 Jun 2027 04:17:33.193   02 Jun 2027 04:17:42.764             9.571                Norilsk           299.094
       137   02 Jun 2027 04:17:47.911   02 Jun 2027 04:20:14.123           146.212                Norilsk          4569.125
       138   02 Jun 2027 04:20:34.056   02 Jun 2027 04:22:02.935            88.879              Murmansk2          2777.469
       139   02 Jun 2027 04:22:02.935   02 Jun 2027 04:22:44.116            41.181              Murmansk1          1286.906
       140   02 Jun 2027 04:22:59.603   02 Jun 2027 04:25:02.048           122.445                 Moscow          3826.406
       141   02 Jun 2027 04:26:22.829   02 Jun 2027 04:26:24.901             2.072                 Moscow            64.750
       142   02 Jun 2027 04:38:44.006   02 Jun 2027 04:39:43.413            59.407               CapeTown          1856.469
       143   02 Jun 2027 04:41:35.476   02 Jun 2027 04:41:52.240            16.764               CapeTown           523.875
       144   02 Jun 2027 04:42:14.351   02 Jun 2027 04:44:22.006           127.655               CapeTown          3989.219
       145   02 Jun 2027 05:41:59.483   02 Jun 2027 05:42:30.126            30.643               Magadan1           957.594
       146   02 Jun 2027 05:42:54.456   02 Jun 2027 05:43:31.677            37.221                Anadyr1          1163.156
       147   02 Jun 2027 05:44:48.608   02 Jun 2027 05:45:11.698            23.090                Anadyr1           721.562
       148   02 Jun 2027 05:45:16.891   02 Jun 2027 05:45:28.289            11.398                Anadyr1           356.188
       149   02 Jun 2027 05:53:24.194   02 Jun 2027 05:54:32.171            67.977              Murmansk2          2124.281
       150   02 Jun 2027 05:55:37.721   02 Jun 2027 05:58:58.193           200.472              Murmansk2          6264.750
       151   02 Jun 2027 06:00:41.656   02 Jun 2027 06:01:17.939            36.283                 Moscow          1133.844
       152   02 Jun 2027 07:17:17.961   02 Jun 2027 07:17:28.255            10.294                Anadyr1           321.687
       153   02 Jun 2027 07:17:34.910   02 Jun 2027 07:19:45.848           130.938               Magadan2          4091.813
       154   02 Jun 2027 07:20:02.190   02 Jun 2027 07:23:11.457           189.267                Anadyr2          5914.594
       155   02 Jun 2027 08:50:54.220   02 Jun 2027 08:51:33.237            39.017                Irkutsk          1219.281
       156   02 Jun 2027 08:53:22.379   02 Jun 2027 08:56:35.412           193.033                Irkutsk          6032.281
       157   02 Jun 2027 08:56:51.030   02 Jun 2027 08:58:18.252            87.222                Norilsk          2725.688
       158   02 Jun 2027 08:58:20.041   02 Jun 2027 08:58:57.716            37.675              Murmansk1          1177.344
       159   02 Jun 2027 09:34:20.352   02 Jun 2027 09:34:56.871            36.519            RioGallegos          1141.219
       160   02 Jun 2027 09:36:19.082   02 Jun 2027 09:36:37.357            18.275            RioGallegos           571.094
       161   02 Jun 2027 10:27:10.420   02 Jun 2027 10:30:26.785           196.365               Magadan2          6136.406
       162   02 Jun 2027 10:30:26.785   02 Jun 2027 10:31:58.445            91.660               Magadan1          2864.375
       163   02 Jun 2027 10:32:48.370   02 Jun 2027 10:33:40.365            51.995               Magadan2          1624.844
       164   02 Jun 2027 10:34:00.562   02 Jun 2027 10:34:48.308            47.746                Novosib          1492.062
       165   02 Jun 2027 15:17:57.550   02 Jun 2027 15:20:27.356           149.806                Novosib          4681.438
       166   02 Jun 2027 15:23:28.892   02 Jun 2027 15:23:40.230            11.338                Norilsk           354.313
       167   02 Jun 2027 15:24:33.934   02 Jun 2027 15:24:51.973            18.039                Norilsk           563.719
       168   02 Jun 2027 16:55:47.818   02 Jun 2027 16:56:26.013            38.195                 Moscow          1193.594
       169   02 Jun 2027 16:59:34.588   02 Jun 2027 16:59:46.875            12.287                 Moscow           383.969
       170   02 Jun 2027 17:00:30.621   02 Jun 2027 17:01:14.372            43.751                 Moscow          1367.219
       171   02 Jun 2027 17:02:58.820   02 Jun 2027 17:03:14.117            15.297              Murmansk2           478.031
       172   02 Jun 2027 17:04:24.717   02 Jun 2027 17:05:06.454            41.737              Murmansk1          1304.281
       173   02 Jun 2027 17:13:28.780   02 Jun 2027 17:13:42.507            13.727                Anadyr2           428.969
       174   02 Jun 2027 17:13:42.507   02 Jun 2027 17:13:45.452             2.945                Anadyr1            92.031
       175   02 Jun 2027 17:14:26.433   02 Jun 2027 17:15:26.075            59.642                Anadyr2          1863.813
       176   02 Jun 2027 17:15:54.781   02 Jun 2027 17:16:08.113            13.332                Anadyr2           416.625
       177   02 Jun 2027 18:11:35.843   02 Jun 2027 18:12:04.811            28.968               CapeTown           905.250
       178   02 Jun 2027 18:13:49.356   02 Jun 2027 18:14:53.159            63.803               CapeTown          1993.844
       179   02 Jun 2027 18:31:58.005   02 Jun 2027 18:32:40.971            42.966              Murmansk2          1342.688
       180   02 Jun 2027 18:33:28.283   02 Jun 2027 18:34:55.331            87.048              Murmansk2          2720.250
       181   02 Jun 2027 18:37:13.822   02 Jun 2027 18:39:13.085           119.263              Murmansk2          3726.969
       182   02 Jun 2027 18:51:22.837   02 Jun 2027 18:51:56.322            33.485               Magadan1          1046.406
       183   02 Jun 2027 18:53:33.827   02 Jun 2027 18:54:01.691            27.864                Anadyr1           870.750
       184   02 Jun 2027 19:41:56.848   02 Jun 2027 19:42:22.122            25.274               CapeTown           789.812
       185   02 Jun 2027 19:44:48.362   02 Jun 2027 19:46:04.493            76.131               CapeTown          2379.094
       186   02 Jun 2027 20:18:43.009   02 Jun 2027 20:21:29.356           166.347                Anadyr1          5198.344
       187   02 Jun 2027 20:22:03.798   02 Jun 2027 20:22:33.569            29.771                Anadyr1           930.344
       188   02 Jun 2027 20:23:40.650   02 Jun 2027 20:23:48.467             7.817               Magadan1           244.281
       189   02 Jun 2027 20:24:01.097   02 Jun 2027 20:24:39.556            38.459               Magadan2          1201.844
       190   02 Jun 2027 20:25:44.827   02 Jun 2027 20:25:57.628            12.801               Magadan1           400.031
       191   02 Jun 2027 20:26:34.198   02 Jun 2027 20:26:54.497            20.299               Magadan2           634.344
       192   02 Jun 2027 20:27:43.492   02 Jun 2027 20:28:07.971            24.479               Magadan1           764.969
       193   02 Jun 2027 20:28:27.317   02 Jun 2027 20:28:42.411            15.094               Magadan2           471.688
       194   02 Jun 2027 20:29:37.312   02 Jun 2027 20:30:16.181            38.869               Magadan1          1214.656
       195   02 Jun 2027 20:31:44.610   02 Jun 2027 20:31:47.992             3.382               Magadan1           105.687
       196   02 Jun 2027 20:32:13.802   02 Jun 2027 20:32:51.056            37.254               Magadan2          1164.188
       197   02 Jun 2027 20:33:08.057   02 Jun 2027 20:33:15.037             6.980               Magadan2           218.125
       198   02 Jun 2027 21:54:36.342   02 Jun 2027 21:58:16.938           220.596                Anadyr1          6893.625
       199   02 Jun 2027 21:58:20.921   02 Jun 2027 21:58:40.167            19.246                Norilsk           601.437
       200   02 Jun 2027 21:59:13.609   02 Jun 2027 22:00:41.300            87.691               Magadan2          2740.344
       201   02 Jun 2027 22:01:51.858   02 Jun 2027 22:01:57.408             5.550                Norilsk           173.438
       202   02 Jun 2027 22:02:31.522   02 Jun 2027 22:03:03.024            31.502               Magadan1           984.437
       203   02 Jun 2027 22:03:41.059   02 Jun 2027 22:04:02.798            21.739               Magadan1           679.344
       204   02 Jun 2027 22:06:25.246   02 Jun 2027 22:06:31.470             6.224               Magadan1           194.500
       205   02 Jun 2027 22:06:56.261   02 Jun 2027 22:07:40.429            44.168               Magadan1          1380.250
       206   02 Jun 2027 22:08:50.016   02 Jun 2027 22:09:03.450            13.434               Magadan2           419.812
       207   02 Jun 2027 22:50:32.945   02 Jun 2027 22:50:56.393            23.448            RioGallegos           732.750
       208   02 Jun 2027 22:51:31.844   02 Jun 2027 22:51:46.997            15.153            RioGallegos           473.531
       209   02 Jun 2027 22:53:21.796   02 Jun 2027 22:53:34.082            12.286            RioGallegos           383.938
       210   02 Jun 2027 22:54:06.063   02 Jun 2027 22:54:52.887            46.824            RioGallegos          1463.250
       211   02 Jun 2027 22:56:54.830   02 Jun 2027 22:57:51.583            56.753            RioGallegos          1773.531
       212   02 Jun 2027 23:30:05.838   02 Jun 2027 23:32:24.172           138.334                Anadyr2          4322.937
       213   02 Jun 2027 23:32:26.350   02 Jun 2027 23:33:31.506            65.156                Norilsk          2036.125
       214   02 Jun 2027 23:34:07.762   02 Jun 2027 23:34:23.199            15.437               Magadan2           482.406
       215   02 Jun 2027 23:35:19.748   02 Jun 2027 23:35:50.889            31.141               Magadan1           973.156
       216   02 Jun 2027 23:36:00.682   02 Jun 2027 23:36:24.885            24.203               Magadan2           756.344
       217   02 Jun 2027 23:37:40.423   02 Jun 2027 23:37:47.551             7.128                Novosib           222.750
       218   02 Jun 2027 23:38:16.476   02 Jun 2027 23:38:57.725            41.249                Novosib          1289.031
       219   02 Jun 2027 23:40:30.346   02 Jun 2027 23:40:52.010            21.664                Novosib           677.000
       220   02 Jun 2027 23:42:53.446   02 Jun 2027 23:43:11.424            17.978                Novosib           561.812
       221   02 Jun 2027 23:44:05.709   02 Jun 2027 23:44:08.137             2.428                Novosib            75.875
       222   02 Jun 2027 23:44:21.005   02 Jun 2027 23:44:50.243            29.238                Novosib           913.687
       223   02 Jun 2027 23:54:01.229   02 Jun 2027 23:56:13.206           131.977                Sumatra          4124.281
       224   03 Jun 2027 00:32:07.562   03 Jun 2027 00:33:22.771            75.209            RioGallegos          2350.281
       225   03 Jun 2027 01:04:34.837   03 Jun 2027 01:04:37.890             3.053                Anadyr1            95.406
       226   03 Jun 2027 01:05:05.691   03 Jun 2027 01:05:39.337            33.646                Anadyr1          1051.438
       227   03 Jun 2027 01:06:18.429   03 Jun 2027 01:06:47.350            28.921                Anadyr1           903.781
       228   03 Jun 2027 01:07:18.724   03 Jun 2027 01:07:30.218            11.494                Anadyr2           359.188
       229   03 Jun 2027 01:08:25.900   03 Jun 2027 01:10:07.740           101.840                Norilsk          3182.500
       230   03 Jun 2027 01:10:59.554   03 Jun 2027 01:11:04.038             4.484               Magadan1           140.125
       231   03 Jun 2027 01:11:19.621   03 Jun 2027 01:11:34.417            14.796               Magadan1           462.375
       232   03 Jun 2027 01:12:00.959   03 Jun 2027 01:12:47.150            46.191               Magadan1          1443.469
       233   03 Jun 2027 01:13:15.384   03 Jun 2027 01:13:27.017            11.633                Novosib           363.531
       234   03 Jun 2027 01:13:53.782   03 Jun 2027 01:14:17.377            23.595                Irkutsk           737.344
       235   03 Jun 2027 01:15:49.256   03 Jun 2027 01:16:14.354            25.098                Irkutsk           784.312
       236   03 Jun 2027 01:18:22.214   03 Jun 2027 01:18:48.545            26.331                Irkutsk           822.844
       237   03 Jun 2027 01:20:03.545   03 Jun 2027 01:20:25.582            22.037                Novosib           688.656
       238   03 Jun 2027 01:21:45.227   03 Jun 2027 01:22:19.238            34.011                Novosib          1062.844
       239   03 Jun 2027 01:26:00.848   03 Jun 2027 01:26:31.667            30.819                  Delhi           963.094
       240   03 Jun 2027 01:29:17.879   03 Jun 2027 01:30:06.702            48.823                  Delhi          1525.719
       241   03 Jun 2027 01:33:03.334   03 Jun 2027 01:33:42.654            39.320                Sumatra          1228.750
       242   03 Jun 2027 02:02:32.746   03 Jun 2027 02:03:01.637            28.891            RioGallegos           902.844
       243   03 Jun 2027 02:04:55.174   03 Jun 2027 02:05:17.532            22.358            RioGallegos           698.687
       244   03 Jun 2027 02:06:36.413   03 Jun 2027 02:07:20.780            44.367            RioGallegos          1386.469
       245   03 Jun 2027 02:38:15.910   03 Jun 2027 02:38:19.799             3.889                Anadyr2           121.531
       246   03 Jun 2027 02:40:46.366   03 Jun 2027 02:40:52.838             6.472                Anadyr1           202.250
       247   03 Jun 2027 02:40:56.166   03 Jun 2027 02:41:03.127             6.961                Anadyr2           217.531
       248   03 Jun 2027 02:41:50.402   03 Jun 2027 02:42:00.068             9.666                Anadyr1           302.063
       249   03 Jun 2027 02:43:20.212   03 Jun 2027 02:43:27.623             7.411                Anadyr2           231.594
       250   03 Jun 2027 02:44:07.265   03 Jun 2027 02:44:20.236            12.971                Anadyr2           405.344
       251   03 Jun 2027 02:44:24.319   03 Jun 2027 02:45:44.785            80.466                Norilsk          2514.563
       252   03 Jun 2027 02:46:40.362   03 Jun 2027 02:48:00.068            79.706              Murmansk1          2490.812
       253   03 Jun 2027 02:49:32.666   03 Jun 2027 02:50:11.930            39.264                Novosib          1227.000
       254   03 Jun 2027 02:54:20.003   03 Jun 2027 02:54:43.801            23.798                Irkutsk           743.688
       255   03 Jun 2027 02:55:44.429   03 Jun 2027 02:56:11.801            27.372                Irkutsk           855.375
       256   03 Jun 2027 02:59:12.428   03 Jun 2027 02:59:47.884            35.456                Novosib          1108.000
       257   03 Jun 2027 04:29:26.254   03 Jun 2027 04:30:37.821            71.567                Novosib          2236.469
       258   03 Jun 2027 04:30:40.024   03 Jun 2027 04:30:58.978            18.954              Murmansk2           592.312
       259   03 Jun 2027 04:31:12.885   03 Jun 2027 04:31:52.942            40.057                Norilsk          1251.781
       260   03 Jun 2027 04:32:01.058   03 Jun 2027 04:33:49.597           108.539              Murmansk1          3391.844
       261   03 Jun 2027 04:34:01.930   03 Jun 2027 04:34:57.738            55.808              Murmansk1          1744.000
       262   03 Jun 2027 04:35:17.158   03 Jun 2027 04:37:37.435           140.277                 Moscow          4383.656
       263   03 Jun 2027 04:52:05.780   03 Jun 2027 04:52:48.474            42.694               CapeTown          1334.187
       264   03 Jun 2027 04:53:15.980   03 Jun 2027 04:53:24.342             8.362               CapeTown           261.313
       265   03 Jun 2027 05:53:00.635   03 Jun 2027 05:54:12.697            72.062               Magadan2          2251.937
       266   03 Jun 2027 05:56:05.082   03 Jun 2027 05:56:50.387            45.305               Magadan1          1415.781
       267   03 Jun 2027 05:56:55.639   03 Jun 2027 05:57:31.379            35.740               Magadan1          1116.875
       268   03 Jun 2027 06:05:11.315   03 Jun 2027 06:09:01.897           230.582              Murmansk2          7205.687
       269   03 Jun 2027 06:12:21.218   03 Jun 2027 06:12:46.537            25.319                 Moscow           791.219
       270   03 Jun 2027 07:29:30.206   03 Jun 2027 07:32:32.675           182.469                Anadyr2          5702.156
       271   03 Jun 2027 07:32:50.171   03 Jun 2027 07:32:57.831             7.660               Magadan2           239.375
       272   03 Jun 2027 07:32:58.842   03 Jun 2027 07:33:40.768            41.926               Magadan2          1310.188
       273   03 Jun 2027 09:02:47.866   03 Jun 2027 09:04:21.630            93.764                Irkutsk          2930.125
       274   03 Jun 2027 09:04:48.232   03 Jun 2027 09:08:17.873           209.641               Magadan2          6551.281
       275   03 Jun 2027 09:08:17.873   03 Jun 2027 09:08:22.397             4.524               Magadan1           141.375
       276   03 Jun 2027 09:08:54.009   03 Jun 2027 09:10:45.262           111.253               Magadan2          3476.656
       277   03 Jun 2027 10:40:24.370   03 Jun 2027 10:41:15.724            51.354                Norilsk          1604.813
       278   03 Jun 2027 10:41:19.147   03 Jun 2027 10:41:56.976            37.829                Irkutsk          1182.156
       279   03 Jun 2027 10:42:02.121   03 Jun 2027 10:42:26.762            24.641                Norilsk           770.031
       280   03 Jun 2027 10:42:55.129   03 Jun 2027 10:43:07.208            12.079                Norilsk           377.469
       281   03 Jun 2027 10:43:11.148   03 Jun 2027 10:44:18.946            67.798                Norilsk          2118.687
       282   03 Jun 2027 10:44:23.106   03 Jun 2027 10:45:21.145            58.039              Murmansk2          1813.719
       283   03 Jun 2027 10:45:40.756   03 Jun 2027 10:46:58.370            77.614                Norilsk          2425.438
       284   03 Jun 2027 10:50:01.443   03 Jun 2027 10:50:54.557            53.114              Murmansk1          1659.813
       285   03 Jun 2027 11:21:59.694   03 Jun 2027 11:22:37.473            37.779            RioGallegos          1180.594
       286   03 Jun 2027 11:24:29.205   03 Jun 2027 11:25:13.842            44.637            RioGallegos          1394.906
       287   03 Jun 2027 11:56:09.934   03 Jun 2027 11:56:52.342            42.408                Sumatra          1325.250
       288   03 Jun 2027 11:58:49.664   03 Jun 2027 11:59:19.557            29.893                Sumatra           934.156
       289   03 Jun 2027 12:10:23.225   03 Jun 2027 12:11:44.637            81.412                Irkutsk          2544.125
       290   03 Jun 2027 12:12:47.642   03 Jun 2027 12:13:49.806            62.164                Irkutsk          1942.625
       291   03 Jun 2027 12:17:43.264   03 Jun 2027 12:17:58.230            14.966                Norilsk           467.688
       292   03 Jun 2027 12:18:28.951   03 Jun 2027 12:18:48.779            19.828              Murmansk2           619.625
       293   03 Jun 2027 12:21:44.330   03 Jun 2027 12:22:23.952            39.622                Norilsk          1238.187
       294   03 Jun 2027 13:01:30.899   03 Jun 2027 13:04:16.507           165.608            RioGallegos          5175.250
       295   03 Jun 2027 13:43:29.619   03 Jun 2027 13:44:49.293            79.674                  Delhi          2489.813
       296   03 Jun 2027 13:49:19.992   03 Jun 2027 13:50:12.301            52.309                Novosib          1634.656
       297   03 Jun 2027 13:51:04.900   03 Jun 2027 13:52:28.322            83.422                Novosib          2606.937
       298   03 Jun 2027 13:55:22.899   03 Jun 2027 13:55:32.101             9.202                Norilsk           287.563
       299   03 Jun 2027 13:55:52.487   03 Jun 2027 13:57:43.351           110.864                Norilsk          3464.500
       300   03 Jun 2027 15:24:46.432   03 Jun 2027 15:28:04.378           197.946                 Moscow          6185.812
       301   03 Jun 2027 15:29:45.207   03 Jun 2027 15:30:01.611            16.404              Murmansk2           512.625
       302   03 Jun 2027 15:32:09.375   03 Jun 2027 15:33:38.371            88.996                Norilsk          2781.125
       303   03 Jun 2027 15:34:07.196   03 Jun 2027 15:35:26.839            79.643                Norilsk          2488.844
       304   03 Jun 2027 15:36:04.702   03 Jun 2027 15:36:58.617            53.915                Norilsk          1684.844
       305   03 Jun 2027 15:37:41.344   03 Jun 2027 15:37:45.038             3.694                Norilsk           115.437
       306   03 Jun 2027 16:42:24.639   03 Jun 2027 16:42:59.492            34.853               CapeTown          1089.156
       307   03 Jun 2027 17:02:05.805   03 Jun 2027 17:02:23.528            17.723                 Moscow           553.844
       308   03 Jun 2027 17:02:58.725   03 Jun 2027 17:03:13.257            14.532                 Moscow           454.125
       309   03 Jun 2027 17:03:38.910   03 Jun 2027 17:05:58.639           139.729                 Moscow          4366.531
       310   03 Jun 2027 17:19:16.181   03 Jun 2027 17:20:34.647            78.466                Anadyr2          2452.062
       311   03 Jun 2027 17:20:55.302   03 Jun 2027 17:21:44.955            49.653                Anadyr1          1551.656
       312   03 Jun 2027 18:14:15.746   03 Jun 2027 18:16:04.642           108.896               CapeTown          3403.000
       313   03 Jun 2027 18:44:33.175   03 Jun 2027 18:45:25.244            52.069              Murmansk1          1627.156
       314   03 Jun 2027 18:45:29.281   03 Jun 2027 18:49:13.543           224.262              Murmansk2          7008.188
       315   03 Jun 2027 18:58:14.557   03 Jun 2027 18:59:35.451            80.894               Magadan1          2527.937
       316   03 Jun 2027 20:30:44.743   03 Jun 2027 20:32:21.477            96.734                Anadyr2          3022.937
       317   03 Jun 2027 20:32:36.107   03 Jun 2027 20:34:35.613           119.506                Anadyr1          3734.563
       318   03 Jun 2027 20:35:12.249   03 Jun 2027 20:38:26.638           194.389               Magadan1          6074.656
       319   03 Jun 2027 20:41:56.446   03 Jun 2027 20:42:21.222            24.776               Magadan1           774.250
       320   03 Jun 2027 21:29:15.815   03 Jun 2027 21:29:37.702            21.887            RioGallegos           683.969
       321   03 Jun 2027 22:06:36.542   03 Jun 2027 22:08:42.053           125.511                Anadyr2          3922.219
       322   03 Jun 2027 22:08:47.985   03 Jun 2027 22:12:37.898           229.913                Norilsk          7184.781
       323   03 Jun 2027 22:13:03.069   03 Jun 2027 22:14:07.354            64.285               Magadan1          2008.906
       324   03 Jun 2027 22:14:09.229   03 Jun 2027 22:14:18.052             8.823                Irkutsk           275.719
       325   03 Jun 2027 22:15:00.162   03 Jun 2027 22:15:23.730            23.568                Irkutsk           736.500
       326   03 Jun 2027 22:16:38.884   03 Jun 2027 22:16:46.482             7.598                Irkutsk           237.437
       327   03 Jun 2027 22:16:53.852   03 Jun 2027 22:17:01.945             8.093                Irkutsk           252.906
       328   03 Jun 2027 22:19:15.575   03 Jun 2027 22:20:19.212            63.637                Irkutsk          1988.656
       329   03 Jun 2027 22:30:04.021   03 Jun 2027 22:30:59.173            55.152                Sumatra          1723.500
       330   03 Jun 2027 22:31:21.138   03 Jun 2027 22:31:28.726             7.588                Sumatra           237.125
       331   03 Jun 2027 22:32:20.953   03 Jun 2027 22:34:09.989           109.036                Sumatra          3407.375
       332   03 Jun 2027 23:42:00.661   03 Jun 2027 23:42:30.118            29.457                Anadyr1           920.531
       333   03 Jun 2027 23:43:24.577   03 Jun 2027 23:44:23.349            58.772                Anadyr2          1836.625
       334   03 Jun 2027 23:45:03.821   03 Jun 2027 23:46:00.614            56.793               Magadan2          1774.781
       335   03 Jun 2027 23:46:55.631   03 Jun 2027 23:48:01.127            65.496               Magadan2          2046.750
       336   03 Jun 2027 23:48:26.721   03 Jun 2027 23:49:32.814            66.093                Irkutsk          2065.406
       337   03 Jun 2027 23:49:55.382   03 Jun 2027 23:50:06.495            11.113                Novosib           347.281
       338   03 Jun 2027 23:50:57.305   03 Jun 2027 23:51:20.258            22.953                Novosib           717.281
       339   03 Jun 2027 23:51:33.895   03 Jun 2027 23:52:31.463            57.568                Novosib          1799.000
       340   04 Jun 2027 00:02:10.877   04 Jun 2027 00:02:25.653            14.776                Sumatra           461.750
       341   04 Jun 2027 00:06:15.520   04 Jun 2027 00:06:37.377            21.857                Sumatra           683.031
       342   04 Jun 2027 00:36:25.479   04 Jun 2027 00:37:27.654            62.175            RioGallegos          1942.969
       343   04 Jun 2027 00:39:06.621   04 Jun 2027 00:39:27.102            20.481            RioGallegos           640.031
       344   04 Jun 2027 00:45:27.233   04 Jun 2027 00:45:38.799            11.566            RioGallegos           361.437
       345   04 Jun 2027 00:48:17.130   04 Jun 2027 00:48:20.856             3.726            RioGallegos           116.438
       346   04 Jun 2027 01:16:19.853   04 Jun 2027 01:16:58.193            38.340                Anadyr2          1198.125
       347   04 Jun 2027 01:17:38.744   04 Jun 2027 01:18:30.292            51.548                Anadyr2          1610.875
       348   04 Jun 2027 01:18:48.219   04 Jun 2027 01:18:56.361             8.142                Anadyr2           254.438
       349   04 Jun 2027 01:19:19.879   04 Jun 2027 01:19:20.366             0.487                Anadyr1            15.219
       350   04 Jun 2027 01:20:28.177   04 Jun 2027 01:22:26.873           118.696                Norilsk          3709.250
       351   04 Jun 2027 01:23:04.201   04 Jun 2027 01:23:20.134            15.933               Magadan2           497.906
       352   04 Jun 2027 01:23:48.032   04 Jun 2027 01:24:27.956            39.924              Murmansk1          1247.625
       353   04 Jun 2027 01:24:36.608   04 Jun 2027 01:26:20.231           103.623                Novosib          3238.219
       354   04 Jun 2027 01:28:12.318   04 Jun 2027 01:28:26.064            13.746                Novosib           429.563
       355   04 Jun 2027 01:31:19.510   04 Jun 2027 01:32:12.619            53.109                Novosib          1659.656
       356   04 Jun 2027 01:38:32.678   04 Jun 2027 01:38:32.915             0.237                  Delhi             7.406
       357   04 Jun 2027 01:38:57.200   04 Jun 2027 01:39:12.086            14.886                  Delhi           465.187
       358   04 Jun 2027 01:43:37.506   04 Jun 2027 01:44:01.798            24.292                  Delhi           759.125
       359   04 Jun 2027 02:13:14.432   04 Jun 2027 02:13:44.464            30.032            RioGallegos           938.500
       360   04 Jun 2027 02:14:27.895   04 Jun 2027 02:15:26.291            58.396            RioGallegos          1824.875
       361   04 Jun 2027 02:15:36.938   04 Jun 2027 02:16:11.457            34.519            RioGallegos          1078.719
       362   04 Jun 2027 02:18:38.692   04 Jun 2027 02:18:46.904             8.212            RioGallegos           256.625
       363   04 Jun 2027 02:49:39.571   04 Jun 2027 02:50:15.431            35.860                Anadyr1          1120.625
       364   04 Jun 2027 02:51:35.522   04 Jun 2027 02:52:38.529            63.007                Anadyr1          1968.969
       365   04 Jun 2027 02:55:52.575   04 Jun 2027 02:56:24.176            31.601               Magadan1           987.531
       366   04 Jun 2027 02:56:25.499   04 Jun 2027 02:57:06.749            41.250                Norilsk          1289.062
       367   04 Jun 2027 02:58:40.103   04 Jun 2027 02:59:30.928            50.825              Murmansk2          1588.281
       368   04 Jun 2027 03:00:01.507   04 Jun 2027 03:00:16.947            15.440              Murmansk1           482.500
       369   04 Jun 2027 03:02:38.315   04 Jun 2027 03:02:46.071             7.756              Murmansk2           242.375
       370   04 Jun 2027 03:02:51.771   04 Jun 2027 03:03:49.120            57.349                Novosib          1792.156
       371   04 Jun 2027 03:04:05.115   04 Jun 2027 03:04:11.737             6.622                Novosib           206.938
       372   04 Jun 2027 03:04:24.876   04 Jun 2027 03:07:40.740           195.864                Novosib          6120.750
       373   04 Jun 2027 03:08:02.615   04 Jun 2027 03:08:03.341             0.726                Norilsk            22.688
       374   04 Jun 2027 03:08:14.932   04 Jun 2027 03:08:56.979            42.047                Norilsk          1313.969
       375   04 Jun 2027 03:10:32.213   04 Jun 2027 03:11:30.526            58.313                  Delhi          1822.281
       376   04 Jun 2027 04:41:14.288   04 Jun 2027 04:41:28.013            13.725                Novosib           428.906
       377   04 Jun 2027 04:41:30.350   04 Jun 2027 04:42:02.913            32.563              Murmansk2          1017.594
       378   04 Jun 2027 04:42:02.913   04 Jun 2027 04:42:15.344            12.431              Murmansk1           388.469
       379   04 Jun 2027 04:42:30.074   04 Jun 2027 04:43:25.762            55.688                 Moscow          1740.250
       380   04 Jun 2027 04:43:49.974   04 Jun 2027 04:45:51.176           121.202              Murmansk2          3787.563
       381   04 Jun 2027 04:45:51.176   04 Jun 2027 04:46:10.132            18.956              Murmansk1           592.375
       382   04 Jun 2027 04:46:31.678   04 Jun 2027 04:47:20.033            48.355                 Moscow          1511.094
       383   04 Jun 2027 04:48:25.137   04 Jun 2027 04:49:09.267            44.130                 Moscow          1379.062
       384   04 Jun 2027 05:01:43.920   04 Jun 2027 05:04:35.854           171.934               CapeTown          5372.938
       385   04 Jun 2027 06:05:05.501   04 Jun 2027 06:06:05.907            60.406               Magadan2          1887.687
       386   04 Jun 2027 06:06:17.859   04 Jun 2027 06:06:28.978            11.119               Magadan1           347.469
       387   04 Jun 2027 06:08:53.138   04 Jun 2027 06:10:28.648            95.510               Magadan1          2984.688
       388   04 Jun 2027 06:10:37.113   04 Jun 2027 06:11:16.041            38.928                Anadyr2          1216.500
       389   04 Jun 2027 06:11:16.041   04 Jun 2027 06:11:21.393             5.352                Anadyr1           167.250
       390   04 Jun 2027 07:40:16.979   04 Jun 2027 07:41:32.145            75.166                Anadyr1          2348.937
       391   04 Jun 2027 07:41:43.764   04 Jun 2027 07:43:39.932           116.168               Magadan1          3630.250
       392   04 Jun 2027 07:44:12.377   04 Jun 2027 07:44:34.227            21.850                Norilsk           682.812
       393   04 Jun 2027 07:44:49.210   04 Jun 2027 07:47:11.218           142.008                Anadyr2          4437.750
       394   04 Jun 2027 08:25:33.332   04 Jun 2027 08:26:07.177            33.845            RioGallegos          1057.656
       395   04 Jun 2027 09:13:27.077   04 Jun 2027 09:13:40.674            13.597                Irkutsk           424.906
       396   04 Jun 2027 09:13:54.518   04 Jun 2027 09:15:20.040            85.522               Magadan1          2672.563
       397   04 Jun 2027 09:15:27.901   04 Jun 2027 09:15:45.142            17.241               Magadan2           538.781
       398   04 Jun 2027 09:15:58.125   04 Jun 2027 09:18:53.314           175.189                Anadyr2          5474.656
       399   04 Jun 2027 09:19:04.673   04 Jun 2027 09:20:10.044            65.371               Magadan2          2042.844
       400   04 Jun 2027 09:20:16.280   04 Jun 2027 09:20:41.502            25.222                Norilsk           788.187
       401   04 Jun 2027 09:20:42.844   04 Jun 2027 09:21:05.069            22.225               Magadan2           694.531
       402   04 Jun 2027 09:21:13.853   04 Jun 2027 09:22:05.455            51.602                Anadyr2          1612.563
       403   04 Jun 2027 09:22:13.793   04 Jun 2027 09:22:16.237             2.444              Murmansk2            76.375
       404   04 Jun 2027 09:22:23.443   04 Jun 2027 09:22:43.246            19.803               Magadan2           618.844
       405   04 Jun 2027 09:24:51.330   04 Jun 2027 09:25:14.277            22.947              Murmansk1           717.094
       406   04 Jun 2027 09:31:33.499   04 Jun 2027 09:31:46.448            12.949              Murmansk2           404.656
       407   04 Jun 2027 09:57:49.756   04 Jun 2027 09:58:10.651            20.895            RioGallegos           652.969
       408   04 Jun 2027 09:58:32.464   04 Jun 2027 09:59:06.724            34.260            RioGallegos          1070.625
       409   04 Jun 2027 10:03:20.892   04 Jun 2027 10:03:21.847             0.955            RioGallegos            29.844
       410   04 Jun 2027 10:35:22.097   04 Jun 2027 10:37:02.713           100.616                Sumatra          3144.250
       411   04 Jun 2027 10:51:49.008   04 Jun 2027 10:54:04.291           135.283               Magadan2          4227.594
       412   04 Jun 2027 10:55:06.570   04 Jun 2027 10:55:25.561            18.991                Irkutsk           593.469
       413   04 Jun 2027 10:55:28.811   04 Jun 2027 10:56:01.126            32.315                Novosib          1009.844
       414   04 Jun 2027 10:56:04.741   04 Jun 2027 10:56:14.775            10.034                Novosib           313.562
       415   04 Jun 2027 10:56:27.710   04 Jun 2027 10:56:31.432             3.722                Irkutsk           116.313
       416   04 Jun 2027 10:56:42.535   04 Jun 2027 10:56:46.899             4.364               Magadan2           136.375
       417   04 Jun 2027 10:56:54.285   04 Jun 2027 10:57:11.803            17.518              Murmansk2           547.438
       418   04 Jun 2027 10:57:25.233   04 Jun 2027 10:57:51.981            26.748                Novosib           835.875
       419   04 Jun 2027 10:57:52.721   04 Jun 2027 10:58:42.250            49.529              Murmansk2          1547.781
       420   04 Jun 2027 11:33:41.498   04 Jun 2027 11:34:40.822            59.324            RioGallegos          1853.875
       421   04 Jun 2027 12:08:13.242   04 Jun 2027 12:09:48.628            95.386                Sumatra          2980.813
       422   04 Jun 2027 12:22:44.999   04 Jun 2027 12:23:51.061            66.062                Irkutsk          2064.437
       423   04 Jun 2027 12:25:26.855   04 Jun 2027 12:25:43.958            17.103                Novosib           534.469
       424   04 Jun 2027 12:26:52.139   04 Jun 2027 12:28:38.581           106.442                Norilsk          3326.312
       425   04 Jun 2027 12:33:27.186   04 Jun 2027 12:33:29.921             2.735              Murmansk2            85.469
       426   04 Jun 2027 12:33:48.184   04 Jun 2027 12:34:32.834            44.650              Murmansk1          1395.312
       427   04 Jun 2027 13:14:59.759   04 Jun 2027 13:16:58.122           118.363            RioGallegos          3698.844
       428   04 Jun 2027 13:55:23.526   04 Jun 2027 13:57:19.245           115.719                  Delhi          3616.219
       429   04 Jun 2027 14:00:41.070   04 Jun 2027 14:01:04.695            23.625                Novosib           738.281
       430   04 Jun 2027 14:03:02.797   04 Jun 2027 14:05:27.178           144.381                Novosib          4511.906
       431   04 Jun 2027 14:07:30.447   04 Jun 2027 14:08:00.969            30.522                Norilsk           953.812
       432   04 Jun 2027 15:36:47.265   04 Jun 2027 15:39:50.655           183.390                 Moscow          5730.938
       433   04 Jun 2027 15:40:06.148   04 Jun 2027 15:40:41.661            35.513                 Moscow          1109.781
       434   04 Jun 2027 15:41:26.367   04 Jun 2027 15:43:17.714           111.347              Murmansk2          3479.594
       435   04 Jun 2027 15:44:54.810   04 Jun 2027 15:47:25.765           150.955                Norilsk          4717.344
       436   04 Jun 2027 16:51:20.992   04 Jun 2027 16:51:53.249            32.257               CapeTown          1008.031
       437   04 Jun 2027 17:14:35.540   04 Jun 2027 17:15:25.812            50.272                 Moscow          1571.000
       438   04 Jun 2027 17:17:33.931   04 Jun 2027 17:18:40.437            66.506              Murmansk2          2078.313
       439   04 Jun 2027 17:19:34.192   04 Jun 2027 17:20:02.139            27.947              Murmansk2           873.344
       440   04 Jun 2027 17:21:29.885   04 Jun 2027 17:21:34.989             5.104              Murmansk1           159.500
       441   04 Jun 2027 17:23:17.872   04 Jun 2027 17:23:21.960             4.088              Murmansk1           127.750
       442   04 Jun 2027 17:24:40.913   04 Jun 2027 17:25:23.889            42.976              Murmansk1          1343.000
       443   04 Jun 2027 17:31:11.832   04 Jun 2027 17:32:42.929            91.097                Anadyr1          2846.781
       444   04 Jun 2027 17:39:26.737   04 Jun 2027 17:39:33.779             7.042                Anadyr1           220.063
       445   04 Jun 2027 17:40:32.202   04 Jun 2027 17:40:40.186             7.984                Anadyr1           249.500
       446   04 Jun 2027 18:26:23.404   04 Jun 2027 18:28:17.619           114.215               CapeTown          3569.219
       447   04 Jun 2027 18:57:13.432   04 Jun 2027 18:58:36.537            83.105              Murmansk2          2597.031
       448   04 Jun 2027 18:58:42.119   04 Jun 2027 19:01:12.497           150.378              Murmansk1          4699.313
       449   04 Jun 2027 19:01:36.813   04 Jun 2027 19:01:50.875            14.062              Murmansk1           439.438
       450   04 Jun 2027 19:09:59.110   04 Jun 2027 19:10:37.227            38.117               Magadan2          1191.156
       451   04 Jun 2027 19:10:37.227   04 Jun 2027 19:11:17.425            40.198               Magadan1          1256.187
       452   04 Jun 2027 19:12:57.579   04 Jun 2027 19:13:16.815            19.236               Magadan2           601.125
       453   04 Jun 2027 19:17:22.636   04 Jun 2027 19:17:35.508            12.872               Magadan2           402.250
       454   04 Jun 2027 20:42:46.426   04 Jun 2027 20:44:21.781            95.355                Anadyr2          2979.844
       455   04 Jun 2027 20:44:27.341   04 Jun 2027 20:46:33.277           125.936                Anadyr1          3935.500
       456   04 Jun 2027 20:47:12.803   04 Jun 2027 20:48:09.135            56.332               Magadan1          1760.375
       457   04 Jun 2027 20:48:09.135   04 Jun 2027 20:48:47.026            37.891               Magadan2          1184.094
       458   04 Jun 2027 20:49:20.825   04 Jun 2027 20:49:32.990            12.165                Anadyr1           380.156
       459   04 Jun 2027 20:49:48.266   04 Jun 2027 20:50:29.238            40.972               Magadan1          1280.375
       460   04 Jun 2027 20:51:32.925   04 Jun 2027 20:52:01.799            28.874               Magadan1           902.312
       461   04 Jun 2027 20:56:26.283   04 Jun 2027 20:56:44.375            18.092               Magadan1           565.375
       462   04 Jun 2027 21:39:07.733   04 Jun 2027 21:41:30.487           142.754            RioGallegos          4461.063
       463   04 Jun 2027 21:43:24.662   04 Jun 2027 21:43:53.054            28.392            RioGallegos           887.250
       464   04 Jun 2027 22:18:36.330   04 Jun 2027 22:19:49.577            73.247                Anadyr2          2288.969
       465   04 Jun 2027 22:20:13.322   04 Jun 2027 22:20:33.735            20.413                Anadyr2           637.906
       466   04 Jun 2027 22:20:36.266   04 Jun 2027 22:20:55.523            19.257                Anadyr2           601.781
       467   04 Jun 2027 22:20:59.882   04 Jun 2027 22:23:18.526           138.644               Magadan1          4332.625
       468   04 Jun 2027 22:23:28.153   04 Jun 2027 22:23:50.564            22.411               Magadan1           700.344
       469   04 Jun 2027 22:25:43.648   04 Jun 2027 22:26:14.483            30.835                Irkutsk           963.594
       470   04 Jun 2027 22:27:26.648   04 Jun 2027 22:28:05.103            38.455                Irkutsk          1201.719
       471   04 Jun 2027 22:34:19.758   04 Jun 2027 22:34:23.595             3.837                Irkutsk           119.906
       472   04 Jun 2027 22:40:49.345   04 Jun 2027 22:42:57.196           127.851                Sumatra          3995.344
       473   04 Jun 2027 22:46:39.020   04 Jun 2027 22:48:35.085           116.065                Sumatra          3627.031
       474   04 Jun 2027 23:54:10.804   04 Jun 2027 23:54:15.961             5.157                Anadyr1           161.156
       475   04 Jun 2027 23:54:55.095   04 Jun 2027 23:55:00.028             4.933                Anadyr2           154.156
       476   04 Jun 2027 23:55:25.649   04 Jun 2027 23:56:22.965            57.316                Anadyr2          1791.125
       477   04 Jun 2027 23:57:06.475   04 Jun 2027 23:58:12.507            66.032                Norilsk          2063.500
       478   04 Jun 2027 23:58:32.890   05 Jun 2027 00:00:02.233            89.343               Magadan2          2791.969
       479   05 Jun 2027 00:01:07.678   05 Jun 2027 00:02:04.310            56.632                Novosib          1769.750
       480   05 Jun 2027 00:05:01.795   05 Jun 2027 00:05:35.851            34.056                Novosib          1064.250
       481   05 Jun 2027 00:11:24.171   05 Jun 2027 00:12:55.428            91.257                  Delhi          2851.781
       482   05 Jun 2027 00:13:43.237   05 Jun 2027 00:15:43.472           120.235                  Delhi          3757.344
