uniorb/output/strategy_1/Drop/Drop_KinoSat_110507.txt

KinoSat_110507
-------------------------
    Access    *     Start Time (UTCG)     *     Stop Time (UTCG)  *   Duration (s)        *       Station  *  Data (Mbytes)
         1   01 Jun 2027 03:30:15.487   01 Jun 2027 03:30:18.438             2.951                Anadyr2           368.875
         2   01 Jun 2027 03:30:23.975   01 Jun 2027 03:31:13.624            49.649               Magadan2          6206.125
         3   01 Jun 2027 03:31:20.347   01 Jun 2027 03:32:13.255            52.908                Anadyr2          6613.500
         4   01 Jun 2027 03:32:33.684   01 Jun 2027 03:34:44.165           130.481                Anadyr2         16310.125
         5   01 Jun 2027 05:06:30.088   01 Jun 2027 05:07:43.445            73.357               Magadan1          9169.625
         6   01 Jun 2027 05:08:03.676   01 Jun 2027 05:09:18.170            74.494                Irkutsk          9311.750
         7   01 Jun 2027 05:09:30.696   01 Jun 2027 05:09:47.412            16.716               Magadan2          2089.500
         8   01 Jun 2027 05:09:50.519   01 Jun 2027 05:10:00.899            10.380               Magadan2          1297.500
         9   01 Jun 2027 05:10:29.353   01 Jun 2027 05:10:43.198            13.845               Magadan2          1730.625
        10   01 Jun 2027 05:10:48.180   01 Jun 2027 05:11:44.526            56.346              Murmansk1          7043.250
        11   01 Jun 2027 05:12:20.329   01 Jun 2027 05:12:28.197             7.868                Novosib           983.500
        12   01 Jun 2027 05:13:16.677   01 Jun 2027 05:13:21.184             4.507                Norilsk           563.375
        13   01 Jun 2027 05:13:50.645   01 Jun 2027 05:14:26.574            35.929                Norilsk          4491.125
        14   01 Jun 2027 05:46:01.052   01 Jun 2027 05:47:02.818            61.766            RioGallegos          7720.750
        15   01 Jun 2027 06:21:11.440   01 Jun 2027 06:21:14.943             3.503                Sumatra           437.875
        16   01 Jun 2027 06:22:50.045   01 Jun 2027 06:23:51.487            61.442                Sumatra          7680.250
        17   01 Jun 2027 06:33:11.994   01 Jun 2027 06:33:35.721            23.727                  Delhi          2965.875
        18   01 Jun 2027 06:42:56.064   01 Jun 2027 06:44:23.696            87.632                Irkutsk         10954.000
        19   01 Jun 2027 06:44:45.557   01 Jun 2027 06:45:10.952            25.395              Murmansk2          3174.375
        20   01 Jun 2027 06:45:16.003   01 Jun 2027 06:45:45.287            29.284                Novosib          3660.500
        21   01 Jun 2027 06:45:55.331   01 Jun 2027 06:46:54.789            59.458              Murmansk2          7432.250
        22   01 Jun 2027 06:46:59.672   01 Jun 2027 06:47:26.271            26.599              Murmansk1          3324.875
        23   01 Jun 2027 07:58:39.596   01 Jun 2027 07:58:53.488            13.892                Sumatra          1736.500
        24   01 Jun 2027 08:05:08.164   01 Jun 2027 08:06:19.629            71.465                  Delhi          8933.125
        25   01 Jun 2027 08:21:11.992   01 Jun 2027 08:22:18.710            66.718                 Moscow          8339.750
        26   01 Jun 2027 08:22:35.530   01 Jun 2027 08:22:49.429            13.899              Murmansk2          1737.375
        27   01 Jun 2027 08:22:49.534   01 Jun 2027 08:23:05.962            16.428                 Moscow          2053.500
        28   01 Jun 2027 09:45:02.364   01 Jun 2027 09:46:05.117            62.753                  Delhi          7844.125
        29   01 Jun 2027 09:54:20.872   01 Jun 2027 09:54:36.941            16.069              Murmansk1          2008.625
        30   01 Jun 2027 09:54:36.941   01 Jun 2027 09:54:59.541            22.600              Murmansk2          2825.000
        31   01 Jun 2027 09:55:22.276   01 Jun 2027 09:56:47.881            85.605                 Moscow         10700.625
        32   01 Jun 2027 09:57:06.209   01 Jun 2027 09:58:28.901            82.692                Norilsk         10336.500
        33   01 Jun 2027 09:59:06.726   01 Jun 2027 10:00:51.908           105.182                 Moscow         13147.750
        34   01 Jun 2027 11:05:35.078   01 Jun 2027 11:08:14.203           159.125               CapeTown         19890.625
        35   01 Jun 2027 11:12:14.745   01 Jun 2027 11:12:39.873            25.128               CapeTown          3141.000
        36   01 Jun 2027 11:44:24.799   01 Jun 2027 11:48:27.770           242.971                Anadyr1         30371.375
        37   01 Jun 2027 11:48:39.535   01 Jun 2027 11:50:45.458           125.923                Anadyr2         15740.375
        38   01 Jun 2027 13:24:17.032   01 Jun 2027 13:28:16.591           239.559               Magadan1         29944.875
        39   01 Jun 2027 14:59:49.352   01 Jun 2027 15:00:03.529            14.177               Magadan1          1772.125
        40   01 Jun 2027 18:15:06.955   01 Jun 2027 18:21:11.066           364.111                Novosib         45513.875
        41   01 Jun 2027 20:02:27.934   01 Jun 2027 20:03:03.340            35.406                  Delhi          4425.750
        42   01 Jun 2027 21:24:38.344   01 Jun 2027 21:28:56.873           258.529              Murmansk2         32316.125
        43   01 Jun 2027 21:29:16.124   01 Jun 2027 21:30:39.449            83.325              Murmansk1         10415.625
        44   01 Jun 2027 21:30:58.488   01 Jun 2027 21:35:32.197           273.709                 Moscow         34213.625
        45   02 Jun 2027 03:44:20.247   02 Jun 2027 03:45:13.638            53.391               Magadan1          6673.875
        46   02 Jun 2027 03:45:43.298   02 Jun 2027 03:46:23.140            39.842               Magadan1          4980.250
        47   02 Jun 2027 03:46:32.481   02 Jun 2027 03:47:01.448            28.967               Magadan2          3620.875
        48   02 Jun 2027 05:18:29.369   02 Jun 2027 05:19:39.423            70.054               Magadan1          8756.750
        49   02 Jun 2027 05:19:49.093   02 Jun 2027 05:20:53.481            64.388                Novosib          8048.500
        50   02 Jun 2027 05:21:30.804   02 Jun 2027 05:22:01.444            30.640                Novosib          3830.000
        51   02 Jun 2027 05:22:07.311   02 Jun 2027 05:22:28.651            21.340               Magadan2          2667.500
        52   02 Jun 2027 05:22:56.568   02 Jun 2027 05:23:22.226            25.658                Irkutsk          3207.250
        53   02 Jun 2027 05:23:24.096   02 Jun 2027 05:24:30.302            66.206                Novosib          8275.750
        54   02 Jun 2027 05:58:06.063   02 Jun 2027 05:59:20.942            74.879            RioGallegos          9359.875
        55   02 Jun 2027 06:33:01.932   02 Jun 2027 06:33:47.615            45.683                Sumatra          5710.375
        56   02 Jun 2027 06:44:08.302   02 Jun 2027 06:45:47.409            99.107                  Delhi         12388.375
        57   02 Jun 2027 06:54:56.508   02 Jun 2027 06:55:58.635            62.127                Irkutsk          7765.875
        58   02 Jun 2027 06:56:32.611   02 Jun 2027 06:56:39.089             6.478                Norilsk           809.750
        59   02 Jun 2027 06:56:39.265   02 Jun 2027 06:56:58.855            19.590                Irkutsk          2448.750
        60   02 Jun 2027 06:57:12.750   02 Jun 2027 06:57:32.638            19.888                 Moscow          2486.000
        61   02 Jun 2027 06:57:42.133   02 Jun 2027 06:57:51.665             9.532              Murmansk2          1191.500
        62   02 Jun 2027 06:57:57.709   02 Jun 2027 06:58:58.792            61.083                Norilsk          7635.375
        63   02 Jun 2027 06:59:00.115   02 Jun 2027 06:59:47.119            47.004                 Moscow          5875.500
        64   02 Jun 2027 08:17:08.584   02 Jun 2027 08:17:21.534            12.950                  Delhi          1618.750
        65   02 Jun 2027 08:18:18.241   02 Jun 2027 08:19:10.030            51.789                  Delhi          6473.625
        66   02 Jun 2027 08:33:27.057   02 Jun 2027 08:33:49.672            22.615                 Moscow          2826.875
        67   02 Jun 2027 08:33:56.179   02 Jun 2027 08:34:22.784            26.605                Norilsk          3325.625
        68   02 Jun 2027 08:34:35.538   02 Jun 2027 08:35:09.503            33.965                Norilsk          4245.625
        69   02 Jun 2027 08:35:11.497   02 Jun 2027 08:35:40.477            28.980                 Moscow          3622.500
        70   02 Jun 2027 09:58:21.516   02 Jun 2027 09:59:09.533            48.017                  Delhi          6002.125
        71   02 Jun 2027 10:06:14.124   02 Jun 2027 10:07:56.050           101.926              Murmansk2         12740.750
        72   02 Jun 2027 10:08:11.250   02 Jun 2027 10:09:11.469            60.219              Murmansk2          7527.375
        73   02 Jun 2027 10:09:38.460   02 Jun 2027 10:10:14.154            35.694              Murmansk2          4461.750
        74   02 Jun 2027 10:10:30.770   02 Jun 2027 10:10:38.401             7.631                Norilsk           953.875
        75   02 Jun 2027 10:10:40.376   02 Jun 2027 10:10:45.381             5.005              Murmansk2           625.625
        76   02 Jun 2027 10:10:45.705   02 Jun 2027 10:11:09.520            23.815                 Moscow          2976.875
        77   02 Jun 2027 10:11:22.822   02 Jun 2027 10:13:50.811           147.989                 Moscow         18498.625
        78   02 Jun 2027 11:16:49.240   02 Jun 2027 11:19:59.883           190.643               CapeTown         23830.375
        79   02 Jun 2027 11:22:07.202   02 Jun 2027 11:22:18.444            11.242               CapeTown          1405.250
        80   02 Jun 2027 11:24:13.173   02 Jun 2027 11:25:40.634            87.461               CapeTown         10932.625
        81   02 Jun 2027 11:56:14.940   02 Jun 2027 12:00:24.508           249.568                Anadyr1         31196.000
        82   02 Jun 2027 12:01:10.457   02 Jun 2027 12:02:57.692           107.235                Anadyr2         13404.375
        83   02 Jun 2027 13:35:34.839   02 Jun 2027 13:41:35.386           360.547               Magadan1         45068.375
        84   02 Jun 2027 16:51:51.840   02 Jun 2027 16:56:40.011           288.171                Irkutsk         36021.375
        85   02 Jun 2027 18:26:36.213   02 Jun 2027 18:34:12.945           456.732                Novosib         57091.500
        86   02 Jun 2027 21:36:08.918   02 Jun 2027 21:37:04.106            55.188              Murmansk1          6898.500
        87   02 Jun 2027 21:38:49.645   02 Jun 2027 21:40:51.715           122.070              Murmansk2         15258.750
        88   02 Jun 2027 21:40:55.880   02 Jun 2027 21:44:53.261           237.381                 Moscow         29672.625
        89   02 Jun 2027 22:08:17.956   02 Jun 2027 22:09:04.579            46.623               CapeTown          5827.875
        90   02 Jun 2027 22:10:05.128   02 Jun 2027 22:12:06.964           121.836               CapeTown         15229.500
        91   03 Jun 2027 03:56:44.995   03 Jun 2027 03:56:51.057             6.062                Anadyr2           757.750
        92   03 Jun 2027 03:57:07.827   03 Jun 2027 03:57:48.716            40.889               Magadan1          5111.125
        93   03 Jun 2027 03:57:50.742   03 Jun 2027 03:58:20.902            30.160               Magadan1          3770.000
        94   03 Jun 2027 03:58:54.466   03 Jun 2027 03:59:32.793            38.327               Magadan1          4790.875
        95   03 Jun 2027 04:36:20.879   03 Jun 2027 04:36:59.245            38.366            RioGallegos          4795.750
        96   03 Jun 2027 04:38:45.036   03 Jun 2027 04:39:04.705            19.669            RioGallegos          2458.625
        97   03 Jun 2027 05:14:25.696   03 Jun 2027 05:17:20.719           175.023                Sumatra         21877.875
        98   03 Jun 2027 05:30:51.275   03 Jun 2027 05:33:34.716           163.441                Irkutsk         20430.125
        99   03 Jun 2027 05:34:42.581   03 Jun 2027 05:35:25.640            43.059                Irkutsk          5382.375
       100   03 Jun 2027 05:36:29.023   03 Jun 2027 05:36:40.996            11.973                Novosib          1496.625
       101   03 Jun 2027 06:10:14.614   03 Jun 2027 06:11:11.017            56.403            RioGallegos          7050.375
       102   03 Jun 2027 06:44:58.183   03 Jun 2027 06:45:41.043            42.860                Sumatra          5357.500
       103   03 Jun 2027 06:57:29.237   03 Jun 2027 06:58:05.427            36.190                  Delhi          4523.750
       104   03 Jun 2027 07:02:24.280   03 Jun 2027 07:03:06.771            42.491                  Delhi          5311.375
       105   03 Jun 2027 07:06:56.000   03 Jun 2027 07:07:51.343            55.343                Irkutsk          6917.875
       106   03 Jun 2027 07:08:02.529   03 Jun 2027 07:08:52.442            49.913                Irkutsk          6239.125
       107   03 Jun 2027 07:09:45.627   03 Jun 2027 07:10:36.683            51.056              Murmansk1          6382.000
       108   03 Jun 2027 07:10:54.000   03 Jun 2027 07:12:19.375            85.375                Novosib         10671.875
       109   03 Jun 2027 08:29:14.411   03 Jun 2027 08:29:35.175            20.764                  Delhi          2595.500
       110   03 Jun 2027 08:32:18.190   03 Jun 2027 08:32:24.195             6.005                  Delhi           750.625
       111   03 Jun 2027 08:45:11.133   03 Jun 2027 08:45:35.088            23.955                 Moscow          2994.375
       112   03 Jun 2027 08:45:36.049   03 Jun 2027 08:46:29.452            53.403                Novosib          6675.375
       113   03 Jun 2027 08:46:52.650   03 Jun 2027 08:47:53.032            60.382                 Moscow          7547.750
       114   03 Jun 2027 08:48:03.377   03 Jun 2027 08:48:06.883             3.506                Novosib           438.250
       115   03 Jun 2027 08:49:07.067   03 Jun 2027 08:49:27.859            20.792                 Moscow          2599.000
       116   03 Jun 2027 10:18:04.606   03 Jun 2027 10:19:28.657            84.051                 Moscow         10506.375
       117   03 Jun 2027 10:19:29.561   03 Jun 2027 10:19:56.125            26.564              Murmansk2          3320.500
       118   03 Jun 2027 10:20:13.228   03 Jun 2027 10:21:05.910            52.682              Murmansk1          6585.250
       119   03 Jun 2027 10:21:16.063   03 Jun 2027 10:22:12.458            56.395              Murmansk2          7049.375
       120   03 Jun 2027 10:22:28.495   03 Jun 2027 10:23:21.286            52.791                Norilsk          6598.875
       121   03 Jun 2027 10:23:40.192   03 Jun 2027 10:23:48.330             8.138                Norilsk          1017.250
       122   03 Jun 2027 10:24:31.287   03 Jun 2027 10:24:47.673            16.386                 Moscow          2048.250
       123   03 Jun 2027 11:28:17.812   03 Jun 2027 11:29:52.312            94.500               CapeTown         11812.500
       124   03 Jun 2027 11:29:54.778   03 Jun 2027 11:35:20.649           325.871               CapeTown         40733.875
       125   03 Jun 2027 12:08:07.783   03 Jun 2027 12:12:22.229           254.446                Anadyr1         31805.750
       126   03 Jun 2027 12:12:41.148   03 Jun 2027 12:15:07.635           146.487                Anadyr2         18310.875
       127   03 Jun 2027 13:47:09.673   03 Jun 2027 13:51:18.916           249.243               Magadan2         31155.375
       128   03 Jun 2027 17:03:06.876   03 Jun 2027 17:10:04.177           417.301                Irkutsk         52162.625
       129   03 Jun 2027 17:19:11.920   03 Jun 2027 17:20:33.193            81.273                Sumatra         10159.125
       130   03 Jun 2027 17:21:48.632   03 Jun 2027 17:22:16.184            27.552                Sumatra          3444.000
       131   03 Jun 2027 17:24:14.640   03 Jun 2027 17:24:30.780            16.140                Sumatra          2017.500
       132   03 Jun 2027 18:38:45.688   03 Jun 2027 18:41:28.023           162.335                Novosib         20291.875
       133   03 Jun 2027 18:42:03.908   03 Jun 2027 18:43:28.348            84.440                Novosib         10555.000
       134   03 Jun 2027 18:44:45.530   03 Jun 2027 18:46:21.261            95.731                Novosib         11966.375
       135   03 Jun 2027 21:47:30.186   03 Jun 2027 21:49:27.776           117.590              Murmansk1         14698.750
       136   03 Jun 2027 21:51:29.702   03 Jun 2027 21:51:58.128            28.426              Murmansk1          3553.250
       137   03 Jun 2027 21:53:43.869   03 Jun 2027 21:55:30.038           106.169                 Moscow         13271.125
       138   03 Jun 2027 21:57:19.745   03 Jun 2027 21:58:18.447            58.702                 Moscow          7337.750
       139   03 Jun 2027 22:18:44.884   03 Jun 2027 22:18:54.148             9.264               CapeTown          1158.000
       140   03 Jun 2027 22:20:30.626   03 Jun 2027 22:21:32.152            61.526               CapeTown          7690.750
       141   04 Jun 2027 04:07:39.291   04 Jun 2027 04:10:13.876           154.585                Anadyr1         19323.125
       142   04 Jun 2027 04:11:18.873   04 Jun 2027 04:11:30.491            11.618               Magadan1          1452.250
       143   04 Jun 2027 04:14:37.766   04 Jun 2027 04:15:06.452            28.686              Murmansk2          3585.750
       144   04 Jun 2027 04:46:39.624   04 Jun 2027 04:47:32.512            52.888            RioGallegos          6611.000
       145   04 Jun 2027 04:48:07.683   04 Jun 2027 04:48:16.618             8.935            RioGallegos          1116.875
       146   04 Jun 2027 04:48:59.010   04 Jun 2027 04:49:19.106            20.096            RioGallegos          2512.000
       147   04 Jun 2027 05:24:25.159   04 Jun 2027 05:25:42.861            77.702                Sumatra          9712.750
       148   04 Jun 2027 05:28:09.263   04 Jun 2027 05:30:13.646           124.383                Sumatra         15547.875
       149   04 Jun 2027 05:42:56.445   04 Jun 2027 05:43:28.463            32.018                Irkutsk          4002.250
       150   04 Jun 2027 05:43:42.067   04 Jun 2027 05:45:04.153            82.086                Irkutsk         10260.750
       151   04 Jun 2027 05:45:56.078   04 Jun 2027 05:46:36.927            40.849                Norilsk          5106.125
       152   04 Jun 2027 05:46:50.923   04 Jun 2027 05:47:28.293            37.370                Irkutsk          4671.250
       153   04 Jun 2027 05:47:34.738   04 Jun 2027 05:48:05.644            30.906              Murmansk1          3863.250
       154   04 Jun 2027 05:48:16.895   04 Jun 2027 05:48:56.631            39.736                Norilsk          4967.000
       155   04 Jun 2027 05:49:09.062   04 Jun 2027 05:49:23.756            14.694                Norilsk          1836.750
       156   04 Jun 2027 05:54:42.836   04 Jun 2027 05:55:05.825            22.989              Murmansk2          2873.625
       157   04 Jun 2027 06:27:43.636   04 Jun 2027 06:28:09.495            25.859            RioGallegos          3232.375
       158   04 Jun 2027 06:57:00.008   04 Jun 2027 06:57:59.687            59.679                Sumatra          7459.875
       159   04 Jun 2027 07:07:34.045   04 Jun 2027 07:08:01.196            27.151                  Delhi          3393.875
       160   04 Jun 2027 07:19:29.625   04 Jun 2027 07:19:59.939            30.314                 Moscow          3789.250
       161   04 Jun 2027 07:20:11.103   04 Jun 2027 07:20:27.558            16.455              Murmansk2          2056.875
       162   04 Jun 2027 07:20:30.440   04 Jun 2027 07:21:22.082            51.642                Novosib          6455.250
       163   04 Jun 2027 07:21:29.404   04 Jun 2027 07:22:59.762            90.358                 Moscow         11294.750
       164   04 Jun 2027 07:23:14.003   04 Jun 2027 07:23:49.085            35.082                Novosib          4385.250
       165   04 Jun 2027 08:44:02.522   04 Jun 2027 08:44:12.349             9.827                  Delhi          1228.375
       166   04 Jun 2027 08:54:43.202   04 Jun 2027 08:55:59.550            76.348                Novosib          9543.500
       167   04 Jun 2027 08:56:19.714   04 Jun 2027 08:57:03.618            43.904                Novosib          5488.000
       168   04 Jun 2027 08:57:15.877   04 Jun 2027 08:58:03.108            47.231                 Moscow          5903.875
       169   04 Jun 2027 08:58:07.804   04 Jun 2027 08:58:29.384            21.580                Norilsk          2697.500
       170   04 Jun 2027 08:58:36.648   04 Jun 2027 08:59:00.252            23.604                Novosib          2950.500
       171   04 Jun 2027 08:59:04.467   04 Jun 2027 08:59:20.743            16.276              Murmansk1          2034.500
       172   04 Jun 2027 10:29:03.595   04 Jun 2027 10:30:04.048            60.453              Murmansk2          7556.625
       173   04 Jun 2027 10:30:50.972   04 Jun 2027 10:31:45.979            55.007              Murmansk2          6875.875
       174   04 Jun 2027 10:32:03.625   04 Jun 2027 10:32:10.528             6.903              Murmansk1           862.875
       175   04 Jun 2027 10:32:19.978   04 Jun 2027 10:33:13.710            53.732                 Moscow          6716.500
       176   04 Jun 2027 10:33:20.566   04 Jun 2027 10:34:03.359            42.793                 Moscow          5349.125
       177   04 Jun 2027 11:39:55.122   04 Jun 2027 11:40:57.594            62.472               CapeTown          7809.000
       178   04 Jun 2027 11:43:43.363   04 Jun 2027 11:43:53.214             9.851               CapeTown          1231.375
       179   04 Jun 2027 11:43:57.782   04 Jun 2027 11:46:23.150           145.368               CapeTown         18171.000
       180   04 Jun 2027 12:20:02.551   04 Jun 2027 12:22:18.878           136.327                Anadyr2         17040.875
       181   04 Jun 2027 12:23:31.201   04 Jun 2027 12:24:20.745            49.544                Anadyr1          6193.000
       182   04 Jun 2027 12:27:15.386   04 Jun 2027 12:28:52.984            97.598                Anadyr1         12199.750
       183   04 Jun 2027 13:58:52.369   04 Jun 2027 14:03:50.632           298.263               Magadan1         37282.875
       184   04 Jun 2027 16:28:13.267   04 Jun 2027 16:30:48.934           155.667            RioGallegos         19458.375
       185   04 Jun 2027 17:14:38.467   04 Jun 2027 17:18:15.563           217.096                Irkutsk         27137.000
       186   04 Jun 2027 17:19:34.657   04 Jun 2027 17:20:52.405            77.748                Irkutsk          9718.500
       187   04 Jun 2027 17:29:49.546   04 Jun 2027 17:32:09.793           140.247                Sumatra         17530.875
       188   04 Jun 2027 17:34:00.688   04 Jun 2027 17:34:14.681            13.993                Sumatra          1749.125
       189   04 Jun 2027 17:36:12.365   04 Jun 2027 17:37:46.573            94.208                Sumatra         11776.000
       190   04 Jun 2027 18:52:29.922   04 Jun 2027 18:53:58.219            88.297                Novosib         11037.125
       191   04 Jun 2027 18:55:53.868   04 Jun 2027 18:56:03.596             9.728                Novosib          1216.000
       192   04 Jun 2027 19:00:38.550   04 Jun 2027 19:02:40.388           121.838                  Delhi         15229.750
       193   04 Jun 2027 20:25:32.890   04 Jun 2027 20:27:51.792           138.902              Murmansk1         17362.750
       194   04 Jun 2027 22:01:11.876   04 Jun 2027 22:03:48.659           156.783              Murmansk1         19597.875
       195   04 Jun 2027 22:07:25.592   04 Jun 2027 22:09:41.792           136.200                 Moscow         17025.000
       196   04 Jun 2027 22:33:49.929   04 Jun 2027 22:34:02.063            12.134               CapeTown          1516.750
       197   05 Jun 2027 04:20:12.193   05 Jun 2027 04:21:23.900            71.707               Magadan1          8963.375
       198   05 Jun 2027 04:21:38.288   05 Jun 2027 04:22:27.707            49.419                Norilsk          6177.375
       199   05 Jun 2027 04:22:45.198   05 Jun 2027 04:23:27.183            41.985               Magadan1          5248.125
       200   05 Jun 2027 04:59:49.972   05 Jun 2027 05:00:57.683            67.711            RioGallegos          8463.875
       201   05 Jun 2027 05:35:20.741   05 Jun 2027 05:35:45.582            24.841                Sumatra          3105.125
       202   05 Jun 2027 05:40:24.530   05 Jun 2027 05:41:28.926            64.396                Sumatra          8049.500
       203   05 Jun 2027 05:54:59.837   05 Jun 2027 05:55:41.521            41.684                Irkutsk          5210.500
       204   05 Jun 2027 05:55:54.374   05 Jun 2027 05:56:27.328            32.954               Magadan1          4119.250
       205   05 Jun 2027 05:56:35.546   05 Jun 2027 05:58:20.446           104.900                Novosib         13112.500
       206   05 Jun 2027 05:58:28.701   05 Jun 2027 05:58:45.911            17.210                Irkutsk          2151.250
       207   05 Jun 2027 05:59:14.464   05 Jun 2027 05:59:35.513            21.049                Norilsk          2631.125
       208   05 Jun 2027 06:34:43.164   05 Jun 2027 06:35:00.671            17.507            RioGallegos          2188.375
       209   05 Jun 2027 06:38:51.826   05 Jun 2027 06:39:22.205            30.379            RioGallegos          3797.375
       210   05 Jun 2027 07:18:15.224   05 Jun 2027 07:19:55.143            99.919                  Delhi         12489.875
       211   05 Jun 2027 07:32:04.953   05 Jun 2027 07:33:32.892            87.939                Norilsk         10992.375
       212   05 Jun 2027 07:33:41.502   05 Jun 2027 07:34:34.219            52.717                Novosib          6589.625
       213   05 Jun 2027 07:34:48.305   05 Jun 2027 07:36:18.958            90.653                 Moscow         11331.625
       214   05 Jun 2027 08:57:11.607   05 Jun 2027 08:58:00.068            48.461                  Delhi          6057.625
       215   05 Jun 2027 09:07:02.489   05 Jun 2027 09:08:14.211            71.722                Novosib          8965.250
       216   05 Jun 2027 09:08:29.928   05 Jun 2027 09:09:24.781            54.853              Murmansk2          6856.625
       217   05 Jun 2027 09:09:29.638   05 Jun 2027 09:09:34.019             4.381              Murmansk1           547.625
       218   05 Jun 2027 09:09:36.736   05 Jun 2027 09:10:13.776            37.040                Novosib          4630.000
       219   05 Jun 2027 09:10:38.168   05 Jun 2027 09:11:48.964            70.796                Norilsk          8849.500
       220   05 Jun 2027 09:11:56.108   05 Jun 2027 09:12:14.546            18.438                Novosib          2304.750
       221   05 Jun 2027 10:43:33.704   05 Jun 2027 10:43:54.463            20.759              Murmansk1          2594.875
       222   05 Jun 2027 10:44:00.647   05 Jun 2027 10:44:24.345            23.698              Murmansk2          2962.250
       223   05 Jun 2027 10:44:32.962   05 Jun 2027 10:45:17.476            44.514              Murmansk1          5564.250
       224   05 Jun 2027 10:45:43.800   05 Jun 2027 10:47:16.790            92.990                 Moscow         11623.750
       225   05 Jun 2027 11:51:38.576   05 Jun 2027 11:53:06.375            87.799               CapeTown         10974.875
       226   05 Jun 2027 11:56:10.498   05 Jun 2027 11:57:45.849            95.351               CapeTown         11918.875
       227   05 Jun 2027 12:31:58.749   05 Jun 2027 12:33:50.610           111.861                Anadyr1         13982.625
       228   05 Jun 2027 12:36:15.617   05 Jun 2027 12:37:25.171            69.554                Anadyr2          8694.250
       229   05 Jun 2027 12:39:42.214   05 Jun 2027 12:40:54.236            72.022                Anadyr1          9002.750
       230   05 Jun 2027 14:10:39.794   05 Jun 2027 14:17:31.870           412.076               Magadan1         51509.500
       231   05 Jun 2027 16:39:22.319   05 Jun 2027 16:42:34.929           192.610            RioGallegos         24076.250
       232   05 Jun 2027 16:44:55.575   05 Jun 2027 16:46:06.510            70.935            RioGallegos          8866.875
       233   05 Jun 2027 17:28:00.047   05 Jun 2027 17:30:08.206           128.159                Irkutsk         16019.875
       234   05 Jun 2027 17:32:01.479   05 Jun 2027 17:32:39.688            38.209                Irkutsk          4776.125
       235   05 Jun 2027 17:40:56.757   05 Jun 2027 17:43:53.715           176.958                Sumatra         22119.750
       236   05 Jun 2027 17:44:17.753   05 Jun 2027 17:45:37.977            80.224                Sumatra         10028.000
       237   05 Jun 2027 17:48:19.040   05 Jun 2027 17:49:36.074            77.034                Sumatra          9629.250
       238   05 Jun 2027 19:11:11.521   05 Jun 2027 19:12:56.149           104.628                  Delhi         13078.500
       239   05 Jun 2027 20:37:30.432   05 Jun 2027 20:38:54.805            84.373              Murmansk2         10546.625
       240   05 Jun 2027 22:15:12.314   05 Jun 2027 22:17:01.793           109.479                 Moscow         13684.875
       241   05 Jun 2027 22:43:13.688   05 Jun 2027 22:45:56.017           162.329               CapeTown         20291.125
       242   06 Jun 2027 04:32:48.185   06 Jun 2027 04:33:39.857            51.672                Anadyr2          6459.000
       243   06 Jun 2027 04:34:01.010   06 Jun 2027 04:35:22.636            81.626               Magadan1         10203.250
       244   06 Jun 2027 05:10:20.475   06 Jun 2027 05:11:25.476            65.001            RioGallegos          8125.125
       245   06 Jun 2027 05:46:36.491   06 Jun 2027 05:49:48.084           191.593                Sumatra         23949.125
       246   06 Jun 2027 06:07:44.289   06 Jun 2027 06:09:20.004            95.715                Novosib         11964.375
       247   06 Jun 2027 06:09:45.767   06 Jun 2027 06:10:11.519            25.752              Murmansk2          3219.000
       248   06 Jun 2027 06:10:11.519   06 Jun 2027 06:10:40.603            29.084              Murmansk1          3635.500
       249   06 Jun 2027 06:10:57.486   06 Jun 2027 06:11:16.356            18.870                Norilsk          2358.750
       250   06 Jun 2027 06:11:38.661   06 Jun 2027 06:12:19.904            41.243              Murmansk2          5155.375
       251   06 Jun 2027 07:21:21.233   06 Jun 2027 07:22:20.765            59.532                Sumatra          7441.500
       252   06 Jun 2027 07:29:53.428   06 Jun 2027 07:31:51.216           117.788                  Delhi         14723.500
       253   06 Jun 2027 07:44:07.153   06 Jun 2027 07:44:36.300            29.147                Norilsk          3643.375
       254   06 Jun 2027 07:44:45.938   06 Jun 2027 07:45:48.861            62.923                 Moscow          7865.375
       255   06 Jun 2027 07:46:04.484   06 Jun 2027 07:46:56.849            52.365                 Moscow          6545.625
       256   06 Jun 2027 09:06:08.929   06 Jun 2027 09:07:48.194            99.265                  Delhi         12408.125
       257   06 Jun 2027 09:19:01.625   06 Jun 2027 09:20:04.172            62.547              Murmansk2          7818.375
       258   06 Jun 2027 09:20:11.761   06 Jun 2027 09:20:48.401            36.640                Novosib          4580.000
       259   06 Jun 2027 09:20:58.751   06 Jun 2027 09:21:30.247            31.496                Norilsk          3937.000
       260   06 Jun 2027 09:21:37.312   06 Jun 2027 09:22:14.835            37.523                Novosib          4690.375
       261   06 Jun 2027 09:22:26.155   06 Jun 2027 09:22:58.305            32.150                Novosib          4018.750
       262   06 Jun 2027 09:23:11.479   06 Jun 2027 09:23:59.582            48.103              Murmansk1          6012.875
       263   06 Jun 2027 09:24:13.726   06 Jun 2027 09:24:38.507            24.781                 Moscow          3097.625
       264   06 Jun 2027 10:56:53.378   06 Jun 2027 10:58:10.157            76.779              Murmansk2          9597.375
       265   06 Jun 2027 11:09:50.295   06 Jun 2027 11:13:01.586           191.291                Anadyr2         23911.375
       266   06 Jun 2027 12:44:43.011   06 Jun 2027 12:45:33.075            50.064                Anadyr1          6258.000
       267   06 Jun 2027 12:48:54.615   06 Jun 2027 12:50:42.066           107.451                Anadyr2         13431.375
       268   06 Jun 2027 14:22:30.414   06 Jun 2027 14:26:11.529           221.115               Magadan2         27639.375
       269   06 Jun 2027 14:26:16.001   06 Jun 2027 14:27:59.956           103.955               Magadan1         12994.375
       270   06 Jun 2027 14:29:35.540   06 Jun 2027 14:31:08.728            93.188               Magadan1         11648.500
       271   06 Jun 2027 16:50:51.211   06 Jun 2027 16:54:24.394           213.183            RioGallegos         26647.875
       272   06 Jun 2027 16:55:42.064   06 Jun 2027 16:56:59.738            77.674            RioGallegos          9709.250
       273   06 Jun 2027 17:35:50.541   06 Jun 2027 17:36:03.063            12.522                Norilsk          1565.250
       274   06 Jun 2027 17:41:25.288   06 Jun 2027 17:42:02.792            37.504                Irkutsk          4688.000
       275   06 Jun 2027 17:44:23.401   06 Jun 2027 17:44:51.703            28.302                Irkutsk          3537.750
       276   06 Jun 2027 17:55:37.096   06 Jun 2027 17:59:37.924           240.828                Sumatra         30103.500
       277   06 Jun 2027 19:22:22.229   06 Jun 2027 19:25:27.878           185.649                  Delhi         23206.125
       278   06 Jun 2027 19:29:42.241   06 Jun 2027 19:30:33.020            50.779                  Delhi          6347.375
       279   06 Jun 2027 20:49:26.414   06 Jun 2027 20:51:31.416           125.002              Murmansk1         15625.250
       280   06 Jun 2027 22:56:41.763   06 Jun 2027 22:58:13.446            91.683               CapeTown         11460.375
       281   07 Jun 2027 03:09:06.240   07 Jun 2027 03:10:38.547            92.307                Anadyr2         11538.375
       282   07 Jun 2027 04:42:09.069   07 Jun 2027 04:42:17.058             7.989                Irkutsk           998.625
       283   07 Jun 2027 04:42:33.096   07 Jun 2027 04:42:56.076            22.980                Norilsk          2872.500
       284   07 Jun 2027 04:43:10.941   07 Jun 2027 04:44:28.136            77.195               Magadan1          9649.375
       285   07 Jun 2027 04:44:54.694   07 Jun 2027 04:45:16.061            21.367                Norilsk          2670.875
       286   07 Jun 2027 04:45:26.448   07 Jun 2027 04:45:47.741            21.293                Novosib          2661.625
       287   07 Jun 2027 04:45:53.522   07 Jun 2027 04:46:19.366            25.844               Magadan2          3230.500
       288   07 Jun 2027 04:46:40.006   07 Jun 2027 04:47:16.543            36.537               Magadan1          4567.125
       289   07 Jun 2027 04:47:25.851   07 Jun 2027 04:48:26.798            60.947                Novosib          7618.375
       290   07 Jun 2027 05:22:15.648   07 Jun 2027 05:22:29.129            13.481            RioGallegos          1685.125
       291   07 Jun 2027 05:26:03.818   07 Jun 2027 05:26:32.201            28.383            RioGallegos          3547.875
       292   07 Jun 2027 05:58:04.565   07 Jun 2027 05:59:23.274            78.709                Sumatra          9838.625
       293   07 Jun 2027 06:18:47.202   07 Jun 2027 06:18:53.686             6.484                Novosib           810.500
       294   07 Jun 2027 06:19:07.328   07 Jun 2027 06:19:57.158            49.830                Irkutsk          6228.750
       295   07 Jun 2027 06:20:18.503   07 Jun 2027 06:22:29.853           131.350                Irkutsk         16418.750
       296   07 Jun 2027 06:23:11.853   07 Jun 2027 06:23:40.445            28.592              Murmansk1          3574.000
       297   07 Jun 2027 06:23:40.445   07 Jun 2027 06:24:07.010            26.565              Murmansk2          3320.625
       298   07 Jun 2027 06:24:34.870   07 Jun 2027 06:24:41.562             6.692              Murmansk2           836.500
       299   07 Jun 2027 07:33:42.107   07 Jun 2027 07:34:07.587            25.480                Sumatra          3185.000
       300   07 Jun 2027 07:36:57.251   07 Jun 2027 07:37:30.732            33.481                Sumatra          4185.125
       301   07 Jun 2027 07:42:51.328   07 Jun 2027 07:44:22.216            90.888                  Delhi         11361.000
       302   07 Jun 2027 07:56:20.444   07 Jun 2027 07:56:53.571            33.127                 Moscow          4140.875
       303   07 Jun 2027 07:57:08.865   07 Jun 2027 07:57:15.009             6.144                 Moscow           768.000
       304   07 Jun 2027 07:57:19.502   07 Jun 2027 07:57:53.951            34.449                Irkutsk          4306.125
       305   07 Jun 2027 07:57:56.614   07 Jun 2027 07:58:17.906            21.292                Novosib          2661.500
       306   07 Jun 2027 07:58:23.828   07 Jun 2027 07:58:42.418            18.590              Murmansk2          2323.750
       307   07 Jun 2027 07:58:44.749   07 Jun 2027 07:58:49.335             4.586                Novosib           573.250
       308   07 Jun 2027 07:58:59.695   07 Jun 2027 07:59:40.834            41.139                 Moscow          5142.375
       309   07 Jun 2027 08:00:11.409   07 Jun 2027 08:00:45.663            34.254              Murmansk1          4281.750
       310   07 Jun 2027 09:18:43.094   07 Jun 2027 09:19:28.081            44.987                  Delhi          5623.375
       311   07 Jun 2027 09:31:11.078   07 Jun 2027 09:31:43.512            32.434                Novosib          4054.250
       312   07 Jun 2027 09:32:05.457   07 Jun 2027 09:33:37.177            91.720                Novosib         11465.000
       313   07 Jun 2027 09:33:48.041   07 Jun 2027 09:34:41.554            53.513              Murmansk2          6689.125
       314   07 Jun 2027 09:34:51.808   07 Jun 2027 09:35:19.788            27.980                Norilsk          3497.500
       315   07 Jun 2027 09:35:59.178   07 Jun 2027 09:36:01.592             2.414                Norilsk           301.750
       316   07 Jun 2027 09:36:19.560   07 Jun 2027 09:36:34.222            14.662              Murmansk2          1832.750
       317   07 Jun 2027 11:21:13.941   07 Jun 2027 11:26:31.922           317.981                Anadyr1         39747.625
       318   07 Jun 2027 14:34:23.354   07 Jun 2027 14:38:17.302           233.948               Magadan1         29243.500
       319   07 Jun 2027 14:38:49.517   07 Jun 2027 14:41:01.025           131.508               Magadan1         16438.500
       320   07 Jun 2027 14:41:52.602   07 Jun 2027 14:43:08.827            76.225               Magadan1          9528.125
       321   07 Jun 2027 17:03:52.831   07 Jun 2027 17:08:57.257           304.426            RioGallegos         38053.250
       322   07 Jun 2027 17:47:40.278   07 Jun 2027 17:49:48.445           128.167                Norilsk         16020.875
       323   07 Jun 2027 18:09:09.082   07 Jun 2027 18:10:34.016            84.934                Sumatra         10616.750
       324   07 Jun 2027 19:35:23.306   07 Jun 2027 19:39:20.627           237.321                  Delhi         29665.125
       325   07 Jun 2027 21:00:32.096   07 Jun 2027 21:03:55.313           203.217              Murmansk1         25402.125
       326   07 Jun 2027 21:06:03.517   07 Jun 2027 21:07:14.334            70.817                 Moscow          8852.125
       327   07 Jun 2027 23:09:26.940   07 Jun 2027 23:10:20.400            53.460               CapeTown          6682.500
       328   08 Jun 2027 03:21:01.415   08 Jun 2027 03:21:33.600            32.185               Magadan1          4023.125
       329   08 Jun 2027 03:22:23.976   08 Jun 2027 03:22:38.135            14.159                Anadyr1          1769.875
       330   08 Jun 2027 03:23:40.608   08 Jun 2027 03:23:47.306             6.698                Anadyr2           837.250
       331   08 Jun 2027 04:55:07.935   08 Jun 2027 04:56:08.754            60.819               Magadan1          7602.375
       332   08 Jun 2027 04:56:08.754   08 Jun 2027 04:56:28.731            19.977               Magadan2          2497.125
       333   08 Jun 2027 04:56:59.293   08 Jun 2027 04:57:53.439            54.146               Magadan1          6768.250
       334   08 Jun 2027 04:57:53.439   08 Jun 2027 04:58:13.844            20.405               Magadan2          2550.625
       335   08 Jun 2027 04:58:18.984   08 Jun 2027 04:58:37.993            19.009                Irkutsk          2376.125
       336   08 Jun 2027 04:59:00.097   08 Jun 2027 04:59:21.158            21.061              Murmansk2          2632.625
       337   08 Jun 2027 04:59:30.888   08 Jun 2027 05:00:13.738            42.850                Novosib          5356.250
       338   08 Jun 2027 05:01:19.694   08 Jun 2027 05:01:41.910            22.216                Norilsk          2777.000
       339   08 Jun 2027 05:34:14.040   08 Jun 2027 05:34:51.012            36.972            RioGallegos          4621.500
       340   08 Jun 2027 05:36:45.399   08 Jun 2027 05:37:31.816            46.417            RioGallegos          5802.125
       341   08 Jun 2027 06:09:41.614   08 Jun 2027 06:11:25.133           103.519                Sumatra         12939.875
       342   08 Jun 2027 06:31:06.723   08 Jun 2027 06:32:02.578            55.855                Novosib          6981.875
       343   08 Jun 2027 06:32:11.422   08 Jun 2027 06:32:31.307            19.885              Murmansk1          2485.625
       344   08 Jun 2027 06:32:47.440   08 Jun 2027 06:33:51.433            63.993                Norilsk          7999.125
       345   08 Jun 2027 06:34:17.657   08 Jun 2027 06:35:30.578            72.921                Irkutsk          9115.125
       346   08 Jun 2027 06:35:42.081   08 Jun 2027 06:36:36.230            54.149              Murmansk2          6768.625
       347   08 Jun 2027 07:53:27.555   08 Jun 2027 07:53:57.949            30.394                  Delhi          3799.250
       348   08 Jun 2027 07:55:24.591   08 Jun 2027 07:56:29.868            65.277                  Delhi          8159.625
       349   08 Jun 2027 08:07:57.642   08 Jun 2027 08:08:15.927            18.285                 Moscow          2285.625
       350   08 Jun 2027 08:08:26.714   08 Jun 2027 08:08:47.031            20.317              Murmansk2          2539.625
       351   08 Jun 2027 08:09:04.616   08 Jun 2027 08:10:08.780            64.164                Norilsk          8020.500
       352   08 Jun 2027 08:10:16.098   08 Jun 2027 08:10:35.273            19.175              Murmansk2          2396.875
       353   08 Jun 2027 08:10:40.386   08 Jun 2027 08:11:39.883            59.497                Novosib          7437.125
       354   08 Jun 2027 09:31:29.535   08 Jun 2027 09:32:18.062            48.527                  Delhi          6065.875
       355   08 Jun 2027 09:43:02.620   08 Jun 2027 09:43:51.473            48.853                 Moscow          6106.625
       356   08 Jun 2027 09:43:57.070   08 Jun 2027 09:44:50.574            53.504                Novosib          6688.000
       357   08 Jun 2027 09:45:07.703   08 Jun 2027 09:45:34.693            26.990                 Moscow          3373.750
       358   08 Jun 2027 09:45:40.257   08 Jun 2027 09:46:21.468            41.211              Murmansk2          5151.375
       359   08 Jun 2027 09:46:34.444   08 Jun 2027 09:47:07.278            32.834                 Moscow          4104.250
       360   08 Jun 2027 09:47:10.078   08 Jun 2027 09:47:17.108             7.030                Norilsk           878.750
       361   08 Jun 2027 09:47:23.690   08 Jun 2027 09:47:52.339            28.649                Norilsk          3581.125
       362   08 Jun 2027 09:48:09.662   08 Jun 2027 09:49:22.264            72.602                 Moscow          9075.250
       363   08 Jun 2027 10:55:08.023   08 Jun 2027 10:56:48.282           100.259               CapeTown         12532.375
       364   08 Jun 2027 11:32:53.161   08 Jun 2027 11:36:46.883           233.722                Anadyr2         29215.250
       365   08 Jun 2027 11:38:45.937   08 Jun 2027 11:39:30.531            44.594                Anadyr2          5574.250
       366   08 Jun 2027 14:46:18.056   08 Jun 2027 14:48:24.035           125.979               Magadan1         15747.375
       367   08 Jun 2027 14:51:32.158   08 Jun 2027 14:51:48.833            16.675               Magadan2          2084.375
       368   08 Jun 2027 14:55:01.346   08 Jun 2027 14:57:34.059           152.713               Magadan1         19089.125
       369   08 Jun 2027 17:17:26.566   08 Jun 2027 17:20:18.875           172.309            RioGallegos         21538.625
       370   08 Jun 2027 18:04:14.276   08 Jun 2027 18:07:59.201           224.925                Novosib         28115.625
       371   08 Jun 2027 18:10:22.963   08 Jun 2027 18:11:13.531            50.568                Irkutsk          6321.000
       372   08 Jun 2027 19:49:35.204   08 Jun 2027 19:51:57.598           142.394                  Delhi         17799.250
       373   08 Jun 2027 21:13:10.331   08 Jun 2027 21:14:25.688            75.357              Murmansk2          9419.625
       374   08 Jun 2027 21:15:56.828   08 Jun 2027 21:17:53.659           116.831              Murmansk1         14603.875
       375   08 Jun 2027 21:19:13.875   08 Jun 2027 21:20:09.299            55.424                 Moscow          6928.000
       376   08 Jun 2027 21:22:15.258   08 Jun 2027 21:22:42.204            26.946                 Moscow          3368.250
       377   09 Jun 2027 03:31:58.070   09 Jun 2027 03:32:25.194            27.124               Magadan2          3390.500
       378   09 Jun 2027 03:32:29.300   09 Jun 2027 03:32:36.118             6.818                Anadyr1           852.250
       379   09 Jun 2027 03:32:49.563   09 Jun 2027 03:33:47.520            57.957                Anadyr2          7244.625
       380   09 Jun 2027 03:34:38.768   09 Jun 2027 03:35:09.640            30.872               Magadan1          3859.000
       381   09 Jun 2027 05:06:34.651   09 Jun 2027 05:08:15.680           101.029                Irkutsk         12628.625
       382   09 Jun 2027 05:08:51.789   09 Jun 2027 05:10:26.259            94.470                Irkutsk         11808.750
       383   09 Jun 2027 05:10:44.453   09 Jun 2027 05:10:53.561             9.108               Magadan2          1138.500
       384   09 Jun 2027 05:11:08.336   09 Jun 2027 05:11:45.739            37.403              Murmansk1          4675.375
       385   09 Jun 2027 05:11:46.196   09 Jun 2027 05:12:19.476            33.280                Norilsk          4160.000
       386   09 Jun 2027 05:46:15.706   09 Jun 2027 05:47:17.946            62.240            RioGallegos          7780.000
       387   09 Jun 2027 06:21:25.909   09 Jun 2027 06:21:30.044             4.135                Sumatra           516.875
       388   09 Jun 2027 06:24:06.272   09 Jun 2027 06:24:32.674            26.402                Sumatra          3300.250
       389   09 Jun 2027 06:33:25.706   09 Jun 2027 06:33:50.696            24.990                  Delhi          3123.750
       390   09 Jun 2027 06:36:26.138   09 Jun 2027 06:36:54.033            27.895                  Delhi          3486.875
       391   09 Jun 2027 06:42:56.917   09 Jun 2027 06:43:40.404            43.487                Norilsk          5435.875
       392   09 Jun 2027 06:43:51.432   09 Jun 2027 06:44:17.300            25.868                Norilsk          3233.500
       393   09 Jun 2027 06:44:18.217   09 Jun 2027 06:44:29.237            11.020              Murmansk2          1377.500
       394   09 Jun 2027 06:44:38.478   09 Jun 2027 06:45:12.545            34.067                Irkutsk          4258.375
       395   09 Jun 2027 06:45:25.503   09 Jun 2027 06:46:10.210            44.707              Murmansk2          5588.375
       396   09 Jun 2027 06:46:13.502   09 Jun 2027 06:47:09.379            55.877              Murmansk2          6984.625
       397   09 Jun 2027 07:58:54.829   09 Jun 2027 07:59:06.188            11.359                Sumatra          1419.875
       398   09 Jun 2027 08:05:22.756   09 Jun 2027 08:06:34.944            72.188                  Delhi          9023.500
       399   09 Jun 2027 08:20:06.256   09 Jun 2027 08:20:58.343            52.087                 Moscow          6510.875
       400   09 Jun 2027 08:21:13.524   09 Jun 2027 08:21:35.314            21.790                Irkutsk          2723.750
       401   09 Jun 2027 08:21:36.233   09 Jun 2027 08:22:00.020            23.787              Murmansk1          2973.375
       402   09 Jun 2027 08:22:09.420   09 Jun 2027 08:22:51.379            41.959              Murmansk2          5244.875
       403   09 Jun 2027 08:23:03.724   09 Jun 2027 08:23:48.071            44.347                 Moscow          5543.375
       404   09 Jun 2027 09:44:35.981   09 Jun 2027 09:45:16.998            41.017                  Delhi          5127.125
       405   09 Jun 2027 09:53:02.420   09 Jun 2027 09:54:46.316           103.896                 Moscow         12987.000
       406   09 Jun 2027 09:54:52.262   09 Jun 2027 09:55:03.729            11.467                Novosib          1433.375
       407   09 Jun 2027 09:55:14.660   09 Jun 2027 09:56:09.150            54.490              Murmansk2          6811.250
       408   09 Jun 2027 09:56:10.563   09 Jun 2027 09:56:33.182            22.619              Murmansk1          2827.375
       409   09 Jun 2027 09:56:40.435   09 Jun 2027 09:56:56.755            16.320              Murmansk2          2040.000
       410   09 Jun 2027 09:57:02.618   09 Jun 2027 09:57:35.849            33.231                 Moscow          4153.875
       411   09 Jun 2027 09:57:47.403   09 Jun 2027 09:58:31.785            44.382              Murmansk2          5547.750
       412   09 Jun 2027 09:58:38.422   09 Jun 2027 09:58:54.036            15.614                 Moscow          1951.750
       413   09 Jun 2027 09:59:09.503   09 Jun 2027 09:59:34.424            24.921                Norilsk          3115.125
       414   09 Jun 2027 09:59:44.757   09 Jun 2027 10:00:41.907            57.150                Norilsk          7143.750
       415   09 Jun 2027 10:01:06.537   09 Jun 2027 10:01:18.906            12.369                 Moscow          1546.125
       416   09 Jun 2027 11:05:49.020   09 Jun 2027 11:08:28.632           159.612               CapeTown         19951.500
       417   09 Jun 2027 11:12:29.415   09 Jun 2027 11:12:55.362            25.947               CapeTown          3243.375
       418   09 Jun 2027 11:44:39.284   09 Jun 2027 11:48:42.359           243.075                Anadyr1         30384.375
       419   09 Jun 2027 13:24:30.954   09 Jun 2027 13:26:30.688           119.734               Magadan1         14966.750
       420   09 Jun 2027 15:00:00.670   09 Jun 2027 15:00:02.622             1.952               Magadan2           244.000
       421   09 Jun 2027 18:15:21.123   09 Jun 2027 18:21:26.527           365.404                Novosib         45675.500
       422   09 Jun 2027 20:02:43.284   09 Jun 2027 20:03:17.569            34.285                  Delhi          4285.625
       423   09 Jun 2027 21:24:54.221   09 Jun 2027 21:25:38.779            44.558              Murmansk2          5569.750
       424   09 Jun 2027 21:26:20.450   09 Jun 2027 21:29:11.455           171.005              Murmansk1         21375.625
       425   09 Jun 2027 21:29:31.806   09 Jun 2027 21:31:05.321            93.515              Murmansk2         11689.375
       426   09 Jun 2027 21:31:13.307   09 Jun 2027 21:35:47.495           274.188                 Moscow         34273.500
       427   10 Jun 2027 03:42:17.192   10 Jun 2027 03:42:32.460            15.268                Anadyr2          1908.500
       428   10 Jun 2027 03:42:35.649   10 Jun 2027 03:43:55.704            80.055               Magadan1         10006.875
       429   10 Jun 2027 03:44:07.333   10 Jun 2027 03:44:11.334             4.001               Magadan1           500.125
       430   10 Jun 2027 03:44:22.766   10 Jun 2027 03:44:30.540             7.774                Anadyr2           971.750
       431   10 Jun 2027 03:44:35.128   10 Jun 2027 03:45:04.931            29.803               Magadan2          3725.375
       432   10 Jun 2027 03:45:28.351   10 Jun 2027 03:45:59.993            31.642               Magadan1          3955.250
       433   10 Jun 2027 03:45:59.993   10 Jun 2027 03:47:16.733            76.740               Magadan2          9592.500
       434   10 Jun 2027 05:18:20.913   10 Jun 2027 05:18:44.585            23.672               Magadan1          2959.000
       435   10 Jun 2027 05:18:58.153   10 Jun 2027 05:19:54.178            56.025               Magadan1          7003.125
       436   10 Jun 2027 05:20:02.470   10 Jun 2027 05:20:11.801             9.331               Magadan1          1166.375
       437   10 Jun 2027 05:20:28.469   10 Jun 2027 05:21:00.305            31.836               Magadan2          3979.500
       438   10 Jun 2027 05:21:01.711   10 Jun 2027 05:21:12.070            10.359                Novosib          1294.875
       439   10 Jun 2027 05:21:25.711   10 Jun 2027 05:21:46.019            20.308                Novosib          2538.500
       440   10 Jun 2027 05:22:02.528   10 Jun 2027 05:22:43.058            40.530               Magadan1          5066.250
       441   10 Jun 2027 05:23:07.222   10 Jun 2027 05:23:36.890            29.668                Irkutsk          3708.500
       442   10 Jun 2027 05:23:41.307   10 Jun 2027 05:24:45.561            64.254              Murmansk2          8031.750
       443   10 Jun 2027 05:25:30.586   10 Jun 2027 05:25:44.225            13.639                Norilsk          1704.875
       444   10 Jun 2027 05:26:31.308   10 Jun 2027 05:26:51.869            20.561                Norilsk          2570.125
       445   10 Jun 2027 05:58:20.762   10 Jun 2027 05:58:42.046            21.284            RioGallegos          2660.500
       446   10 Jun 2027 06:02:21.678   10 Jun 2027 06:02:39.629            17.951            RioGallegos          2243.875
       447   10 Jun 2027 06:33:16.471   10 Jun 2027 06:34:02.880            46.409                Sumatra          5801.125
       448   10 Jun 2027 06:44:22.269   10 Jun 2027 06:46:02.485           100.216                  Delhi         12527.000
       449   10 Jun 2027 06:55:11.150   10 Jun 2027 06:56:13.549            62.399                Irkutsk          7799.875
       450   10 Jun 2027 06:56:54.095   10 Jun 2027 06:57:13.544            19.449                Irkutsk          2431.125
       451   10 Jun 2027 06:57:20.211   10 Jun 2027 06:57:32.729            12.518              Murmansk2          1564.750
       452   10 Jun 2027 06:57:45.640   10 Jun 2027 06:58:59.971            74.331              Murmansk1          9291.375
       453   10 Jun 2027 06:59:31.867   10 Jun 2027 07:00:01.181            29.314                Novosib          3664.250
       454   10 Jun 2027 08:17:23.239   10 Jun 2027 08:18:32.451            69.212                  Delhi          8651.500
       455   10 Jun 2027 08:31:41.476   10 Jun 2027 08:31:48.927             7.451                Norilsk           931.375
       456   10 Jun 2027 08:31:52.886   10 Jun 2027 08:32:06.577            13.691                Irkutsk          1711.375
       457   10 Jun 2027 08:32:09.237   10 Jun 2027 08:33:07.080            57.843                Norilsk          7230.375
       458   10 Jun 2027 08:33:21.845   10 Jun 2027 08:33:46.293            24.448                Novosib          3056.000
       459   10 Jun 2027 08:33:55.241   10 Jun 2027 08:34:39.781            44.540                Norilsk          5567.500
       460   10 Jun 2027 08:34:50.998   10 Jun 2027 08:35:24.669            33.671                Norilsk          4208.875
       461   10 Jun 2027 08:36:08.731   10 Jun 2027 08:37:18.345            69.614                 Moscow          8701.750
       462   10 Jun 2027 10:04:52.675   10 Jun 2027 10:05:45.373            52.698                 Moscow          6587.250
       463   10 Jun 2027 10:05:59.328   10 Jun 2027 10:07:11.238            71.910              Murmansk1          8988.750
       464   10 Jun 2027 10:07:23.578   10 Jun 2027 10:07:32.075             8.497                 Moscow          1062.125
       465   10 Jun 2027 10:07:41.110   10 Jun 2027 10:08:50.532            69.422                Novosib          8677.750
       466   10 Jun 2027 10:09:06.495   10 Jun 2027 10:09:39.073            32.578                Norilsk          4072.250
       467   10 Jun 2027 10:09:53.181   10 Jun 2027 10:11:00.356            67.175              Murmansk2          8396.875
       468   10 Jun 2027 10:11:00.665   10 Jun 2027 10:11:24.115            23.450                 Moscow          2931.250
       469   10 Jun 2027 10:11:37.785   10 Jun 2027 10:12:22.076            44.291                 Moscow          5536.375
       470   10 Jun 2027 11:17:03.419   10 Jun 2027 11:20:14.371           190.952               CapeTown         23869.000
       471   10 Jun 2027 11:22:22.138   10 Jun 2027 11:24:27.881           125.743               CapeTown         15717.875
       472   10 Jun 2027 11:56:29.467   10 Jun 2027 11:57:33.822            64.355                Anadyr1          8044.375
       473   10 Jun 2027 11:57:52.736   10 Jun 2027 12:01:25.463           212.727                Anadyr2         26590.875
       474   10 Jun 2027 13:35:49.099   10 Jun 2027 13:38:29.617           160.518               Magadan1         20064.750
       475   10 Jun 2027 16:52:05.750   10 Jun 2027 16:57:04.153           298.403                Irkutsk         37300.375
       476   10 Jun 2027 18:26:50.539   10 Jun 2027 18:34:28.211           457.672                Novosib         57209.000
       477   10 Jun 2027 21:36:22.150   10 Jun 2027 21:37:18.646            56.496              Murmansk2          7062.000
       478   10 Jun 2027 21:39:04.807   10 Jun 2027 21:41:28.212           143.405              Murmansk1         17925.625
       479   10 Jun 2027 21:41:41.925   10 Jun 2027 21:46:30.328           288.403                 Moscow         36050.375
       480   10 Jun 2027 22:08:31.050   10 Jun 2027 22:09:23.710            52.660               CapeTown          6582.500
       481   10 Jun 2027 22:10:19.974   10 Jun 2027 22:12:21.470           121.496               CapeTown         15187.000
       482   11 Jun 2027 03:55:29.549   11 Jun 2027 03:55:51.429            21.880               Magadan2          2735.000
